x y z curv
0.12580884167239353 0.06299999915063381 1.0272403991894086 0.18343394123195633
0.22346762065798703 0.06299999915063381 0.786229385745657 0.17834071641270255
0.1986705195765215 0.06299999915063381 0.27008332877264923 0.1672410221889588
0.13704381606610055 0.06299999915063381 0.29147420519095685 0.1704430285439592
0.18713118787515298 0.06299999915063381 0.7881562803591654 0.1746031869011877
0.1396620375124351 0.06299999915063381 0.8598359826803744 0.1541420567986098
0.17531041373333403 0.06299999915063381 1.6630704136859378 0.16636423122875538
0.22233656845377767 0.06299999915063381 1.046162780750614 0.14173940404491894
0.3627546138745751 0.06299999915063381 0.22596606171281164 0.16473552068351188
0.14836129010151378 0.06299999915063381 0.22969998027642582 0.15573957745126413
0.41874066503130386 0.06299999915063381 0.15086214962827743 0.1620089276112506
0.3128184240724697 0.06299999915063381 0.44287720531781444 0.1788550233623392
0.12104009068308091 0.06299999915063381 0.37017909452910497 0.19681259428323994
0.2501799979263073 0.06299999915063381 0.9836272422150375 0.1568128163276374
0.1413646920980454 0.06299999915063381 0.2693102559998662 0.16100543468419498
0.3053566183032484 0.06299999915063381 0.2682501279122204 0.16897274172962518
0.15932831182399543 0.06299999915063381 0.12991252879877468 0.15430406632805874
0.2653565706193724 0.06299999915063381 0.3824029346474719 0.15936819068490737
0.21416246384375695 0.06299999915063381 0.27650820109403174 0.15928293394808365
0.18835571637008047 0.06299999915063381 1.226926876770723 0.17214876801083817
0.2586396045561186 0.06299999915063381 0.49931759069838866 0.15890949316066663
0.22483475556378954 0.06299999915063381 1.0623439296696906 0.15619594959937932
0.3590516820179582 0.06299999915063381 0.7299501463602704 0.15617212150981116
0.29237400458878493 0.06299999915063381 0.5431616935463326 0.1644768428560271
0.19580319631565246 0.06299999915063381 0.34535420489139396 0.1603637618196356
0.12419738192528716 0.06299999915063381 1.6841734311816603 0.19853530965951122
0.19017407064074612 0.06299999915063381 1.0279137151397575 0.15687024513931805
0.1352594667109499 0.06299999915063381 0.35720421225971033 0.1627411590900937
0.3843726609091009 0.06299999915063381 0.17508099967147922 0.1759866189680786
0.11589214687076455 0.06299999915063381 1.0348223512778056 0.2006322197379553
0.26236562749193204 0.06299999915063381 0.3721161921403961 0.16516834461106047
0.22905580729733307 0.06299999915063381 0.305328014490724 0.1325256037067804
0.21941582200591528 0.06299999915063381 1.3016994434044251 0.18918644875302318
0.45446584284443975 0.06299999915063381 0.2179010818137227 0.14834054078979797
0.4347083571450542 0.06299999915063381 0.16211377356453463 0.15430110268099942
0.24722046478740275 0.06299999915063381 1.124244715169036 0.18798554102158208
0.13645028269860845 0.06299999915063381 1.8456405643667133 0.15299788981909174
0.3809783977967999 0.06299999915063381 0.3051812161195501 0.15652972558105496
0.1920898492612078 0.06299999915063381 0.39229241619187005 0.1667399889257371
0.19245288492656776 0.06299999915063381 0.4365455652757785 0.13802290058785838
0.39167555768375795 0.06299999915063381 0.22127797332462185 0.1634778199523388
0.35999137474961124 0.06299999915063381 0.09895936921105344 0.16036315494913989
0.11960292665915695 0.06299999915063381 1.3430075489495936 0.18783586666428218
0.19147673017822198 0.06299999915063381 1.2940989054812124 0.18150861476642924
0.2011449464468899 0.06299999915063381 0.9802151064097021 0.14229330467227647
0.2936082149777897 0.06299999915063381 0.5975277820859914 0.15206134801641416
0.2561020860190638 0.06299999915063381 0.4892950416430437 0.1619304251032423
0.16773570527309456 0.06299999915063381 0.34996078454011675 0.1683888300096027
0.4157173645211534 0.06299999915063383 0.07599877906378108 0.19233201721163273
0.3462046996176053 0.06299999915063381 0.43711721351646804 0.16379601146197065
0.19029693891836222 0.06299999915063381 0.5984083668436462 0.1463692387888689
0.1955794485066443 0.06299999915063381 1.1027094258534753 0.1706386581467849
0.3880931220256169 0.06299999915063381 0.487465668815112 0.1743083162938808
0.11934925702027824 0.06299999915063381 0.1492558898962561 0.19178308762120008
0.1695938464747684 0.06299999915063381 0.9147864867982525 0.1650314279726386
0.15052490538052354 0.06299999915063381 0.7862177247741792 0.180543482466105
0.29664646367909847 0.06299999915063381 0.7776517742668483 0.1507936869938042
0.23122861792519098 0.06299999915063381 0.7968172562461614 0.1670774889096639
0.4492628748634436 0.06299999915063381 0.23668765692496246 0.1573292257940387
0.14178027425745163 0.06299999915063381 1.828140638693426 0.15217677765908677
0.23973278571831777 0.06299999915063381 1.0423591395416953 0.15081015045786983
0.261784047875319 0.06299999915063381 0.20402257966869194 0.16751212117836284
0.15150613810512648 0.06299999915063381 0.14698399245814125 0.17443795633999046
0.42620443428731697 0.06299999915063381 0.3004819280522728 0.15655286239024468
0.40716172125112865 0.06299999915063381 0.10739657911789617 0.16806864358330484
0.20611698382862537 0.06299999915063383 0.8842458256654036 0.15898611665070894
0.3523270343025372 0.06299999915063381 0.5280103692037343 0.1651234700212785
0.2133876719740701 0.06299999915063381 1.1288208621413005 0.15746197179157775
0.33292831660605 0.06299999915063381 0.3696493590046997 0.1624297310842753
0.1342486714340136 0.06299999915063381 0.6096513209960223 0.17658303430166547
0.3389168650534583 0.06299999915063381 0.42091761518177706 0.16683847544479738
0.25129986513920666 0.06299999915063381 0.22236138578042836 0.1513069296556862
0.33896265519482 0.06299999915063381 0.5505718269553133 0.153852400701575
0.3801845989407682 0.06299999915063381 0.3903817942307372 0.1559113332183506
0.20167536443661088 0.06299999915063381 1.087960187068704 0.1566976235043765
0.2716596858065582 0.06299999915063381 0.6617493713813295 0.1613364369637437
0.15851023464325817 0.06299999915063381 1.733183172266218 0.1581282170252595
0.3119772398857518 0.06299999915063381 0.7171604494122084 0.1611867560606673
0.18828377716054623 0.06299999915063381 0.3805599658613944 0.15613155251285685
0.3016495658236878 0.06299999915063381 0.7966446471624188 0.1680384931167486
0.2207701290257561 0.06299999915063381 1.1436020372750022 0.16524930631214657
0.13920259038847477 0.06299999915063381 1.2699218055969899 0.1653127910481908
0.34466288409318624 0.06299999915063381 0.18680726432397032 0.17990691930147093
0.43468674006891067 0.06299999915063381 0.22717871135450082 0.1562474707882211
0.43882170407553034 0.06299999915063381 0.14929113952054898 0.17450841885814866
0.1700745561002182 0.06299999915063381 0.3042836689984076 0.17701608972319954
0.2010006202285022 0.06299999915063381 0.25833423979166176 0.16965842722257463
0.17129994529174505 0.06299999915063381 1.1535506832658922 0.16865121782513248
0.24030322230618745 0.06299999915063381 1.360590686321641 0.16223438556060576
0.14220978346496882 0.06299999915063381 0.5076506543921707 0.18118903369811704
0.30750607953218945 0.06299999915063381 0.2914543940799085 0.1664762533577674
0.2928093993515048 0.06299999915063381 0.22881396086372624 0.17586019710747897
0.24540857460333673 0.06299999915063381 0.37688191529449916 0.1569570853855562
0.15110864684445996 0.06299999915063381 0.5298372890341593 0.15063933586640618
0.12512252828727397 0.06299999915063381 1.446138938277703 0.18685187824404406
0.32226959055199983 0.06299999915063381 0.2547041938482097 0.17511668508315878
0.29230310131282233 0.06299999915063381 0.7387581016360624 0.1504601306778258
0.13794780756753086 0.06299999915063381 0.4946503793244431 0.1728947444837711
0.23946114357253673 0.06299999915063381 0.19748416378248868 0.16842946903747424
0.20725426293699967 0.06299999915063381 0.9250312341583073 0.16371650089389733
0.3859890964045856 0.06299999915063381 0.2064719509675189 0.16139662822744907
0.2815212990992637 0.06299999915063381 0.36529918310631804 0.1547804161547035
0.1718677768231715 0.06299999915063381 0.4162701276508309 0.15094252274795508
0.2583779409078566 0.06299999915063381 0.9293087147475451 0.18279431880045124
0.3933292224599584 0.06299999915063381 0.15469632209958806 0.17221630839217247
0.28583198758976025 0.06299999915063381 0.8866671933325805 0.15885763216280055
0.33783664592430696 0.06299999915063381 0.09282139702087056 0.16833910489385856
0.25842804454963547 0.06299999915063381 0.471225275283698 0.16430303679066258
0.19912827819681878 0.06299999915063381 1.4883158104162897 0.16909270094061504
0.2804034537349782 0.06299999915063381 0.2681476799112574 0.17466649180390192
0.17883998154212338 0.06299999915063381 1.3953290234005646 0.15241442848427
0.13439641016661752 0.06299999915063381 0.81499851014929 0.14420502623351
0.1817965131147171 0.06299999915063381 1.2126953421124416 0.17336531550767859
0.3118481950700265 0.06299999915063381 0.24597944210709485 0.1735866766558738
0.2400215183370246 0.06299999915063381 0.1734368136754715 0.17010965422416727
0.3480323757344933 0.06299999915063381 0.7956537618261058 0.15833273807228868
0.3182780225249726 0.06299999915063381 0.8510384831529847 0.15854772337122552
0.3631676218136286 0.0629999991506338 0.3661941297780077 0.1541704987919732
0.20609256460951328 0.06299999915063381 0.9586147832935894 0.1688065373911444
0.36972766841232285 0.06299999915063381 0.40170822155015745 0.165328747702982
0.15976894727615432 0.06299999915063381 0.4742344903796971 0.1590054312797197
0.23692668308522785 0.06299999915063381 0.6587203635786305 0.16039327122410632
0.13031055791429283 0.06299999915063381 1.5480980748677986 0.17560351733511853
0.19381774228185242 0.06299999915063381 0.6112064691977444 0.15323324732895757
0.20832092084069045 0.06299999915063381 0.14634996183636423 0.1805398071334112
0.27313194526301693 0.06299999915063381 0.9322742988126972 0.16219273563413875
0.36743716430957224 0.06299999915063381 0.23648231738548903 0.15859745005882694
0.3552211324545429 0.06299999915063381 0.18106542668761677 0.16230711454144622
0.24264479630503583 0.06299999915063381 0.974054574790384 0.16063914656869832
0.1202051466326526 0.06299999915063381 1.8966543864018346 0.17607071602369312
0.2612331706648929 0.06299999915063381 0.8230490817218188 0.15911377768757676
0.1722489265526138 0.06299999915063381 0.8097121727396688 0.1682349065550319
0.17569208263460723 0.06299999915063381 1.641044411669084 0.15924836581745888
0.1294361043727959 0.06299999915063381 0.22752796920686724 0.17459304258110617
0.36382430243304786 0.06299999915063381 0.13399373468054807 0.16047481710842287
0.1613319944968128 0.06299999915063381 0.2306393849899054 0.16606631287123635
0.2600899249828278 0.06299999915063381 0.8671679480680242 0.17348303965419326
0.347425010020212 0.06299999915063381 0.3592712653016935 0.1731213974601051
0.17881376623528833 0.06299999915063381 0.3477436271315895 0.16661391593069386
0.30272523609919744 0.0629999991506338 1.0308132078255854 0.14925683778277407
0.3836879049103658 0.06299999915063381 0.09031529263143723 0.1925468340469644
0.13114444879117282 0.06299999915063381 0.08946515289890851 0.21933407022360607
0.2398567648226017 0.06299999915063381 0.9881936674853044 0.16479423787561084
0.1542387837766357 0.06299999915063381 1.031766690721407 0.16974454723963886
0.3706114259029444 0.06299999915063381 0.2916574079568443 0.15575577248640352
0.3979239979897264 0.06299999915063381 0.3845659788450354 0.1606419253303882
0.15196788861104862 0.06299999915063381 1.4528721949347687 0.16107896077042524
0.1255321233987689 0.06299999915063381 1.9352939585100553 0.1999587836579535
0.1395688459154783 0.06299999915063381 0.8266164699367575 0.152587075116367
0.18673157384945377 0.06299999915063381 1.4990651555351941 0.17393670379270565
0.12471568860951696 0.06299999915063381 1.1851976349087459 0.17708373066050986
0.2596719670612246 0.06299999915063381 0.0981598952868645 0.1563412502240581
0.3342208286041726 0.06299999915063381 0.7688316410154948 0.1624371884797175
0.2735122938490207 0.06299999915063381 1.0680019229380728 0.1695048590190935
0.2873082527576332 0.06299999915063381 0.561083907164667 0.1625622715426344
0.18128737023241767 0.06299999915063381 0.9491316571094792 0.17317937519341306
0.14254747247332736 0.06299999915063381 0.9434176886009852 0.16057768485665797
0.20181601001109747 0.06299999915063381 0.5484361453132583 0.16091760713079223
0.18361406549122702 0.06299999915063381 1.3136791177335576 0.1664711287788417
0.3071456815951519 0.06299999915063381 0.3360255919092545 0.17651750700511215
0.2853583774382677 0.06299999915063381 0.42458376004822446 0.18290032981521462
0.17002919009936382 0.06299999915063383 1.5347958257039687 0.17839719346075217
0.23369340286823048 0.06299999915063381 0.9237932317782198 0.1603966053820393
0.28265182449939275 0.06299999915063381 0.521709973744611 0.15034388334669657
0.2219525689685396 0.06299999915063381 0.4414638249571256 0.16374330816416835
0.18091379564035234 0.06299999915063381 0.8347354686885131 0.1664537967138829
0.28090844780970786 0.06299999915063381 0.5517916632877616 0.1524356993671087
0.11824318729067848 0.06299999915063381 0.7157492304470373 0.19677474815310922
0.25902823080343956 0.06299999915063381 1.1239324967907334 0.17205737560946818
0.3520810016758552 0.06299999915063381 0.38369943555301295 0.15609331574423707
0.28013199202802125 0.06299999915063381 0.5879129227844122 0.1571065809361641
0.32066227366133637 0.06299999915063381 0.8669199235064523 0.1713041848718079
0.2809800459016341 0.06299999915063381 1.0870403527827517 0.16611973641436245
0.29162412405077076 0.06299999915063381 0.4769001722008768 0.1474086419657622
0.30707351304826164 0.06299999915063381 0.394222237200723 0.18034003038208496
0.12624238902192214 0.06299999915063381 1.536931987271912 0.1924724173511312
0.16799401996493618 0.06299999915063381 0.7868103444171067 0.16879530589873623
0.13645212013339167 0.06299999915063381 1.6124666425616772 0.1726229226649075
0.16289179213168598 0.06299999915063381 0.5698437032285272 0.14883816242841746
0.3771089111519519 0.06299999915063381 0.47410101317714026 0.1683227735796776
0.17670437879627832 0.06299999915063381 1.4922607352889579 0.17744491971860205
0.15331783291087847 0.06299999915063381 0.6920059700340734 0.1617615660358863
0.1685958976708566 0.06299999915063381 0.20299805970744156 0.17681648953253312
0.22434664138948848 0.06299999915063381 0.6603076972148929 0.14957514350882917
0.19664721420778739 0.06299999915063381 1.5606628510983742 0.17277294014471317
0.15768288870868452 0.06299999915063381 1.125679852401851 0.14874839366165707
0.153443287674196 0.06299999915063381 1.0915591150775004 0.15524498834061254
0.1354570366897444 0.06299999915063381 0.6212522054424219 0.15810752100159925
0.25504217896750125 0.06299999915063381 0.9492423958278126 0.17318624056225132
0.24192768865686715 0.06299999915063381 1.1012977553486425 0.1632446282710265
0.1331227823702566 0.06299999915063381 1.0847362167530479 0.16681155707335119
0.31853579844880364 0.06299999915063381 0.7636580653805647 0.16338578463020675
0.23236805401803412 0.06299999915063381 0.4045065732177692 0.15154039778284026
0.11746470487580893 0.06299999915063383 1.2494395672523604 0.1934059231213899
0.3453714095389568 0.06299999915063381 0.5388096826339169 0.15286042334221014
0.1679997691567953 0.06299999915063381 1.3808762675595037 0.15284876977119358
0.13030708249624595 0.06299999915063381 0.1651808762780068 0.18067420626136635
0.3670855908293353 0.06299999915063381 0.6231741086702032 0.16146073671446792
0.11864983379300084 0.06299999915063381 1.7256448583626702 0.1908705431330867
0.2563334614148134 0.06299999915063381 0.13020890393604065 0.15993757687478286
0.23742913385820646 0.06299999915063381 1.333501915493256 0.19156720547530579
0.25500934056711616 0.06299999915063381 1.166304964853776 0.16339924879008955
0.23313244334214744 0.06299999915063381 1.1114965663360379 0.16610723103861963
0.2513303056002604 0.06299999915063381 0.7524308293516804 0.16620573100184713
0.18112475552425006 0.06299999915063381 0.6680476941948904 0.156982560774836
0.401754692427339 0.06299999915063381 0.14289289838194283 0.16513599942675858
0.33630692103693083 0.06299999915063381 0.6570632767584099 0.16742987462515882
0.21518152602365478 0.06299999915063381 0.10670118740245575 0.16081973548633063
0.2297728368764934 0.06299999915063381 1.1628553695397947 0.13631899444158568
0.35456254900653206 0.06299999915063381 0.2404251820263749 0.1723293222047066
0.14927413425232172 0.06299999915063381 0.8177407451042942 0.1465824616033126
0.3519602649462423 0.06299999915063381 0.6076978847982348 0.1584302997174602
0.3128013991028082 0.06299999915063381 0.9003574821976329 0.16147414491110973
0.2791032826934125 0.06299999915063381 0.19374403434587717 0.1525952286360871
0.14922995751470394 0.06299999915063381 1.2564908479059447 0.14768192005174857
0.12926059428720818 0.06299999915063381 1.6449227404236084 0.1720598760488426
0.3578557494308611 0.06299999915063381 0.6772667865667992 0.13937240212488236
0.13219776817233825 0.06299999915063381 0.6999352333102714 0.17785804230335944
0.19311659966877148 0.06299999915063381 0.17349268633354198 0.1627108857903648
0.3015300142262828 0.06299999915063381 0.9690166053662742 0.15154614044492246
0.23521462522468062 0.06299999915063381 0.2875474325587954 0.167874660167386
0.20045509035476422 0.06299999915063381 0.12306117167968589 0.16035756100450163
0.21958715521052438 0.0629999991506338 1.1807314984997568 0.1668371746765603
0.3726175452064587 0.06299999915063381 0.606316469218695 0.1591352129071575
0.3761692588734668 0.06299999915063381 0.41869920908107344 0.16420788082187743
0.18948301684584087 0.06299999915063381 0.9761599515324724 0.1562985534231883
0.13079361083190985 0.06299999915063381 1.7118271603493 0.17225499126517063
0.3014394298412978 0.06299999915063381 0.528010572192819 0.16084474026230183
0.17161072675061673 0.06299999915063381 0.26880559082136984 0.16006409289516146
0.4039564280747197 0.06299999915063381 0.3480714844593919 0.17935075736630773
0.33203141465516506 0.06299999915063381 0.12284069211306575 0.15110275987398178
0.12183033522080536 0.0629999991506338 1.7680892227825895 0.1907083712186648
0.34126992284083757 0.06299999915063381 0.4847237405258918 0.15893370909225088
0.14409468485531926 0.06299999915063383 1.2094834507678416 0.1666155168214729
0.30188265422407573 0.0629999991506338 0.6957936705707632 0.16080477059854192
0.2577034823867086 0.06299999915063381 0.4226847556978186 0.16617118374218162
0.1640261548956685 0.06299999915063381 0.22060303201558187 0.17604422909649417
0.35767383540109715 0.06299999915063381 0.39666356481873516 0.1709858526270966
0.2459035495015857 0.06299999915063381 0.6000574276696998 0.17300761559487354
0.2647417701994699 0.06299999915063381 0.640839117927925 0.1702222403751978
0.24056781521165263 0.06299999915063381 1.2037073768613247 0.1743378750714148
0.37907822439669864 0.06299999915063381 0.27150760452684297 0.16664094635039617
0.11394959795135655 0.06299999915063381 0.740221319260473 0.19414725261125265
0.2274410835550082 0.06299999915063381 0.18906865043603616 0.1718383840012325
0.2153045875279939 0.06299999915063381 0.9516006467290916 0.16806234993747654
0.17671638324853717 0.06299999915063381 0.9634100191307021 0.1709467212223017
0.25267700251462977 0.06299999915063381 0.7793350192547532 0.1686813655544553
0.16444216519076998 0.06299999915063383 1.2437282339077658 0.1479028314159206
0.13783709855807924 0.06299999915063381 0.7498484900258106 0.15234843919166194
0.3808549350790758 0.06299999915063381 0.585675623135312 0.1701543900857583
0.154435351077324 0.06299999915063381 1.7524709217847334 0.15057402633203684
0.12067233402245595 0.06299999915063381 1.3301617637726642 0.1907305395422851
0.12821818184050704 0.06299999915063381 0.43566778709503745 0.16887796171581657
0.12362823728808442 0.06299999915063381 0.935305191014222 0.2098876589391874
0.32872363258389997 0.06299999915063381 0.6266735970548637 0.1520991487968925
0.16167161093145613 0.06299999915063381 0.5187763141655025 0.1654728308533656
0.13807061377762697 0.06299999915063381 0.43321515485229567 0.15001980855610625
0.21612473573498525 0.06299999915063381 0.18138934708907242 0.1829265525188204
0.2797098971654659 0.06299999915063381 0.9206450782459454 0.17222922546376696
0.38312917170604993 0.06299999915063381 0.10572663782519036 0.16182752907148676
0.34187214224498647 0.06299999915063381 0.6670736757995567 0.16394585953387805
0.369959036332655 0.06299999915063381 0.4943761782630372 0.17037078117024934
0.17749901797246181 0.06299999915063381 0.6578101135993841 0.15618791252155798
0.31749971877012045 0.06299999915063381 0.3074852089154849 0.15799492617028918
0.374427259208818 0.06299999915063381 0.19214456449165193 0.18809136317888547
0.3396185859482381 0.06299999915063381 0.6327298622642712 0.15669236190907862
0.19546152267291989 0.06299999915063381 1.3815195455946878 0.16148376593402936
0.2480902897004428 0.06299999915063381 0.679406828343781 0.16858555099645958
0.23135921401170811 0.06299999915063381 0.1125004163186792 0.16823256859767144
0.19332966664068102 0.06299999915063381 1.0171363381057652 0.15768309124803281
0.12343317840500298 0.06299999915063381 0.1977729573254682 0.19637954108989703
0.37900889686981454 0.06299999915063381 0.6183137626035531 0.16685482005668556
0.27171391784409965 0.06299999915063381 0.44292667738132746 0.16974228543221428
0.23461813607181126 0.06299999915063381 0.8639889419770178 0.17004719786784164
0.1950181828748694 0.06299999915063381 0.4190376078543411 0.14988444186066988
0.2452490371169131 0.06299999915063381 0.3417565123747161 0.1602305595538536
0.358493391892263 0.06299999915063381 0.7139781398575886 0.17258378835221855
0.25411740051260695 0.06299999915063381 1.0843545860507275 0.15933740011916805
0.2570954416518535 0.06299999915063381 0.5315085989792429 0.15302133059283496
0.2575423995798028 0.06299999915063381 0.3242770401874705 0.16519954493281316
0.13581449500644766 0.06299999915063381 1.2165057935838417 0.1657355390253805
0.19489686360133693 0.06299999915063381 1.352753320452434 0.15305949797750565
0.3078356479367581 0.06299999915063381 0.43006696297434666 0.1632492439725244
0.4006396537989387 0.06299999915063381 0.45931891364744803 0.16376578101865347
0.14562171665244414 0.06299999915063381 1.3521515607040662 0.17216168185687872
0.4435134969124316 0.06299999915063381 0.2794234340483491 0.15580161913656126
0.18171555155411984 0.06299999915063381 0.3126720335340143 0.17369475060738718
0.362479860523193 0.06299999915063381 0.14451482175266556 0.16771176062720175
0.22312830676788897 0.06299999915063381 0.8486538029797782 0.16554165680650065
0.24425617119595602 0.06299999915063381 0.38787756340469454 0.1766079179146813
0.26906412456593437 0.06299999915063381 0.7661671029223966 0.16457835982523897
0.1638351710962353 0.06299999915063381 1.0098429004982472 0.16889228224480976
0.18821551949279272 0.06299999915063381 1.4776214036774613 0.17695952760830796
0.18380944036886232 0.06299999915063381 0.07661491432579443 0.19368396239373803
0.13026413429201383 0.06299999915063381 0.10043543156762627 0.19153054068468087
0.1650520857673243 0.06299999915063381 1.757695871353965 0.14619549308557447
0.41091145916178423 0.06299999915063381 0.35643650723045806 0.17951203014538344
0.341153040097129 0.06299999915063381 0.8131325789694085 0.17776452790242167
0.25806031308888655 0.06299999915063381 0.6720827087659451 0.15928509304844876
0.17916677557599003 0.06299999915063381 1.1426550382929626 0.15858804484248612
0.3337536456279397 0.06299999915063381 0.6130504431588617 0.16852286382992304
0.3205960606096405 0.06299999915063381 0.093841976571041 0.16057970274433142
0.36403683006572707 0.06299999915063381 0.1590586999277706 0.18551805875687705
0.2118092327652894 0.06299999915063381 1.42922193663876 0.15941542828962715
0.15245634180848144 0.06299999915063381 0.9354975830418624 0.16761543951875688
0.18901212905538878 0.06299999915063381 0.5259034607839097 0.18385721485856055
0.35246212924077336 0.06299999915063381 0.10566606857443671 0.17148656466568
0.1547708118627466 0.06299999915063381 0.408999009283632 0.15311195734661479
0.20357161070465457 0.06299999915063381 1.1584982588614388 0.17774233717374346
0.22550164630239952 0.06299999915063381 0.7766417089965402 0.1749219338620679
0.27835017773401494 0.06299999915063381 0.14539872077935478 0.16019564206899012
0.1370788304298568 0.06299999915063381 0.6533979579100029 0.1739817253618781
0.1548485198130162 0.06299999915063381 1.693050628434375 0.17817392376103927
0.26742112940376705 0.06299999915063381 0.46512609098243296 0.14260621228502018
0.17970928118454552 0.06299999915063381 1.406749509734658 0.16423026123779572
0.16263420325946917 0.06299999915063381 1.1778774455502818 0.1635947241542
0.1965786252861747 0.06299999915063381 1.510794039603877 0.16379680708401115
0.15289490712259834 0.06299999915063381 0.7492243605812008 0.1387071509800919
0.1265156114543618 0.06299999915063381 0.44674171467269913 0.1678345735981015
0.2508758004331123 0.06299999915063381 0.5768476356709309 0.1669082477782263
0.3382040338956837 0.06299999915063381 0.4631376253575075 0.17644158026120788
0.14623804036515403 0.06299999915063383 1.2913296606234457 0.16026099861405357
0.23081055257969496 0.06299999915063381 0.5133901083882706 0.16877315622827024
0.30698620841775703 0.0629999991506338 0.09729832153076201 0.1586816121683927
0.1446327946567322 0.06299999915063381 1.0099397140820998 0.15699050830484315
0.2339581694293894 0.06299999915063381 0.38551739905517646 0.1683553691205594
0.15079007134908112 0.06299999915063381 1.7248983901459565 0.14750555490086342
0.33869887465801946 0.06299999915063381 0.3486449638048737 0.1797506519725669
0.31236604417752306 0.06299999915063381 0.496683036295974 0.15623012571301112
0.44355084299298997 0.06299999915063381 0.12212558620415834 0.1624129654879466
0.2552548147027561 0.06299999915063381 1.017460765371078 0.15592957802855958
0.18492810176901187 0.06299999915063381 1.6569907000500483 0.17281848840849612
0.17778952764745168 0.06299999915063381 1.6911461068996565 0.15193558025644144
0.3504580031390752 0.06299999915063381 0.2008742724221499 0.1559642270676281
0.24517428148555237 0.06299999915063381 1.0741537371751022 0.16475379290744982
0.27998901138597093 0.06299999915063381 0.32246647576236886 0.1564680486426859
0.17473751827202627 0.06299999915063381 0.8809222611947292 0.16584823681408567
0.12412401982592025 0.06299999915063381 0.9080667686967486 0.19871991831256053
0.25781660771921366 0.06299999915063381 0.15605274603250932 0.1616604923505076
0.3816246870225464 0.06299999915063381 0.11517447239996598 0.15698273828087925
0.1557193023837255 0.06299999915063381 0.9599382902958502 0.16280143217882548
0.23768059350575657 0.06299999915063381 1.0889144683125966 0.1668346535860101
0.14812434298460236 0.06299999915063381 0.13271639186636525 0.17225190328383125
0.12678443634812592 0.06299999915063381 1.5089462526827557 0.18563386345175714
0.2550223691875736 0.06299999915063381 0.6209533124220739 0.16790418293630338
0.1885550107121905 0.06299999915063381 1.0503849731811055 0.15575619102144306
0.2703004514704323 0.06299999915063381 1.1844777358233265 0.1603707513035216
0.1734054879814788 0.06299999915063381 1.0812194163676747 0.1661458021934033
0.17309734232968677 0.06299999915063381 1.0176243294256286 0.14676161768900217
0.1811646615101709 0.06299999915063381 0.27621874116227074 0.1651781679106152
0.21626206388501468 0.06299999915063381 1.085674527330667 0.15747918888303364
0.39057078596357575 0.06299999915063381 0.2870161270816748 0.15405079252974135
0.2986878157873165 0.06299999915063381 0.2523314349183773 0.1724400449989828
0.20870453762090313 0.06299999915063381 0.209087801867399 0.1681162438515207
0.22964635183511678 0.06299999915063381 0.2653108358988351 0.1688150902694232
0.3051370148483686 0.06299999915063381 0.08661604443047292 0.17730569603995458
0.26551821499348016 0.06299999915063381 0.8753322969380588 0.18441486406670896
0.3278465393089378 0.06299999915063381 0.3526031133392482 0.17569037047477318
0.2951118968449317 0.06299999915063381 0.8799058592538067 0.17418173507016577
0.36961156195245537 0.06299999915063381 0.38963344209756506 0.1615342033836106
0.3479364007878585 0.06299999915063381 0.7085465092542889 0.1571638703056056
0.15716169711432745 0.06299999915063381 0.1640118352160731 0.16949671971898111
0.1636608590527125 0.06299999915063381 0.2959413806419291 0.16829085933936536
0.16437818619770034 0.06299999915063381 0.9288970747644344 0.1773138116844594
0.13901880804369834 0.06299999915063381 1.817838705093169 0.15256627656989205
0.3178868711037764 0.06299999915063381 0.9513830131709148 0.16579939283979991
0.15649072565944547 0.06299999915063381 1.5144818160846403 0.15775260643501138
0.2369856565594276 0.06299999915063381 0.63166584334141 0.15905780320323543
0.4523489843777894 0.06299999915063381 0.20731406607350045 0.1562438523723289
0.12931565859456123 0.06299999915063381 0.8253973494033124 0.18303289616304477
0.18633711892639912 0.06299999915063381 1.302137162131665 0.1739875073998024
0.14427095894442576 0.06299999915063381 0.5208660831994053 0.1627238032026247
0.20510094877768992 0.06299999915063381 0.8103775805847058 0.17421296607755965
0.12883633594127256 0.06299999915063381 1.4759599292660248 0.16532248002981373
0.18511811041192777 0.06299999915063381 0.9310363656122188 0.170514484898918
0.18376172175512168 0.06299999915063381 1.4456083641373523 0.16009478451293027
0.12127315733957458 0.06299999915063381 0.8897171942481118 0.1990530654337801
0.26124584760972125 0.06299999915063381 1.0754546380446806 0.16075185771093942
0.17369125070220487 0.06299999915063381 0.79893311075297 0.16074727715917453
0.15349433418439648 0.06299999915063381 1.0598121547241934 0.1681102721881634
0.4616456302730799 0.06299999915063381 0.13569704786142855 0.1757953676892823
0.12261609689507062 0.06299999915063381 1.6184023831990517 0.19380739001837397
0.4574715110171762 0.06299999915063381 0.08745443687845834 0.19178805447696234
0.21707835409908002 0.06299999915063381 0.23229673954280333 0.17342652157507976
0.15168870256214778 0.06299999915063381 1.1744024907693587 0.16553643010610092
0.18957561576759463 0.06299999915063383 1.134988873473536 0.17381588115324592
0.20819069518896266 0.06299999915063381 1.5218916953180532 0.164220789975058
0.2913407770997305 0.06299999915063381 0.6127433606312572 0.16156671019483598
0.2835965560332178 0.06299999915063381 0.6490391868431082 0.1627152501736127
0.18464822455788088 0.06299999915063381 0.20661578665903196 0.17912512456364346
0.44195304601436985 0.06299999915063381 0.2903001759566651 0.1653233939357505
0.3666030158253718 0.06299999915063381 0.08744178534326176 0.18999204761420985
0.23060523927250337 0.06299999915063381 0.37096001356965935 0.16423925107294882
0.12262418048121025 0.06299999915063381 1.0597781316228345 0.1961562269645469
0.20384430598359185 0.06299999915063381 1.3886381835465746 0.1625838248777604
0.1568349834329869 0.06299999915063381 0.17566508179741624 0.1758752453775878
0.1327313283716806 0.06299999915063381 1.1602927685922921 0.15726428280552365
0.3166704040465618 0.06299999915063381 0.3402560439595589 0.16318862339031728
0.31246270400305887 0.06299999915063381 0.7314553734894886 0.16158685822768193
0.1762510593210962 0.06299999915063381 1.0457075257896216 0.16936757942479305
0.24110407998529929 0.06299999915063381 1.1831307161724245 0.16324514502756218
0.3677765241497826 0.06299999915063381 0.27879537032354007 0.1730124092640774
0.4057619317365114 0.06299999915063381 0.19311485405968729 0.17908611282843268
0.24063713442792786 0.06299999915063381 0.7187158200410713 0.16926891771756072
0.1492294648925625 0.06299999915063381 0.7225497589972714 0.15443748214890907
0.3517244543958541 0.06299999915063381 0.5464763175908023 0.1673952775795754
0.30338048136771417 0.06299999915063381 0.8064305858154176 0.1712853085997286
0.23337072249224672 0.06299999915063381 1.0506006540088941 0.1432141248045643
0.22014492880766773 0.06299999915063381 0.5059978751167136 0.16082668481374757
0.19996177177854896 0.06299999915063381 0.18133801832984628 0.16761927400601667
0.21599593112039947 0.06299999915063381 0.6488466009252923 0.15274234140115026
0.19752065844415712 0.06299999915063381 0.9061582358901629 0.16282400835785402
0.25875059247911675 0.06299999915063381 1.1423142484867839 0.1782003849539023
0.18863527469984112 0.06299999915063381 1.553093129623757 0.16104131895704907
0.158616518419023 0.06299999915063381 1.1901038578139307 0.1754349529973724
0.15004583502909521 0.06299999915063381 1.228710090394091 0.14665416411482304
0.1501871519470033 0.06299999915063381 0.09395632843224506 0.16104751938533116
0.23601572020900524 0.06299999915063381 0.7649065858602077 0.19586706359612202
0.18250206681328862 0.06299999915063381 0.6903277308399068 0.17633633021208647
0.2313618169236835 0.06299999915063381 0.8764933405191049 0.18595524028683863
0.1605787119278054 0.06299999915063381 1.787108990288725 0.156378848433219
0.2511750925474555 0.06299999915063381 0.10304716340013931 0.15374020599072952
0.32055042763248076 0.06299999915063381 0.6441708513922209 0.15493877266831663
0.26567828695105516 0.06299999915063381 0.6195299336760162 0.18015251206386917
0.1275287023311268 0.06299999915063381 0.20942530921070499 0.1892493134790803
0.15236938660514943 0.06299999915063381 0.6806277387063033 0.15440805235863317
0.2234324087269821 0.06299999915063381 0.6702228023861695 0.16499937718138935
0.1646340783900432 0.06299999915063381 0.39490520111867944 0.17408708863888794
0.3451424042231568 0.06299999915063381 0.13574450306093067 0.18468013765755661
0.2951636706195537 0.06299999915063381 0.4205073641150072 0.17527513716589183
0.1668195961499349 0.06299999915063381 1.6819750946464702 0.16920498453380695
0.2677917004020296 0.06299999915063381 1.2144633320551559 0.16491501190608943
0.15317635767411308 0.06299999915063381 0.9930971673923145 0.17302163902918283
0.1598233641872973 0.06299999915063381 0.7239481525407043 0.16979253885081066
0.3545725449070107 0.06299999915063381 0.48574840682349046 0.15974548539801287
0.1324181932462443 0.06299999915063381 1.7262397318795604 0.1606483133472418
0.28791750698380497 0.06299999915063381 0.9774076299200751 0.17563737921632988
0.3054823661507893 0.06299999915063381 0.5188225608668076 0.15178557636426296
0.2364479865107041 0.06299999915063381 1.2609484853028434 0.14869348894292259
0.26813079499627906 0.06299999915063381 0.8323493322862928 0.17300564697126355
0.13909121736525246 0.06299999915063381 1.056568378417032 0.17465580647165632
0.20475089398036173 0.06299999915063381 1.1939981262225072 0.16902325569492424
0.1393565510993181 0.06299999915063381 0.5377838786199833 0.17592802189774281
0.3013513253887254 0.06299999915063381 0.655813749188278 0.14990049780572354
0.2936992927758589 0.06299999915063381 0.8099656067869541 0.16233484377537177
0.43258277590697597 0.06299999915063381 0.21553656623409098 0.14249288665478244
0.26562787143265076 0.06299999915063381 0.9707338012150376 0.1709955812355536
0.17070822565485752 0.06299999915063383 1.1218976167727863 0.145416861780624
0.29347534474912595 0.06299999915063381 0.8236268799857249 0.16430561703590227
0.31338228768575466 0.06299999915063381 0.9136089684695166 0.16820092318020322
0.15601753272539634 0.06299999915063381 0.20280356007212938 0.16629169628467783
0.24838943989463988 0.06299999915063381 0.3589052205720577 0.16640923944375646
0.31675979506566737 0.06299999915063381 0.5099865290439465 0.15904661732609385
0.13751416219665263 0.06299999915063381 0.18913333012301392 0.16524768195769698
0.2066152392194663 0.06299999915063381 1.546225232866719 0.15265393560394203
0.28568754469636554 0.06299999915063381 0.28863274321474947 0.17275446026581653
0.20708378383246917 0.06299999915063381 0.6165638892042309 0.15388657400073938
0.23252915856322465 0.06299999915063381 0.6425260937957079 0.15580206458981843
0.23408460053118477 0.06299999915063381 0.6064092244606243 0.1752239151146252
0.17024604895895284 0.06299999915063381 0.49166620171952335 0.16300895989393738
0.28614152446144586 0.06299999915063381 0.12230910867358724 0.1676473268175507
0.35069754672113423 0.06299999915063381 0.2865006036285357 0.1662830332593271
0.14167396053468836 0.06299999915063381 1.7751866588874148 0.14950420764459035
0.16160471398777063 0.06299999915063381 1.3314638561052363 0.17093995567709086
0.2433980653072563 0.06299999915063381 1.2506117819306004 0.14666647344417796
0.1683523265668603 0.06299999915063381 0.715162350957738 0.16002337979572037
0.2349324248154651 0.06299999915063383 1.2175461250394406 0.16148791185657094
0.17119647727819348 0.06299999915063381 0.3386622502652391 0.1708676654525776
0.14918060566678956 0.06299999915063381 0.286297648576637 0.16983444639049103
0.37223771559528596 0.06299999915063381 0.37580518574120314 0.15874461667036233
0.13768001966899823 0.06299999915063381 1.398936471761977 0.1599642958070543
0.16667784337240296 0.06299999915063381 1.203976067568677 0.16147537533483264
0.12816580480210543 0.06299999915063381 0.5635741532161019 0.16122702195181257
0.24695291241219636 0.06299999915063381 0.8885118470179514 0.17449168590186373
0.36787092103529895 0.06299999915063381 0.5955975615677334 0.16952997815916146
0.13292375365948975 0.06299999915063381 0.680566651180276 0.16111255186394785
0.3866297287040833 0.06299999915063381 0.12448554297274413 0.16551788753027472
0.1349770927956984 0.06299999915063381 0.9169605925458633 0.1700502079601824
0.22819790559156242 0.06299999915063381 0.5491067355420648 0.16257407847274713
0.3177132999479803 0.06299999915063381 0.4341419997440825 0.17011611282416428
0.13854800184598437 0.06299999915063381 1.8006696418894461 0.15646095771797322
0.16082517379929714 0.06299999915063381 1.2598778298168116 0.1687969394914141
0.11745459993823751 0.06299999915063381 1.0472484227568863 0.2278073058942143
0.36603317398213003 0.06299999915063381 0.5099639006017931 0.16255685790625082
0.17941973139625872 0.06299999915063381 0.18916224929409958 0.17749038718493435
0.26404506394588056 0.06299999915063381 0.5467689468207453 0.16627717689129076
0.14968584480350272 0.06299999915063381 1.0766542433368627 0.16222235823036765
0.13362840208530735 0.06299999915063381 0.3908287791366761 0.1622085932596192
0.18046139398909938 0.06299999915063381 1.123882952556983 0.16392662303347066
0.28647847065886756 0.06299999915063381 0.3537231660618988 0.1528429693420181
0.15200415285733573 0.06299999915063381 1.3379209376471868 0.17498013579585944
0.38136913279748974 0.06299999915063381 0.49630705158367805 0.17705955804283569
0.2732728013045452 0.06299999915063381 0.8844715945866555 0.17701944491347457
0.23317404938449465 0.06299999915063381 1.3781446630118481 0.17134108756793615
0.39532936589764456 0.06299999915063381 0.08600469331976567 0.19266754391130222
0.1261415655906086 0.06299999915063381 0.9692631950170337 0.20541570016226265
0.2417864498658514 0.06299999915063381 0.40865925387720453 0.16321008759904865
0.2777133521765159 0.06299999915063381 0.40625816364568806 0.172665615095073
0.14266902934343764 0.06299999915063381 1.155134447625589 0.1429553821226949
0.22383946807770286 0.06299999915063381 1.408672746700766 0.165264090388641
0.13994977967068958 0.06299999915063381 1.8661861368480352 0.15136249039377012
0.16875655520342672 0.06299999915063381 0.8718247297839807 0.15492476258147517
0.43181080374956293 0.06299999915063381 0.09204051059029882 0.15615045381881512
0.45912738779321577 0.06299999915063381 0.1784085998266287 0.15891756406522373
0.13234056120057555 0.06299999915063381 1.5673603222857475 0.16523412607757587
0.4024668399207413 0.06299999915063381 0.09343622581560235 0.16545881424977488
0.2128908860340938 0.06299999915063381 0.7818562740578743 0.17200146927110033
0.2566131704868043 0.06299999915063381 0.7149566384370764 0.1674198394417489
0.2721186693065421 0.06299999915063381 0.911962681884906 0.18627216734841703
0.3715329850752283 0.06299999915063381 0.10041021106655804 0.16291735020489617
0.19189781022381214 0.06299999915063381 0.5556824592035741 0.17418397915467498
0.29075207659307084 0.06299999915063381 0.1542405224242395 0.16197193861968331
0.35529857398532155 0.06299999915063381 0.5646685547142505 0.16977336864437398
0.14537525514571104 0.06299999915063381 0.7027574567478185 0.15764535913785674
0.11643159815169948 0.06299999915063381 0.32942198397384703 0.192060136243588
0.2527051122942832 0.06299999915063381 0.7413091344527881 0.17861002074050725
0.22653203014280024 0.06299999915063381 0.746150324474948 0.16734811072124384
0.13746545359901896 0.06299999915063381 0.24602754636315421 0.1561598557924721
0.16286628096192085 0.06299999915063381 0.9426377457717411 0.1486416973377218
0.15190059299937997 0.06299999915063381 0.4908344770910732 0.17676843587361785
0.26897763203483727 0.06299999915063381 0.15681145771475039 0.1553882397030982
0.21942410642982713 0.06299999915063381 0.29355737857678177 0.15719867025540243
0.34993815141938267 0.06299999915063381 0.40593422870735174 0.17278102044531377
0.2443286907279348 0.06299999915063381 1.1532950381397955 0.17015020851986004
0.17275534368418366 0.06299999915063381 0.8581148598164299 0.1659132695535008
0.20810699485799727 0.06299999915063381 0.4882122291135738 0.17141355376001968
0.15417500010931046 0.06299999915063381 0.30474655384111127 0.16400703729979263
0.22926743608138622 0.06299999915063381 0.9414962462470201 0.16291265084978226
0.2145796884286471 0.06299999915063381 0.9140366074668164 0.15994071751259434
0.4222803171903705 0.06299999915063381 0.3513496343602018 0.18146260226681352
0.3167567885890893 0.06299999915063381 0.1845590852885344 0.16284985450881725
0.21433155236713328 0.06299999915063381 1.1636287081801862 0.17047818020670524
0.3115725170865771 0.06299999915063381 0.4577097257030855 0.18609776742672549
0.27485359491569306 0.06299999915063381 1.139427225770092 0.16105738362520675
0.17064309826404347 0.06299999915063381 1.6993597627625912 0.15433001291066475
0.3383683597229696 0.06299999915063381 0.2786306759485428 0.1680123139665508
0.19886723081672075 0.06299999915063381 0.8919018435917949 0.15738387876177629
0.333858604899378 0.06299999915063381 0.6925944559334238 0.1722269017985221
0.31551760645150834 0.06299999915063381 0.7004242264297277 0.16297621556836572
0.1905819869477156 0.06299999915063381 0.13788148455094865 0.1751515668685329
0.19272438533287978 0.06299999915063381 0.3204046372200532 0.16712906956799214
0.2688567356274148 0.06299999915063381 0.9602946291647134 0.17433185186639583
0.16164623978590126 0.06299999915063381 1.430656635538723 0.1729953929514804
0.145984858593646 0.06299999915063381 1.7908583657124002 0.14976073681605742
0.22680531672202398 0.06299999915063381 0.4940212350586691 0.17409064886095343
0.2197795567629573 0.06299999915063381 0.8239298363315688 0.17879079928791983
0.32795886659589696 0.06299999915063381 0.4385370537624247 0.172501949584885
0.23174962932171594 0.06299999915063381 1.3669573840288685 0.1588131741243722
0.14678600089043453 0.06299999915063381 1.7360204573854645 0.15602456619093452
0.13367504487160312 0.06299999915063381 0.901601526103278 0.1749626385292396
0.1673462596019119 0.06299999915063381 0.37993941556637373 0.16911586827817948
0.18316565025174683 0.06299999915063381 0.6487024176358327 0.18594317794741605
0.39865475516763477 0.06299999915063381 0.33698026614381604 0.17326264241204348
0.24279226741065454 0.06299999915063381 0.58975590998341 0.17441237540784987
0.3082275335626175 0.06299999915063381 0.8704270698989094 0.16489053508179122
0.2899790359220691 0.06299999915063381 0.2999757140194777 0.1662490373456761
0.19803950084129138 0.06299999915063381 1.0678343888966817 0.13500254100809903
0.27323464116990775 0.06299999915063381 0.7478017650037477 0.1639217743404537
0.30510253618981986 0.06299999915063381 0.3525213483704985 0.1628023106878798
0.3075625146399388 0.06299999915063381 0.21710604809635128 0.1809227084070757
0.2506789787209098 0.06299999915063381 0.7908590362339827 0.1802598469688546
0.20428215445246165 0.06299999915063381 0.643749378185689 0.15890243676136753
0.2515133233786274 0.06299999915063381 0.09170591114448484 0.17107456061568588
0.24642197397160512 0.06299999915063381 0.5327857918674161 0.15579800169505753
0.2575251291269348 0.06299999915063381 0.5964342938593248 0.18148931038398108
0.24653195149836626 0.06299999915063381 0.7078967821249577 0.1664466113797253
0.27599729035094644 0.06299999915063381 1.030394039622034 0.14882739991854824
0.3341403513179288 0.06299999915063381 0.8303749036527804 0.15108238597599907
0.1453858182597571 0.06299999915063381 0.3834949224146563 0.17096554782137297
0.3274790725534925 0.06299999915063381 0.34046065880509785 0.17720693291945258
0.18698506658684316 0.06299999915063381 0.22020084452923566 0.16398516627571755
0.25599656841290186 0.0629999991506338 1.2322300495930776 0.14881860395382082
0.40154629593709135 0.06299999915063381 0.5091167404282163 0.1848412593147484
0.2173152682917943 0.06299999915063381 0.9998868789423033 0.14898040435889837
0.15166438569673155 0.06299999915063381 1.0423500104809795 0.1700014115613501
0.27831123519823847 0.06299999915063381 1.1009511540696026 0.1738013361709964
0.2863413919006343 0.06299999915063381 0.4421549574533139 0.16155193014456273
0.24122402964593026 0.06299999915063381 0.7454462276374783 0.16402054378565425
0.16996270989270829 0.06299999915063381 0.6403420128408042 0.15911901103264617
0.1363886379304728 0.06299999915063381 1.249717593711279 0.15450886341840256
0.13858539565949785 0.06299999915063383 1.581035747239491 0.16776983573545132
0.15254154318059548 0.06299999915063381 0.3978565397661154 0.16433476069056302
0.3437335048842124 0.06299999915063381 0.5051834414471863 0.16297263477254204
0.22207337398175933 0.06299999915063381 0.38797510583354533 0.15567966109628975
0.1865511599671634 0.06299999915063381 1.2508963782419944 0.1440172208077581
0.3041014593392336 0.06299999915063381 0.3234528220005598 0.16579267328738428
0.2212183761389477 0.06299999915063381 0.5328568006175848 0.15227945487008193
0.3395014840047062 0.06299999915063381 0.40829672974285247 0.16625676677886653
0.27215867067057703 0.06299999915063381 1.0421064889622407 0.16934383248690357
0.21015106339339282 0.06299999915063381 1.1863515883738904 0.16905690853732594
0.2543068324801822 0.06299999915063381 0.7280868423803462 0.16523886550153996
0.19543228327033962 0.06299999915063381 1.2380905576304033 0.1448156261827228
0.16116167292433703 0.06299999915063381 0.48545611229969304 0.17298681091176643
0.16235771829161239 0.06299999915063381 0.31335510466261535 0.1633088026196831
0.2457538937271902 0.06299999915063381 0.6519743502134046 0.15493981154330083
0.34742420822397907 0.0629999991506338 0.7781937287914392 0.1643539516740801
0.23233713206890594 0.06299999915063381 1.2352776133639476 0.14968356368535324
0.12175482927698114 0.06299999915063381 0.34263209499548897 0.204684565911849
0.20177269669735579 0.06299999915063381 1.0416955416597313 0.1429154800112487
0.21012897527863786 0.06299999915063381 0.39149946903421895 0.15092725241510588
0.33421112694734206 0.06299999915063381 0.32839013453710647 0.14935610896171625
0.13832156602883336 0.06299999915063381 1.63441719856841 0.14127313188087562
0.18683306397250443 0.06299999915063381 0.25511831464555823 0.16122551571114901
0.10603801892602492 0.06299999915063381 0.7505418018650407 0.1998932524240804
0.32593187145319436 0.06299999915063381 0.2320115942809158 0.17364148840395152
0.24682818552191438 0.06299999915063381 0.9979017835659229 0.16545359167992008
0.2477709256314635 0.06299999915063381 0.26327159191959665 0.17239944836846552
0.30643102209558554 0.06299999915063381 0.681676233605104 0.17417121997472165
0.254689985387173 0.06299999915063381 1.0664356959268293 0.17136325232524455
0.13102899249602917 0.06299999915063381 0.7191806241515672 0.17354520083747102
0.13912997868871804 0.06299999915063381 0.7135420937683729 0.1572096964034539
0.14168216717975213 0.06299999915063381 0.16797502787166088 0.1648946805995713
