x y z curv
0.4349301416969789 0.04439340826618929 1.2662160297602532 0.010863813141702745
0.5236758897417126 0.04439090125496657 0.977936686483776 0.009465815308388977
0.5002004103294478 0.04439350731326534 1.2778108220890796 0.010861398295851976
0.6044966492336026 0.044395025040051654 1.4528051197268284 0.011073126017757635
0.5288885201018546 0.04439559653814399 1.518355837937989 0.010127007166977883
0.39597598381541593 0.04439924758132267 1.9381755989410243 0.15845325280034342
0.539963074451857 0.044392322272571984 1.1415373484216171 0.010795150481950016
0.3914997196436484 0.04439394098493717 1.3273995581762976 0.09035200074060962
0.583070792360975 0.04439185502975218 1.087888807483407 0.010275529594267507
0.49633464504544966 0.04438788054828689 0.6301868032448399 0.011033693242325488
0.44062466695867225 0.04439560011142003 1.5185034497238026 0.011506675551005536
0.4215857246102719 0.04438654915490254 0.47672680833038594 0.010596208680226888
0.7155269825445898 0.04439872896690509 1.8794402125794136 0.04240367010413415
0.4611196936610349 0.04438775803860067 0.6159813607095678 0.010059738217713894
0.614553970314917 0.04439571426102857 1.5321610450827792 0.009826026364912647
0.42605453452687236 0.0443936493868876 1.293941302181997 0.010160280345961078
0.49358808101182106 0.04438895499728984 0.7538422985617699 0.010185362976450495
0.5368321067247779 0.044395115561770906 1.4630215944428198 0.011234634984181952
0.4989989957540737 0.044389877076277715 0.8599851355171166 0.00989954368346883
0.5429454029282392 0.04439686656200809 1.6645712142251954 0.009611645223308386
0.5580629688576748 0.0443966461430466 1.6392472534965796 0.010226956971760286
0.5804594527582057 0.04439443481777386 1.3848016893618285 0.010501871737080875
0.5315769741569225 0.0443886393057995 0.7176212661813082 0.010756217668913836
0.5645838324228911 0.04439735561526771 1.7209234318356768 0.010236357086963547
0.6378896497151154 0.04439755209275588 1.7437559798054318 0.010356493035024741
0.4558126533937221 0.04439128832866812 1.022284215769794 0.010457383840021412
0.4027912845504007 0.04439176685238005 1.0772015176712548 0.031003105946094518
0.4546985333043818 0.04439804574297073 1.8000254342712076 0.010946642837075667
0.3794713346313952 0.04438554283647201 0.3607787958292411 0.09211355633669151
0.4442399645248387 0.04439602374288737 1.5672721094699407 0.009879841262770663
0.4440096085676659 0.04438861665055214 0.714752186759907 0.009774900344256056
0.6023326131167365 0.04439216284814494 1.123374700297264 0.010616441342777887
0.4650479873411649 0.04439073737476329 0.9588997674012312 0.01007235462785829
0.6170757183393363 0.04439345612989399 1.2722689924973436 0.0109388475754101
0.6653680034928895 0.04439549674676095 1.5072780295715273 0.011030055102518234
0.5535632661241829 0.044391177290032016 1.0097962172593353 0.010311309604969052
0.4331047200065253 0.04439507229224319 1.4577316427219038 0.010055967572175393
0.46759999296493215 0.04439266879773515 1.1812045024373041 0.010479274343241834
0.603679380761736 0.04439342364309469 1.2684899081666514 0.010135762064971077
0.7345167108092032 0.04439699154220613 1.6795280549168665 0.010951145587518
0.44606048074750887 0.04439384809022357 1.316870821175491 0.011015997541484652
0.4134216112263339 0.04439057300607961 0.9398275410472078 0.010056196977121262
0.38555337122322897 0.04439505460825026 1.4555542622850088 0.07878520517986047
0.47056259664181754 0.044393330258604924 1.2573441857318808 0.010311256377524886
0.43217983269889193 0.04439517290267834 1.4693086372246398 0.010418504167076298
0.4975266580088996 0.04439804611365613 1.8001960308922837 0.011150647647913079
0.5042251103289588 0.04438895497513518 0.7538715227148164 0.010669638049470617
0.4782532676710265 0.04439787859220988 1.780857579483839 0.010457319418281746
0.3757909346108999 0.04439153276358515 1.0501784164624497 0.0892123486059545
0.6864195488337154 0.044397028850915204 1.683678428680696 0.010609010326242153
0.5707265337138656 0.044390538163969206 0.9362872767161222 0.01074661534366077
0.7222035686334657 0.04439763770107532 1.7538609241443317 0.009882874141340228
0.6002881871619663 0.04439547549574151 1.504637742675299 0.012014125404388749
0.45637203327265985 0.04438636390884245 0.4555098252361436 0.01160083832619416
0.4961857459043407 0.04438997443030892 0.8711816934766065 0.010463241923844731
0.6930434011085344 0.0443981401660067 1.8116050166943463 0.010731643200935162
0.6790471172172058 0.04439660547327585 1.6349277602679306 0.010451521011077164
0.6088198856593585 0.04439601499957186 1.566757417001342 0.010256389699645931
0.5391626721995544 0.044398461169226404 1.848091220134924 0.010038265055578106
0.380620622844884 0.04439017700633497 0.8941519731556613 0.08507932880492068
0.3937115352802465 0.044396319319533604 1.6011405669724534 0.08124303270573376
0.5821928219201359 0.04439766755319449 1.7568785251874384 0.011243153690667812
0.49323958689545244 0.04439795335462658 1.7895071251295485 0.010153089929085243
0.5426081365017422 0.044397465833955096 1.7335434068421407 0.011075831105923195
0.46500162878476525 0.044394891973269394 1.4370731116127629 0.011056253783467777
0.6459142131202218 0.0443934419484666 1.2707229251594636 0.011838701357563671
0.4995232331119885 0.044391570862770686 1.0549330446870895 0.011030687907140282
0.5080325605035936 0.044390741951935736 0.9595549769478544 0.011069959460219176
0.473769372366723 0.044387865178641295 0.6283504289114418 0.010833177412706656
0.6868297245814778 0.04439764471001726 1.7545619524770142 0.010428654220606565
0.48021128291377324 0.044394053456854335 1.3406095043603181 0.010224377607589718
0.41734549970443063 0.044390047423042776 0.8793472866286864 0.010487420255822605
0.5491337808266328 0.0443937018338756 1.3003453398789069 0.00946516836672027
0.710518368854143 0.04439764608774749 1.7547912830625687 0.011037517883386144
0.4985203974292016 0.044390557221306644 0.9382649926949536 0.009930319248698258
0.6551953027119158 0.044397101171069854 1.691908845863498 0.010652927681457392
0.44371271192995887 0.04439036221238398 0.9156567253307932 0.010864919863258988
0.7711147329834396 0.04439854637270742 1.8585905818951414 0.010373656827043793
0.377606889531629 0.044392301705396986 1.1386851927713282 0.08828836675124788
0.39263346155028306 0.04439908673125658 1.9196525773337028 0.17101935981410726
0.664292572547551 0.044396913112952324 1.6702914728938898 0.010445343542486872
0.450809223437428 0.04438872604532185 0.7273632881668163 0.011433358967148715
0.48982815147484066 0.044393764453330715 1.3073753727654487 0.010790513544436034
0.4634193245347221 0.04439059805712949 0.9428601404206529 0.010206021072475984
0.41584750006971327 0.04439208702957531 1.1140913099002399 0.010364254077191366
0.40570604054617304 0.04439709722028965 1.690708877410645 0.01615546149481674
0.45676049700598137 0.044389785431583895 0.8493111188891678 0.010431471195768493
0.5149464952821542 0.04438839696144805 0.6896789677664453 0.011098751777183878
0.4246814937829081 0.044387240628483995 0.5563212022226368 0.010135642285718722
0.4753562202411984 0.04439796760931526 1.7910943487160367 0.010261211923750022
0.5517289304065829 0.04439768155811398 1.7583994220994714 0.010093283367208272
0.7514880907971958 0.04439766042408981 1.756563705592487 0.011252776511522474
0.37851443110271515 0.04439695053054948 1.6737443984076354 0.09660243055292364
0.696357843364939 0.04439922755457955 1.9367678966385393 0.1722100566685901
0.7752380908834786 0.04439816159411407 1.8143168096411917 0.01192339527057427
0.3851747694720632 0.04439074359080909 0.959376612556587 0.09548329797085187
0.40266789628042354 0.04438719721049183 0.5512582515766711 0.02458766427294223
0.4521512473127506 0.04439306836396991 1.2271464279137536 0.010994804632715786
0.5294459600556098 0.04439498378384234 1.4478325515017767 0.010432786957713326
0.6988167747466288 0.04439558727689179 1.5177975096444016 0.01120190740452508
0.39641323012153007 0.04439500895567072 1.450332318660887 0.05935347422865022
0.6150982103682664 0.044397371667957874 1.7229219084057443 0.010750608079675374
0.6129794207281193 0.04439909687196849 1.9214779214937852 0.18054699681696998
0.48811953700978045 0.04439495805005962 1.444747275148759 0.010961943496718467
0.4004480367959403 0.04439128557004235 1.0218013312105572 0.040211491920134304
0.5689401942783396 0.04439800769139152 1.7959871411828863 0.010240157060254872
0.6314749395224142 0.04439571537695437 1.5323400274566688 0.010350957941661462
0.5276878117450701 0.04439865335959257 1.8701770920882645 0.010959113344273857
0.6386529343577325 0.0443989203461441 1.901237372881765 0.14010346758651604
0.434017166563693 0.04438984678104643 0.8563041978300054 0.010927370034968362
0.5079758852864159 0.04438982527239958 0.854049583581125 0.010540261810738282
0.4014372909675604 0.044397695119417206 1.7595113215861233 0.044349146622791887
0.4236144930744098 0.04439827859216974 1.826732359374878 0.00995768681100209
0.5640893465735104 0.044393692584003094 1.2993253998879934 0.00986701568546493
0.4578956918407273 0.044394342645127 1.3738269670838605 0.010525902764620622
0.38490618635443574 0.044389591631581446 0.8267910719371546 0.08995108436076196
0.46176208364780524 0.04438990226599119 0.8627731144077285 0.010136717272147969
0.45803851686316366 0.04438584872063747 0.3962192207780407 0.011001583252225342
0.5190651251892378 0.044390321386456086 0.9111829518976449 0.010256551026830549
0.5356197127710316 0.04439881358015882 1.8886413704242386 0.09672155451703932
0.47556234140847176 0.044391384639371825 1.033428090076503 0.00984475877507648
0.6465716809001447 0.04439496005551172 1.4454514076220313 0.010669629073019516
0.5157253745256405 0.04439015952262502 0.89254325929914 0.010106408885767283
0.6053477144668354 0.04439884910409571 1.8929382833124673 0.11698757210882088
0.48949493205793054 0.04439088664736653 0.976153322376145 0.00997009876275811
0.6269975164510584 0.044392634510431184 1.1777343443917898 0.010724349904160201
0.5656271299203752 0.044394470952488524 1.3889163081924867 0.011002174254568935
0.5222408061047393 0.04439678124796917 1.6546901485413295 0.01016283332592969
0.4193541693502701 0.04439627897674605 1.5965739116825663 0.010652390364141121
0.3983576032468227 0.04438666057945073 0.48948183073661256 0.07278981206815494
0.6639945573839827 0.04439920831416137 1.934456747961137 0.14953826168999412
0.5833315976390989 0.04439110324680559 1.0013631341581597 0.010207850778984484
0.49443586290404684 0.044390290539427016 0.9075590428570969 0.010726567599394544
0.5087943812204602 0.04439157451037153 1.0553805592752687 0.010148872965507592
0.6392505711769092 0.044397802350548785 1.7725634637597405 0.010253003657472205
0.6203559341763801 0.04439699792018087 1.6799211163553665 0.011164011338868516
0.5331268248168499 0.04439611792390643 1.5783773885124037 0.011235425192637606
0.5233822343434846 0.044393478516665516 1.274565724460305 0.0103717053482554
0.6250423724925436 0.044398625428237075 1.8672531423396155 0.01082606349343574
0.4439638841791277 0.044388216434732716 0.6686892135580682 0.011746867828102105
0.5386635304431932 0.04439592290596067 1.5559483383488057 0.010757217549833574
0.5974485568320697 0.044395882622828474 1.5514875492716234 0.009922102110530887
0.3944402285454871 0.04438559315055191 0.3666144082901097 0.06818249500900214
0.400020646560418 0.04438572733892092 0.38207548693220417 0.04768072475624124
0.5642868825932217 0.04439467796093023 1.412737939703169 0.011301634676800402
0.425027965318731 0.04438515646889302 0.3164459052876794 0.01088831812718429
0.48472086675547427 0.04439687921268501 1.6658533203255739 0.01050046531593652
0.4245480621327202 0.04439487329711296 1.4348027400257923 0.010359855565532069
0.5871524373849849 0.044391755385171275 1.0764324075678042 0.010520228712260915
0.6859200127099843 0.04439494900101781 1.4442966287730643 0.010122294966021591
0.634993046094142 0.044396580659118695 1.6319401804102354 0.011118267972346883
0.6568448440908354 0.04439851063021931 1.854135463059663 0.010453923759263586
0.5620516574127179 0.04439713770065394 1.6958349871592022 0.010919033355225599
0.5310883460149262 0.04439302047695019 1.2218706660454415 0.01119333913099255
0.4966578615637953 0.04439661821412919 1.635849350769719 0.010562762024395326
0.4310269097098693 0.04438905452341146 0.7651103792601949 0.010113285316353615
0.41159773828982993 0.04439753328583576 1.7409154372285152 0.010740013166364658
0.7737591239141879 0.04439866868553847 1.872676075335826 0.010775599547503154
0.6289716193721652 0.0443936434811653 1.293867720048012 0.010681992811071106
0.6150189004969122 0.044395507136687 1.5083234594035035 0.010624112843181033
0.7923383236825773 0.04439882828460334 1.8911006266938215 0.10528296485076472
0.5926529302571985 0.04439384652220131 1.3171282383584395 0.009712834778961567
0.5383954525889453 0.04439288381762422 1.206163689164087 0.010892403655845118
0.5058383469570468 0.04439557819387345 1.5161756507150048 0.011237444078521374
0.5326023607302449 0.04438926409479034 0.7895344131641315 0.010820981650474189
0.6017326491292607 0.04439795911962387 1.7904947288396658 0.010393362042871878
0.667334534343763 0.04439505194102044 1.45608899058905 0.011093640692422304
0.6570851678682865 0.04439658088876192 1.63203260293277 0.011203451422950152
0.6220258107594392 0.04439220204088799 1.1279444146244766 0.010675562666022138
0.6128569603425542 0.044393852266854425 1.3178497709508148 0.010867338853720897
0.440191021521542 0.044385551605782406 0.3619694763052603 0.010717050580017833
0.5629915626150048 0.044394015806574344 1.336523419999594 0.011040166801638947
0.7780809864040984 0.044398381137352 1.8395936289594812 0.0110476139496204
0.6276925303983243 0.04439342620761429 1.2688568015996826 0.011967518826008995
0.6063178653234654 0.04439559985367826 1.5189687297870724 0.010206813438346889
0.5179819125018554 0.04439205821418835 1.111079890527998 0.011075402183872743
0.41046642365098984 0.04439234077699474 1.143280293260538 0.010836822199425614
0.4566809330559515 0.044388071307041095 0.6520237303251081 0.011182039297220274
0.6813219302376428 0.04439889469169986 1.8984121320735723 0.11857759195010002
0.40485572853244495 0.04438903487371449 0.762770621179665 0.022945705323540986
0.5298230376176757 0.04439914822297322 1.9271397671975357 0.18803724527642807
0.43834738851624044 0.04439137923711518 1.0326951519995282 0.010013072933895082
0.38658112401667166 0.044395151704182775 1.466732587898629 0.08460274439673056
0.44517511911874763 0.0443888207042158 0.7382412231045663 0.012484492532226006
0.45614907602348376 0.04438737179821261 0.5715121784421322 0.010815218354261706
0.513815284184008 0.04439113284506061 1.0045620917769658 0.010782966085293666
0.5720422595941461 0.04439612413339743 1.5792083147589335 0.010329859548723357
0.39295107674659513 0.04438727270260347 0.559917990307165 0.07409450046960533
0.3779240025910511 0.0443987187344157 1.877254044936189 0.09285773739388625
0.49000427825909676 0.044395588883106095 1.5173586296589958 0.009970616884404685
0.5206255640011557 0.04439449470826708 1.391516054428902 0.010199525475567957
0.3908986459620823 0.044384096905888626 0.19439356130767815 0.07642118693139421
0.5809639143020879 0.04439565093978276 1.5247727493863095 0.010235333825078173
0.5538374056251103 0.04439742931004547 1.7293732308808412 0.01065408115145521
0.4499632177055615 0.044385567569917676 0.363836059016446 0.010762135887381298
0.6411078734412949 0.04439565670927083 1.5256164455703534 0.010100673938487207
0.38452386870723954 0.044392168595143285 1.1233855309810081 0.09899154227763098
0.5074768248137851 0.044389104973495956 0.7711452961298313 0.0103658807533341
0.49790950155137187 0.04439134448324702 1.0288730747712482 0.010406589300521851
0.5351810323579491 0.044394880871235096 1.4360049571008497 0.010689426589193472
0.6002788178270988 0.04439512401917106 1.464184521550314 0.010744552339793018
0.6483243271861568 0.04439735069409778 1.720607172415869 0.010260101908762207
0.4594485675388737 0.04439717620501976 1.6999601594834535 0.011016881689634644
0.4769260479702264 0.04439343519087377 1.2694403727655708 0.010744532532701263
0.4773444984267961 0.044389276354239705 0.7907803527323665 0.010464747984667334
0.4057801326149542 0.04439759548195851 1.7480565216273654 0.030675045345663426
0.4653315986129818 0.04439872087124805 1.8777610802912093 0.0428055681505746
0.38073810570764055 0.04438801356240154 0.6451507614291888 0.09248585449727574
0.4236528361940612 0.044396534784097996 1.6260288974797106 0.010321803704574287
0.413959431035439 0.044397244414731356 1.7076748743677816 0.010909290309048022
0.7366042349014456 0.04439806277486132 1.8028278046963775 0.01092571044369778
0.45634736499363926 0.04439447454880238 1.389003794541654 0.011375712883969148
0.4237764866673841 0.04439113002187075 1.0039682004042427 0.010531131804639625
0.612221390020673 0.04439372032647193 1.3026621951333375 0.010393592618398197
0.3765912086172617 0.04438949934270483 0.8161442465959959 0.08822857134980455
0.4805749768998263 0.04438947802084377 0.8140008187709099 0.010134797902456706
0.6610403012054126 0.044396185496616045 1.5865367614268027 0.010318807998819622
0.6397590755266958 0.04439510542092072 1.4621618881928533 0.011287351346965416
0.4334311096599073 0.04438861454509849 0.7144782603823243 0.010565542678527658
0.5858320279800249 0.04439400523917828 1.3353753927582082 0.010273090936679552
0.5508792463649823 0.0443915715002791 1.0551598250973018 0.010987370333714493
0.40447734372601457 0.04438760459880958 0.5981520118640663 0.028286189138979973
0.4317077072759057 0.04438870393948012 0.7247619580365827 0.011334058264310875
0.4082585390205358 0.044395471679254055 1.5036248691936487 0.024569315324708827
0.46909936671847685 0.0443940421263226 1.3392722243134332 0.010299843546269774
0.41882156828884803 0.044389588090865996 0.826484862508721 0.010995373300434931
0.4187840986399163 0.044391015023562914 0.9907175582167637 0.010050533439852832
0.5957226157885915 0.04439160420894547 1.0590583811571068 0.0106202089904046
0.6483863808071513 0.044394619905571364 1.4063072736064846 0.011025894206400202
0.44603725177252823 0.04439174007264774 1.0742484853235563 0.011679709072473551
0.5404394761873185 0.044393991384095076 1.3336451492337749 0.011000005903614333
0.41269951990538745 0.04439850329913164 1.8525624011100332 0.010750741810144427
0.7299520788946182 0.0443975485929336 1.7436281689689315 0.010871754210063842
0.6155309705988443 0.04439808817624975 1.805389717381978 0.0101373581375239
0.5477302574808343 0.044390043323521575 0.8792649267004495 0.010458777732075679
0.5564281022751589 0.04439030627952019 0.9095558267846717 0.010445957323116865
0.5992532645238466 0.04439769705087666 1.7603245222113815 0.012741509179270322
0.6345595213537144 0.04439556929238272 1.5155356388244043 0.010338913652953658
0.6640234010196702 0.04439489782204012 1.4383407770096055 0.011090276230928066
0.5901523799277192 0.04439138244325215 1.0335176214697057 0.00924534733054229
0.7315580786553114 0.04439772084007634 1.7634577498284842 0.010250122217420037
0.4217453851570339 0.04439394792284544 1.3282884239946007 0.010921886747115639
0.6454020385248401 0.04439451885976252 1.394668492447008 0.010191596008854477
0.4050260509089731 0.04439871442078036 1.8768385240792866 0.044346708385594714
0.4351602182134937 0.04438879224593505 0.7349359018302623 0.010786111643790747
0.5351527020534305 0.04438985260063403 0.8572761068229531 0.010668620339556666
0.5439781781751181 0.04439713565050829 1.6955450380779815 0.010331955292131812
0.3983406316311327 0.04439251816945648 1.1636610561110536 0.04285173597014692
0.46227955854115343 0.04439703925026035 1.6842058090155991 0.009920692201331486
0.5031031032223956 0.04439894879752052 1.9041070807217102 0.1293681610963219
0.3970220829955279 0.044391626871245426 1.0610731567972513 0.05401610762166054
0.5485348235938153 0.0443983727610542 1.8379438779492243 0.009661633981380044
0.5253309288558796 0.044391249426648134 1.0180144472543686 0.010883405120629767
0.4008039337388172 0.04439564592222009 1.523657094238463 0.04412354887042901
0.42969589432912625 0.044394777479716874 1.4237900147429454 0.010282124353630127
0.5430345755979804 0.04439900575849971 1.9107822841288196 0.18131812347393905
0.5681753060157688 0.0443925973985884 1.173287248353048 0.011072569083305686
0.40963859617071896 0.04439407396246384 1.3427587885041146 0.015618293837262218
0.5626771162335746 0.04439008613485128 0.8842369443639378 0.010903920044372928
0.5397900337019657 0.0443973115321436 1.7157756230487569 0.011033469073180884
0.695506369073877 0.04439865440632288 1.8707988590510467 0.011048873575843028
0.5613752053445596 0.04439880370217851 1.8875813990087202 0.06393899927764342
0.6429076723559706 0.0443963462462261 1.6049840722725832 0.010220520728338161
0.45617552343681 0.044392426801777254 1.1533178533297437 0.009723744155077204
0.5479642652566696 0.04439491845872136 1.4403692735425548 0.010772195792077438
0.4220574823346681 0.044384718737981645 0.26605639627635685 0.010536769904614211
0.5634669486915703 0.04439514779636517 1.4668111961880927 0.010488522145027823
0.6512017617125438 0.04439470440226101 1.4160408293125313 0.01032388872647189
0.5989026316251169 0.04439229999516256 1.1391493894673776 0.009892583271229981
0.40822793234083854 0.0443873662630825 0.5707319666574096 0.017203643207479576
0.6118630156745138 0.04439495396287499 1.4446464968253034 0.01111599139411988
0.5983961501855549 0.0443935151720358 1.2790086493053383 0.01119672148804144
0.4102946224825684 0.04439367717443827 1.2970924334205536 0.011937915982248743
0.6151843922888588 0.04439276728906863 1.192981213458527 0.011147410503834347
0.49152439781204144 0.044387184013525385 0.5500047715287821 0.011058851177593677
0.5802142131529929 0.04439231653822505 1.140997588637419 0.01099474490356945
0.6667727977270069 0.0443977839043707 1.7705226131279181 0.01199759392250102
0.4425275963892097 0.04439202060120948 1.106525434202647 0.010778382127654905
0.4077872229811048 0.04439559212511356 1.5174861765790377 0.022718931375360133
0.4895814858415845 0.044396681504254576 1.6431125893008034 0.010086094324407676
0.4684845652483033 0.044386655875485966 0.48914990533870806 0.010495086655459993
0.7646868840539475 0.04439911022368405 1.9234678049252503 0.19338666433892526
0.5071326043934534 0.0443897320334366 0.84331572688523 0.010795043265884314
0.45230293946467726 0.04439403996037433 1.3389727616326546 0.010881672338680133
0.6767157756851623 0.04439526168103074 1.4802570382993354 0.01083647978250717
0.458311000164316 0.04438819863117496 0.6666829697206327 0.01108012663022273
0.3779981009002153 0.044389842456022614 0.8556390737842503 0.08856312114761757
0.511414517707351 0.04439440472946685 1.3811324306516934 0.010879878236494082
0.5278252838015625 0.044397961465026 1.7905439029853358 0.00986165420474581
0.6148226854240562 0.044395249797194856 1.4787043864431277 0.010931361908485164
0.5807735595282462 0.04439250165014807 1.162304714807344 0.010368638030676603
0.3781069534883432 0.044397063712597856 1.6867698682018757 0.08573308336865947
0.49417571471435995 0.04439572745884192 1.533320463459868 0.010563206900326305
0.46977055433833104 0.044389182474720165 0.7799526659108399 0.010384175224798512
0.3897709207400829 0.04439172268084206 1.0720787015098665 0.0702056255451885
0.5681655066035821 0.044392158822547274 1.122809313045169 0.011129990029281096
0.5562920375614027 0.044392521774645255 1.1645478145020371 0.009974388487978948
0.6774159870728275 0.04439577202592657 1.5389972717215565 0.00997603721569363
0.39165375303422556 0.04439060859860653 0.943859039531191 0.09009331726163936
0.38037425454305873 0.04439205947136561 1.1108135352601063 0.09370462008981496
0.5141139561399457 0.04439890640979394 1.8992613563578726 0.12800331877045765
0.42504648241836207 0.044387408016161374 0.5755877759093743 0.011184476226250921
0.4335396753413956 0.0443961282793608 1.5792717710563988 0.009944930369804102
0.5377790170865 0.0443899670211509 0.8704531804303147 0.011151555512468794
0.3939269580566409 0.044389943094785375 0.8672696727481557 0.08358426862069489
0.4873287706431335 0.04439385315212111 1.3175766934136734 0.011337671585110847
0.5044495547389006 0.04438941358394119 0.8066557701105135 0.010178840595921623
0.5869010034516705 0.044399180480652736 1.9310229630904334 0.17269276523929192
0.5046765933813075 0.044388521139183665 0.7039405258882315 0.011267886583986265
0.5023763496616258 0.04439841363869002 1.8425108083981678 0.010490954519739682
0.6283732559326214 0.04439606220101144 1.5722484745125795 0.010323009117187008
0.419657108211393 0.04439548386600184 1.5050615516864525 0.011132100557126106
0.3849523924615005 0.04438775416377658 0.6153078672753026 0.09128956789636415
0.5437264155641851 0.044395431146175224 1.4993643731004818 0.011238368275084327
0.4955517997914223 0.04438737023401051 0.5714498471313485 0.010140946025176515
0.4910214596313617 0.04439184477039029 1.086433044245771 0.010266304278401354
0.4395302037433006 0.04438809777183776 0.6550184646681845 0.01000154559805924
0.46435592724815467 0.044395879658101406 1.550748760873027 0.011227308352408078
0.5330471331430425 0.044394580404664055 1.401416385242852 0.010797485462295196
0.5568789724077752 0.04439305592992569 1.2260281655847771 0.009689223894128332
0.4983099521836204 0.04439190633765204 1.0935408993315348 0.009675385328232911
0.5322532121476549 0.04439310800772628 1.231948499628221 0.009990877467690389
0.5493617458593001 0.04439456539538843 1.399737626426877 0.010155166535346772
0.48043248701777747 0.04439922163514673 1.9354416054177226 0.16019855907806235
0.6645842111147588 0.04439395591328689 1.3299334716008482 0.011404726015758867
0.5892895286589375 0.044397958552996046 1.7903923437675546 0.009911700220283435
0.6120281932933318 0.044397252143957976 1.7091561240702566 0.010993855980524913
0.43760459884553504 0.04438677519086286 0.5027902656613545 0.011883850126950223
0.44456674145669667 0.04438671071795769 0.49539055387282016 0.010054322462474615
0.6503175680731278 0.04439828966116772 1.8286835340562388 0.011476164024333659
0.5657644644686101 0.04439298383495487 1.2177569374774229 0.01011509849430125
0.3910492996879275 0.04438604147088433 0.41820370435844034 0.08704347979263488
0.5606527186646507 0.04439240509824025 1.1511319704384688 0.010662770166399651
0.4418346986600674 0.0443972411875787 1.707386711924738 0.010867806489160763
0.5221565600919614 0.04439656142437487 1.6293893020157002 0.009747679351308892
0.5113411164049022 0.04439257526151089 1.1705696112572204 0.010160115910802932
0.42898914954558537 0.04438684141048754 0.5103860774999205 0.01057182248517323
0.42079417850642215 0.04439911678965667 1.9231962679941919 0.19465339701052456
0.5221766287569478 0.04439299139861454 1.218497274894228 0.010124854601273431
0.4745107519142302 0.04439725153763766 1.7086755590503317 0.011925683027483754
0.5777983106744351 0.04439330845640105 1.2551551867938655 0.010920607015203315
0.6951846477575235 0.04439850523526507 1.8536290562956996 0.010540364985874106
0.4249214617384941 0.044392847037867535 1.2015915633490353 0.01052245710200297
0.4803610355160166 0.044396379289261254 1.6083016144404474 0.010239918875469416
0.4322226106365724 0.044394078601206505 1.3433601456336546 0.011734832054995903
0.53554285803404 0.04439634990721176 1.605084722203761 0.010165985347815053
0.3875082982011672 0.04438337070936637 0.11080185087425379 0.08305606154806226
0.44565673447502185 0.04439646459057235 1.618015702394722 0.010426551534251838
0.5216563658318565 0.04439516618682655 1.468802953123734 0.010490633122634542
0.4402668214119358 0.044389244042294565 0.7869506543264086 0.01120170667757142
0.45562506120154445 0.044394195942156614 1.3569354072127537 0.011029583422450724
0.41400841444517433 0.044387274230928385 0.560156793568548 0.01098008103564856
0.5137618597798062 0.044395488147535085 1.5058354365571673 0.010957005962608445
0.5447202460483229 0.044399257626808714 1.9397761004838707 0.13354276900200387
0.757481042563962 0.04439819655145457 1.8182871821060391 0.010901512462937107
0.5916677529491405 0.04439674131135466 1.65030103056893 0.01147599396136275
0.4059749568963076 0.044388148040104235 0.6607038569819941 0.03095916579453753
0.4912839560642387 0.04439262180325529 1.1758664198955002 0.01010432898100029
0.5804833999336048 0.044394516104044116 1.3941574035366027 0.010737044043799578
0.41644317888263815 0.044384231910545545 0.21000822573563757 0.010258448779664165
0.6102703940010803 0.04439170797598746 1.0710449039506726 0.010902027328256266
0.4483418719156227 0.04439469169841169 1.4139727137941178 0.010038525960411368
0.4349926200610992 0.04439463681858217 1.4076164444761596 0.0101617078358467
0.5012216392754953 0.044398607669159984 1.8648392945725294 0.010278348958443725
0.6863827459516618 0.04439916195777975 1.929188236700939 0.1658526724932322
0.41720532656705206 0.04438667429294998 0.49111648616583614 0.010723195079315365
0.5622365209231739 0.044390973328831615 0.9863472125086648 0.010297818596969089
0.5068078991180025 0.04439617019517805 1.5843149324206371 0.010416864429222898
0.41776701528932203 0.04438816845731259 0.6630889996679404 0.01008153903973673
0.5913344808249688 0.044392873319188245 1.205113506789879 0.011140428773974781
0.47886119643011105 0.044388949947243836 0.7532170726394289 0.009646991468378578
0.582535849299627 0.04439385790470494 1.3184080866273373 0.01059324713349812
0.40485617272656427 0.044395115023205374 1.4625653807859094 0.019269731574098656
0.42412138097706825 0.04439299692036697 1.2188398985196862 0.011155616188173335
0.4232860832160068 0.04438533163679705 0.33660165063401615 0.010730618044063273
0.526456286498855 0.04439039103349707 0.919221055795967 0.010108929744330064
0.6609586356149306 0.04439906120852962 1.9175165577687499 0.18291261275029766
0.5743687753130599 0.04439929072455713 1.9436740491859024 0.13687811813636763
0.6888713613805848 0.04439837895771288 1.8390762838902828 0.00996279896994723
0.6349408569437823 0.044397252108311226 1.7092204640980984 0.011563423487154553
0.49909154789012283 0.04439781572592523 1.7736842313081962 0.010468730397921136
0.608142447778343 0.04439421943622862 1.3600950444157553 0.01016879373338784
0.498678061638421 0.04439229000930669 1.137700685019722 0.010515228772122878
0.5228859551184271 0.04439737030988 1.722490151713595 0.01085592999310042
0.37993363529952273 0.044392744142613676 1.1896144510400146 0.08177868751613866
0.5390792167674727 0.04439028396544344 0.9069357651576203 0.009516179385689678
0.5189259834452313 0.044394191756125974 1.3566427032647808 0.011484115964501983
0.4074039402641877 0.04439582313282916 1.5440728628959761 0.014895700295784678
0.40432144384571256 0.04439290008246499 1.2076351962328886 0.027908817538286747
0.47592893243951706 0.044394906532674 1.4387814672993007 0.01062738883569425
0.6472680213034805 0.044399057058336015 1.916997995811409 0.1709919808318616
0.501096807328302 0.04439825809116214 1.8246042447460231 0.01049090170887394
0.40317787655602644 0.044395261414843186 1.479409311933379 0.04090209477690995
0.7412287970251573 0.04439855931340141 1.8599907182045667 0.011391988229080111
0.452812360086928 0.044391065390244185 0.9966161573789156 0.011095728201165127
0.4389549753641858 0.04439786677834276 1.7793804739706862 0.009899056890374004
0.4025040736345572 0.044393906215372494 1.3234306266856168 0.03212696154340068
0.415805625832553 0.04439294046267815 1.2123170611377778 0.010983352154717454
0.4663122751313254 0.044393415571297445 1.2671505532078584 0.010106718687333364
0.664631237338296 0.04439475123781798 1.421471482782416 0.010416627422260636
0.6124624206889615 0.04439431195370067 1.3707562464018783 0.010176563361233123
0.6182664704526243 0.044393268715120796 1.250702047551837 0.010585666607788941
0.7369636531385577 0.044397456861793305 1.7330913184786505 0.011357267996751167
0.6064009139294028 0.04439454680823465 1.3977687207356029 0.0108113937432107
0.40663927237812497 0.044385155070498124 0.31623002787584775 0.03152822866807566
0.3978449698393536 0.04438626007567349 0.4433843203198331 0.063494090406003
0.39562146170780993 0.04439603342705297 1.568241479313602 0.07175980686547004
0.5182377602752858 0.04438888951715263 0.746379494137156 0.009726048165791791
0.4896451068078751 0.044391274962436035 1.0208468908641959 0.010200647381051035
0.5195644229289262 0.04439162076098796 1.0607359449800395 0.00975708722658519
0.3843796300080675 0.0443829599873447 0.06352045729450985 0.13983332482707708
0.4318890179039922 0.044399284110185254 1.9424871645023671 0.17814857097337392
0.3907093624843498 0.04438372139943517 0.15117408356236794 0.08095113755620602
0.5633912463462198 0.04439625887237801 1.5946902550968565 0.010290775048388767
0.6554707016745256 0.044397237016676874 1.7075448175935624 0.010423721766779376
0.747832170354937 0.044397274426272906 1.7121263692034132 0.010703183108627449
0.637217363209628 0.044395026030937555 1.4530169063095133 0.010931590481049795
0.4804970541947815 0.044390410451673225 0.9213187050574049 0.009701785210328448
0.44197862303709623 0.04439683922922198 1.661123747909185 0.010085341802410627
0.5301901965693593 0.04438939231932895 0.8042852100217701 0.010597435252008864
0.38968689719323074 0.04439566728964096 1.52608316949634 0.08666936189260711
0.3996295117073707 0.0443940135346901 1.3357739560585873 0.04680428765840551
0.5130011823378616 0.04439864958743203 1.8696990646311384 0.011312717889263345
0.6910836676052128 0.04439716885951911 1.6998066501225477 0.010698078117464548
0.5675190831750645 0.04439723303253904 1.7068235415696356 0.01038931338060806
0.5427805623286106 0.04439085747157073 0.9729545047589152 0.009161091116367787
0.47369883926231837 0.044389576126546516 0.825271754041038 0.010667419615992721
0.6909566645687955 0.04439727040242635 1.7114933508671044 0.010083163823411628
0.4429866566425321 0.0443954437899024 1.5005186814074518 0.01062718881300715
0.6116974236864845 0.04439658393992862 1.6322481984697825 0.010528212836499233
0.47216971753552794 0.04439880815258826 1.8878271517187912 0.10932347964385858
0.6356926454729701 0.04439316415598454 1.238719868589603 0.010415773739090913
0.40443556804994224 0.04438859042829015 0.7116159234605138 0.026852943634300252
0.4480380612103211 0.04439283151510071 1.1998740225941027 0.011015478682990866
0.6628290907949315 0.044396732658344165 1.6495176795845952 0.010891697834970253
0.6553936830178821 0.04439538279600789 1.494133074080403 0.010553284833051487
0.4534123112168943 0.044387004786942796 0.529262844168378 0.010298070203889636
0.37920154242196563 0.044385150559684214 0.31562889609286526 0.09961948508737685
0.492607696570325 0.04439904069047902 1.9146521490640298 0.14345614172165194
0.4569825097866438 0.04438609945035331 0.42507380105392717 0.009613190700662178
0.4796303967949992 0.04439732584995053 1.7172438270945318 0.009693551576413205
0.38801970814274966 0.04438612338841787 0.4276229524998949 0.0811027637888985
0.38306540220879093 0.04439033090103837 0.9118717856841635 0.08650765360964013
0.40636224564382106 0.04438595401812869 0.40818407167835613 0.023946983302954944
0.5707275542827986 0.04439276893268189 1.193037587369278 0.0114305761444436
0.41273968469184547 0.0443979643694134 1.7905344093648439 0.011017794553249392
0.3835632021865418 0.04438390892482301 0.17273597020269463 0.08827534620102959
0.4198574449795309 0.04439349313302347 1.275938753481517 0.011357742443021778
0.5771530956670161 0.044396884254223 1.6667096819174338 0.01155219656338749
0.40348644028410835 0.04439050819158787 0.9323380401141034 0.027088497386295544
0.3796860813960166 0.04439526103320668 1.4792952147586413 0.07894160590537039
0.4393014056539069 0.04439472793516575 1.4181163777969776 0.009574825138448413
0.4061072543966071 0.044398032623215296 1.798370268321739 0.02629770712586953
0.41083116460237823 0.04439640770267876 1.6113641626984745 0.010113781647993151
0.4229919018864994 0.044390464546695034 0.9273729965945532 0.011302272545088948
0.586354639153355 0.04439503625507471 1.4540417204241387 0.010538705099659592
0.39183313065559283 0.04439858465185507 1.861863361848112 0.07792583499347588
0.49180671097664075 0.044389682580674356 0.8375781813738297 0.011052868912175334
0.41861155975167263 0.04439520766570233 1.4732691571920362 0.009988438034660603
0.4645424354370169 0.04438650499437532 0.47177246948451906 0.011025922943666869
0.5719827041165954 0.04439224879834669 1.133176479391179 0.010710968143122232
0.4880007111731605 0.04439540644431828 1.4963548539094653 0.009735218381164461
0.4779206652575356 0.04439390855427772 1.3239251010921889 0.01036917508080415
0.3833441560654249 0.044387547596099454 0.5915281580973387 0.10008065941541366
0.3875530197622107 0.044388693127381466 0.7233856444408683 0.08543123868943299
0.5006777582285937 0.04439911814473238 1.9235908519634664 0.155215396260052
0.6494560195889408 0.04439813362231824 1.8107216703453992 0.011088393653088807
0.6662015319556065 0.04439650848970178 1.6237270653096827 0.009849083743042115
0.6371386361738606 0.04439741507034621 1.7279831432672546 0.01050810559822181
0.4928160925018421 0.044391664088073 1.0656427751208941 0.010304913548363548
0.5229584058545342 0.04439022592019462 0.9002068929598963 0.010576362943314307
0.5299173848486178 0.04439690488138184 1.6689426660437616 0.01021079442111556
0.4110178986142301 0.04438571294571495 0.38045175107448204 0.011582747957721096
0.6313614879867778 0.044397725187411835 1.7636588075057782 0.010099981488400623
0.43472181232029156 0.04438761439856957 0.5993702589088078 0.011747040832277397
0.4850747390364184 0.04439310413980363 1.2313623935155147 0.010733493687378201
0.4587851378806358 0.04439142236833894 1.0377203897958176 0.010005733058718446
0.6199145915948951 0.04439873579108081 1.8799400357011264 0.04104374002266646
0.6001737748372384 0.04439858440688296 1.8624575045145848 0.010287350173866448
0.7405831766391813 0.044399024048347176 1.9134774546225406 0.19467712374380416
0.647296323988078 0.044395927414682276 1.5567917684125465 0.01084615769942349
0.5385450835484601 0.04439773416705865 1.7644150664937137 0.010227337510649722
0.49088464416284383 0.04439705664321293 1.6862930974748724 0.01066209258090569
0.4854081884464734 0.04438769597376594 0.6089105615975628 0.01052213884087487
0.546855365683144 0.04439309879640911 1.230931941479813 0.010954301339220542
0.5120179018015073 0.0443894843936351 0.8148282188119769 0.011480538874193008
0.6367746571223265 0.04439817682540727 1.8156562488368355 0.010717754063702683
0.42852276627885344 0.04438649025579427 0.46996853767254587 0.009772483699246217
0.4375325934382789 0.04439797554656927 1.7918949033334501 0.011121207595864721
0.46153910822607835 0.04439369516665661 1.2993163208881273 0.011480152559407493
0.7262642590157333 0.04439862838055492 1.8678953008838255 0.010858493211646864
0.5537120184051963 0.04439224671274947 1.1328818609320752 0.010780978024373495
0.6954372002814945 0.04439539485011111 1.4956400556390428 0.010765104022088858
0.6164213027725958 0.044396716695977216 1.6475418656253946 0.010663081742619512
0.41290801812236 0.04439197679739999 1.101395357965227 0.010428149681607348
0.4068592258701198 0.04438952995933226 0.8197584811794386 0.01834171154325065
0.5958356832366062 0.044393649922175746 1.2945100672004388 0.010989253752571978
0.5180622077047745 0.04439603253821496 1.5685049232551052 0.01103010550694973
0.5496004208225628 0.0443924255383063 1.1534515051815473 0.010326779267468571
0.5635443660937443 0.0443923183131556 1.1411520794840517 0.011356427842414866
0.4064588057450058 0.044383899573061 0.17172802105723783 0.022995583930558217
0.5602164285214215 0.044393397277956534 1.2653255839034214 0.009819397652311726
0.4835393356479463 0.04438988488495196 0.8608376950176166 0.010627697572139015
0.4274326079246784 0.0443894257352743 0.8078242691250714 0.010754823749409212
0.6728275846797386 0.04439683760850315 1.6616267839789685 0.010237807745628718
0.736749692778939 0.04439761791459788 1.7516270506412226 0.010329912409908484
0.678413719165588 0.04439466309463973 1.4113678142446275 0.00987589440199145
0.7718058239135135 0.0443989894027884 1.9095831899836384 0.1967891683978922
0.4465567965278463 0.04438952017584272 0.8187510317870699 0.010252846270335632
0.4839840313638629 0.04439191380923779 1.0943580482441746 0.010573565956975183
0.6059010413908277 0.04439732734201926 1.717792741832323 0.011022648134823464
0.4329290921340232 0.04439896943534109 1.9062727725878854 0.18134074969183878
0.6504155911457397 0.04439760787796128 1.750213994029877 0.01077972133602796
0.3821186843304489 0.04439440306551563 1.3805546965097955 0.0829127732771644
0.4104869721439945 0.04439439586068687 1.3798101961741904 0.011657942529945137
0.6165114371472495 0.04439746238898837 1.7333676661755066 0.010929572748649934
0.4847280460415299 0.04439353486804546 1.2809360215411885 0.010798367481214379
0.4957868925182802 0.04439587866098675 1.5507278859162958 0.009960369894567332
0.6554205693268601 0.04439446910220857 1.388971573679154 0.00982465169912889
0.5150822219624247 0.04439765740136958 1.7555096338110567 0.011157258305329182
0.6627107507203648 0.04439884469022459 1.8926016189102841 0.1085286255381018
0.510333343030571 0.04438874523784868 0.729750057361109 0.010081287472176445
0.5919947665244758 0.044398455663789776 1.847615387558382 0.011390583537169537
0.5089714390353424 0.04439679244147332 1.6559388276722324 0.011285205667959817
0.5298827439330706 0.04438954477300443 0.821830946216199 0.01105593979997413
0.5089858577215363 0.044395028994887425 1.4529749996789572 0.01011129425097863
0.4138986632953715 0.044389310559015766 0.7945276310796987 0.011178293596355563
0.3789870923599434 0.04439464333581027 1.4081992497699365 0.08804409647023066
0.4475476374827123 0.0443923604260862 1.145652571187274 0.011051213930136236
0.5960978645490229 0.044394415005277583 1.382568084011834 0.01167821924373424
0.45593019029854187 0.04439033874977951 0.9129927920797025 0.010308369047299329
0.414036060414287 0.044392717385579566 1.1866367183173012 0.010948670376951545
0.4106187705139391 0.04438749411487342 0.5854542092495602 0.011317360656408494
0.40375672457938916 0.044384343958644754 0.2228665049264328 0.03020468931706186
0.5491776700058506 0.044394152669813995 1.352234429797162 0.011104903080151437
0.38414905162612156 0.04439625187704502 1.593349710022396 0.09060116628708272
0.7193487747358911 0.044397345317682496 1.7202005322243274 0.010453672858484619
0.5518629025146379 0.04439537120908406 1.4924902186931583 0.011042962226793969
0.5278534519153897 0.04439068649032166 0.95323083021467 0.010590807275586448
0.6970006852480446 0.04439676666896323 1.6535342060462654 0.010723970411647313
0.5032027766210947 0.04439547280306908 1.504037824153188 0.00967556584737399
0.6443708533431906 0.04439650612035388 1.6233891544554766 0.011299770176316483
0.5070489942150901 0.0443947840190752 1.4247737248435568 0.011075740340292434
0.47715649069270294 0.044396676057086276 1.642448532601601 0.009736398786345569
0.4748089864262842 0.04439155377501987 1.0528925058107184 0.010495898538813195
0.4254864480230216 0.04439754117379429 1.7418647889440229 0.01013118738042216
0.37870384493200077 0.04439719307342139 1.7016604341622728 0.09437390994066831
0.5134855457502775 0.04438795804137692 0.639157101572436 0.010288079861793427
0.6166112692243041 0.04439304959084469 1.2254769964217127 0.011360721609387538
0.5595391880655533 0.0443938981781974 1.322974670227399 0.011051968107332945
0.734836549585858 0.04439723844875503 1.7079467176337955 0.01121899820523876
0.6522176956281746 0.04439487453337601 1.435625103381292 0.009600102672910255
0.3771961623916193 0.044387812772396604 0.6220302571800534 0.08943563792795033
0.3979383627682642 0.04439722598200717 1.7055055033280087 0.0649614534039686
0.6392913505409762 0.0443952200236703 1.47535069361419 0.01026927000128614
0.7444361254950637 0.04439871227613959 1.877605544026192 0.041840816827375296
0.46676188597934304 0.04438940319553024 0.8053475385838078 0.01118906476702707
0.40906198274342886 0.044386802885769 0.5058925505553785 0.015127171653493003
0.7201996818343042 0.04439689886809591 1.6688189622920981 0.010311978162854212
0.5430229731301315 0.04439254672689741 1.1673800575299975 0.01074170309620047
0.5241519823850327 0.04439828983603529 1.8283267891636563 0.010175050622648141
0.4966082665495583 0.04439410172760874 1.3462142061594649 0.010162678400161905
0.42573130444602425 0.044392357415738 1.145240927259643 0.010686476815412349
0.3782417833949842 0.04439350280447723 1.2769275785560517 0.09409746246096888
0.4975613445683026 0.04438904746743765 0.7644970181037685 0.010894999940672964
0.5249755959148139 0.04439286836535871 1.2043451241135408 0.00948935833679819
0.5726271137961393 0.04439308902599204 1.229884398611972 0.010915522901564258
0.5455040806497655 0.044394691139444595 1.4141986142968967 0.01108902136598509
0.37668835224687336 0.04439559723407958 1.5179812970408542 0.08327872121175109
0.4613379518166657 0.04439602753072414 1.5677591441910685 0.010559468946794395
0.5372352634983245 0.04439337239155539 1.2623926363463933 0.010653166966771155
0.44370816148845754 0.04439259311406642 1.1724223234950468 0.0108725081422846
0.5590613122257352 0.04439918206382189 1.9311220175364339 0.1562579806410769
0.44609471868340367 0.04438638593835424 0.4580146121905459 0.010082982537809572
0.4040834435383175 0.04439264930037999 1.1787707231785942 0.027392104943034123
0.5238980051320917 0.044398417888770844 1.8430642591041924 0.01027303432188055
0.5113104117148153 0.044388625814038254 0.7160078934483238 0.010814399545754931
0.6395385822669496 0.044393518806337184 1.279549836424558 0.011075296728143285
0.3912285887567147 0.044389731885065876 0.842952431385466 0.07951118924562771
0.538451324111223 0.04439016843762242 0.8936372159079025 0.010098023088131769
0.43722120107618 0.04439886123961464 1.893832807323371 0.1363790818269019
0.4717255699823095 0.04438688466509648 0.5154921250359578 0.009733862699493518
0.5621203891231826 0.04439047813253107 0.9293522512555656 0.010329429718425251
0.586105137357047 0.04439893740173029 1.903043419060995 0.14415086678042413
0.41266516686841564 0.044389145701534044 0.7755496759073457 0.011461316861913094
0.47513513995592815 0.044388196806675904 0.6665232346778257 0.01123353734323232
0.4971865504111848 0.0443938940844953 1.3223172510376393 0.010973385165672976
0.39567954063216537 0.04439796372557959 1.7904093466825501 0.06962591661329527
0.47825717712811655 0.04439755442997689 1.743548141481523 0.01032501194766262
0.41871905066276927 0.04438541337598481 0.345995779555326 0.010688962628389594
0.5873874396419643 0.04439082593711919 0.9694582932344255 0.011055018594545963
0.6498836406633617 0.044395561046622095 1.5146323679963647 0.010502658322428578
0.44567590223282905 0.044394996673891865 1.4490659007477316 0.01062095278046326
0.41178010215323296 0.04438475704878086 0.270435077684074 0.010620833088923297
0.6686389733086271 0.044394646693721465 1.4094509523820262 0.010724338708692783
0.5152070019047525 0.044398547782165794 1.857988377346576 0.010446404100388175
0.68081693489967 0.04439547708055368 1.505060695353115 0.010892763374255572
0.5652042555104417 0.04439925296166453 1.939300353869915 0.1470401059622342
0.41220250349095827 0.044396983859012175 1.6776809677521483 0.011775353304164612
0.3769408799989866 0.044391293387975775 1.0226309175859558 0.08250433523844274
0.44190493537978937 0.04439745379821572 1.7318573413409064 0.009825350247157397
0.7453864759990128 0.04439704658565582 1.6858957495818505 0.011160112641376377
0.4448202760084695 0.044387424605929815 0.5775562417992748 0.010695344503534049
0.4350399422114041 0.044391878030160384 1.090093853923562 0.011160122145766097
0.40790973769491956 0.04438779390608233 0.6199505839057116 0.01740221038432652
0.5019160390361045 0.04438798855271591 0.6426342444341249 0.010781766540338841
0.44157169693234555 0.0443861183248129 0.4272001229431639 0.010592246111736807
0.44473452479299 0.04438765603019602 0.6041917597655903 0.008977275747709762
0.6597456021692208 0.044396353399256905 1.6058576471515988 0.009462265713196886
