x y z curv
0.6988412855140426 0.04459378389373886 1.192717931908513 0.010674296766984248
0.6443088902835458 0.04458749352652588 0.46942338672092276 0.010665133838781801
0.7234959972586708 0.04459510271442925 1.344388440484156 0.010355797773592934
0.8027870440997 0.04458842239238045 0.5765312775280008 0.014882374844128354
0.7439373581317122 0.04459251749623346 1.0472147391811233 0.11173655765133186
0.5796717462880961 0.04458432208715253 0.1046823551320333 0.010443054046945097
0.7575959213209122 0.044597651488170825 1.6374819994961538 0.010987706672008013
0.6625908118735493 0.044591039610889935 0.8771429446343189 0.010522332598211274
0.6576513916506528 0.04458514606110906 0.19956912778597116 0.010935298655265959
0.6505828648107806 0.044591962118101285 0.9831766860139969 0.010236642621130517
0.8068386239742285 0.04458608257880266 0.3075380291254877 0.016474044695312898
0.742464232821793 0.04458450174452179 0.12566465932682375 0.010377053377609694
0.6393241919209603 0.04459178165611557 0.9624068498062655 0.010478118644643862
0.6407148721773132 0.04458720646630228 0.43641369404789043 0.010433732645344947
0.7014940310081088 0.04459083761366396 0.8539982202529657 0.011033397320549702
0.7941964327991158 0.04459340200163061 1.149004841810808 0.01252084118531063
0.6680822947708775 0.04458950474909192 0.7006955042856342 0.010958708625866316
0.6111233250906203 0.0445904765435291 0.8123051842518969 0.010073172820408791
0.7180595230293564 0.04458527395474039 0.2143942534691341 0.01078083073507039
0.7245112372238258 0.04458855685245221 0.5918322162435287 0.010431194238863956
0.6587420247424227 0.044590274646371525 0.7891895049483223 0.009908803797096515
0.7853773238276518 0.04459567554848905 1.4103700077519263 0.011790417339565113
0.648780680651449 0.04458665111035641 0.3725823069918362 0.012136549539133346
0.7477955311929605 0.044587987832877284 0.5264605906863825 0.010836062032743227
0.7445227981641938 0.04458667825535945 0.3758957748684276 0.010596514050510679
0.7957909397856013 0.044596738972787126 1.5326496921032753 0.013916499596131471
0.7890012806190425 0.04459353061381546 1.1637805462791015 0.013895146387692563
0.6458323460520723 0.044584989537975926 0.1815503424148476 0.009377889931323897
0.5692358776213736 0.04458425585144354 0.09704642991043688 0.010422650376223511
0.7523470612512719 0.044590444463316836 0.8089012403335253 0.010808820221815582
0.7426458159930798 0.04458789953544112 0.5162989331114293 0.010692397022792267
0.7066778376941666 0.044588990935465235 0.6417015572290916 0.011433634427598725
0.5088348175406118 0.04458735257617535 0.4529460934642078 0.010973031129326929
0.75262334008522 0.044587872831541295 0.5132489456950305 0.01092041771868842
0.5979704445408727 0.0445903371001382 0.7962473215715766 0.01019210737319765
0.6808115817061041 0.04458472126368969 0.15077804440150805 0.011298166476342554
0.6246229655988091 0.04459072456063253 0.8408461413674218 0.011635259655690086
0.7968845190109728 0.04458780102772002 0.5050829527924378 0.013651439856360328
0.7916778224434338 0.044595515718228534 1.392007478633339 0.013598269076803159
0.6423057634585841 0.04458430244070242 0.10254971656066139 0.010359480694303258
0.6807350370918952 0.04459299576550582 1.1020727347661938 0.009998208442152528
0.6031119361211907 0.044586045181278136 0.30282853290722456 0.010208711059567109
0.6685241059716946 0.04459363700332876 1.1757693632509938 0.011674812143794224
0.6283231265653005 0.04458628760994705 0.33075057464955177 0.010505293245424095
0.7207598771289007 0.04458625974268545 0.32773279392527277 0.009124562786432427
0.7877647523848774 0.044598636401436076 1.7507752628411712 0.011568691459382512
0.7446220083354129 0.044589378401842565 0.6863237786052298 0.010606285792230939
0.4688947054148885 0.04458513910051088 0.1983890025631646 0.010773512776094724
0.7105192398591135 0.04459335044282629 1.1429088733708466 0.010540008244855204
0.7427942473056552 0.04459297232774482 1.0995030636270797 0.056917061897701744
0.7675368702866209 0.04459448102841406 1.2730036851128677 0.010554990092338106
0.6236774695950448 0.044588492374952424 0.5842164950380496 0.01068015475903813
0.5148854201415918 0.044588266769829146 0.5580603939665048 0.011252970555357442
0.7894925027695424 0.04458615850224132 0.31623181060211164 0.012656602864459894
0.7357289890390858 0.044596626127629393 1.519555341351489 0.01105315386179231
0.7515800742578516 0.04459471049649723 1.2993528334514706 0.01126640436061321
0.7725034885164896 0.04459592316839766 1.438812222104031 0.011215278681874878
0.7536185733358325 0.044585803097526744 0.27529978966380475 0.010620577751919697
0.7564323122737662 0.044594625117615264 1.2895468429924781 0.01038643353344488
0.7446400891183025 0.044587578712954115 0.47941894033482957 0.00992208769451888
0.5688976275804998 0.0445886137052766 0.5980552330199168 0.010611238696679796
0.6126777423493581 0.044589658466850465 0.7182564719205986 0.01070383163209402
0.6210079953518901 0.044590588577350654 0.8252052728305516 0.011648051311030255
0.756232892367396 0.04458984851193076 0.7403943038561192 0.010581834346421293
0.6506590163768129 0.04459250453328196 1.0455366980761738 0.010600741230213128
0.5765498002456804 0.04458672211237484 0.38059982803626274 0.010083287331307129
0.4464394376845525 0.044584168745903714 0.08678502888788842 0.010777083884490562
0.5935043244977185 0.044587507064129395 0.4708775169781173 0.011346209224187864
0.7024390866426578 0.04458383321777657 0.04872557593416921 0.14403284973273445
0.7335542691417489 0.04459205523548019 0.994049099625543 0.009471415096004977
0.6974736993798633 0.04459356405635989 1.1674411304404972 0.010405370043733273
0.7543663383528652 0.04459584444243894 1.4297248306850723 0.01122249758411884
0.8081074369640167 0.04458812740412406 0.5426280633977609 0.01592322061433438
0.7047938991652949 0.04459255097196521 1.0509845654825498 0.010885008747847938
0.7043684124330987 0.04459326214939033 1.132745660878338 0.010449672779540481
0.8104618018014591 0.04459051628005602 0.8172747570320589 0.016206588652213
0.5654451385837954 0.044587516723216106 0.4719315223606393 0.010149833747282443
0.6256854900642405 0.044589002657587494 0.6428862119969214 0.01121744671358439
0.5474179937488848 0.04458442335435968 0.1162598315894163 0.011082724033416341
0.5789527323402784 0.04458373009180868 0.0366209654818451 0.1578443943386114
0.4565051850211395 0.04458395181416783 0.061865290936761755 0.1274472027948719
0.6364709492950419 0.044592106477027216 0.9997448008261136 0.010820815475254694
0.7134549503047825 0.04458657378539514 0.3638226478249322 0.01138966942186905
0.7644917095204717 0.0445919527829875 0.98233270524665 0.25483486103193154
0.5877980276656767 0.04458743899532222 0.4630403645059239 0.010720845497439836
0.6954213362048697 0.04458695200859154 0.40726954901510415 0.011107229588647835
0.7986825110484173 0.04459225526791405 1.0171773082606836 0.22644897214309587
0.6061199688055277 0.04459134798004176 0.9124815766444144 0.010936769353296738
0.6153027131571112 0.044588977377302635 0.6399589168328447 0.01061740179927217
0.5375042027409155 0.04458601227877756 0.2989137902214609 0.010913189543960011
0.5541851426133476 0.044587612132618415 0.48287779582853774 0.01078721456244334
0.6505900082089345 0.04459327291568434 1.133875196873061 0.009536862805810073
0.4887690793762128 0.044586935599133744 0.40496710044586126 0.01022601216628337
0.699928890894752 0.044583732986370195 0.03719721754176082 0.1609400795050612
0.8007043795244626 0.04459125887030513 0.9026285101316309 0.21252499215473414
0.5128989409615476 0.04458493974510967 0.17555826706391103 0.01097988049244704
0.5771827127584539 0.04459088975714327 0.8597428156833521 0.011501138435956423
0.7562157664313749 0.04459682734140788 1.5427295216086885 0.01006094947668256
0.7170206631116176 0.04459434159514716 1.2568717900638169 0.010399320939505323
0.6613462195164981 0.044587464832793015 0.46615884247286987 0.010424150638937901
0.8078484955094065 0.04459960066691224 1.8616744143913335 0.016954894294890433
0.6155982726042666 0.044584834606633414 0.16367749894883557 0.011056721850242118
0.6209765635830022 0.04459212193117092 1.0014903341985009 0.010594802574706061
0.5547947573310246 0.04458868714516697 0.6064700156106388 0.011823593792302104
0.6580715327583446 0.044584069906647754 0.07584769815016343 0.010179999078509621
0.5815545628898644 0.0445863028878453 0.33241290414660785 0.009588966373076416
0.5607012829928335 0.04458461156537159 0.13792462495647073 0.010478765614462558
0.6027488118008442 0.044589764991305444 0.7304832887714248 0.010884039147271743
0.4766737516806673 0.0445843100795173 0.1030945824183329 0.011094278404696956
0.6636560073015774 0.04458735516163812 0.4535549248438717 0.010149160912578918
0.6899851018295207 0.04458903672144859 0.6469318401576898 0.01047090615139406
0.5286423628882354 0.044584865594058054 0.16706502610493806 0.011062157966199148
0.770459098037299 0.044592293414039336 1.0215060531593314 0.28912648501519383
0.5308382534109074 0.04458762801427084 0.484656674896407 0.011250175367239827
0.7236494798235782 0.044585412805233315 0.23036873152314544 0.010526659910936565
0.7061624070521669 0.04458437702291341 0.11125272730005234 0.009463483164309523
0.7988369151885377 0.044586750626893906 0.384325425708795 0.013760687731549058
0.7132926656887387 0.044589100718810615 0.6543363344734299 0.010190987458561705
0.460703674414976 0.04458563662790059 0.25557176062946463 0.010296115853659431
0.5303823266587409 0.0445882046905895 0.5509545171691248 0.010889571239173492
0.5942555497446793 0.04458829442668799 0.5613997586152595 0.010898356550193805
0.5981044406412093 0.04459158312068073 0.9394988641930581 0.01090954103058678
0.6976013769321845 0.04459152913365641 0.9334923812102628 0.010779849515805798
0.5663856628107117 0.04459035843758362 0.7986368575881613 0.011521015592726168
0.5924371961367113 0.044590974901468114 0.8695623059833683 0.010580856998459705
0.7441976363023708 0.0445915181454753 0.9323228809500959 0.14501248101094627
0.592673422668968 0.04458636650871838 0.3397495840337298 0.010209468028161313
0.7527791635651784 0.04458831823699904 0.5644561990105352 0.009562854565046268
0.4892505324433728 0.04458402220419554 0.07002372519455421 0.05630327215557746
0.6705207815329302 0.04459392550146893 1.2089411541480821 0.011238931304585316
0.7206530451528861 0.04459472439011037 1.3008878980005991 0.010304321202321937
0.6712502260429299 0.044589265846529905 0.6732359635160277 0.01072400964414671
0.7698124000978243 0.0445869123998278 0.4028655645386137 0.011498509313554785
0.720004314790885 0.04458968012573982 0.7209625321577491 0.011058867182699123
0.7832024369898074 0.04458460644974845 0.1377842960479893 0.011838142361728038
0.5738174273486133 0.044585543702161806 0.24511601433783603 0.010488398836603454
0.7352749838837499 0.04458544784809869 0.2344209025845996 0.010424375368290956
0.5165918642016114 0.044586296782357954 0.33158023248770907 0.01024237723131628
0.8041820474024378 0.04458525299382426 0.21215776690621108 0.014388202784591027
0.8027037446560583 0.04459778947278652 1.653436462679359 0.015326808929737661
0.7989667555411623 0.04459016906070424 0.7773328470899584 0.01386310863932472
0.7314230074423158 0.0445918119719817 0.9660775299741257 0.010347609866940723
0.5200610321599368 0.04458780270294373 0.5047184217428903 0.010834898850571779
0.504064641289204 0.044586598311499956 0.3662209285220631 0.010947959965600261
0.5477176622406231 0.04458859184506336 0.5954994032173768 0.011503579073806062
0.7969512491822569 0.044587289897361486 0.44631995117135526 0.014726564044267915
0.7438118587697203 0.04459594403947087 1.4411539633661345 0.010059449431477045
0.7788590794040683 0.044588237212224796 0.5551935095357333 0.010584209671228577
0.6925202716135517 0.04458576206105218 0.2704589837463554 0.011111190384037942
0.7109625747227886 0.0445959622730352 1.4431841105139944 0.010943550513710357
0.80401173288688 0.04459897486453235 1.789720055749627 0.015455319080646037
0.7321579347396445 0.04459320325442999 1.1260306109391938 0.011586827956290678
0.7175231538361699 0.044585757629387046 0.26999980843731336 0.0108482162763132
0.7117773061256703 0.044585061374909266 0.1899419396379356 0.010245571223682108
0.8033925737972785 0.04458510084294551 0.1946638443880726 0.014942767678815668
0.7322644571444955 0.04459478747242742 1.3081636529991647 0.010663282161020528
0.5622038111033484 0.04458556341915833 0.24735944552892944 0.009732343935500013
0.7898131118141494 0.04458554960898744 0.24622981084757783 0.013017236073135435
0.708609273016479 0.04459000679666472 0.7584959827293719 0.009892840020567771
0.593771456436541 0.04458509854405888 0.19397767114700137 0.010656252099531898
0.7509335893312494 0.044583887441611875 0.05505712744067581 0.15566893934896558
0.6062678195776137 0.044591843445286924 0.9694440386682124 0.010268383699179602
0.7560177278018295 0.044586733208317804 0.3822366872659055 0.010998263511314018
0.7355099673483821 0.04459349296469667 1.159344484164047 0.010464756576100753
0.7527763497752598 0.04459451611105948 1.2770073258570507 0.011145047629814457
0.5980438113522859 0.04458913894489673 0.6584991274721618 0.010508687411968549
0.7056045425651323 0.04459182879002134 0.9679590884756964 0.011154624806007317
0.7691781774533233 0.04459682832087852 1.5428682161877656 0.010848834420387867
0.607404967358152 0.044585167077423854 0.2018841865169307 0.011260466613443446
0.5459368075177051 0.04458391714205763 0.05805912899408246 0.1259828530054561
0.7505237375245979 0.0445942019925626 1.2408895237183357 0.010533161861997912
0.6932525555846638 0.044591793897206494 0.9639227061792498 0.010132940145919435
0.7481708513231748 0.044591135059744026 0.8882886510672273 0.18698939509837473
0.7183756578707313 0.044593763156012635 1.190373091534746 0.010554151330068652
0.778747476628417 0.044586006612928636 0.29874792331514693 0.01066293489539895
0.7807645540190409 0.0445836368687099 0.026309543632855804 0.1772501230060974
0.7286984028673024 0.0445851890839369 0.20465832129950118 0.009598692001929102
0.5493597845433876 0.044586235121113295 0.3245571704464446 0.01099611021030346
0.6483832205252158 0.04458961504487474 0.7133362363783585 0.010465425122532538
0.6048875268647395 0.044591058100802966 0.8791525430221557 0.009764847893260455
0.797269813554186 0.044589126746663446 0.657497689095661 0.014560654484439826
0.811626034812463 0.04460023492699252 1.934601010481785 0.17775559711484284
0.6881141412066192 0.044595165379853585 1.3515216893455124 0.01125281993601778
0.5010989322267003 0.04458544179731521 0.233253966415794 0.011106739898000005
0.5690316083736684 0.04458500052383709 0.18265878734359706 0.011500605085248897
0.7095753987078821 0.04459165135639427 0.9475680641335825 0.010927517134881683
0.7264271668216561 0.04459651593575839 1.5068681893687306 0.01016221098948048
0.7321497093750802 0.04458752894816809 0.47367249325391 0.011437216328501887
0.7734278659778206 0.04458719093176037 0.43489482814089614 0.010110134931461215
0.5768496862366961 0.04458727496681646 0.4441604611378237 0.011312770641457071
0.7959999841706553 0.04459149021608567 0.9292161779870419 0.2587993839408941
0.5982893070791926 0.044586781252578346 0.38744275347085577 0.010409602887500346
0.4846566669709119 0.04458437818053907 0.11094002035798273 0.01124805324229937
0.5586883276998521 0.04458880428257878 0.619944791264072 0.011151944380739348
0.7241151679522402 0.04459120764439922 0.8965850790866762 0.010130542198239135
0.7286871159464108 0.04459162311611574 0.9443598270300739 0.011867845661786967
0.4646923021922925 0.044583746526388975 0.03828044319261574 0.19534270632723513
0.5376854265361997 0.04458756300358785 0.4771963705932093 0.010699605968533876
0.5737759859799958 0.04458985207246309 0.7404364404374563 0.010395146838292142
0.5767912656829309 0.044588827040565236 0.6225976426500965 0.01053994807454666
0.7783792277861219 0.04458883914309783 0.6243947446011989 0.01086880216054252
0.7945092002254714 0.04459046359100877 0.8111851483805212 0.013521776942440928
0.760005347065463 0.044591563963640224 0.9376222731102271 0.25098014757132847
0.47046995568275995 0.04458364505409432 0.02662610344110335 0.19970564768059385
0.5704959496075496 0.044586442353777955 0.34842463106946336 0.010809673171517037
0.49118286128748967 0.044586319776876306 0.33417270643134056 0.010158126675755275
0.42009072541832737 0.044584254653376114 0.09660852666533214 0.027137663882525403
0.6775804735313689 0.04459117956010455 0.8932626570112939 0.01027734113735865
0.5056599202538308 0.04458772576037458 0.4958435803509326 0.010346529036843665
0.7806610265039302 0.044591786421351545 0.9632391450182237 0.30074597115417884
0.49493531378290956 0.04458523804863128 0.20981718198024696 0.010282587811176306
0.6485036821195771 0.04459128786595268 0.9056557389280403 0.011600471582351507
0.7755083494671715 0.04459623865340724 1.4750886420948963 0.011194617479726329
0.6105172906597935 0.044588346022118704 0.5673642595950136 0.010682323791062667
0.6889418956182849 0.04458770923678989 0.4943127807336451 0.010583066196219515
0.5863265640634522 0.0445878768603476 0.51337744172846 0.010372236328996936
0.79245447600901 0.04459844086205385 1.7283041204921938 0.011916836581427734
0.6556160069151933 0.04458793482681308 0.520181123550853 0.010607467174512504
0.609351042057187 0.044589171745383085 0.6622928583460681 0.01068059168432454
0.8028426071475312 0.044584996745763716 0.1826949944015221 0.015172608943836865
0.572115526535461 0.04458810059029497 0.5390704071348048 0.01105236552414942
0.49383169722353576 0.04458390013454306 0.055998960507681494 0.12323917863398723
0.7019609293842789 0.04458514921359303 0.2000207355129634 0.010902372770919828
0.6126208839757782 0.04459006715800778 0.7652423633595127 0.011232420906988708
0.7912673003709493 0.044584989744517134 0.1818667858106537 0.013562563821207194
0.7946655146273944 0.04458989599181184 0.745930272784565 0.01436510581581648
0.7631382909063047 0.044595519579221546 1.3923939277154507 0.009700751486715039
0.7457835494151145 0.04459319670543507 1.1253051149846571 0.009998951670804376
0.6459576576453281 0.0445894419178241 0.6934274530719138 0.009996197545470672
0.48048800228565697 0.04458593764151612 0.29021821736407777 0.009911880737979623
0.4831199151563209 0.04458607951799884 0.306534631189136 0.011332849824923635
0.7234498054083829 0.04459571560628801 1.4148507002236554 0.010689318443206797
0.8052142335690005 0.04459134334700327 0.9123496210642121 0.17181548366695915
0.7323376840932685 0.04458953712657439 0.7045471655142265 0.010282964614188608
0.6192974271283116 0.04458520133318271 0.2058464035518869 0.01078052725359811
0.45735853442186347 0.04458429788434492 0.10165366652898794 0.010571117228997878
0.6759593141751461 0.04458900618388224 0.6433927991777241 0.011489486606040808
0.7121208895268974 0.04458722432698293 0.43861079291945443 0.0115722449476947
0.44109690513397015 0.04458469046441196 0.1467547006462243 0.012060653420325383
0.8029989232387907 0.044587724539897074 0.4963016811218159 0.014894643414081116
0.6996266029081539 0.04459017689787834 0.778033934698594 0.009869232523807779
0.8042152725777832 0.044594870348708134 1.3178364983329847 0.01487360264216731
0.7768387637855443 0.04458702919465118 0.4163072587826905 0.010182897227101754
0.5617280818217567 0.044587900312709955 0.5160241838634441 0.011505758797785945
0.5563765441327725 0.04458721606347117 0.4373473152341412 0.010645915311864521
0.7378782447852695 0.04458441625296567 0.1158267199698762 0.01036727732172869
0.724907649543663 0.04459191385434119 0.977777528977971 0.011138622604254357
0.6537436865346808 0.04458998724639539 0.7561379256450409 0.01006979453400844
0.7058414427545239 0.04459472026506464 1.3003838443914808 0.0107798191928551
0.7150031989010031 0.04459532473036151 1.3698958590292827 0.009698517244892263
0.4820311170045642 0.044586606837985335 0.36715684916485475 0.011016299248854939
0.708330785901948 0.044591419967983284 0.9209635223895621 0.011165481602927655
0.8066214453743363 0.04459770422674106 1.6436438632172545 0.015743277852855477
0.6294614652111225 0.0445891963246988 0.6651591427381396 0.010180703070447735
0.6289396809449246 0.04458591381237817 0.2877774216378887 0.01125640667595162
0.7473797152598668 0.04459762291889319 1.6341769138587081 0.012266232495240918
0.690914033592519 0.044593942847128545 1.2109763758434833 0.011376247687634478
0.6639360160338021 0.044588502094354235 0.5854149288611471 0.010416905813436673
0.6167281758591387 0.04459180268898205 0.9647794598055252 0.010959945317433975
0.7943601821165927 0.04458685535631512 0.3963568457962607 0.012855758200788674
0.652274128681949 0.04458862237014245 0.5992192078665773 0.010556276899385689
0.7463451481761172 0.04459696512887211 1.5585506709346726 0.01033100666059252
0.547543025433851 0.04458944597815394 0.6936961908102045 0.010747407724887893
0.6119072015696864 0.04458470862460704 0.14918629182921775 0.009791487017421842
0.7440076493424992 0.04459105194492802 0.8787248093310014 0.1134970311675878
0.5670329376819394 0.04458490648834191 0.1718437838998109 0.011335768575851038
0.4450544938697769 0.044584867815755026 0.16715222158831874 0.011226396312872198
0.7944086284454321 0.04458581552706972 0.276810870048157 0.013643117596341334
0.7220794229338703 0.044589974150413075 0.7547698499657005 0.009708482617050668
0.6412059505293667 0.044588330183482947 0.565605101850378 0.010380931524147893
0.5769413407285761 0.04458819074486577 0.5494449220782262 0.009599995421452678
0.6774306791188318 0.04458739865292802 0.4585827114755799 0.010801572989356174
0.7346876306553973 0.044593766740742724 1.1908180462642963 0.009848915895644026
0.45818490925245287 0.04458622358547298 0.32304745643387883 0.009874252458411373
0.6989210331678191 0.04458678960380455 0.3886053974425567 0.009763217149135955
0.7672513932063423 0.04459341875034785 1.150876163211628 0.01042366744342879
0.664245518123691 0.04458989460252201 0.7455080709490411 0.011330339094310143
0.7380874243229569 0.04459279254176077 1.0788241313718125 0.07819106314378885
0.8069159517259388 0.04458555072593659 0.2463926438223222 0.016698924817567164
0.6867969379709808 0.044592863233627614 1.0868481392130411 0.011044803721473734
0.48698259502734775 0.044584549687390056 0.13066233361102134 0.010789312423492679
0.6654628772598403 0.04459400847499508 1.2184701940920724 0.010206068074188095
0.6869118754935868 0.044591502835659005 0.9304474653606039 0.01107629714002676
0.5170231049416739 0.04458554609888336 0.2452772557548833 0.0108433281484936
0.7192102721661013 0.04459321836639018 1.1277419299490492 0.010710734289251372
0.7696634408845848 0.044589010357163894 0.644061175023675 0.010956253565154265
0.7840174176826009 0.04458946377140193 0.6962177487426973 0.011420779696179982
0.7973263193687625 0.044598560157558184 1.742028974461787 0.012448696570509619
0.7710562227097308 0.044590863337353015 0.8570955949682592 0.19697997254197697
0.5597706940032094 0.04458407453520504 0.07618199232431122 0.010441003326920837
0.7184109077628722 0.04458708420525556 0.42251407410078334 0.011422906874422375
0.7673366077298822 0.04459729595816067 1.5966273762870846 0.01176014386431279
0.6393582905116639 0.04458894675611738 0.6364869038331454 0.01072389714144693
0.5230176481371946 0.0445836474168244 0.02700349537422421 0.12938337961666416
0.6650390606464032 0.04459225616914217 1.0170119530302018 0.010726829449882826
0.7721274925685069 0.04458635702316896 0.3390202224564173 0.010265681726592684
0.69492937705785 0.044587258511421965 0.4425062770074946 0.012149661560911827
0.7448509961702681 0.04458568588086819 0.2618060939709226 0.010856629297233786
0.6997238996090784 0.04458534578871756 0.22261589028953785 0.010501219031226425
0.7364422054019886 0.044593080817724486 1.1119630497381143 0.013730107261247479
0.45823105119164015 0.044584070558340745 0.0755204284753985 0.03634711676331497
0.7833389776026654 0.04459205829369278 0.9945008884148244 0.30650421812871054
0.5564656324705802 0.044584183281350075 0.08867756126509001 0.010990661290166385
0.656963820190443 0.04458550741237027 0.2411112229258354 0.010820010080060003
0.6950916408627283 0.04459463139359633 1.2901449214846112 0.010536547424151704
0.7090928450854486 0.04459397171335354 1.2143316259326853 0.010004009640470938
0.6461687334558245 0.04458551351626674 0.24179124387023304 0.010632018963348776
0.7895604529335052 0.04458963966020159 0.716450316242917 0.012921361481854129
0.6515362819410299 0.044588155532040444 0.5455467358732069 0.010642463545594531
0.724657044816396 0.04458905829163372 0.6494814798370142 0.011266360935482495
0.7666394611656828 0.04459747700918962 1.6174408711236663 0.011450955329276065
0.5613026728762255 0.044587372753372954 0.45537140102529977 0.011180133878305952
0.7137535022392245 0.04458611374473131 0.3109337428896392 0.009347682318893324
0.6255248802561237 0.04458651598889281 0.3570009905989965 0.011520935024680727
0.7782100556623183 0.04459726305351038 1.5928663101562852 0.01046020820639103
0.697492022350483 0.044586357615410396 0.3389381016134827 0.010506466446419687
0.7643407049489858 0.044593253955149945 1.131924291864112 0.009727769265579129
0.7718196890458409 0.04458458128538181 0.1348683151453759 0.010634159194014562
0.8117507114275246 0.04459751699326468 1.622128510750981 0.016351527541778092
0.5210500153024863 0.044586711780973315 0.3793003603741879 0.010631476112348421
0.49513423206189133 0.04458686174812246 0.3964894798112606 0.010761112176778217
0.7136197866884588 0.04459154635125394 0.9355040753134864 0.009909946196662325
0.7648882571610272 0.04459179114387894 0.9637503361406293 0.29120195703136664
0.6918081813176415 0.044594107272942204 1.2298817217545537 0.00950364428458274
0.6487877833692965 0.04458446945822245 0.12176426921977508 0.009653261464165366
0.7108548404215314 0.044590167239985476 0.776946193111743 0.012271984186460153
0.6301127208573754 0.0445853195375437 0.21945777362599309 0.011219948717056866
0.45926406341969234 0.0445838740371673 0.052929053126809594 0.16328594817014322
0.6020666515040443 0.04458881680950535 0.6214722766202528 0.010132859035145231
0.6559049571456284 0.04459397126060762 1.2141725307563045 0.010128052105206727
0.6374891193075624 0.044585989050875276 0.29644457403970237 0.010812253950123904
0.7604022004258971 0.044585304431792684 0.2179833270399083 0.011002388404503256
0.7449785885831837 0.044588636162560716 0.6009914553179352 0.011362525152797964
0.7286062814541174 0.04458772254058688 0.49592210601121856 0.010582882069831845
0.7970508756259866 0.044587963329161436 0.5237426012206499 0.01569850637040422
0.7040328476963276 0.04459547315690235 1.3869379380361597 0.010645039337230655
0.5433637027359477 0.044584179744647505 0.08824458855286593 0.009830096395389166
0.5581051845519318 0.044584465560592264 0.12113366523738198 0.010608968414376193
0.7517882819763038 0.04458889833396956 0.6311462268111596 0.010792183418126612
0.41507569987790416 0.04458401949762206 0.06956327648438274 0.07522700103013578
0.7702330992102394 0.044598509957162615 1.7362030574153628 0.010362815742951148
0.7968426274876159 0.04459034995411218 0.7981253488085167 0.014016883327135835
0.6974257044285509 0.04458395255730889 0.06243559696528249 0.07346736623308316
0.7117948890181797 0.04459227345470613 1.0190933222261953 0.009606446874045625
0.5644734578571242 0.044586083551555966 0.30716208691177654 0.010527926373389222
0.542019612407876 0.044585687639963435 0.2616001196392418 0.01113801784450984
0.6428629965823254 0.044590699949587836 0.8380533921464411 0.010364802724877036
0.55015643942482 0.044584320591870244 0.10445104536904802 0.010620677444922991
0.5151501152759208 0.044584323445074264 0.10470861707887971 0.010961608438445136
0.6172317671915368 0.04458881672673754 0.6214932819024506 0.010393837966485603
0.7953163658157291 0.04459728572838517 1.5955076006580842 0.013541392729251244
0.629956994599608 0.04458881862977532 0.6217376788973324 0.011070213862086325
0.8053689451357099 0.04458993617531877 0.7505715923681712 0.015457567038125848
0.5294636759222071 0.04458745859617464 0.4651764142246711 0.010041535414536739
0.556963390110824 0.04458597148646277 0.29426318217962644 0.011768051847668841
0.6681867177529793 0.04458594211603351 0.29111039603897426 0.010107380503665563
0.7493091369042274 0.044586265970181574 0.32850620799052554 0.012010914987794987
0.5133650582742079 0.044583763159069825 0.04029061031058325 0.1537049110318865
0.4637950333445815 0.044585297749150724 0.21661810101826628 0.010573269071117185
0.6443625613228083 0.044589087487163365 0.6526764047414128 0.010894720278367818
0.6237141911042617 0.04458943443278872 0.6925221543097083 0.010702719673400527
0.7168991770623866 0.04459249182190764 1.0442086221398938 0.010829449650789056
0.6066115465807422 0.04459119607961663 0.8950190262398396 0.011208449282574678
0.7516114543654556 0.044589768538606904 0.7311907078897449 0.010625410899928663
0.43515478706800426 0.04458539027570186 0.22719796270392925 0.010769864245820469
0.7212889118633486 0.04459612000389125 1.461338740014261 0.010016354689559026
0.545729862136137 0.044589313803181825 0.678496778573562 0.01063620582101108
0.7309955944661538 0.04458883469064457 0.6237874964435992 0.011207605717650324
0.6547017429118485 0.04459087846769334 0.858600913671183 0.00984025197869694
0.7235167626429908 0.04459450898054815 1.2761286652378212 0.010559672982902632
0.5508511294695303 0.044589213199532234 0.6669409833381881 0.010180895984110627
0.7919796249155666 0.044598828680363974 1.7728894815797163 0.012647117377449866
0.8019668470361256 0.04459845502639746 1.7299516972249784 0.013806198120054892
0.6563602785258587 0.044592130863516086 1.0025884715236997 0.010901437847723414
0.7755798988856526 0.044592564690528455 1.0527042096149428 0.30764488467902973
0.6332858473629552 0.044584897771213466 0.17097494018005524 0.010662773710922563
0.5711685876748301 0.04458529256913619 0.21623866691596452 0.01072820182964444
0.6258253839799227 0.044591603862622495 0.94193929382584 0.011123893133580986
0.6838673446780678 0.04458588697025165 0.2848020079937205 0.01081168229329688
0.5034572549819323 0.044585866235627304 0.282055122088726 0.010899019683886953
0.756245194013965 0.044586919204885604 0.40362061683087086 0.010395977437987371
0.800084076342912 0.04459331541890955 1.1390625333798834 0.013510127518045954
0.540507339950694 0.044588679054307884 0.6055110792027368 0.010286506942391178
0.7029550938352696 0.04459527927808965 1.3646460989736724 0.010912908880407897
0.7774353140202473 0.0445853158111183 0.21932585456039394 0.011000398303844437
0.606968704307057 0.04458559331604686 0.2508866942779848 0.010259873816602018
0.5703008798666303 0.0445865776843766 0.36398279458662863 0.010304584765773239
0.7682898357855332 0.04459402928556017 1.2210696692273646 0.01046697060479601
0.6977121465468368 0.044586139847759734 0.3139024460264695 0.009643955318037791
0.7866729609235763 0.04459873301278468 1.7618801847163017 0.01130846271117326
0.6308973224706993 0.04459135739717682 0.913614102780062 0.010247905111671545
0.5560546229543097 0.044589610202121086 0.7125936616773692 0.011194389112658978
0.774312823169576 0.04458735200383361 0.4534145860023883 0.0104345702670565
0.6395633212389998 0.044586594905250784 0.36610202271687486 0.01088665318230589
0.5289454706946436 0.04458860872076798 0.5974017724044459 0.010903108749380296
0.6643323871073796 0.04458906384527344 0.6499985576923824 0.010787194650290276
0.7272210926106286 0.0445926428559843 1.0615933339475567 0.010627782743618721
0.7752757197637645 0.04459776605856084 1.6506893980384094 0.011262190087559064
0.5022069267533928 0.044587024798470556 0.41524912729729113 0.011059053140431806
0.5281176544160269 0.044586633220256446 0.3702826927113464 0.010513016169613325
0.7557565585130959 0.04459657469459678 1.5136825455620406 0.010271294672876925
0.5342814335980955 0.04458876345577173 0.615201934206833 0.010371110075542303
0.8104123950263377 0.044584262406579915 0.09828543895483763 0.017076381752370518
0.8049040106528798 0.044584846214206046 0.16539297799709485 0.014958055120896235
0.7735251539516194 0.04459032291172797 0.7949694383510728 0.010515174450029677
0.6409440038136581 0.044592811184438474 1.0807719166436092 0.010631253830848293
0.5558774373768998 0.04458497743551826 0.17997791836755367 0.010659805176915406
0.6372115098819409 0.04458969095625899 0.7220410584271728 0.010938795259779076
0.6953539998760407 0.04458564861093995 0.25742166510707704 0.010961832166576702
0.5241848844349933 0.044585672547147716 0.2598290499091221 0.011160721318496115
0.46076354724054575 0.04458419993968758 0.09040011363765744 0.010569836658022674
0.5564249958696846 0.04458575475748399 0.26934541303562354 0.010363713491797419
0.6697078981577886 0.04459298829984993 1.101192237646064 0.010973052725148168
0.5016318672867246 0.04458398149074405 0.0653679391593398 0.0919068006526043
0.7452761526367754 0.04458479732720248 0.15965257949849182 0.01037653365191401
0.5175249171495014 0.04458398942780036 0.06631242476828313 0.05746715921702003
0.7546269204744391 0.04459775858340098 1.6497884440134107 0.011298128550820808
0.6264717005441399 0.044592451250041694 1.0393622038861907 0.01112132577325424
0.48878972394357145 0.044587209617584174 0.43647022761340054 0.011324323538150103
0.4602137493230778 0.04458520665155511 0.20613767402300678 0.01118206581808782
0.7391481010409637 0.044595495710356536 1.3896015134244195 0.010997825422884515
0.7388882993585524 0.04458738261008966 0.4568620018392577 0.011371416998627665
0.697798561638165 0.044584497607115435 0.12509910126188487 0.010533638328515529
0.6429936813243282 0.0445875890226267 0.48039964223561443 0.011648956150761752
0.7353312572628581 0.04458719772812755 0.4355995141696259 0.011119481062482126
0.6768522303153093 0.04458439403752274 0.11314985751943596 0.010410042709057056
0.6765769589548071 0.04458769086698945 0.49217597416043296 0.01111230890860979
0.6730076787414958 0.0445854386271697 0.23323548254034057 0.010580851989263175
0.61141192068585 0.044589831735000224 0.7381740478046068 0.010412453294202128
0.7559171036571731 0.044587432964797266 0.46268540434299554 0.010729178053728942
0.7094337354795037 0.044589291861311664 0.6763036525099256 0.010215709082357477
0.4919815560184596 0.044585840217238784 0.2790407697627595 0.011067550435671737
0.7552114812904281 0.044597478466537485 1.6175854184653025 0.011646220280445724
0.7310470474633336 0.04459531136039101 1.36839104267845 0.010770325129886675
0.8019071306486725 0.044590029955058175 0.7613462027248975 0.014408112435812704
0.696685493035789 0.044588573993082886 0.5937468222865053 0.011383279917736204
0.6179775499814892 0.04459193427210869 0.9799096946649456 0.01062185612389841
0.5843197482658035 0.044590800999509204 0.8495529784650633 0.01049106053193775
0.7845525026995519 0.044589768312117056 0.7312309651786717 0.012498047835730174
0.5456750102149439 0.0445847729150049 0.15644427061512353 0.010197097552645073
0.7298674408252492 0.044592895782647246 1.0906768855006472 0.01991519964963122
0.528996056583979 0.04458619779566685 0.3202249915494559 0.010773798605866762
0.6359158281236448 0.04458783175960031 0.5082921449023987 0.009515250980006672
0.795146623108627 0.04458973603465885 0.7275414432888195 0.01451478003358576
0.7923589056217604 0.04459948270347523 1.8480813352836891 0.013594047411948003
0.481338037518923 0.04458568059455704 0.26066800434378135 0.010209750092350726
0.6882019228756787 0.04458808952804745 0.5380322454167737 0.010827252553173237
0.6413079641450624 0.044591378027702896 0.91600688509712 0.010426016696492362
0.5924016790751461 0.04458971784752067 0.7250424838363118 0.010332270170589469
0.6691402328925092 0.04458448878613393 0.12402730239338483 0.011508073590241375
0.7182397591325991 0.044588455030785124 0.5801134604692778 0.010246154134186794
0.579686907014479 0.04458833913957711 0.5665109459811254 0.010724536935938769
0.5417171935896357 0.044587098908641834 0.42384887025850343 0.011538415487740948
0.7362745164228741 0.044595845303766875 1.4297874439433031 0.010964074991477057
0.7849465609317041 0.044587387464538095 0.4575127987833639 0.011527068415335321
0.5904007779400771 0.04459019775972038 0.780212534007274 0.010750130547789529
0.6566751034332551 0.04458435011450055 0.10805955052468819 0.01044996957126305
0.5664118900501767 0.04458875041558769 0.6137674078429539 0.010864657046222413
0.7863700939401213 0.04459224964155417 1.0165056828164991 0.29860980719702146
0.7570317647946215 0.044590866610164995 0.8574436352215651 0.13625963225602356
0.6836485967220409 0.044588559810796784 0.5920900894057586 0.011403248751130279
0.8019999092584744 0.04459511177191981 1.345587747800256 0.013969568492954929
0.6445377249854223 0.044585297379569414 0.2169393686008084 0.011116205142948976
0.7096755816887966 0.04458631959789732 0.3345918615571117 0.010385863693782076
0.5139442824462401 0.044586832646991766 0.3931816659721115 0.01027691945837631
0.4205257843245605 0.04458371001546326 0.03399400254844985 0.16278340891435827
0.7164945705297864 0.04458950500115477 0.7008219162755579 0.011309827278374658
0.6863364204255469 0.04458822127699633 0.5531752754593926 0.010668306102832174
0.7795803239225794 0.04459337413181905 1.1457713165935846 0.01020050914551588
0.8010228089927225 0.04459419236490289 1.2398842932339802 0.013510879339702629
0.6986981847871588 0.04458743309499222 0.46258521541315284 0.010989947129605533
0.688076784291022 0.044593519918739624 1.1623478476705322 0.011276791946534553
0.6920342723683948 0.044583867622072546 0.052659995023101674 0.11577406400297012
0.7994267067850782 0.04458536446446811 0.22496364457960785 0.014864789648518558
0.733848177440717 0.0445941729641631 1.2375186543064933 0.010086464616823557
0.8035517213005198 0.044595955759746314 1.442621639179997 0.016720991308880773
0.7805007960706222 0.0445961610610425 1.46617812652278 0.011929355762689851
0.6382220793456262 0.044586444389913514 0.3487950230637404 0.010629710106599471
0.70449127499367 0.044595391277869656 1.3775254719809689 0.010660444534438297
0.7572218860741577 0.04459139159650796 0.9178001350629953 0.25045342302355605
0.6864116182378535 0.04459171452965326 0.954784286961881 0.011118317298294874
0.7380854725435646 0.04458807032911061 0.5359253949098605 0.010454038632096959
0.7828618326896757 0.04459165146352713 0.9477278749280935 0.2994201620886578
0.5460582375586669 0.044586908986519666 0.4020228258364649 0.010711029053550267
0.6452774527915599 0.04458981671251261 0.7365151138593102 0.011807496048499564
0.5509403048740271 0.04458357552655955 0.01879468189871816 0.11086935405836824
0.7979080887635532 0.04458384063051567 0.04976993449490756 0.15276484739180107
0.6802565244874156 0.04459416527773624 1.2365271117581231 0.010083582476977406
0.4552619163828887 0.04458445590733552 0.11981687980779686 0.010652931786620062
0.6108088075533339 0.04458369292749225 0.03241240721158339 0.17442525104699133
0.7936970821782185 0.0445846932502636 0.14778461411368476 0.013494116475589683
0.6046404181446066 0.04458425023753954 0.09647227017974824 0.010347505147688259
0.5732457143516991 0.044584635970651806 0.14075567392017901 0.010588599007962642
0.6517672416626179 0.0445922844706247 1.0202389797764417 0.011322676480288561
0.6537940648850316 0.0445927646531339 1.0754482127011322 0.010340914081419945
0.737378153644284 0.044595393315341125 1.3778259011434002 0.01018138108502285
0.6793592265217226 0.044586011971113115 0.29916391206477033 0.009832167297433978
0.7473178176267449 0.04458767406709032 0.49038691066330137 0.010272731949721467
0.5672889698788832 0.04458891870441165 0.6331168381993209 0.010664880496415598
0.4717879200251077 0.04458546959042373 0.23639026692315948 0.010688948510793588
0.7830870987987987 0.04458451018152949 0.12671639333449664 0.012663103258275412
0.7093754562557169 0.04458620219325346 0.3210935950888786 0.00988305935703752
0.5925150683447986 0.04458901076500797 0.6437515402150669 0.01071073021346843
0.8014025291407525 0.044593033357260586 1.1066373986432925 0.1009327806975855
0.7408969627555371 0.04458999143562101 0.7567949504803361 0.009932380633099102
0.5525829675512306 0.044588979758699146 0.6401064710484566 0.010363604406411186
0.80018981525323 0.04459373946238519 1.1878137623990697 0.016503598972845767
0.7161531650041696 0.04458437454364351 0.1109878001147379 0.00862065632326826
0.6030225349954571 0.04458622263244614 0.32322938557590847 0.010838028737971874
0.5159761680799375 0.044585965371269215 0.293477646942966 0.010639046853675296
0.5197222492049821 0.044587959219299395 0.5227119594530266 0.011019162769995946
0.7388747703218914 0.04458700975412637 0.41399583433224973 0.010649981387240286
0.7135018610546655 0.04459555336086125 1.396177805508934 0.01149798452327423
0.5164083452892605 0.04458582068501928 0.276844369237799 0.010191939026148556
0.7260659311305949 0.04459364145844709 1.1763973618725607 0.00980413457013537
0.6182089829532018 0.04459153529458362 0.9340409019553387 0.010151884384412961
0.7860413786965957 0.044596776449109136 1.5369386116257182 0.011374199370705577
0.75680211176877 0.04459756189237309 1.6271798397195698 0.010971056170180911
0.5569105778658232 0.04458392306678897 0.0587623631971958 0.11173373769400949
0.6673159824034083 0.04459168458893417 0.9513036603117171 0.010763755410782335
0.7832338465011595 0.04459407477925872 1.2263300201972138 0.012521118622274438
0.7075179210897309 0.04459127450203465 0.9042380993128574 0.010747521516712207
0.7626353562771389 0.04458887426860524 0.6284013339996263 0.010627313021436121
0.4525816140166755 0.04458600634927487 0.2980611803284283 0.010955666028484277
0.7347351507828365 0.04459134742051733 0.9126760967916316 0.02937715233489509
0.764856068237799 0.04458654148339524 0.36021243137134085 0.010994409724418923
0.683174488230579 0.044585199060617565 0.20571369053235683 0.010750102175399942
0.8100102354414787 0.04459153795947114 0.9347332895114567 0.13266087410824212
0.7016777024371461 0.044594830144189974 1.3130079405541049 0.010078711589332351
0.7470217007077401 0.04459285025200471 1.0854768871950673 0.12894537062477746
0.6164385731926866 0.04458572814640363 0.26640679783756055 0.010032079600418051
0.4118477252968405 0.044584185213273654 0.08860861516558985 0.05730109525809399
0.5450827079964717 0.04458376280812348 0.040314097031321286 0.15423316227500708
0.7918281112479229 0.04459159715380588 0.9415020931921284 0.2585939475795523
0.5404722846979796 0.04458368079005935 0.03087544553061084 0.17433977367235715
0.6462843277415671 0.04458932497299965 0.6799833121424933 0.010855729479410966
0.6901559819377345 0.04458466830432317 0.14470826992443608 0.011354877679107088
0.42308201350056396 0.04458485743051822 0.1659140406778242 0.011847376584525973
0.7975251209979781 0.044591704567439175 0.9538625845190457 0.22779281473067234
0.8064984032477833 0.04459362988427449 1.1752285896477601 0.015355338754346904
0.5696654887528226 0.044586269154968695 0.32851080814146477 0.010336968648336334
0.7583310498356082 0.04458475486624179 0.1547972431226937 0.011175997045867967
0.7722829398239657 0.044595341736174784 1.3719662462277666 0.010446824346927617
0.6672421676327622 0.0445841741379865 0.08784932145770868 0.009704716145629537
0.7041210901330673 0.04459105277350403 0.8787397937732755 0.009927958777749303
0.45402067275315094 0.04458489295005858 0.1700598827144905 0.010897014245280832
0.5853649128109553 0.044587008534982014 0.4135467236618349 0.011080408683198886
0.7474182873950882 0.044594867865494256 1.3174367027386158 0.011050887786383379
0.6173236496285625 0.044585918308206005 0.2882709155100765 0.01113201780500343
0.4783873568070336 0.04458533249756024 0.22064239029683846 0.011409539906902733
0.7349633688623857 0.0445960854104316 1.4573891537231987 0.010665288416770833
0.6805910864124802 0.044589484503239976 0.6983930737639658 0.010690666605846307
0.727369441710638 0.0445878946590714 0.5157075666320622 0.011507947789863122
0.5956276559622866 0.04458586798630357 0.28244189147536697 0.010769689734187897
0.6991995738640193 0.04459092733619633 0.8643087349819313 0.009937088111326415
0.6471297130477439 0.044590539870745696 0.8196581912102693 0.01154379235704706
0.7285147865262532 0.044586370281741186 0.3404567474340676 0.010974760286730922
0.8059545591133692 0.04459245403793298 1.0400439411940618 0.17009790166193695
0.49223069372457096 0.04458736465451352 0.4543012870968998 0.010490148581071609
0.7846315312924784 0.04459692748871687 1.5543003483344469 0.01128954013814474
0.7459369042013095 0.044593454430094055 1.15493526053828 0.011210233979100188
0.7706531731849694 0.04459768612366309 1.6414902175759796 0.01073424837292864
0.7106431512289454 0.044595864809516404 1.431978376999963 0.011254905138378365
0.588982892135633 0.044590602764729745 0.8267719008265982 0.010587587404018016
0.6684381667401619 0.04459240920101966 1.0346124134182226 0.010902776032155156
0.7381655955737765 0.044593894636319964 1.2055288197392198 0.011916894579701234
0.5449903131363776 0.04458641120212013 0.3447918858250622 0.011167574085857827
0.7714795487867875 0.044598116062585326 1.6909206788728783 0.011861359061973753
0.7962514019029143 0.04459762091916549 1.6340453687878087 0.013630085953705424
0.619770095660189 0.0445899920999622 0.7566275515592044 0.010508408211425478
0.630842356730851 0.044586932290805924 0.4048726842011466 0.00992327490670914
0.5080209594289611 0.04458669963308813 0.3778775322925967 0.0105629469990279
0.7665553993189351 0.04458544782372058 0.23448105391853266 0.01089840481827228
0.7699212241082386 0.04459482083448256 1.3120749760393953 0.01087350908879014
0.6732433081764342 0.04458890550816258 0.631812945202246 0.011177552642089023
0.8084042380934751 0.04459726449278172 1.5930925467919062 0.015683640445864268
0.8052731511795649 0.044591438928322326 0.9233384393901048 0.16450841421104798
0.7538729367169924 0.04459435147924374 1.258082302991808 0.010767751117620567
0.6185817927700303 0.044585342659654706 0.22209284710966115 0.011902361655548161
0.7662988113193083 0.04459602861519754 1.4509226394764299 0.010289087537215557
0.5486917752850643 0.04458800266652585 0.5277652609427568 0.010490720113233862
0.45946100155259 0.04458576514602195 0.27034460553638673 0.010163371208257242
0.6064452118711803 0.044590593490450664 0.8257408086987353 0.011223145247610948
0.7332241868549597 0.04458663501290672 0.37090157954816855 0.011120298039581353
0.5834564753352309 0.04458755109764574 0.4759196972880712 0.009973867938846349
0.803329407874556 0.04459802635117691 1.680670925336349 0.015122786893403146
0.740598937692521 0.04459161868349394 0.9438741950673818 0.08712930600271619
0.687918961694069 0.044584825642549786 0.16279247535616878 0.011550609923891123
0.8115791101033618 0.04459294217070581 1.0961744329394296 0.111045182240744
0.7648979092286723 0.044585810513304375 0.27617505999274206 0.010789306110935579
0.5980941999139431 0.04458723103825563 0.43915288131685143 0.010770410502222704
0.5772660646097241 0.044586874154573596 0.39808110859840223 0.011690708979720844
0.7031625797419957 0.04458797276052981 0.5246379408397988 0.011954305316584566
0.7486984627287926 0.04458547138024608 0.23715333921119397 0.01078726198525399
0.48414232009299407 0.044585439030391145 0.23290173503050518 0.010071667403710705
0.6002759306504084 0.04458530158892768 0.21733422604871708 0.010551699020961815
0.6133903924219544 0.04458608767740597 0.30773487234168123 0.009842456723891047
0.5825386740640432 0.04458910711732534 0.6548088011585086 0.010955198285273426
0.801145947278248 0.044595378830888335 1.3762890038420361 0.016923048369899156
0.6791524154175286 0.04458378652481636 0.04331055923510945 0.15124271727900088
0.7332006310978572 0.04459236904993656 1.0301267018714297 0.010473650231186607
0.5972351831603369 0.044588481148133574 0.5828725641510577 0.011223978604120678
0.7880210621524104 0.04459735084659737 1.6029793653816495 0.012491154207070691
0.8085093431556138 0.04460000230257746 1.9078506013394962 0.16555471315386205
0.6943909295230551 0.04459072868122391 0.8414602863760948 0.01067604142790458
0.6527110506473598 0.04458360136772637 0.02197038464006778 0.13231148970403903
0.7219333238488885 0.04459673759513753 1.532342664237912 0.0110177974685051
