x y z curv
0.489882184140832 0.0449356938086853 0.2143658819919218 0.007638426033445039
0.3822060949106461 0.044935649773413716 0.4833804140064652 0.0067874505944686
0.5545098610202471 0.0449356885992019 0.2461909778630196 0.007117268439640237
0.4635236001506189 0.04493561413050392 0.7011254250747869 0.007469553810532835
0.2291951657584086 0.04493565371069373 0.45932729694860464 0.00766175655866022
0.6083672404896502 0.04493565256735517 0.46631203162152246 0.007221244410099128
0.4212699453577944 0.04493560956397902 0.7290226427655775 0.007058627044082288
0.5878035375736155 0.04493569215546999 0.22446548914554362 0.0076535989647620005
0.4367493113360645 0.04493563970151967 0.5449103141605965 0.007778606710002027
0.6274370225160697 0.04493560419909344 0.7617971013035357 0.007508348226436041
0.4393375233998449 0.04493553260933547 1.199143904095278 0.0075736279013815105
0.5818333463993368 0.04493558970579508 0.8503376674888383 0.007664428943770912
0.6625913267741711 0.04493553221647595 1.201543910189665 0.09692142782056959
0.6469234022463013 0.04493557745253399 0.925193690377809 0.007099162940383352
0.5787219417079892 0.04493572287339625 0.036807544477375276 0.1709908551498258
0.5710907473986436 0.04493551223280352 1.3236255527638188 0.007094976970925778
0.34292856865639487 0.044935590859674614 0.8432885373055924 0.007454074744067769
0.4554333045352438 0.04493554589183411 1.1180001975814509 0.007431835752419379
0.39421440827210563 0.044935649899165764 0.4826121860183258 0.007496026039363272
0.21490365238344994 0.044935701551316896 0.16706560791954173 0.007309270909131707
0.5338228808256282 0.04493561584753883 0.6906359395629028 0.007131646065968056
0.4435100177658776 0.04493571751280975 0.06955573962910709 0.007223470414519305
0.43217216592346724 0.044935565321914714 0.9993004858542947 0.0065899554362407
0.412578544028397 0.04493565662624731 0.4415159777089869 0.008021858699451876
0.6261841947375331 0.044935587565302186 0.8634140871970012 0.007591796695065534
0.0949444796280892 0.044935705123144626 0.14524506430744943 0.007709658973402638
0.6224411527306764 0.044935484556036194 1.4927048463171741 0.007211481433279753
0.6396653444092589 0.044935480168080064 1.519511175032697 0.007513176488832301
0.6883230046430413 0.04493567763548507 0.31316908532838794 0.21006751118616693
0.41376776706167273 0.0449355945593945 0.820686691572764 0.006926624208440701
0.512765222152201 0.044935645019274176 0.5124237825905235 0.007309832914090551
0.6593355851021819 0.044935666534259844 0.3809872411186922 0.06844228048682031
0.5101020052156485 0.044935533033534335 1.1965524437771602 0.007712860771840053
0.208619438255814 0.04493570680459392 0.13497297379655399 0.007236724192971029
0.1638033402552704 0.04493570332374782 0.1562377043797549 0.007707949025925664
0.4864290835085539 0.044935587197913074 0.8656584927360153 0.007770338463569958
0.5859702755373475 0.04493563860324429 0.5516197546968854 0.007544237997922454
0.10984606884382506 0.04493572360000146 0.03236866281218749 0.1671907512805672
0.6491456348605574 0.04493543496366709 1.7956680729690442 0.00918331631418571
0.5841440612172094 0.04493562614076371 0.6277539139603208 0.007458862770272222
0.5678279925479613 0.04493554836872767 1.1028686828049732 0.007400468690952744
0.26193000281365714 0.04493567704184358 0.31679568242083617 0.007600382982391467
0.0859890141840039 0.0449357217577803 0.043622919812800386 0.07824811096663596
0.344684929615535 0.04493570761065352 0.1300486997430095 0.007602689947365427
0.4954959717344234 0.04493565232329219 0.46780302933834716 0.007571433455503028
0.4532081118349965 0.04493553430953199 1.188757285500661 0.007250129435183947
0.49940982655683364 0.044935504137761643 1.3730787257136516 0.007332880171886487
0.22152516495403188 0.04493566651556078 0.3811014749799901 0.0073434827814698855
0.4557742227218572 0.044935551124433794 1.0860338827308988 0.0071978632309681
0.532632560242721 0.04493550223136666 1.3847250250706211 0.007692466484448351
0.5722274001703338 0.04493550421445491 1.3726102012238675 0.007345290955184106
0.633458324113358 0.04493555767031206 1.0460446578918356 0.0076308915083282474
0.6385644976371575 0.0449355289949119 1.2212246687051567 0.0074536898967708055
0.5713677414538341 0.04493553835240725 1.1640590797593664 0.007087959075556936
0.5269815711569761 0.04493558404715565 0.8849066886925021 0.006625113453986565
0.5428167964328573 0.04493554931727853 1.0970739197521413 0.00762411368995464
0.6388228519891405 0.04493556568681501 0.997071284630051 0.007326162339906714
0.619439363146256 0.044935636776259794 0.5627809298270539 0.007025652816064638
0.531260795123736 0.044935667480497835 0.37520660748391976 0.007163734854286403
0.34420115707954224 0.04493568528304195 0.2664496292866261 0.007066595813119533
0.17764714862704917 0.044935705764188254 0.14132888424923717 0.007390270116624978
0.6438864310190098 0.04493549450593664 1.4319202135568503 0.007604939576514838
0.6773953686444347 0.044935715316039605 0.08297596103314193 0.1959945017700001
0.5195308650197876 0.044935611095779066 0.7196647699141736 0.007719854843172661
0.4089770231288203 0.04493558046752319 0.9067749119921784 0.00795243012926776
0.5755896992864906 0.04493563614321751 0.5666482291599766 0.007621432814420239
0.5863214854496639 0.04493545702491544 1.660894374805289 0.007622576982316793
0.5026406558595767 0.04493552249883039 1.2609096817562389 0.007005841775022781
0.5498042637815262 0.044935719136390925 0.0596371695384808 0.007187973954653416
0.5741543497505428 0.04493569333173708 0.21727959178780346 0.007703712945123222
0.32556979996446267 0.04493570686823642 0.13458417732462083 0.0074961459586852216
0.6045593494201648 0.04493548548826677 1.487009784968949 0.00699968118657183
0.3546822873921756 0.04493558794870804 0.8610718342417528 0.006974666217994881
0.4136779797621708 0.04493561368014929 0.7038766727263905 0.007488183346025105
0.44793416414056775 0.04493560178181942 0.7765643961828457 0.00721266963565334
0.5424069722567268 0.044935536534594915 1.1751642215932463 0.007642325737258214
0.5216190582518189 0.04493556116055445 1.0247225247082177 0.11176168825499895
0.5238068167814541 0.04493560072626898 0.7830128270885369 0.007417292384474362
0.6748886963754452 0.04493542139911113 1.8785348872605947 0.1906640159252115
0.2993326208196677 0.04493564464408292 0.5147158519771738 0.007784601645322385
0.539203192947752 0.04493561028679767 0.7246068934631007 0.00792335959082965
0.4858481395301445 0.044935520873021224 1.2708418628381277 0.007251527678451309
0.6228906586488949 0.04493564877721322 0.4894662720454116 0.007413126700287178
0.5710123069657694 0.044935497536561314 1.4134059169252107 0.007472883415207913
0.6804293701714166 0.0449356838864961 0.27498122483546905 0.22339766159074514
0.5552282468305465 0.04493547361898363 1.559520059884855 0.006629831395694669
0.4595981350210471 0.044935557701962 1.0458513061451604 0.0072147508818534494
0.07262211417257367 0.0449357219974267 0.04215890329312683 0.11347509317185875
0.11902779717928288 0.044935701120413445 0.16969802703324618 0.007378696226158045
0.43920649538891915 0.044935720835981116 0.049254255054292165 0.0436494063588398
0.3583162435786936 0.044935597836258084 0.8006681043742232 0.007377457826700895
0.44662863477680625 0.04493560565415864 0.7529080069820212 0.007658729827714662
0.3509958849131564 0.04493562375734889 0.6423143606037685 0.007065490400481671
0.15776868243984835 0.04493569673516763 0.19648779820521972 0.007438851394129343
0.6127321036080178 0.04493550121807718 1.3909152808937224 0.007396860281402292
0.5605889447674031 0.044935719704821096 0.05616459015878686 0.018180930807008302
0.3209156302158398 0.04493571534367699 0.08280712239087862 0.007548704155252458
0.6381454710997441 0.044935513128180754 1.3181556310692404 0.007232202299052619
0.24171382508158684 0.04493572386338071 0.030759660716981906 0.16919790156445716
0.48904393090944565 0.04493568740658911 0.2534767321664966 0.007321935957884422
0.6023539532565467 0.044935610774116036 0.7216298317340136 0.006782531212184709
0.5373801448880758 0.04493559440096661 0.8216545385480742 0.007489703743018689
0.18076495343653098 0.04493572296745675 0.036232922340619575 0.14140185078446546
0.478332220217788 0.04493552223087943 1.2625466127480798 0.006328714519991633
0.34181813922068116 0.04493565427018318 0.4559093370487706 0.0071517964306105665
0.42527207685950563 0.04493554444348276 1.126848276512897 0.007289666013814688
0.40102493250479043 0.04493558205983216 0.8970473858670504 0.007611077557523952
0.19776128847234642 0.04493566842029416 0.369465326554238 0.007163821997027633
0.34382044922244576 0.04493561323153671 0.706617278141905 0.007252342521604538
0.46552379569780505 0.044935699044766034 0.18237830120828924 0.008213678512040983
0.6577493627221147 0.04493567696402359 0.3172710900878465 0.05390814697430532
0.6651988373989361 0.04493550795935637 1.349732338136618 0.08828929617145287
0.15937228910411216 0.044935723641868416 0.03211289472148189 0.19086215766292713
0.13490211929551693 0.04493572023508473 0.05292517276574176 0.02485245547239242
0.6578107512059107 0.04493560459263236 0.7593929447699391 0.06172003472609727
0.45829476655920015 0.044935711579683735 0.10580161852858948 0.007560003566562329
0.5045915070229638 0.044935514955465244 1.306992623241823 0.007617847449288313
0.626918663304775 0.04493557089636229 0.9652457985377308 0.00730159409296737
0.49224002852072857 0.044935689095891636 0.24315666575367395 0.0072448582976473155
0.39720829799904994 0.044935594280374566 0.8223912437416974 0.007193212960276616
0.29481880514451175 0.04493565653209114 0.44209118432002087 0.007981656135233087
0.5394176099796962 0.04493548257414078 1.504812382983079 0.0073100683522016
0.3415991340438247 0.044935628777708646 0.6116446342585605 0.008195807552375698
0.41370732251646386 0.04493565401192083 0.4574870797102101 0.007569242278707178
0.5483838686782846 0.044935661689036 0.41058705004418194 0.00739288845446211
0.6853822782924863 0.04493554933646008 1.0969567382985415 0.25009855013531485
0.4643185075185865 0.04493559963684149 0.7896682152852523 0.007274222661043404
0.36792088411261925 0.04493559721801683 0.8044449831501159 0.006861712516670627
0.6791637139243316 0.044935601371685625 0.779069932000336 0.18449120355795584
0.6235693620263283 0.0449357059064575 0.14045975154033105 0.0067021204676054975
0.49896902944988103 0.044935711759837474 0.10470104679558986 0.008041285124660316
0.505567919337432 0.04493556355155038 1.0101157645371133 0.042781010212505674
0.4818744418244413 0.04493567538615753 0.32691038340009243 0.007306980074716613
0.2812236246828402 0.04493567388208647 0.3360988580084297 0.006906149095078858
0.5360719458198847 0.04493572200675782 0.04210189885940986 0.08546840684212122
0.672633686160319 0.044935563728478435 1.0090348987658606 0.16615814974742485
0.5418258467535845 0.04493564934032106 0.4860262071123116 0.007404419988020586
0.6152357138623177 0.04493553196972329 1.203051339320368 0.00803861251075465
0.6245151696790494 0.04493565063725715 0.4781031344651705 0.007523670508803976
0.3881967702100752 0.04493557551004123 0.9370605134859655 0.006610691901779718
0.592123790621309 0.044935694478890065 0.21027155454579258 0.007461236265323598
0.6523276888555379 0.04493568722146872 0.2546076455697607 0.013959994646265399
0.6425657325687653 0.0449356000326889 0.7872499560035771 0.007142822630729341
0.5917321704704406 0.04493552030678956 1.2743010113707567 0.007602667713896774
0.35635751434592444 0.0449356278230397 0.6174767731576923 0.007573069748453405
0.33676087704931534 0.04493558913708957 0.8538119289207506 0.006981677976552324
0.20037201415259082 0.04493565610973418 0.4446713923146705 0.008010939302521933
0.5922586386967593 0.044935628243723935 0.6149067839568512 0.007593842582034702
0.5086862631156888 0.04493551044130795 1.3345699235598805 0.007491334416571504
0.41765486108971855 0.0449355697607221 0.9721835033113045 0.008221688987724577
0.6423370177488924 0.04493551032552596 1.3352772438206402 0.00722102604179371
0.4066638559978107 0.04493561049817604 0.7233155683060877 0.007528384140419117
0.6082940960161207 0.044935703114065924 0.1575186656077956 0.006285533843769098
0.4122631780475922 0.044935694477304666 0.21028123983440314 0.007147579555890411
0.47307348975575225 0.04493566624099033 0.3827788449359606 0.007324041699248917
0.5850747667299937 0.044935458896464726 1.6494609502256419 0.007087411069779741
0.3569902438701447 0.044935635328530746 0.5716252071489715 0.007529550900757971
0.35935337104510967 0.04493562003006111 0.6650846205061817 0.007194824837008396
0.5350600613022279 0.04493556793120716 0.9833601371482154 0.23523731687113122
0.06006521777743457 0.04493572315436258 0.03509110164382398 0.13812737751450638
0.4635891080020369 0.04493558247984423 0.894481502993375 0.007950625836524465
0.6494511077325834 0.044935523754793504 1.2532369158599281 0.008961791569657597
0.48897957018109317 0.04493568574760676 0.2636115706065313 0.008001516249440154
0.6401656569895212 0.04493563632760843 0.5655217722465232 0.007409615651449731
0.5696333988369858 0.04493569918756921 0.18150590667047856 0.007159789547188668
0.5779702611885467 0.04493554877655143 1.1003772590432437 0.007361496645674077
0.31007644395952694 0.04493566752533856 0.37493267243421385 0.007287283280354651
0.5872784544037686 0.044935535995273584 1.1784589730658146 0.007842932030481116
0.13172657378325386 0.04493570302824683 0.15804294037089378 0.0071175123438338705
0.6407782330204018 0.04493560836817824 0.736327872784941 0.007463922474205829
0.22021671053765116 0.044935704464467534 0.1492689684049751 0.00829865511921058
0.6405661745747352 0.044935677030810556 0.3168630839121185 0.00679310056085403
0.28881453370003685 0.044935614504019755 0.6988435908670406 0.0070865377029449336
0.22280928433905287 0.04493564486788956 0.5133486016784169 0.007475158388360401
0.5940608002847985 0.044935491302310615 1.451491387354408 0.007558767154446606
0.6192900865850446 0.04493568009440756 0.29814735705267487 0.007614469418986383
0.5529636750547583 0.0449355466660812 1.1132702683388642 0.0077493007887143054
0.6636145764770017 0.04493546165450967 1.6326118621289172 0.08110564491864723
0.34009028103767686 0.0449356214969686 0.6561231807846282 0.007264081740437163
0.5920766283563698 0.04493565415327232 0.45662355368024854 0.00772443281787867
0.6643211743981305 0.04493551082518511 1.3322247913686078 0.07648621181885365
0.5673017366647772 0.04493555976841163 1.0332272218404015 0.17053813300886203
0.6644529788366523 0.044935524904046106 1.2462160519049077 0.10612730089280566
0.602610135265156 0.04493550396320324 1.3741451151206276 0.007576394662501385
0.5852088231484686 0.044935641385211736 0.5346245223928633 0.0073636334508822
0.6302683812266127 0.04493563642610984 0.5649200202351007 0.0075810380171884816
0.3751457620327172 0.04493570204863022 0.16402748628083852 0.007446827556594057
0.39393459462070946 0.04493566979515122 0.36106622928913784 0.008317804608223324
0.26567481912859797 0.04493566499008008 0.3904207424971422 0.008001990772247974
0.35298048952987426 0.04493565189441873 0.4704230471425824 0.00798415808337924
0.32980871280559076 0.044935698813854646 0.18378895491397423 0.006909092434201918
0.578873698036824 0.044935676660903395 0.31912287246490817 0.007355758538450318
0.5729010628478923 0.0449355727813088 0.9537305293765588 0.08036064876921346
0.3642547917725937 0.04493572481899073 0.024921772730781507 0.21842655210630163
0.2872741454992353 0.044935642362518395 0.5286540881427506 0.007473818430686533
0.19136209004669721 0.04493566266522109 0.4046234675459559 0.007649655996406469
0.37799111911792066 0.0449355857201343 0.8746863459100487 0.0075032626562836985
0.45586220460671795 0.044935539424245184 1.15751114742963 0.007581036790226369
0.2073403055882802 0.04493569608690618 0.20044807245953233 0.008367406673299098
0.5565459810428585 0.044935481720340585 1.510028307680802 0.007241203731692889
0.421652286127695 0.044935581309389454 0.9016318924878239 0.007623369923632615
0.43149267597440966 0.04493569345187619 0.21654565362326952 0.007867096509893895
0.6279849574071834 0.04493558553687056 0.8758059168570617 0.00737215594251774
0.6594846644847696 0.044935503269979755 1.378380065497553 0.04284861216485305
0.3363844105279796 0.04493560978485238 0.7276733121135467 0.007557310410489299
0.12496382844353006 0.04493571710168191 0.07206734818898786 0.006981176541032641
0.14969056810681733 0.04493568626817591 0.26043137749089945 0.007183453189637974
0.6694568758289794 0.04493544891298399 1.7104507273148801 0.14127395221310818
0.6708957773469808 0.04493569359553379 0.21566803941011684 0.1511213236458638
0.5927377919981374 0.04493547946670242 1.5237959397264011 0.007347199581103706
0.5875683098497876 0.04493551842527235 1.2857953306683303 0.007462920165998511
0.3564275761469024 0.04493568695430451 0.2562397702512378 0.007226278414776585
0.3924392067022195 0.04493572418759668 0.02877900282133039 0.18218725876772102
0.4594153693362168 0.04493557226722073 0.9568711291137917 0.007709900025158022
0.40270622038826265 0.0449356157238081 0.6913918191410914 0.008263820695016822
0.25017133227469024 0.04493569921408888 0.18134389613085775 0.007409305103414935
0.6467941655703321 0.04493547485007644 1.5519992284234634 0.007407593730999076
0.556576988781339 0.04493562002203233 0.6651336688968069 0.006997942829899414
0.6680278827332375 0.044935535410067944 1.1820340349227167 0.13173330813837117
0.6004252154997982 0.04493572161498734 0.044495251916099765 0.10325009317891319
0.6404640143461933 0.04493554782571832 1.1061859645853422 0.007216206118804084
0.5935121249895539 0.04493554718230752 1.1101166058541156 0.007217216479755651
0.5752167504851073 0.04493556188903637 1.0202721780442248 0.2465069709816311
0.5797780887480057 0.04493560051764181 0.7842873450148354 0.006989011538016004
0.540334914082184 0.0449355398830899 1.1547080331958584 0.007719826975554966
0.6790783048164778 0.04493561579781663 0.6909396958811974 0.20832838205411347
0.4211222650260084 0.044935693213205605 0.21800370877373315 0.00745624739940873
0.6021847744820719 0.04493571125549919 0.10778208443619682 0.0066249966727001805
0.3805652123912707 0.04493564681759625 0.5014377081611238 0.0073719535065906675
0.5407850691062137 0.04493560547801273 0.7539840946003976 0.007796170351349357
0.097460315393368 0.0449357210945242 0.04767479737935454 0.06584447433625118
0.5409353473595074 0.04493560078821978 0.782634365388884 0.007653690773892087
0.2818925072712345 0.04493570768865228 0.1295721998875105 0.006394860735910068
0.54694499882975 0.0449355239219463 1.252215767813179 0.007023599594740049
0.3279369818251818 0.04493560670981753 0.7464589135510066 0.007692868765692263
0.30520140795273254 0.044935720665050326 0.05029848314551135 0.05906490069282076
0.6563519596031546 0.044935713526597476 0.09390778727717262 0.05161080403290643
0.45687068028125855 0.04493563652006343 0.5643460512251532 0.007522437692529276
0.13460206066032526 0.04493570106036101 0.17006489151941875 0.007403289776806025
0.5889723438834046 0.04493553203013257 1.20268229481564 0.007433354018833845
0.30266225204209757 0.044935639980175975 0.5432079834359205 0.007436660046704974
0.602638608077005 0.044935515373318746 1.3044399271674916 0.007477708403428415
0.6523984671677818 0.044935631549133076 0.5947138099793474 0.01844191476253635
0.3925581786823694 0.044935627858950986 0.6172573886140065 0.007532002165021164
0.6722202304540725 0.044935574805235676 0.9413662195734526 0.18126662950128286
0.33680845662416303 0.04493572184616478 0.043082972857391426 0.10728741941781994
0.6784577041341429 0.04493562861235957 0.612654763215637 0.21210949254168243
0.5179443042350008 0.04493571870356399 0.062281339319920574 0.007773079664223246
0.35692870161280765 0.04493571101230884 0.10926775113902612 0.007535410405121097
0.3099640571166845 0.0449356591134522 0.4263214702847767 0.007562693013137287
0.48424866779623493 0.04493561582562658 0.690769803025149 0.0073407545161415354
0.623502452459073 0.044935568998184516 0.9768418983736442 0.006843942026385867
0.39755058304706586 0.044935633005880826 0.5858144368380909 0.007207401019976648
0.4246778248792005 0.04493564310017641 0.5241476840911884 0.007540627178357609
0.34025399211455737 0.0449356244927834 0.6378215401326608 0.007741451796759048
0.6448112792602753 0.04493571502678478 0.08474303885051342 0.007723686398274234
0.5539383115821932 0.04493568587649733 0.262824169141374 0.0071536075499687
0.17799118310994508 0.044935694674701473 0.20907532904646814 0.0071239983799635245
0.5939873561481692 0.04493556220233537 1.0183582127256021 0.14996389391320633
0.6703719545494382 0.04493563895869358 0.5494482902908496 0.1537769950166427
0.36239567393738 0.044935581666729195 0.8994488792060201 0.007179947837689302
0.6673410021295091 0.04493544159357009 1.755165535108196 0.14529640140910133
0.347945936414252 0.044935636833360756 0.5624320960754325 0.007816484728252134
0.4065372382677721 0.04493557817751144 0.9207647527404185 0.007743432510717034
0.6371447497427729 0.044935692415102535 0.22287937588296292 0.0076456894599375115
0.6158010142921756 0.044935707265356256 0.1321581446659443 0.007746143395205727
0.4750507322089337 0.04493552828735186 1.225547202118747 0.0070623542894699
0.42424756224569277 0.04493565623080925 0.4439317362671481 0.007710735555381871
0.37157574546160205 0.04493564342951419 0.5221357367216629 0.007522713135149048
0.33760409394248814 0.044935661589462675 0.4111953503797927 0.0074737447989282
0.6211386448079249 0.04493569680908496 0.19603623210913074 0.0077182799090001995
0.45558837848637757 0.044935653531188766 0.4604239053058322 0.007118989707263411
0.6453400416329904 0.044935609806186244 0.7275429819964607 0.00763704148704012
0.5436219700176051 0.044935508635429076 1.3456021630340347 0.00755481149670396
0.4645445441292343 0.04493558458757603 0.8816052230716837 0.007610259921961287
0.43886484324175445 0.04493555844097826 1.0413366045225738 0.006568874208405991
0.4971872467413303 0.044935542583707334 1.138209773741679 0.007267769961324742
0.6077025710443723 0.04493567789710662 0.31157082109208617 0.007211475010762923
0.4974637810740715 0.044935553498732975 1.071529124113958 0.0077816986453091656
0.43998484114402864 0.04493563392579203 0.5801946353427766 0.006692127212591731
0.6533950189167591 0.044935579326685904 0.9137443661836199 0.02177518090450369
0.28119639524116036 0.04493562006590081 0.6648656733390116 0.007069325882053716
0.5313290613281962 0.044935497699573085 1.4124100666956896 0.007125342226575998
0.5567560514502481 0.0449355026566367 1.3821270208879899 0.00762382098298562
0.5149259006011249 0.04493554313691381 1.1348301970178352 0.007150084388469442
0.09164572654160538 0.044935714501218964 0.08795375694475913 0.006853399965776594
0.5399098639373827 0.044935683255197076 0.27883787440923874 0.0072111461906965045
0.6161004580527834 0.044935711886345764 0.10392819889113859 0.00736072525231549
0.5436968258342711 0.04493551048842901 1.3342820577509829 0.007510264671206517
0.43773975421078615 0.04493561232518623 0.712154236173227 0.007418227004342102
0.45372590557945125 0.04493564065190027 0.5391043730730519 0.0077605556721890585
0.44706258953623174 0.04493561531075828 0.6939151692368035 0.007701641490052713
0.5539880397298504 0.04493551884083031 1.2832566582624474 0.007403791149390607
0.3272300244425861 0.04493563355128758 0.5824825090289314 0.007181841486666503
0.3507563483454977 0.044935715947163044 0.07912038411239251 0.0072930477280268744
0.3541365021334218 0.044935676392513696 0.3207624837674773 0.007036808388414308
0.5424457254349939 0.0449356876677154 0.25188149356302003 0.007211174997346496
0.290357512018748 0.04493572189590001 0.0427791369229426 0.11263760204895094
0.5805896713213354 0.0449355128762952 1.3196944174079 0.0074223150957247784
0.5000434097249717 0.04493553162905782 1.2051324883588392 0.007374697163954466
0.2575021192360908 0.0449356902582478 0.2360557512611092 0.006972077431259732
0.3200347411552461 0.044935678269365634 0.3092966648901006 0.007484622394212331
0.4555473025686649 0.044935725149818695 0.022900721721488417 0.22450554763898384
0.6346541385106148 0.04493555559294028 1.058735466293283 0.007314316320484059
0.6779989520435827 0.04493565159344151 0.4722617378321344 0.1978619787245469
0.6720468652384544 0.044935709988905906 0.11551979076473899 0.18019326314898798
0.5468532890541986 0.044935534743200896 1.1861079720393108 0.007179262766825398
0.38039581980658754 0.04493567025111249 0.35828073019818674 0.007864523134161664
0.5633700430112608 0.04493571210545562 0.10258964153924183 0.007277102869439579
0.40986328951677453 0.044935576516382775 0.9309127031540502 0.007903164826208502
0.6232246371932524 0.04493559067725861 0.8444029293201167 0.007489137927326273
0.23638607328322803 0.04493568696438744 0.25617817292621575 0.007693864472454663
0.4172743389674748 0.04493561714549841 0.6827066143633675 0.008054847804471155
0.3535369136690282 0.04493560269597403 0.7709797621343257 0.006662813041242933
0.4422365980465697 0.04493565821828664 0.43179009887327086 0.007877537469918181
0.40702561569704043 0.04493567794235142 0.31129441746021186 0.007135863550941899
0.43096632695970044 0.044935593683719105 0.8260362533947083 0.007234387201036838
0.4811463323705465 0.04493566435915151 0.3942751290016089 0.007352218666884579
0.4443392996930516 0.0449355355332835 1.1812813025827047 0.007491813188099017
0.3097322486573755 0.04493563024004442 0.6027111234668125 0.007762426015768172
0.3519236308029058 0.04493567451924698 0.3322064002028751 0.0070639329967986
0.41250264107572104 0.04493571308040372 0.09663361588415949 0.007756089030653195
0.5391136921412987 0.04493562168033122 0.6550030058493925 0.006886948355002938
0.36195390086093754 0.044935688195137845 0.24865943322382703 0.0072066008754262095
0.49711069878353126 0.04493553980329578 1.1551955010204327 0.007569386650116776
0.38267628848243335 0.04493572160579179 0.04455142817808004 0.06576475415906345
0.4633304705981936 0.04493570663715899 0.13599584537827367 0.007440280037009884
0.3369399598640637 0.04493564107279085 0.5365331232956118 0.0075795234080712065
0.6801225940190091 0.04493566150277222 0.41172494840701446 0.20703877054036565
0.21787612306770837 0.04493571262248907 0.09943104829236736 0.007373283023008859
0.6182230582262837 0.04493555042413321 1.090312067576782 0.0062310004376343086
0.12992314682314463 0.04493568956797369 0.24027268370847174 0.007882621265707983
0.46045526132047143 0.04493561698696054 0.6836751331998571 0.007386931170416502
0.25710483848436416 0.04493571149923223 0.10629310232553954 0.00654430807651693
0.18653825846709537 0.04493566921355823 0.36461922117045326 0.007384045083554534
0.32861065586358984 0.04493563106593562 0.5976656967703234 0.0078122669228945524
0.5756292920973383 0.04493547586808572 1.5457801390659445 0.006759179471881342
0.5636366531762252 0.04493553031647986 1.2131511182659367 0.007869074530316081
0.6265828706671673 0.04493559682425785 0.8068504840520393 0.007434953026461663
0.6226251664426328 0.04493553973322402 1.1556235742892063 0.007148877952803024
0.3447354438023573 0.04493562633000086 0.6265978511185113 0.00777653198278036
0.20460587843881325 0.04493565979132283 0.42218031156388286 0.007577535853834614
0.6623804042742918 0.044935537086077906 1.1717951736598975 0.08896226739390344
0.5421715212588296 0.04493561287497348 0.7087955476656801 0.00730458354292469
0.31698881412268837 0.04493561837341883 0.6752051632638775 0.00726782119518825
0.4134129472536102 0.044935670121844906 0.35907043485176415 0.008247660500129551
0.28631434042527104 0.044935651286180094 0.47413881913801803 0.007639197335664607
0.42789758851624915 0.04493565203289758 0.46957707017278605 0.007279881983143115
0.1637013513893037 0.04493570866070472 0.1236338640692492 0.007288777604927578
0.43852052586670964 0.04493567669975784 0.3188855079256931 0.007544516601902147
0.2613603295894803 0.04493572559981556 0.020151659617241788 0.24683722213801743
0.500827129843284 0.044935565899287294 0.995773276718028 0.016783730340050245
0.669864262112715 0.044935430349759865 1.8238547525673623 0.11438079078324855
0.4193129173219251 0.04493563644639328 0.5647961073363789 0.006853508657500474
0.1842741028155992 0.0449356927258277 0.22098113427620258 0.007652908060164025
0.5245447773488694 0.044935575924070395 0.9345311806117627 0.007334335950056594
0.6335520990595677 0.04493571479743533 0.08614415059191054 0.0072437935889986226
0.2404284023534276 0.04493567194470362 0.3479344643648462 0.007154925965469626
0.581319697893289 0.04493549775150577 1.412092806281625 0.0076587370138771265
0.6403163109735726 0.04493562984987516 0.6050946945704607 0.00778085701866764
0.5549799713227864 0.04493551323635875 1.3174947642301584 0.007578690134359225
0.5283998194388666 0.04493556529409448 0.9994704416371327 0.1996768009515654
0.577887352625123 0.04493553237120785 1.2005986422665529 0.007574123596063457
0.4936733498129441 0.04493557181919107 0.9596081734562578 0.007479081008371773
0.6251458386630588 0.04493547758648923 1.5352822926696632 0.007320899332306931
0.49921173999204893 0.04493562400186343 0.6408206042639722 0.00859788104053803
0.19833430289131737 0.04493569672443142 0.1965533864386817 0.007747522299299488
0.6000793009832054 0.044935581009668504 0.9034629086039884 0.007126104757945
0.568580636253647 0.04493569015301788 0.2366986081114919 0.007768032463973777
0.43504090514268673 0.0449355464489035 1.1145970219855552 0.006812172900702188
0.533004565144339 0.04493549541172826 1.4263866695839673 0.00712907850037585
0.5857915108963386 0.044935688822141065 0.24482902702939022 0.007594692613075854
0.46775598016557374 0.0449355706816859 0.9665572714827441 0.007423656162433469
0.6684886619818105 0.04493550638989255 1.3593203016690287 0.10702619100702744
0.4121315227556285 0.04493562279350177 0.6482025696068444 0.007012880527609528
0.46197966186954253 0.044935704667702206 0.1480273936623802 0.006850309698732779
0.6519528524367542 0.044935626337522114 0.6265519032596634 0.010726682945947898
0.6234934278593873 0.044935666192541204 0.3830748240354376 0.007751372885824537
0.43385066075364126 0.04493566194738895 0.40900875392973146 0.007394604397939829
0.2275038079843245 0.044935679439616925 0.3021475184885968 0.0073014053437202775
0.40216661935737097 0.04493562477974791 0.6360684539726353 0.007843674210251454
0.20679522950427048 0.044935676209710236 0.3218792427676177 0.008357558504157587
0.5274206298158048 0.04493565803859098 0.4328878721465639 0.007467717635771268
0.29432649061272065 0.044935711031295844 0.10915175823561582 0.007054918054474332
0.3945602734319148 0.04493571397816194 0.09114914856521546 0.00707956456084832
0.4912403154015062 0.04493560896274879 0.7326955999925401 0.007629958145357115
0.49307772936350747 0.04493560406380844 0.7626235668012789 0.007275612676964728
0.49264896288999693 0.04493566040634432 0.4184231025567462 0.007897526243754562
0.33722159682082703 0.044935706234115 0.13845806913236752 0.007227652754001411
0.08030458660353232 0.04493572326583752 0.03441009352140835 0.15930023238288643
0.6152837070806426 0.044935723062475404 0.0356524468287055 0.13969306396154837
0.4970099265558785 0.04493552598568006 1.2396082749640098 0.006572427353104945
0.5276425940412504 0.044935700842884355 0.17139347148889203 0.007588031796931251
0.5716395596167009 0.04493563929374779 0.5474014208415225 0.007871411882695604
0.5152961270706266 0.04493570360714258 0.15450642606822237 0.0076447787419555045
0.6164588612903554 0.04493567464059001 0.3314651071888238 0.007286830384686805
0.6361329588655443 0.04493554379100054 1.1308343357499124 0.0070967000383923414
0.658022278024657 0.04493561046513958 0.7235173903174762 0.04496210029556137
0.4862955740961933 0.04493560657232669 0.7472988546313102 0.007224377708845844
0.630722680793313 0.044935644243837905 0.5171609766052282 0.007551838052115015
0.6193028057206965 0.04493570396380632 0.15232754248129005 0.00711874710267799
0.15587304555935666 0.04493568485647408 0.26905556196047925 0.007228607834709253
0.6211751451644464 0.044935689864965093 0.2384583425973886 0.007914063175261974
0.5629189612199595 0.04493553202864953 1.2026913548222038 0.007739335357194851
0.42343792003076053 0.044935571696999126 0.9603546525310082 0.007177466902530176
0.46431172697185824 0.044935524608046395 1.2480243347012303 0.007839758089321788
0.3942556622226838 0.04493570845567628 0.12488639700133224 0.00768962349024461
0.5588039542754084 0.044935642378478885 0.5285565844152299 0.007690793879013906
0.40246332737934043 0.044935719648233716 0.05651028638836846 0.011198612553732175
0.6334072217166561 0.04493566605503273 0.3839148728521561 0.007938682427701025
0.5892632596453243 0.044935722726874246 0.03770265759876572 0.14315466634531654
0.5414587048684684 0.04493552949237191 1.218185650947147 0.007710839676754995
0.4310481031461425 0.04493569124350349 0.23003675583690703 0.007262466506270161
0.5873703837502684 0.04493560811763789 0.7378584411857605 0.00703034751367358
0.40150539671622437 0.044935646389785054 0.5040512364227797 0.007220848589856031
0.4487038535632042 0.04493558695899211 0.8671180775332284 0.007905520781377734
0.6761493772640171 0.044935419339111896 1.8911195656098758 0.17354808140775235
0.5996886351734665 0.04493569579553065 0.202228105779498 0.00781975257242481
0.3576803829808019 0.04493569408763258 0.2126617736930699 0.007658801398103572
0.4506351867786244 0.044935618643599885 0.6735546084398563 0.007661921316200323
0.4466356643179902 0.04493558079784942 0.9047569260955078 0.007067877451835657
0.24846123405548623 0.04493567448143828 0.3324373761866882 0.007108415585692535
0.4161443014192991 0.04493569739582724 0.1924517827415354 0.007435745346240563
0.5207088201911011 0.04493554734577245 1.1091179872618036 0.007647509337659302
0.488972791613332 0.044935708665921406 0.12360199491663085 0.007448388968652106
0.3145147594545447 0.04493560762239587 0.7408839090159326 0.00721436669451371
0.5186017296331352 0.04493554950657737 1.0959174799544409 0.006881893317068713
0.5961099918862586 0.044935575408124304 0.9376831310611186 0.007475136047121361
0.35130499681559796 0.044935682756039284 0.2818872639866252 0.007089069458514942
0.5561500363662655 0.04493564844967402 0.49146723168303813 0.007498045134524034
0.38459760655397746 0.044935564948819846 1.0015797483181914 0.0075314847672842255
0.43434182521769243 0.044935549479861676 1.096080687977931 0.007208985213988472
0.5969108221629665 0.0449357090521539 0.12124247378517788 0.0069757366678209
0.28674563990814683 0.044935715402357204 0.08244864083524889 0.007052132670575633
0.18759404004763044 0.044935711261575126 0.10774496612949498 0.007463128805067226
0.5223869378603465 0.044935631250447076 0.5965385034716244 0.007482883060231468
0.4745732936521756 0.044935536140362116 1.1775726171230756 0.007513227721787454
0.2558430412067454 0.04493572292910614 0.036467208948562715 0.13213046766026598
0.4209141422903334 0.04493555542257607 1.0597762330517102 0.007744864169768973
0.47047916329957246 0.04493562256439975 0.649602169746901 0.007828301642220264
0.3013568175995414 0.044935607517092184 0.7415272165649945 0.007251285998581627
0.613236648408821 0.04493565012127068 0.4812553316206571 0.007503428114011941
0.44305132069604525 0.04493557661510665 0.9303095921145362 0.007323218219900171
0.522868445867339 0.04493568775269136 0.2513623695151868 0.007289973079576523
0.6383433900407289 0.04493552400375583 1.2517159876738593 0.007819836836845869
0.4627528926529042 0.04493557829183448 0.9200663453975766 0.006888182671715342
0.4577443487994187 0.04493557030144376 0.968880197139658 0.007028276009556789
0.6310541462417433 0.044935667585374636 0.3745659078371664 0.007603732050356936
0.6690059509618225 0.0449354723989169 1.5669735322942016 0.14047750308020654
0.3039435634953018 0.04493569885216723 0.18355490066102664 0.0073269841103525205
0.6116865695107064 0.044935602843024156 0.770081422775384 0.006948869601124379
0.5662265916200291 0.04493555328710966 1.0728219456650911 0.0077010498641907526
0.38363798402018606 0.044935700608087215 0.1728278635762954 0.007530589861015586
0.21495844012324705 0.04493565050132378 0.4789335608380123 0.007113413477317938
0.5354140266385934 0.044935620123775756 0.6645121112245481 0.006974646416803903
0.3455147179433616 0.044935639418598405 0.5466386997676513 0.007177954052408134
0.6395523303203586 0.04493570547438501 0.14309931235541204 0.0070007111450798905
0.6814952169643614 0.04493551151248317 1.3280260397904349 0.22427942885301555
0.3221194690431459 0.044935725481140026 0.020876656666001872 0.23713537448590372
0.5233043665818009 0.044935648928295394 0.48854330053574596 0.007563592377154396
0.3822493996061701 0.04493565462991264 0.4537117248458791 0.007249085691683001
0.32349807189433816 0.044935603883954754 0.7637223054511166 0.007172768069211776
0.5591406271888721 0.04493566908313414 0.3654159910270461 0.0073596972227685025
0.565450061793903 0.04493569750839166 0.1917641189696145 0.0074516105307188395
0.4696200424763453 0.04493565608383895 0.4448295880381547 0.007226018565230674
0.48499594759138476 0.0449355801190969 0.908903472362876 0.007313928168124174
0.5378457713205038 0.04493558173911963 0.8990066410153816 0.0077629062220181295
0.594591880116456 0.04493568505783162 0.2678254548467723 0.007720038032358489
0.30195308363061835 0.044935678998568276 0.30484191534963734 0.00712900971084858
0.5958838602443478 0.04493570640743768 0.13739922884822536 0.00694540843926653
0.2239268231112851 0.04493566089005678 0.4154680695406873 0.007683209806778385
0.3337979018503744 0.04493560057088332 0.7839620888878698 0.006739499004329227
0.6200380795270958 0.04493558254855344 0.8940617536712236 0.007140297929951508
0.3429562331048571 0.04493565690496655 0.43981326252291075 0.007711156406034442
0.5551310327230816 0.044935604154330344 0.7620705622056969 0.0072693697948181075
0.17607319523908174 0.044935721756921454 0.043628166589112005 0.09134208020551628
0.36361999196210837 0.04493563202993636 0.591776549331202 0.0069932228742022
0.4705156071505904 0.044935586427413556 0.8703655278554768 0.007915333951827735
0.27281010835440733 0.04493562856525414 0.6129425335671798 0.007349304506236262
0.41953823811498614 0.044935667747019514 0.37357840803331843 0.007453433376799623
0.25823321732987436 0.04493568379686502 0.2755287873520595 0.0075861198033273895
0.6506564846542906 0.04493570739413312 0.13137143790420674 0.012342325122381176
0.6824536935738151 0.044935502834017794 1.3810433874037993 0.20951371792150272
0.6493542234656191 0.044935719021616624 0.06033833373840243 0.01020235218521544
0.6572622997883802 0.044935688426555126 0.24724568895721596 0.05365541391825295
0.6542620648302266 0.044935552679746533 1.0765323692010944 0.033663820879055874
0.35185739277178557 0.04493564304417075 0.5244898266100637 0.007056051655615697
0.6131904911059233 0.04493548897821833 1.4656894285577289 0.007000941144191521
0.39208566678447604 0.04493571588343388 0.0795097099965544 0.007250202763492935
0.23580657692338938 0.044935695688033093 0.202884815793742 0.007000766200060061
0.11143258467622373 0.04493571234297484 0.10113862017255754 0.00752208172098131
0.14865439225941068 0.044935680427125556 0.2961147597288488 0.007741959967176935
0.28821130137787804 0.04493561169273177 0.7160179444712139 0.0074012682778975
0.5679427997890969 0.04493561679903915 0.6848231580339662 0.007264576375308306
0.19795063350990508 0.04493569113775424 0.23068278537245812 0.0076828846886402265
0.17996293138290284 0.044935702602900335 0.16064141163539813 0.007815130057692085
0.29779468534671666 0.04493561852846788 0.6742579578787702 0.007005753084868411
0.4950078796176326 0.04493553002063526 1.2149584534942754 0.007016247611462549
0.23888949264235093 0.04493570331074407 0.156317145143366 0.007000324084438948
0.13118716644224027 0.04493572347930353 0.03310601487428992 0.1542861431866019
0.43860608725942063 0.04493555367747548 1.0704371737842804 0.007851029232601482
0.44917594169340475 0.044935571182591755 0.9634972028908092 0.0071529540473738796
0.6095425131298228 0.044935479472467565 1.5237607200856866 0.007824220487378243
0.3676699088201873 0.04493566309337681 0.4020078345347168 0.007590555991920945
0.32850012052351674 0.04493567248213633 0.34465125066614233 0.0076492839313804855
0.365835869360904 0.04493569616601299 0.19996480343888215 0.007337441150465811
0.5206793554579527 0.04493566697595703 0.3782888823413268 0.007185034795037217
0.2581645186838462 0.044935704028117474 0.1519346611950356 0.0074618459192797165
0.46430750319041664 0.04493554469426678 1.1253162195521471 0.007058967185629144
0.5012070440672276 0.04493566546746417 0.3875043699796397 0.0077021464260608125
0.5549292075366066 0.04493561081403967 0.7213859354630717 0.007398698836152077
0.15029204624103032 0.044935719152007 0.059541769825505464 0.008711189707797218
0.5009737662342435 0.04493566790535154 0.3726111466807 0.007195976277285944
0.4105225168467308 0.04493555865985961 1.0399994431074895 0.008046240818353997
0.6555236589294813 0.04493553857350593 1.162708372622294 0.031717076503220906
0.6305222112385032 0.04493563090264064 0.5986632771381838 0.007516149612008987
0.6321914236810029 0.04493557383260925 0.9473080619713532 0.007427241758933215
0.2760150568260218 0.04493563240281284 0.5894986210235273 0.006931177201927226
0.5713024536274282 0.04493561446554638 0.699078627401929 0.007652492550771787
0.5215602868211898 0.044935720559926215 0.05094069357903316 0.05409463820813999
0.6600354961085054 0.044935663278181964 0.40087884693724657 0.05689524846062996
0.44549800433144393 0.04493571047744123 0.11253529453090101 0.007533867129896212
0.6219361887489709 0.04493559218041275 0.8352200562469126 0.0076664634852513305
0.6043961817340449 0.04493547499702913 1.551101484260708 0.007418118818455187
0.46886448095284744 0.04493554644256989 1.1146357144446557 0.007168020036633394
0.6685902206780614 0.04493552334312226 1.2557518440436806 0.13697620209221054
0.2627533332949199 0.044935647954974116 0.49448938778966467 0.007454677208569809
0.14667924459000825 0.04493571731121527 0.07078729438997278 0.006668722838238424
0.5787603008183815 0.04493559161939235 0.8386473688522038 0.007610674679802398
0.5771289794032237 0.04493551799850543 1.2884024794204865 0.007191744917288892
0.2731772236673699 0.044935696631411705 0.19712165040093513 0.007198756706551268
0.4041717629019159 0.04493560903967531 0.7322256505631859 0.007677601168364131
0.668144880889382 0.04493545650083059 1.6640960455121128 0.12725127847446188
0.268553135551892 0.04493569337423751 0.21701995374838273 0.007699314977630629
0.38978442566030763 0.04493560669541071 0.7465469257815522 0.007582645337145708
0.4297305200586564 0.04493572162335044 0.044444161138128685 0.08631826016822594
0.31474759892970205 0.0449356983339687 0.18672061144710567 0.007205285691221226
0.5656343555336334 0.044935611990683896 0.7141977341986507 0.007345699913386584
0.6719476758532201 0.044935603383607366 0.7667789624004333 0.1619410580094211
0.4067410025876043 0.04493568633913315 0.2599978948196353 0.007777784695919803
0.5119758558426831 0.04493566898442802 0.3660189935524108 0.007727956125855999
0.649015302253559 0.044935530947277105 1.2092975340995225 0.009162722532575576
0.16692632485136066 0.044935690376367694 0.23533414861918717 0.006876635747810977
0.38127406626729954 0.04493562847164945 0.6135143711571927 0.0071910392133059985
0.30504564565324765 0.044935661580153226 0.41125222244017673 0.006988622288450151
0.6648184650988023 0.04493560847607672 0.7356687135001496 0.10558965679495821
0.5092272925867616 0.04493568570413435 0.26387714653777183 0.0073046348961394655
0.1531361402134508 0.044935702939154415 0.15858721216372051 0.007738661413144293
0.6844189263884003 0.04493546000592539 1.6426831779755753 0.21875451820696126
0.6092191699829297 0.04493564048109504 0.5401478340481746 0.007672112111932443
0.6620576968038427 0.04493563560840176 0.5699154556572887 0.08308696557065533
0.5042892942133095 0.04493552888798392 1.221877899153306 0.007406574223764365
0.21585399346521197 0.044935685334318895 0.2661363748787808 0.006819840876400593
0.5051973749144607 0.04493561381286133 0.7030659256671608 0.007388744208687801
0.5387801942204492 0.04493554529831521 1.121626045675443 0.007673171063273549
0.47398155973086437 0.04493554391033716 1.130105300028186 0.007247567584027527
0.5002800587071032 0.0449355125803571 1.3215023238522012 0.007537637017031873
0.37355284818170087 0.04493568150958943 0.28950191275599413 0.0076431752233365674
0.3617045075075356 0.04493570879522266 0.12281208455161428 0.007081303010257672
0.6649869269376377 0.04493572114725049 0.047352688833424764 0.12566152299378464
0.6269456627640662 0.04493548705817175 1.4774191263816054 0.008262161655089062
0.1690992007335682 0.044935670567656696 0.35634693964091424 0.007733456893459183
0.2770618371042291 0.04493568756126827 0.2525317864688883 0.007426394035418397
0.6035015507571998 0.044935548143938894 1.1042419330158944 0.007483814609779898
0.4155495797137666 0.044935674666417694 0.3313073241173183 0.007272146455636388
0.3620724870187322 0.04493562661285174 0.6248698954330438 0.00800278263925388
0.6659675432012828 0.04493561445429685 0.6991473515944903 0.11314354298204181
0.5941398307581625 0.04493548488453315 1.4906980355590076 0.007401831178233672
0.46287512410487625 0.04493555960893603 1.0342014693555799 0.006885025147187052
0.38925024189732255 0.04493565230661037 0.467904939717966 0.007471830931301046
0.6000112362218891 0.044935499415548225 1.401927055421659 0.007298972974354312
0.5450120431539323 0.04493569133468921 0.2294796959359894 0.007490090359397828
0.2838223904302366 0.04493569139066579 0.22913773107234744 0.0073796162580054316
0.15737138062765887 0.04493571457824366 0.08748320772977061 0.007541560393278165
0.5171944264629101 0.044935650496040626 0.47896583604926973 0.007664205537640591
0.34038532828014284 0.0449356715292665 0.3504723985580106 0.007771024069128743
0.5441455396548148 0.0449356538351934 0.45856671985635505 0.007028215098707385
0.4133606445257421 0.04493560716288504 0.7436910926321281 0.007319488598712463
0.3780486152192915 0.04493569549051658 0.20409145789168695 0.007665068150249385
0.2068953478788199 0.044935712739176625 0.09871819594098026 0.0078117584838194
0.48902696184269623 0.04493552275764163 1.2593285858893681 0.007066106271973202
0.3945155939842514 0.04493564788351584 0.4949259313352526 0.007723225794405883
0.45284683702948364 0.04493559924208407 0.7920798157973736 0.007538969794770625
0.4444675930199254 0.0449356710255044 0.35354991622101406 0.007034455829128037
0.6459614914865381 0.04493546132504757 1.6346245690198105 0.0067151019894537214
0.6398103090613723 0.04493549848424747 1.4076164363493553 0.007679391011870503
0.6212495562213065 0.04493556167179193 1.0215993394152107 0.006962546217134291
0.32724239934192745 0.04493562843136941 0.6137604446614083 0.007479125784842766
0.6011651397360736 0.044935518064289394 1.2880006006152689 0.007433077285071609
0.5673009211822552 0.044935661214990694 0.41348302572338397 0.007498275638469973
0.5179169766271494 0.044935603505656216 0.766033357484886 0.007497831555508858
0.40824872253425804 0.04493563499258874 0.5736775001408886 0.007414188026482547
0.2856348357080879 0.04493567813050439 0.31014497791467577 0.0074133587874395685
0.3350970806060914 0.04493568196284426 0.2867329474783884 0.007456924928040115
0.41052769622148727 0.044935618230735025 0.6760768285237094 0.0076170950299585555
0.5387279841551305 0.04493568155052345 0.2892518439831628 0.006652436434094275
0.4607232936257469 0.044935690974774914 0.23167843735429314 0.007396960007085657
0.6439669074566181 0.04493554608866132 1.116797766429163 0.00801320543152813
0.5810623216192776 0.0449354871028771 1.4771460183063745 0.007780722158530259
0.6795217537967463 0.04493546447442429 1.6153848079026627 0.21875123912466057
0.45227820432861504 0.04493558305344185 0.8909773553025964 0.007178487465440723
0.6404995985784749 0.04493553436497687 1.1884185688794082 0.007500110036643539
0.3391634458036881 0.044935583290478955 0.8895292791123552 0.007164289637418081
0.5448295364664282 0.04493557370963379 0.9480593275749162 0.031981083394827754
