x y z curv
0.7721436398246639 0.027400001417845488 0.40067226351191193 0.010854604804359028
0.8913142190476023 0.027400001417845488 0.31029865440761906 0.03329074749143055
0.5840329373130971 0.027400001417845488 0.19961033789452265 0.010707441017456529
0.6584721659498075 0.027400001417845488 0.054427453918129684 0.07966832605750644
0.7614786502113479 0.027400001417845488 0.1814036395425916 0.010840998657668799
0.819559870504891 0.027400001417845484 0.23562194936539416 0.009800562002019361
0.8035684370995175 0.027400001417845488 0.7139625319682729 0.01010856986489199
0.7512498773581986 0.027400001417845488 0.18237688850150688 0.011280796882906658
0.8805845637087184 0.027400001417845488 0.7338406314549064 0.01764752537295711
0.6938612260868131 0.027400001417845488 0.4253325228661537 0.012059600460976346
0.5792122107565353 0.027400001417845488 0.06378875593347991 0.05669149021623079
0.8197237893491629 0.027400001417845488 0.22205386161386786 0.01121590877422376
0.5655147562273455 0.027400001417845488 0.10409549607452756 0.010343774288821763
0.8104336908333201 0.02740000141784549 0.33665706544490426 0.010952019262832619
0.7463441905819617 0.027400001417845488 0.4857693611340303 0.01024350814837848
0.704302393136703 0.027400001417845488 0.4579460958795442 0.01071480633639125
0.6952950281951973 0.027400001417845488 0.195554687278652 0.010736858635875495
0.7701918414384443 0.027400001417845488 0.42123922048523776 0.00981925490136127
0.8078385867054503 0.027400001417845488 0.5199043608308461 0.010270717495939545
0.8799209794960654 0.027400001417845488 0.5161752557665623 0.017580820267579095
0.8203130838647876 0.027400001417845488 0.4955190121069929 0.010174678082370473
0.7142046555312087 0.027400001417845488 0.1975414438718926 0.009397854583953813
0.8162100123254409 0.02740000141784549 0.17965564838864356 0.01202171307207631
0.8014478980774721 0.027400001417845488 0.7005675158196204 0.010479732153671557
0.7174056967174156 0.027400001417845488 0.4713146856171083 0.010851551570944752
0.7332538384677019 0.027400001417845488 0.5598060039093774 0.01111762740333536
0.80124779928379 0.027400001417845488 0.5585766432144106 0.009757958167861467
0.6437247323833396 0.02740000141784549 0.28288568102932143 0.010679823910294862
0.8772245044533569 0.027400001417845488 0.3991093111968127 0.014148785313310546
0.6397101164357435 0.027400001417845488 0.27153594660260477 0.011719994309913453
0.7717950848714163 0.027400001417845488 0.3750558428622519 0.011548480454272418
0.6345167380774145 0.027400001417845488 0.1578784977781832 0.011017966338210847
0.827354440195385 0.027400001417845484 0.17393890481586774 0.011617071137614503
0.7493371556571685 0.027400001417845484 0.29986951210868346 0.010417374867327835
0.8499175563460295 0.027400001417845488 0.12124497936104581 0.010832055888661374
0.6736215359091068 0.027400001417845488 0.06611340413647569 0.05192347625989935
0.7398675492362882 0.027400001417845484 0.2334470709151325 0.010746928171232758
0.7321590254516545 0.027400001417845488 0.36254443662302704 0.010455887303456458
0.8490703841161193 0.027400001417845488 0.18701118561680502 0.010379443581892642
0.6933678586730495 0.027400001417845488 0.059394205916709075 0.06685520236248511
0.831346698525326 0.027400001417845488 0.6306659252943203 0.010822382539179618
0.7896935618138111 0.027400001417845488 0.3792880429551353 0.010579632732086109
0.8101379075085486 0.027400001417845488 0.3061412602939445 0.01016027276255983
0.7606082569388283 0.027400001417845488 0.07061488705417325 0.04999339103381552
0.7581897017886419 0.027400001417845488 0.3635480617153526 0.010257823279415622
0.7382650034979282 0.027400001417845488 0.0627916681187814 0.05916587854650731
0.6795459995061248 0.027400001417845488 0.4202743003105621 0.010420064445456647
0.528903365470763 0.027400001417845484 0.11669127897704792 0.011050171804659961
0.6604416227412491 0.027400001417845484 0.13842033544665522 0.010495459016396933
0.7574004777280302 0.027400001417845488 0.35071535938037357 0.01108019183269729
0.8405485513469924 0.02740000141784549 0.15921790226164237 0.009831785634634565
0.5750528845297251 0.027400001417845488 0.1360155683376375 0.01086675090618193
0.7691665623959294 0.027400001417845488 0.6264148817907929 0.010005505765494898
0.6308540060854946 0.027400001417845488 0.28375518544871847 0.010567932233347118
0.8880640946774547 0.027400001417845484 0.2654750092475209 0.019227665070422204
0.6444620318101376 0.027400001417845488 0.1376164458832873 0.010224844833581645
0.5342360326973966 0.027400001417845488 0.08496564796751238 0.010779211577551195
0.8177101718765569 0.027400001417845488 0.19333700298365386 0.010908294411385073
0.7238094446070559 0.027400001417845488 0.5677039821067351 0.011382879488307351
0.8487383910189809 0.027400001417845488 0.5890037498695759 0.011285046506081173
0.8202264220420646 0.027400001417845488 0.4305793913933365 0.010381632752548683
0.7952701155337067 0.02740000141784549 0.6208848068703615 0.011214993477369962
0.7553623229330797 0.027400001417845488 0.40868243884825367 0.010516142152202325
0.7275286470704052 0.027400001417845488 0.3996503801120947 0.010031693097910086
0.6813147980834083 0.027400001417845488 0.1341756775394634 0.010597737253469604
0.8882500772539847 0.027400001417845488 0.4570099976817697 0.02278374611576514
0.7636140930907034 0.027400001417845488 0.08618457890976332 0.011689512588446345
0.7819431366855636 0.027400001417845488 0.5416992095560963 0.010405848391891044
0.8095838236875454 0.027400001417845488 0.20999091162980527 0.01123040946943422
0.8343826075055492 0.027400001417845488 0.45700499654192467 0.010348543795042341
0.7503818671542772 0.027400001417845488 0.4205691275485626 0.011249124132457156
0.7572388404630411 0.027400001417845488 0.4310936013630779 0.0110592854558809
0.8298725989698965 0.027400001417845488 0.5935982637708808 0.009855582104137554
0.7061625120476455 0.027400001417845488 0.23471562900234771 0.0103866884258085
0.8791254951118509 0.027400001417845488 0.4885504090424814 0.01711485604331213
0.5555660965713354 0.027400001417845488 0.07163658707550231 0.04608546532269932
0.8974468993513994 0.027400001417845488 0.8712411028363188 0.16571988098120932
0.6244529203160901 0.027400001417845488 0.09584544215789514 0.010550751947266663
0.6894471966592538 0.027400001417845488 0.32525210380839387 0.010830184669182995
0.7241414866145497 0.027400001417845488 0.20550838183773917 0.011046520655832993
0.6491175425693528 0.027400001417845488 0.06223098705740386 0.07329718932619286
0.711923553813101 0.027400001417845488 0.2883111039490722 0.011193277222444394
0.8207122416399015 0.027400001417845488 0.4181844691443041 0.009997749138376399
0.5262418548769072 0.027400001417845488 0.13080160077181602 0.010323720742677938
0.6509553317709497 0.027400001417845488 0.11892894165941463 0.010427750993288873
0.7041140794667691 0.027400001417845488 0.41020754128418563 0.010841095984654122
0.5849012195056876 0.027400001417845484 0.21602724131819975 0.01092958479065982
0.8139124489625987 0.027400001417845488 0.25117941034878655 0.01034046128840449
0.6141272249560443 0.027400001417845488 0.18395076446418357 0.01026543631245783
0.7976852275105113 0.027400001417845488 0.10414924242391035 0.010582655329345703
0.6487397651077379 0.027400001417845488 0.38479418033734825 0.010437058201561137
0.7039946435326832 0.02740000141784549 0.16605096059776173 0.010504885204655411
0.8449093550852369 0.027400001417845488 0.7028433863862112 0.010968956841387354
0.9014684590569318 0.027400001417845484 0.8498240799732824 0.09100492870773468
0.781473926874286 0.027400001417845488 0.2182760065526059 0.011171221252060081
0.7666446182790321 0.02740000141784549 0.2519894745008874 0.010669830848360025
0.8931814620583838 0.027400001417845488 0.43378501486448484 0.030802209175131264
0.860769141357697 0.027400001417845488 0.22762551319020946 0.009199005406159689
0.7034865414209304 0.027400001417845488 0.39187470016878345 0.010154216241132063
0.7285574929772368 0.027400001417845488 0.3156734324376288 0.010102730222899465
0.8522006746087315 0.027400001417845488 0.5329075740850594 0.01066377298818922
0.6567873488877216 0.027400001417845488 0.2520447599776726 0.010219886588894557
0.6161248161740972 0.02740000141784549 0.2290685004943501 0.01067968684374775
0.6836046788849824 0.02740000141784549 0.2216704069737751 0.010637890371449918
0.9010458467314562 0.027400001417845488 0.397120843251488 0.06155898563956767
0.6755759207100296 0.027400001417845488 0.3770992400216886 0.01123970705705215
0.8667325118306821 0.027400001417845488 0.818460449212743 0.010826473478852239
0.8920704610372234 0.027400001417845488 0.8962024713565677 0.19645276283467208
0.7888639016958231 0.027400001417845488 0.3460189322022755 0.010531990857262785
0.668385376348483 0.027400001417845484 0.3996747723493495 0.010211408046910288
0.8116139242999081 0.027400001417845488 0.06775911402449561 0.05598240782490998
0.7087753682474729 0.027400001417845488 0.43326597057788846 0.011824093352112711
0.6975586611446237 0.027400001417845488 0.2815485862950682 0.010391180684886826
0.6885664769950893 0.027400001417845488 0.23453109092104707 0.010134699449251178
0.74959637325384 0.027400001417845488 0.17173797858988918 0.010567974779801441
0.8850247124727257 0.027400001417845488 0.545920482076313 0.017485055079362866
0.764885561376094 0.02740000141784549 0.10051562881334082 0.010387018586796748
0.8115267953676427 0.027400001417845488 0.5013445476832752 0.010640075067953971
0.8921107403172468 0.027400001417845488 0.3532372576573438 0.03911747168545455
0.7864782452457346 0.027400001417845488 0.3936367660983116 0.011059516861381983
0.7010759698478624 0.027400001417845488 0.24602261945994053 0.010403298333392258
0.6583048722638969 0.027400001417845488 0.3767546300882344 0.010346634064435069
0.8028410380950236 0.027400001417845488 0.24292553739908776 0.011293471696249228
0.8285093159775601 0.027400001417845488 0.5444216723588495 0.010558675756472732
0.7842247057287312 0.027400001417845488 0.5566110134307591 0.009951660659219647
0.75052765292962 0.027400001417845488 0.5267641377484408 0.010560540643137278
0.5413813070465119 0.027400001417845488 0.17047985331425589 0.011130889177015307
0.8510065446683917 0.027400001417845488 0.44277802747691686 0.01031710268351614
0.7886519340827328 0.027400001417845488 0.5226932950036868 0.010246991003995003
0.6530724419516047 0.027400001417845484 0.1449817439618185 0.010789645587351487
0.8562981967406468 0.027400001417845488 0.4966287666785196 0.010330831376967907
0.630839401217015 0.02740000141784549 0.19040175701535636 0.010922942167866127
0.8752030030844784 0.027400001417845488 0.5974713769089435 0.012102724924749751
0.8914563878986308 0.02740000141784548 0.3956891563339438 0.026918551148131006
0.7094383705662501 0.027400001417845488 0.5206958419455202 0.010837629766659099
0.8989622846753937 0.027400001417845488 0.12218118319701347 0.05106275700038782
0.8506121692107529 0.027400001417845488 0.7386553132850866 0.010884638504107695
0.9092513387986323 0.027400001417845488 0.12807718678381852 0.06926958505356184
0.8133211170248866 0.027400001417845488 0.3645497022601938 0.009398292069332176
0.7794193307862379 0.02740000141784549 0.23851688779082583 0.0102120238356641
0.8379565561871284 0.027400001417845488 0.7309063768434636 0.01087011344150997
0.8184964296975589 0.027400001417845488 0.15865416769929902 0.01093066800751937
0.9004260438262943 0.027400001417845488 0.5684429668300708 0.04774251836155576
0.8141124084178304 0.027400001417845488 0.3495253337145854 0.010770902152783273
0.737569449415024 0.027400001417845488 0.5747170556713204 0.01103562442863077
0.7483129623529949 0.027400001417845488 0.4379394085072268 0.01156941936041771
0.6145480901259668 0.02740000141784549 0.06017143383576341 0.06860656213411792
0.8121506873287567 0.027400001417845488 0.723832342990659 0.010054039595837833
0.7025581564990157 0.02740000141784549 0.10307390335174986 0.010270436213320617
0.6155567822435201 0.027400001417845484 0.32112434105043064 0.010598410457771604
0.8100328171298914 0.027400001417845488 0.48723514747598967 0.011484364979365695
0.6490320620616223 0.027400001417845484 0.18693045849113504 0.01056244529221899
0.8542535770754209 0.027400001417845488 0.41247099972329926 0.010686642891171131
0.7112545624019476 0.027400001417845488 0.35945021607136235 0.011407490334198788
0.5194876160846004 0.027400001417845488 0.7824192029724131 0.009774130987681722
0.7745851823775943 0.027400001417845488 0.7304591379595272 0.011197817883910532
0.7215034859531277 0.027400001417845488 0.6369605292111483 0.010562063328473934
0.4756321981382267 0.027400001417845488 0.14101128798924042 0.010984753008922408
0.4721303320974045 0.027400001417845488 0.2709785952704824 0.010536271357258254
0.7942494411734886 0.027400001417845488 0.724997499559594 0.01043266823212664
0.46548696175673204 0.027400001417845488 0.8944413408157073 0.010583730831896952
0.1426185976506888 0.027400001417845488 0.7958921351671223 0.010959794355296244
0.44190784562534374 0.027400001417845488 0.7650223554602478 0.010767350800050896
0.6479283757209051 0.027400001417845488 0.4453088944485195 0.010735938707721566
0.44332189025381347 0.027400001417845488 0.21830953903059136 0.011281696162535377
0.5108471799983753 0.027400001417845488 0.22551172407227715 0.010288150684040232
0.8920685180164541 0.027400001417845488 0.9529201121476624 0.20998948443809817
0.34719251823420116 0.027400001417845488 0.5982221174909033 0.01080660188202708
0.4833688087875755 0.027400001417845488 0.3424453435156847 0.010254297876443835
0.7554704957917522 0.027400001417845488 0.7027872857659337 0.010963753176112947
0.519088113147124 0.02740000141784549 0.3414158504208432 0.010702452752912026
0.19328563854321001 0.027400001417845488 0.9299219216262872 0.010941578342376253
0.4838531085022165 0.027400001417845488 0.5515642255463413 0.01136316317499168
0.49698732126133016 0.027400001417845488 0.15475775274097087 0.00977670578704286
0.16640515534241787 0.027400001417845488 0.8145055740618364 0.010597307245206865
0.5933797658103687 0.027400001417845488 0.602198346326283 0.01002695317578402
0.5343416314810913 0.027400001417845488 0.7865739863765687 0.010836481533369472
0.234553821439424 0.027400001417845488 0.6271670461327719 0.011679821493249786
0.6882282688524993 0.027400001417845488 0.7033159884781086 0.009539669960866363
0.3510051020475454 0.02740000141784549 0.8809314389572901 0.010844419732524249
0.5571374332763913 0.027400001417845488 0.8073946257535444 0.010293214891408095
0.8092534501050743 0.027400001417845488 0.8254984218026045 0.010557723320374045
0.6734633600159305 0.027400001417845488 0.7109803038443984 0.01009820067438812
0.5078279790599116 0.027400001417845488 0.9313178944479372 0.011034363848893192
0.5628734353653715 0.027400001417845488 0.4126532882564923 0.010480918233318216
0.47955691655313454 0.027400001417845488 0.5829597814919956 0.011069892159795352
0.6714319430552292 0.027400001417845488 0.7392472689192047 0.010668658653545526
0.6340838430927142 0.027400001417845488 0.5782956997189157 0.010416275014510224
0.3230917982190009 0.027400001417845484 0.4737079706595493 0.011313230490523928
0.5880550168182133 0.027400001417845484 0.31796748382809414 0.010001249300123125
0.13430631679997024 0.027400001417845488 0.8874370409723267 0.01047682992405283
0.4271048245696784 0.027400001417845488 0.9186264932079105 0.01029579270184427
0.4352401201810941 0.027400001417845488 0.1759518339897658 0.01089244089715977
0.49279454569313175 0.027400001417845488 0.7022644826354935 0.010581616125093292
0.3021375600719802 0.027400001417845484 0.45671586410363696 0.010762813295688452
0.27569484417290313 0.027400001417845488 0.7830593926746668 0.011305887467006105
0.34552786510023276 0.02740000141784549 0.6185987390567758 0.009781371212468843
0.6294231395288221 0.027400001417845488 0.7929832670704512 0.00992615708805382
0.5638893548916829 0.027400001417845488 0.8726217081558887 0.010331344643377743
0.5712925057483607 0.027400001417845488 0.5908550783375963 0.010498926942375105
0.7644224137519141 0.027400001417845488 0.9360469747397501 0.010503871327000732
0.43353414279740177 0.027400001417845488 0.732840508945211 0.01137482369654845
0.7187330552388017 0.027400001417845488 0.7712391200171825 0.010944237454244969
0.17260958371685825 0.027400001417845488 0.8778745867326642 0.010356191638110218
0.6045686172872656 0.027400001417845488 0.7113186667927002 0.010575782216582709
0.5885763897276703 0.027400001417845488 0.6141120661400805 0.01060621496530797
0.20870608736046412 0.027400001417845488 0.8718981990709076 0.010647265507633187
0.3206819114060604 0.027400001417845484 0.8633170185380101 0.011117198953206908
0.8736365773445938 0.027400001417845488 0.896552353129291 0.264769111663752
0.3969908316001563 0.027400001417845488 0.8260855047972067 0.01113404342974424
0.7155474201901509 0.027400001417845488 0.9459194675049866 0.01005318815631639
0.48040448193715035 0.027400001417845488 0.8311151922957362 0.009326936311406086
0.3445703985692512 0.027400001417845488 0.9441494611799547 0.010409968899046862
0.5130246927706732 0.027400001417845488 0.558716083337895 0.010500251370811977
0.3775539703748973 0.027400001417845488 0.5415533334754925 0.010123610480602912
0.38734686004393226 0.027400001417845488 0.27464845915930397 0.010652354982891993
0.5953604931328891 0.027400001417845488 0.8742283818877272 0.01061217432261484
0.28126094718768513 0.027400001417845488 0.5818255205024915 0.010861341485179806
0.4758478893211018 0.02740000141784549 0.15951178227093182 0.010820008171259676
0.5872209745017483 0.02740000141784549 0.5470760561179713 0.011051998260019463
0.26090224706329046 0.027400001417845488 0.7005834909770139 0.011743851951296751
0.5516658208349932 0.027400001417845488 0.4408358187299689 0.010463696812106486
0.596095967253962 0.027400001417845488 0.808136694834074 0.009854885774450057
0.15649231705518396 0.027400001417845488 0.9477404192343013 0.011145620502434336
0.7079866469354442 0.027400001417845488 0.9557383528994815 0.01033199022941308
0.7760293246122195 0.02740000141784549 0.8252197678792557 0.009921390015332718
0.3132508377986513 0.027400001417845488 0.4569729963573991 0.010675032365470788
0.3368115189982197 0.027400001417845488 0.9315420029359429 0.0120454485301566
0.22318048758844264 0.027400001417845488 0.7058174491784539 0.011004059581297576
0.36512128814943196 0.027400001417845488 0.43563870595210263 0.010337212811672079
0.4970054468715549 0.027400001417845488 0.6201906645248793 0.010658659554834296
0.5887063955737792 0.027400001417845488 0.6780760107068009 0.010820731002706231
0.3629570493991025 0.027400001417845484 0.5318276094165183 0.010963386299029427
0.25200950721679105 0.02740000141784549 0.963665663054669 0.0111344441192233
0.7637504272570642 0.027400001417845488 0.7944202533958775 0.010584881682922024
0.27208205113467804 0.027400001417845488 0.5396318730954597 0.00991386869463836
0.5489532785498568 0.027400001417845488 0.8361588564159528 0.010107610749476435
0.23863433755291102 0.027400001417845488 0.7445940726866083 0.010892103763260752
0.7681024417421383 0.027400001417845488 0.7632305735129656 0.010748385450447744
0.797846508446017 0.027400001417845488 0.9283250962914134 0.010914879585384845
0.45619316970386403 0.027400001417845488 0.35870685570918215 0.010839060524946308
0.7688884134364151 0.027400001417845488 0.8477524788600498 0.011212121224672222
0.5973871295437994 0.027400001417845488 0.7040264442589698 0.010478278794116678
0.41776145743805837 0.027400001417845488 0.8163139932051946 0.010006898530581234
0.4615328580083335 0.027400001417845488 0.781685804537991 0.011195749202869976
0.6713203833647226 0.027400001417845488 0.511529565605971 0.010497466574592695
0.16018699204094464 0.02740000141784549 0.881528026445596 0.011560650401026211
0.9006362573257656 0.027400001417845488 0.9599965492572118 0.14465334387183085
0.609101422135734 0.02740000141784549 0.4146821766752323 0.01138120314820372
0.7656072590210008 0.027400001417845484 0.8277674622526435 0.010584946393355207
0.4977553689813582 0.027400001417845484 0.20188374680039015 0.011259686456188904
0.6136913835918444 0.027400001417845488 0.7848545468650046 0.010762510842959507
0.38369652372329144 0.027400001417845488 0.8275348906150615 0.010447860274069142
0.543823952750738 0.027400001417845488 0.9262476882140345 0.011156436155949537
0.5786343260718652 0.027400001417845488 0.6048108209897389 0.01072452324029547
0.6356992903041214 0.027400001417845488 0.7819069874433544 0.011467853153537563
0.26872767706812395 0.02740000141784549 0.9009940241656039 0.01189010768162784
0.6680428727247418 0.027400001417845488 0.6336901913611129 0.010538498592426901
0.7632625565544969 0.027400001417845488 0.9591635749785093 0.010439088255147158
0.5063133794176399 0.027400001417845488 0.9416858280629643 0.011424422576004368
0.3349272566133399 0.027400001417845488 0.6832363591392209 0.010710123835229329
0.25916007206447444 0.027400001417845488 0.9500829249448675 0.010472882844023985
0.5114493074836427 0.027400001417845488 0.9039969204253846 0.009798245089306556
0.3557720436323726 0.027400001417845488 0.8440453621559691 0.010126714992072015
0.31892143489385727 0.027400001417845488 0.9458702043442102 0.010340787047299602
0.5711954368280989 0.027400001417845488 0.5545863097233806 0.010314497876387848
0.5522678314220616 0.027400001417845488 0.6906246264854842 0.009388732458880127
0.18448684754690475 0.027400001417845488 0.9215555870726768 0.010341735235301257
0.5104593094764993 0.027400001417845488 0.18869903939978655 0.01078488902240631
0.6550420971115777 0.027400001417845488 0.7548529199143177 0.010060582087637507
0.5937338713185544 0.027400001417845488 0.6405958028871105 0.010151486755459243
0.8502457905765668 0.027400001417845484 0.8810399566834914 0.2334850415645009
0.2312204697744575 0.027400001417845488 0.728191973582573 0.011445904566558572
0.09273040723138175 0.027400001417845488 0.9552364023445836 0.011943564414379815
0.21793131287434891 0.02740000141784549 0.7662505487898856 0.011033572777823296
0.3105893855245623 0.027400001417845488 0.7117391055790292 0.01091788035022271
0.6089147412830895 0.027400001417845488 0.5360489126678828 0.01242158029314965
0.3942428153828127 0.027400001417845488 0.9275650732852498 0.010199416661409421
0.5228716423226636 0.02740000141784549 0.16108996688754154 0.011054206429721035
0.5274614205999529 0.027400001417845488 0.8976558423808905 0.010657845911476057
0.42517049540442475 0.027400001417845488 0.5848322171251539 0.01057413376161587
0.11774959869385508 0.027400001417845488 0.9636758296464779 0.011795176142524105
0.6988461764570628 0.027400001417845488 0.5726127293907852 0.010921859286774095
0.45197747636074614 0.027400001417845488 0.3163422656511447 0.010626275924458894
0.24398283595860631 0.02740000141784549 0.8880973336537499 0.010569817216454648
0.2259370626974831 0.027400001417845488 0.8110052503243748 0.01047397534568669
0.6723586189152821 0.027400001417845488 0.5819258908884892 0.010769093034468477
0.5569872522206258 0.027400001417845488 0.9093241994580628 0.010607172584010078
0.4651239894194283 0.027400001417845488 0.193860973717273 0.010628608700023471
0.5350318224161481 0.027400001417845488 0.38645369243555283 0.01098322036854085
0.26933207263667064 0.027400001417845488 0.5056442784145142 0.010057564713881157
0.4126277903121336 0.027400001417845488 0.80355435965983 0.01048154292583692
0.1956415791337741 0.027400001417845488 0.7538230467539738 0.011189177028476298
0.4855967188043569 0.027400001417845488 0.3651045422099611 0.01113398254145195
0.2653922838583951 0.027400001417845488 0.6335642401547554 0.010844813468943646
0.6875696779787891 0.027400001417845488 0.6249889723109784 0.010960875428543647
0.2573221152240607 0.02740000141784549 0.7947073080538024 0.011185804355785613
0.444262295750629 0.027400001417845488 0.14783620829811006 0.01086590601103193
0.5444654171420181 0.027400001417845488 0.9544408515572446 0.011460208545411996
0.3911604789847774 0.027400001417845484 0.29914094814205827 0.011262253698904505
0.6871203806555924 0.027400001417845488 0.6665521599981896 0.011669862144168836
0.4554339119233032 0.027400001417845488 0.13338906974131498 0.010835884944322648
0.5461946145402256 0.027400001417845488 0.36711679126902186 0.011237020060936187
0.5140184563934265 0.027400001417845488 0.8624872474034333 0.01056706932667475
0.5545601401082216 0.02740000141784549 0.3785464487056409 0.0113681014644673
0.0919587897938378 0.02740000141784549 0.92033134370844 0.012641083135707807
0.5935954635681778 0.027400001417845488 0.4160381070029422 0.011006894473341374
0.3575995620560721 0.027400001417845488 0.7510553947691327 0.010732089177523451
0.618852449531474 0.027400001417845488 0.7360365386365996 0.01023665615612185
0.5889005473915676 0.027400001417845488 0.49089761956997235 0.011787418143330624
0.4840482631027678 0.027400001417845488 0.1474795303324552 0.01062257624690377
0.13975891594108017 0.02740000141784549 0.9533259887321148 0.01085776483190918
0.8152023209494378 0.027400001417845488 0.8937082920543271 0.010553272217361362
0.1142794519384031 0.02740000141784549 0.855593809903576 0.010747373713781526
0.6047718808651079 0.027400001417845488 0.9329228684809989 0.01130473342581761
0.5706286318191643 0.027400001417845488 0.8207622960722945 0.01082966150737036
0.4725095713640982 0.027400001417845488 0.2520583283074809 0.01073699112297204
0.16900967059185762 0.02740000141784549 0.7939233321647269 0.010539266278470082
0.32859099934834135 0.027400001417845488 0.4953053016170383 0.010329297937822267
0.4949196757613817 0.027400001417845488 0.5661421045414466 0.01086445589006901
0.4450149289892264 0.027400001417845488 0.7113398005265421 0.01111645720524485
0.39715544443472434 0.027400001417845488 0.6851252591398939 0.010466870105435889
0.468069836011533 0.027400001417845488 0.7121014329049367 0.011193441010311214
0.6069924227992174 0.027400001417845488 0.7261885183213277 0.010678913179329775
0.7507406225333393 0.027400001417845488 0.7500755686199988 0.010433047952387252
0.747261819831114 0.027400001417845488 0.7739963121181151 0.01061298253803689
0.46360452586726886 0.027400001417845484 0.24248254792153945 0.010632833345506222
0.5123478668236883 0.027400001417845488 0.7566781398789392 0.010695897571922897
0.2787292759139632 0.02740000141784549 0.5922993070024701 0.010599927027052362
0.6151927417829398 0.027400001417845488 0.7655704458725876 0.010863983383781306
0.3192345066943202 0.027400001417845488 0.6009020073471346 0.010543432348560734
0.7877722004478934 0.027400001417845488 0.7835222923845967 0.01132777474652193
0.3456295621924359 0.027400001417845488 0.3642138238079463 0.00982403362103619
0.6924067414548112 0.027400001417845484 0.9268916651206467 0.011383548435926656
0.6028246712226307 0.027400001417845488 0.6902346726705152 0.010445694524104425
0.4729925555402841 0.027400001417845488 0.9691590692441264 0.010026135898066037
0.7040495484162249 0.027400001417845484 0.6859680177372184 0.01052064071604959
0.261366256897304 0.027400001417845488 0.7309856129563729 0.010277755649374004
0.24673527813792023 0.027400001417845488 0.6802593927428713 0.009504710705178497
0.1538502616981217 0.027400001417845484 0.8579922559840734 0.010142710022021936
0.498174926031273 0.027400001417845488 0.32587444492547535 0.010931567965138018
0.2864624289628126 0.027400001417845488 0.530585020111645 0.010365644094463337
0.42359255684955155 0.027400001417845488 0.8561263860102009 0.01170383484898954
0.37555963148456506 0.027400001417845488 0.43922416319728314 0.010507752617644342
0.3405155651856851 0.027400001417845488 0.8220699293839403 0.010678463756182885
0.5112370942251538 0.027400001417845488 0.46298111948760584 0.010592720943344361
0.6029898426262638 0.027400001417845488 0.360230960872482 0.010496033790501404
0.33265033631303886 0.027400001417845488 0.7896655899938549 0.010400060781931583
0.42993445780486117 0.027400001417845488 0.5387303112930066 0.00974298585513858
0.49573756042691053 0.027400001417845488 0.6777695412222495 0.010554671458156075
0.6500987858695474 0.027400001417845488 0.7358389182258303 0.012249785434732933
0.23426450297339005 0.027400001417845488 0.7814045400007572 0.011427865453507352
0.2209970969619856 0.027400001417845484 0.7247108214203063 0.011096492383981115
0.688490389382078 0.027400001417845484 0.8729354233427506 0.011073135833350187
0.7678110746172425 0.027400001417845488 0.6662852503210789 0.010175646057408522
0.49874732977904296 0.027400001417845484 0.11926758826530731 0.00953071227475134
0.17925534090090744 0.027400001417845488 0.7991737579652994 0.010855878801918047
0.28532496004468844 0.02740000141784549 0.7952259789240155 0.01174375194984453
0.402905747563564 0.027400001417845488 0.6152349417154106 0.010787938628501637
0.26511269409260274 0.027400001417845488 0.6680494910757208 0.010619296104757602
0.5717559465947171 0.027400001417845488 0.8388243911690146 0.011013968281839514
0.44774770800659053 0.02740000141784549 0.19342472954835277 0.010321728804605367
0.7599166718504113 0.027400001417845488 0.7798421262140895 0.01076809319830326
0.6092155309309221 0.027400001417845488 0.4607713877219153 0.010836031495337474
0.402000640874256 0.027400001417845488 0.2645050924252098 0.010685372438680056
0.6640381534088322 0.027400001417845488 0.8478341148813908 0.010064206327503444
0.38161521145222616 0.027400001417845488 0.6497033701330504 0.010148645539215647
0.3083989944809744 0.02740000141784549 0.4822648781956113 0.010461488436039891
0.5480787810420116 0.027400001417845488 0.6207427071829523 0.01087359889421592
0.405801780252769 0.027400001417845488 0.34086010091146535 0.00998589826942003
0.10389030835579922 0.027400001417845488 0.9370791661832465 0.010719434619644901
0.47803633421778147 0.027400001417845488 0.9270347433270754 0.011218669768321985
0.6264046173690108 0.027400001417845488 0.4900776130445406 0.010913283902100213
0.5145742987282762 0.027400001417845488 0.7064861556068212 0.010872348202012829
0.39382815220769135 0.027400001417845488 0.64073735391824 0.010479901794818487
0.32055390737161393 0.027400001417845488 0.697638876011327 0.010958030126002667
0.6165567190128992 0.027400001417845488 0.6288881959829904 0.010601189446648894
0.7417160336392582 0.027400001417845488 0.9574946288986125 0.010439388179788525
0.36967210004322604 0.027400001417845488 0.38681120542719943 0.011027241778289303
0.4570658682768516 0.027400001417845488 0.9747156378216357 0.010537701084785932
0.3966222888091965 0.027400001417845488 0.7802784168483706 0.010801720766639171
0.21986288557868452 0.02740000141784549 0.6169635998024449 0.01098929540705276
0.28791866056055476 0.027400001417845488 0.6437139699111761 0.011035383732943483
0.26576666779648217 0.027400001417845488 0.7487282924864811 0.010554247485531597
0.6727579940347376 0.027400001417845488 0.8965838325454248 0.011250887895823482
0.3921508864095459 0.027400001417845488 0.8661248554480372 0.0109777919407829
0.24732213221666802 0.02740000141784549 0.5667118126701627 0.010649169426570524
0.6719846488502764 0.027400001417845488 0.911500691560201 0.010982547526394467
0.4719646742113497 0.027400001417845488 0.33171094653818417 0.010732535607558122
0.6230574010702695 0.027400001417845488 0.9326802431609758 0.010546737571708879
0.3949460785528223 0.027400001417845488 0.46093498562883883 0.009297744436777448
0.5645023159692253 0.027400001417845488 0.2667343228071219 0.011283769266420175
0.32848169143827827 0.027400001417845488 0.5177365163038893 0.012031189797315458
0.6332506384015182 0.027400001417845488 0.43790599882633924 0.010769684254424074
0.274510640443389 0.027400001417845488 0.8008211815451292 0.011065286456589994
0.4536830445041212 0.027400001417845488 0.8646730004943781 0.011022540592941582
0.46809460344212417 0.027400001417845488 0.42796061473046976 0.01030344026690491
0.5572381693470059 0.02740000141784549 0.5030094671042245 0.010649990944292581
0.5198308719945802 0.027400001417845488 0.8534609079083341 0.009420848651619962
0.27709389049078076 0.027400001417845488 0.7136424761512282 0.009736154096913429
0.42694107985609875 0.027400001417845488 0.7894810127166105 0.011177443344133753
0.42969597258686076 0.027400001417845488 0.380631925006041 0.010962175155411999
0.1601672413610939 0.027400001417845484 0.7517535217187025 0.010644719442413067
0.491654830461547 0.027400001417845488 0.5112280412779648 0.01075580116898041
0.4221891102469553 0.027400001417845488 0.3356300206885601 0.011068499944041812
0.4530728560926486 0.027400001417845488 0.7556446117622055 0.009901737171545442
0.5218921130697911 0.027400001417845484 0.382893700629783 0.011350415309698866
0.5712832967885132 0.027400001417845488 0.6177563683807056 0.01040891283957272
0.41611215364047766 0.027400001417845488 0.5994449488505104 0.010326541401270766
0.7121599618064905 0.027400001417845488 0.9094145690688693 0.011125007810569689
0.20973804604574978 0.027400001417845488 0.9442448144131054 0.010854573282541856
0.5371203851010843 0.027400001417845488 0.6939348507707059 0.010538116066521636
0.38467981339084767 0.02740000141784549 0.37718983138741463 0.009947422536957153
0.26836594937153513 0.027400001417845488 0.5990931313712903 0.010635783154485972
0.28908963282512423 0.027400001417845488 0.7497851586146156 0.011119785783954105
0.7970136284669953 0.027400001417845484 0.8505622516312867 0.010619893284542138
0.6325335680720219 0.027400001417845488 0.7411820186790145 0.010703399555418597
0.14265303476361132 0.027400001417845484 0.8377853270196527 0.0109642709555528
0.4802866396246438 0.027400001417845484 0.4928869951997249 0.011600797501805043
0.5313029121653414 0.027400001417845488 0.5228778025367771 0.010214485929164362
0.3572937514281911 0.027400001417845488 0.3423462739898613 0.011873935832989773
0.5672870402264403 0.027400001417845488 0.7531328990760613 0.011147752734975487
0.807375017228625 0.027400001417845488 0.9386202898874645 0.010407454340150333
0.5480155199733915 0.027400001417845488 0.23136123403138595 0.010172437046420995
0.4043727483228782 0.027400001417845488 0.3015067533569495 0.0102840879867377
0.4595087802543018 0.02740000141784549 0.12386905693286392 0.010996208388552328
0.5755816037020955 0.027400001417845484 0.2732509867447094 0.010688438667310882
0.31928086392555705 0.027400001417845488 0.5799807961695959 0.009531716473586468
0.8104681356824674 0.027400001417845488 0.8842590051560725 0.01039987157288287
0.7215730051123536 0.027400001417845488 0.9723217913766657 0.01063163434912444
0.6192885106011479 0.02740000141784549 0.3980711853553466 0.011002081022845538
0.28568040880371587 0.027400001417845488 0.6170050713480609 0.010669200173258155
0.43020021157653887 0.027400001417845484 0.2884793467669555 0.010593822620419037
0.20542709794625633 0.027400001417845488 0.7015276937171093 0.010773171740852171
0.749283169310317 0.027400001417845488 0.7298695872927632 0.01016103417736787
0.5083232100701374 0.027400001417845488 0.8254182039061828 0.009808450160611704
0.6118713134898487 0.027400001417845488 0.5564004516716208 0.01091332324464992
0.2179191132603599 0.027400001417845484 0.8392733666659867 0.009906034091880393
0.5298789401690273 0.027400001417845488 0.3981143961401613 0.010952405341283623
0.36790474016637187 0.02740000141784549 0.6582944070081721 0.009611462735642944
0.5265318336407601 0.027400001417845488 0.9474897560294764 0.011298636960263807
0.37269849431960744 0.027400001417845484 0.9681694254990936 0.011116437956040693
0.3853843780406069 0.027400001417845488 0.665124988015398 0.010456222384705156
0.4256606587206737 0.027400001417845488 0.8743398335003284 0.01093784982423232
0.13278541162143798 0.027400001417845488 0.9405620758871371 0.009931241717721381
0.5817660047980144 0.027400001417845488 0.9063613113671043 0.010604339396555265
0.6329561997332024 0.027400001417845488 0.6084957537935943 0.009631936720621886
0.7445573463701822 0.027400001417845488 0.8650294037415454 0.010962412384091777
0.6838024995002883 0.027400001417845488 0.5637905738117822 0.010343550549076782
0.2987771423842984 0.027400001417845484 0.6454761185139687 0.010681667678803556
0.19682798058285741 0.027400001417845484 0.6728170753899385 0.011292210250286533
0.49262303148234965 0.027400001417845488 0.9502654162298001 0.011772904683292935
0.6816257065966771 0.027400001417845488 0.48602919205052075 0.010684484396493462
0.2838944158676965 0.027400001417845488 0.9167772078355958 0.011762270704212178
0.46785165978186033 0.027400001417845484 0.09448332139069998 0.01104003528371647
0.36911464033874525 0.027400001417845488 0.46946690586468864 0.010976610211259147
0.6059515222005865 0.027400001417845488 0.5999555975541967 0.010651955899677127
0.6481552230255552 0.027400001417845488 0.41191329660900455 0.010884213952382133
0.3059754378379409 0.027400001417845488 0.85187141077051 0.010625571871939528
0.4697096797092617 0.027400001417845488 0.6019737288528091 0.010674767137325352
0.5029152039676688 0.027400001417845488 0.7985331537623646 0.010151085762542152
0.44887212727465503 0.02740000141784549 0.40234469693598207 0.011423414603857776
0.3131323939771534 0.027400001417845488 0.5298975814401687 0.010555949487874087
0.2645143532983624 0.02740000141784549 0.8758068393251324 0.01005215770208496
0.3709906501839922 0.027400001417845488 0.9584212228424006 0.010914712733238796
0.569106189540252 0.027400001417845488 0.5420901517010999 0.011410400936707477
0.6826568044285466 0.027400001417845488 0.8358575020337721 0.010115071552375818
0.33415875943899986 0.027400001417845488 0.7644090982097189 0.010571115472281935
0.2435268169506948 0.02740000141784549 0.6033234491941092 0.010563656474801366
0.15568409014818663 0.027400001417845484 0.8696434942612202 0.011076186756877208
0.7989943689969029 0.027400001417845488 0.9552414755379308 0.010092139924510354
0.2545208610388727 0.027400001417845484 0.6116461046878661 0.010929314026360099
0.21106209028497508 0.027400001417845488 0.88408382265793 0.011645101235933984
0.6852271142746821 0.027400001417845488 0.7283599839481874 0.010737900546652492
0.5189261671389378 0.027400001417845488 0.8711751453062966 0.010083491967431323
0.14234092824098482 0.027400001417845484 0.9309166911440309 0.010178121103085625
0.4869761194203516 0.027400001417845488 0.8610790919834113 0.010024954062795348
0.6392896383296066 0.027400001417845488 0.8285039289663981 0.010050031481554112
0.5328220698409396 0.027400001417845488 0.4624568954943755 0.010752632490065786
0.22277476145028624 0.027400001417845488 0.8699648771390491 0.010778928981048595
0.46170735847156436 0.027400001417845488 0.6952022940714868 0.010890462546842247
0.500121605752197 0.02740000141784549 0.09927061555678562 0.010629724394308197
0.3820692441395893 0.027400001417845488 0.9537062270724589 0.010285773991834769
0.5028328838757112 0.027400001417845488 0.7251600987559297 0.010964175330462513
0.3001545405285384 0.02740000141784549 0.839000574110819 0.010790882052436853
0.7269818586906486 0.027400001417845488 0.7928141926329764 0.010905811972108428
0.49108650918447394 0.027400001417845488 0.08026569126855597 0.013896116669507743
0.411024180901276 0.027400001417845488 0.7922918425493828 0.01033699203719109
0.5402002890244715 0.027400001417845488 0.2562438186458963 0.010407397891811648
0.781324188944085 0.027400001417845488 0.8685118112369801 0.010567003578882251
0.6684608083861783 0.02740000141784549 0.8240248884601153 0.009712823146311984
0.5172219592956667 0.027400001417845488 0.27914569633512676 0.011345986707450368
0.23099441441492263 0.02740000141784549 0.6735047431407792 0.011153864829188778
0.6050716647934906 0.027400001417845488 0.5775348384749954 0.011102360606971258
0.8295985765507753 0.027400001417845488 0.9222086892701926 0.031732424809157486
0.33980321459147933 0.027400001417845488 0.8817317507889932 0.01046898347296138
0.6890388777531732 0.027400001417845488 0.8008636644377974 0.010305275471975423
0.43315754185676536 0.027400001417845488 0.8016433385841344 0.01106902264191038
0.8751803963816105 0.027400001417845488 0.92538406319395 0.3070445612402282
0.7933054985131361 0.027400001417845488 0.9123221379137163 0.010942407439554188
0.17236352104727176 0.027400001417845488 0.8415435332454402 0.010454298681108193
0.7642749101414218 0.027400001417845488 0.9474035402098224 0.010989546718476764
0.4482617097010983 0.027400001417845488 0.330663534939422 0.011865744110621293
0.7143212134161929 0.027400001417845488 0.8770233911923858 0.0111901569184066
0.39058761084201293 0.027400001417845488 0.7941161084585487 0.010484258640259354
0.5568017642774737 0.027400001417845488 0.40393667302018454 0.010363508886254381
0.33875204418997185 0.027400001417845488 0.7299739146893122 0.010529720681474472
0.09846107100186922 0.02740000141784549 0.9026300420707001 0.010179675918603682
0.5406852125464602 0.027400001417845488 0.8457942960146141 0.009975425200375346
0.35555371851140183 0.027400001417845484 0.44459332926813044 0.010935790615952576
0.5762786214061721 0.027400001417845488 0.8545065934921374 0.010903249128988794
0.6129447454496709 0.027400001417845488 0.6747319843656775 0.010576821018372727
0.37079239621005655 0.027400001417845488 0.6777579953125025 0.011353586752703966
0.7298847966065198 0.027400001417845488 0.7230634630530396 0.010830937989772095
0.3176367708802334 0.027400001417845488 0.503913242413523 0.01053198186068876
0.28326379181097644 0.027400001417845488 0.9277487017682258 0.010297681905669875
0.18349233983945873 0.027400001417845488 0.7196749637432674 0.010397992368861835
0.5025893903869028 0.027400001417845484 0.3767729704828854 0.01084455813682576
0.21782610980620865 0.027400001417845488 0.9061003647999036 0.009927936626264686
0.5853442424568144 0.027400001417845484 0.2775355372619562 0.00992273876471916
0.280795984507631 0.027400001417845488 0.6719834577661694 0.01093992752705287
0.7007481745732853 0.027400001417845484 0.8548726939328515 0.010952797888556557
0.1882142144745299 0.027400001417845488 0.9732111061340998 0.010392307133024904
0.6931749663381508 0.027400001417845488 0.5291614618044741 0.011826827668072843
0.5131818960251259 0.027400001417845488 0.9508824916241252 0.010210816468753261
0.6277318664787805 0.027400001417845488 0.5689954980948497 0.01002000955310003
0.5714717592100595 0.027400001417845488 0.5733871487869167 0.01019497987870911
0.8811529320076139 0.027400001417845488 0.9556434267581916 0.2803667870741672
0.4119164971636355 0.027400001417845488 0.24609244068948175 0.011088836554041291
0.43228498208625393 0.027400001417845488 0.9069292981846937 0.011098254878720272
0.5529543255717235 0.027400001417845488 0.7480933059619805 0.010801830280986444
0.3302483797148875 0.027400001417845488 0.4563149098770204 0.01033034514759905
0.2057630707828524 0.027400001417845488 0.8337272177821733 0.011036138767474456
0.22129355990837757 0.027400001417845488 0.7761412509929774 0.011366332145024216
0.37937712191516887 0.027400001417845484 0.3982718586888108 0.010433004964939083
0.11621140814797541 0.027400001417845488 0.9076053448443517 0.010384147248043792
0.3653282784282724 0.027400001417845488 0.5861453886985539 0.010237267370760179
0.6227807279770639 0.027400001417845488 0.44657452794312547 0.010148489231275282
0.3839831060550183 0.027400001417845484 0.33460491243008134 0.010643653995460484
0.2405941479458582 0.027400001417845488 0.6651326773278025 0.00974170470720583
0.4315690666390178 0.027400001417845488 0.5633645688264162 0.010862880763959562
0.5067916126704013 0.027400001417845488 0.5791700553882564 0.010111407714542733
0.3494401196519287 0.027400001417845488 0.3508259807067875 0.01094640062264977
0.5456244251169579 0.027400001417845488 0.8046890880056509 0.010839477246566276
0.5915521548784965 0.027400001417845488 0.5039863960824099 0.010402927437337346
0.19272044982768777 0.02740000141784549 0.8881353007715828 0.011452958982396103
0.6369183651091874 0.027400001417845488 0.48020873071912223 0.010262231042040494
0.6991134419113967 0.027400001417845488 0.6357180066665037 0.011230863939697923
0.3081019417256459 0.027400001417845488 0.7844415694132716 0.011036061425396365
0.4367214520690822 0.027400001417845488 0.8153069850875977 0.010062751300065394
0.5610970167291875 0.027400001417845488 0.46416603957001945 0.011522742049927667
0.3993492593291003 0.027400001417845488 0.709115079047163 0.010627302022129035
0.3723574209357271 0.027400001417845488 0.8274276287744846 0.010371027201726305
0.8317388065258104 0.027400001417845488 0.8382799072600658 0.015201137333915845
0.8239824873782811 0.027400001417845488 0.8774486323726375 0.045106690954893384
0.3921924250057591 0.027400001417845488 0.2614139615980057 0.010632315769519354
0.5205909878868851 0.027400001417845484 0.3930863308131515 0.011030597409690018
0.5060990666489357 0.027400001417845488 0.5125607159731929 0.01156933297274578
0.5777775610443376 0.02740000141784549 0.2864450367106519 0.010775691782216566
0.49262129106488506 0.027400001417845488 0.37406227170135836 0.011341014449756139
0.3469206773002634 0.027400001417845488 0.6663195397137257 0.010634609942947432
0.6849934495127477 0.027400001417845488 0.6769071773782469 0.010455391490685213
0.6106211400417088 0.027400001417845488 0.8808869501368518 0.010840666276587096
0.21771731552132004 0.027400001417845484 0.7540159513028448 0.010351997870667169
0.47628429098614855 0.027400001417845488 0.9458544701976506 0.010727574440251993
0.8541760807573793 0.027400001417845488 0.9083140773381132 0.25314703090280644
0.43951318703074227 0.027400001417845484 0.3244873089073249 0.011354887727805242
0.341563782440053 0.027400001417845484 0.41184999852672816 0.01026223420728043
0.15999257963342012 0.027400001417845488 0.7739373146843448 0.01056805336320967
0.42518680988742025 0.027400001417845488 0.24975262798105471 0.010531502415844272
0.600482349670671 0.027400001417845488 0.3717110371348468 0.011062795112132593
0.4479776764898228 0.027400001417845488 0.7211464725959812 0.011177526407896122
0.5142439183183374 0.027400001417845488 0.6843218042859878 0.011319855954622503
0.7002107776143663 0.027400001417845488 0.9468138599161413 0.010052531729388792
0.6590849038477948 0.027400001417845484 0.7305448223814293 0.010580094560132581
0.5881952832943054 0.027400001417845488 0.8215791810447783 0.010691580733435135
0.2722193941910479 0.027400001417845484 0.9359342857695021 0.010224873454616925
0.719604837311525 0.027400001417845488 0.8891621682228666 0.01091639778657117
0.6152076954148632 0.027400001417845488 0.4280485883484056 0.011006023958090291
0.7794485944999524 0.027400001417845488 0.8560494197568793 0.011132843019245565
0.5672103456747044 0.027400001417845488 0.5098918087069695 0.010622602100729912
0.45051700289167457 0.027400001417845488 0.7991976431274053 0.010866775189670889
0.8361368925518823 0.027400001417845488 0.867947640216193 0.10192819462645959
0.6207854682642344 0.027400001417845484 0.36940975473036425 0.010689570933780897
0.3025602525091354 0.027400001417845488 0.9693900918170548 0.009637928054669804
0.7518716770964537 0.027400001417845488 0.9358070878265314 0.011539745078215773
0.67757123926059 0.027400001417845488 0.6969712013874317 0.009712701828200805
0.24948460839517222 0.027400001417845488 0.973509682805441 0.011005176560066804
0.5412456331515815 0.027400001417845488 0.5342836440620169 0.010515779757765454
0.4029733966980811 0.027400001417845484 0.22538067180422044 0.010727064785413243
0.7324611860127955 0.027400001417845488 0.8492819722223854 0.011481347309815848
0.6183446037071196 0.027400001417845488 0.47290649132407436 0.011824517381799442
0.5843871272750799 0.027400001417845488 0.8318087669254592 0.010633155691975578
0.4240512148017639 0.027400001417845488 0.17764300985167275 0.011318501394526946
0.7052066264486003 0.027400001417845488 0.8811438611672828 0.010513758007785564
0.7345930101982429 0.027400001417845488 0.8603068060995912 0.011208072319571744
0.4461475306547681 0.027400001417845488 0.5323941295986326 0.010210042874947357
0.40218814365482114 0.027400001417845488 0.6474930864984292 0.010497163642489458
0.4004243330988284 0.027400001417845488 0.792065836672924 0.011036202056599956
0.47932450437466667 0.027400001417845488 0.2839953419859409 0.010019815790699533
