x y z curv
0.44313123808598276 0.355599969625473 0.2524204692872013 0.1730090035863374
0.8081184478431309 0.355599969625473 0.8549814119838381 0.17176854548332848
0.49483157198511535 0.355599969625473 0.7321522805244363 0.1822607622574744
0.0540770492874251 0.355599969625473 0.03841807946533697 -1.514589171468698e-17
0.3749660122271202 0.355599969625473 0.14795735845159733 0.15885078695094323
0.8795211867142484 0.355599969625473 0.9249876240590091 0.1458739561265909
0.6351005894628874 0.355599969625473 0.09225245394291154 0.17563539336369774
0.5733754464307275 0.355599969625473 0.8982035333148103 0.15696652910092565
0.776917197611944 0.355599969625473 0.7570632347422304 0.18024671480913618
0.7173048714846803 0.355599969625473 0.19832599041458351 0.18298176987968007
0.7248077589609134 0.355599969625473 0.03967770356936012 0.0
0.8106194793728918 0.355599969625473 0.7854651339117993 0.1936881925399177
0.35221490047972404 0.355599969625473 0.3387064357498696 0.16824346287254185
0.8631929008843696 0.3555999696254731 1.2990195907875097 0.15463099441023587
0.5255391195210648 0.355599969625473 0.2845919715721646 0.17483416009808625
0.8500153751551984 0.355599969625473 0.9660451578925319 0.1746527164515366
0.5938770397881243 0.355599969625473 0.32036550531992525 0.1551820814140979
0.7413346913815024 0.355599969625473 1.0335079466602064 0.1651280750618074
0.8516201162006944 0.355599969625473 0.4282127764734147 0.16746257460694525
0.8349162802644843 0.355599969625473 0.24762836290733062 0.16431083884978132
0.7294864871150908 0.355599969625473 0.8156360425345801 0.19361366331116292
0.5952867880798207 0.355599969625473 0.22482642050072218 0.16035380624258289
0.1570606475697587 0.355599969625473 0.19663963462701584 0.1589277830421657
0.44876248841376687 0.355599969625473 0.4664618420011039 0.17157046775898957
0.3711317812121537 0.355599969625473 0.05566679321701766 0.07191472783889685
0.7935826388548881 0.355599969625473 0.8828651285865563 0.16732882087532666
0.38397888916693007 0.35559996962547297 0.4386877334593517 0.20486010040578556
0.5435608439137629 0.355599969625473 0.17255670665427444 0.17816448431663756
0.5083025953774284 0.355599969625473 0.07415005053394362 0.1919570201516391
0.24641169690777445 0.355599969625473 0.24759757023429974 0.172280511844743
0.8485142605866045 0.355599969625473 0.6153550843015632 0.2027055163065992
0.7163418570594272 0.355599969625473 0.7748317600244441 0.16571634814195213
0.36578454889995526 0.355599969625473 0.5439424462413192 0.19314048042026985
0.6510062437408674 0.355599969625473 1.0612050818908572 0.19361629703471914
0.5690773224345795 0.355599969625473 0.5204005418836224 0.18201403231154306
0.7945049403204512 0.355599969625473 1.2637933840656916 0.1814852435972734
0.7649802750794436 0.355599969625473 1.1561088809332654 0.17609289533685432
0.884792906060725 0.3555999696254731 1.3002650893099317 0.1566403850469409
0.6753047449908313 0.355599969625473 1.0846000728491105 0.16392335590189097
0.4058677563727738 0.355599969625473 0.18930879853209903 0.18135127170491006
0.7148880098745416 0.35559996962547297 0.9803587930354511 0.16964183789972498
0.781588423553735 0.355599969625473 0.3680677879476741 0.16993929710664338
0.8098392609612698 0.355599969625473 0.3489779901208269 0.1995981903223548
0.6907791704246428 0.355599969625473 1.066675098530223 0.18608024986092844
0.6585722154786131 0.355599969625473 0.25831983264075536 0.1606939457866053
0.46934451869808447 0.355599969625473 0.21985410289849955 0.15028579011425833
0.6764599075372768 0.355599969625473 0.3676840203558004 0.15288794467336253
0.8869386209958646 0.355599969625473 0.08745923235100943 0.1431264997198581
0.7609115931030094 0.355599969625473 1.1277065571029732 0.16662162439382364
0.47869592790184207 0.355599969625473 0.7809956124617851 0.16748617936270357
0.8880190256542005 0.355599969625473 1.159063508760568 0.11243433987501415
0.4166866792480623 0.355599969625473 0.6352886340508154 0.16813052334590986
0.8315275856137282 0.355599969625473 1.2056776556602329 0.1771922087785383
0.4443246713445339 0.355599969625473 0.11046006942276933 0.17462239203235178
0.8783301081096082 0.355599969625473 0.4433248651894297 0.12237194778217678
0.24971395622071962 0.355599969625473 0.12676530620065357 0.17151912697119454
0.8594539149360134 0.355599969625473 0.7239174281907589 0.18792646754861986
0.8165193628443967 0.355599969625473 0.7153008036238944 0.17276459729099564
0.7732885810154948 0.355599969625473 0.39388547957672626 0.17093862633053591
0.6540096344551879 0.355599969625473 0.23521505654703032 0.1637355964173414
0.7224099628696635 0.355599969625473 0.8381635897623012 0.17531316294696
0.6982992360020552 0.355599969625473 0.5670716692780046 0.19810660791454102
0.8395546208844209 0.355599969625473 0.7443529192728695 0.16703830617709478
0.726277336660833 0.355599969625473 0.6859871110820664 0.18463649625048856
0.5254848639365741 0.355599969625473 0.17330449985025353 0.177873480532243
0.6369857009444728 0.355599969625473 0.5609020559778631 0.1855207938678924
0.8145160997142616 0.355599969625473 1.082434252486874 0.17200526844766056
0.5441856164656891 0.355599969625473 0.08906229048502289 0.1665982375243703
0.8852619642886612 0.355599969625473 1.0227895767483424 0.07956890464350325
0.8664130931475651 0.355599969625473 0.40683613602274865 0.17415462192496187
0.5195003164037981 0.355599969625473 0.09088448071017685 0.20238814768423602
0.6959241192101404 0.355599969625473 0.18072820996725736 0.16649982515265263
0.34082519970063097 0.355599969625473 0.5356160807090994 0.17391849372696994
0.30956098404327004 0.355599969625473 0.2540795166924331 0.18031068443544498
0.6056595094324685 0.3555999696254731 0.9004822091027289 0.16276893313042626
0.8873095086882816 0.355599969625473 0.8762435375849639 0.12779873001816328
0.6356625059653247 0.3555999696254731 0.6468590186731624 0.17990237038337287
0.5480328099131159 0.355599969625473 0.7604914156309632 0.16790160663697268
0.8148353071994201 0.355599969625473 0.2514378000802298 0.19026635966058608
0.3690727398265548 0.355599969625473 0.136525998844486 0.1608189722239602
0.6835461880365722 0.355599969625473 0.4526655735288338 0.17771610408488128
0.2372897292481191 0.355599969625473 0.06155396343804829 0.07520459327458934
0.4721528763887633 0.35559996962547297 0.7240695468793176 0.16319673415977357
0.6209264837220194 0.355599969625473 0.21137576051132903 0.18562368136827087
0.5779601512727963 0.355599969625473 0.18898662106993336 0.17197078452277328
0.8328227743548613 0.355599969625473 0.855253121819016 0.1746696077101942
0.8566925706001716 0.355599969625473 0.8631861813929084 0.16071934230773102
0.29588881387119337 0.355599969625473 0.044200940678713996 1.661037292407086e-17
0.8102802373670122 0.355599969625473 1.1370518988978497 0.1832756745648605
0.5491271335538086 0.355599969625473 0.7915493433566522 0.17130926590277845
0.760073593738279 0.35559996962547297 1.115751814779437 0.16668298420258923
0.8576401685907683 0.355599969625473 0.32669868006701114 0.17559409978937504
0.15994799498204507 0.35559996962547297 0.23146830305605298 0.1670362793739006
0.3833342176857692 0.3555999696254731 0.583491141132999 0.17620428989963505
0.7206628079337359 0.355599969625473 0.40239516556940097 0.1945242534445705
0.772579530482107 0.355599969625473 0.19564549171992454 0.1585073582557052
0.7898671908964903 0.3555999696254731 1.3172540331329115 0.17104507486333212
0.871142438253257 0.355599969625473 0.24408101537696433 0.11627949054459912
0.37936926929417714 0.3555999696254731 0.23029600926058139 0.17476248005291511
0.6775024461139684 0.355599969625473 0.5667992257680722 0.14615124800574417
0.8097989343823302 0.355599969625473 0.7658439640417185 0.17240742378092552
0.2744474988141491 0.355599969625473 0.1899487232054515 0.17605424424215346
0.2377849982022598 0.355599969625473 0.13847591608040855 0.16440204759302346
0.8735782483908071 0.355599969625473 0.16827722125124708 0.18443428141415888
0.584582896579187 0.355599969625473 0.01775863544707126 0.04897485450990479
0.36653794690929054 0.355599969625473 0.48687834720304163 0.20193375882762205
0.5063109062333644 0.355599969625473 0.2262035681924581 0.14389526943122893
0.7132279243230781 0.355599969625473 0.5836844506017029 0.1532067851596893
0.4429191223308336 0.355599969625473 0.38845923585848013 0.16482926816102914
0.5164546703974082 0.355599969625473 0.37021025352530773 0.1850344608313832
0.538987028735943 0.355599969625473 0.29139016493171155 0.19281901639524893
0.625245621991305 0.35559996962547297 0.9983455427163673 0.1487038230489573
0.45548018510198235 0.355599969625473 0.453345527587194 0.18546939641340313
0.7365594065040668 0.35559996962547297 0.11563981280172547 0.19234695763174056
0.7432053173956674 0.355599969625473 0.1293983100283301 0.16907374375142287
0.8880373363912217 0.355599969625473 0.5615423647273502 0.1183348406535674
0.7844760045721776 0.355599969625473 0.816491540456978 0.19252092204837798
0.711652357205034 0.355599969625473 0.44282068563431487 0.1715576648605123
0.717268894380064 0.355599969625473 0.031137125069883743 0.024402387870197217
0.11428492895885187 0.355599969625473 0.1592805867481415 0.15434957119771608
0.6017393673131621 0.355599969625473 0.8290476602914616 0.17071054471050065
0.8221507659876753 0.355599969625473 0.7706284612891433 0.18806145042922132
0.8361855293486405 0.355599969625473 0.9968339396241603 0.13883783572116787
0.06788007187894356 0.355599969625473 0.06472502773116796 0.13283712865042965
0.7877946053317297 0.355599969625473 0.07133487645217655 0.16582787479611483
0.8076694414848885 0.355599969625473 0.156674371861085 0.1903015175564323
0.5304794423551403 0.355599969625473 0.5467335047164325 0.17401621129006783
0.6596239436900226 0.355599969625473 1.1083755185110784 0.18988135377130327
0.8058561438604965 0.355599969625473 0.9232792720192058 0.16929098668860892
0.8077958986828292 0.355599969625473 1.0693452965787271 0.19110250076181165
0.17919436339107106 0.355599969625473 0.2998755692999199 0.16130367016362138
0.41457366837683174 0.355599969625473 0.22333061754985303 0.1794131328989362
0.5503069317600904 0.355599969625473 0.11800173234897633 0.18007070319017499
0.6836703475119544 0.355599969625473 0.8344068898190118 0.17488989312109277
0.38864476182913643 0.355599969625473 0.1846345912083499 0.14823411499341346
0.6921637050576328 0.355599969625473 0.20397595694421677 0.1750103618383794
0.40576002477437584 0.355599969625473 0.049397172568254155 -2.5115571021077497e-17
0.8489556880575494 0.355599969625473 0.15491243084626236 0.18326635002735736
0.665037514496793 0.355599969625473 0.6226746216572987 0.17539000015359682
0.4234418688252877 0.355599969625473 0.12443880521559036 0.18517101305566147
0.7208178255235118 0.355599969625473 0.5631953172546263 0.19377561165340945
0.8500600673442977 0.355599969625473 1.1485956145794731 0.1406154276712298
0.8545771009464515 0.355599969625473 0.7825460263647069 0.17435368974092894
0.7111468511298764 0.3555999696254731 1.0012799659306457 0.1608380717845298
0.684309186122023 0.355599969625473 0.6858858135905308 0.18102783641393028
0.7095645488669526 0.3555999696254731 0.8219441145142188 0.16942569669928517
0.6673515585642178 0.355599969625473 0.3548678452037045 0.17474847500632767
0.6993074363877505 0.355599969625473 0.5454444961177966 0.16823975648561812
0.8875736172651493 0.355599969625473 0.340570917471112 0.1012439631043773
0.2926919116171834 0.355599969625473 0.32020904111027254 0.1768484018767504
0.7435457101599677 0.355599969625473 1.166793891441255 0.17658535447444743
0.5790781868215592 0.355599969625473 0.15236247635253844 0.17289879880113596
0.4229586173175775 0.355599969625473 0.055702093854042255 0.036952685047456184
0.7086718288976953 0.355599969625473 0.8592495560729644 0.160301296990906
0.6543456712614251 0.355599969625473 0.3900935239010719 0.16916690935580747
0.4814463530819253 0.355599969625473 0.010761998142159588 0.08341569384843604
0.8762663648322793 0.355599969625473 0.8839393198175506 0.1452804332817444
0.5905120313405987 0.355599969625473 0.05905608362898484 0.05861828223133863
0.7095453752722924 0.355599969625473 0.8912513756423585 0.15469316032654534
0.7484599680183319 0.355599969625473 0.8190306442874098 0.15520354721148732
0.7504017327092959 0.355599969625473 0.08241203261438687 0.16964088139947203
0.39546801283512284 0.355599969625473 0.6210868003842052 0.18221171930586413
0.6259498499983758 0.3555999696254731 0.9301501459811137 0.1608785297548973
0.4178103129711376 0.355599969625473 0.3674222902853239 0.1693831290154884
0.6956566268603277 0.355599969625473 0.8783072411705453 0.1696087078803594
0.8600756767361415 0.355599969625473 0.5827521340543892 0.18897024057725917
0.7928808384060275 0.355599969625473 1.0026293268605604 0.16468411016791054
0.613304908705172 0.355599969625473 0.3110928746935922 0.17693065359967775
0.8135589669512162 0.355599969625473 0.8682177407280506 0.17058678992582926
0.8837637661822882 0.355599969625473 0.6757742225531348 0.19603676988856905
0.4912717445856786 0.355599969625473 0.3705150125653426 0.17118992950458783
0.5931827178364368 0.3555999696254731 0.8656960078979661 0.16165923216141076
0.8180465903926689 0.355599969625473 0.968106662478671 0.17209974279479323
0.7455707023623437 0.355599969625473 0.6226191011379751 0.1766974001421185
0.8466379212578806 0.355599969625473 0.07314366446561184 0.16580101384770127
0.6463708355616925 0.355599969625473 0.709080343295315 0.20260670478879186
0.27725179638123987 0.355599969625473 0.4500586964468908 0.1765737609102015
0.12123672258093403 0.35559996962547297 0.012457073361326867 0.06578067129720679
0.8012469868606235 0.355599969625473 0.9475533815423867 0.17322397638469514
0.7316853644592802 0.355599969625473 0.29240503461039696 0.18370701811162318
0.7576000389743707 0.355599969625473 0.6551189199070498 0.1856613688470084
0.886246709411064 0.355599969625473 0.15915317371828427 0.12764246905819257
0.4721761192107543 0.355599969625473 0.3149217763116983 0.1812154954222711
0.3567866474891774 0.355599969625473 0.06839839843590392 0.12953584802936957
0.2779097106877459 0.355599969625473 0.17644055838185663 0.1837648735207919
0.35642620063366237 0.355599969625473 0.3858836244547544 0.19880117283482845
0.7448511905353501 0.3555999696254731 0.06991390205146572 0.14512231815861665
0.5918731785383162 0.355599969625473 0.2397922214338464 0.1733443519734413
0.5667736742945779 0.355599969625473 0.1570739733336777 0.18237212371322797
0.1357807921653746 0.355599969625473 0.16140758139551237 0.17359140524767397
0.75983811876512 0.355599969625473 0.6219331740075836 0.17508825642895612
0.48144626780052024 0.355599969625473 0.3541841161066191 0.18500474500466826
0.8074532787514189 0.355599969625473 0.4278051579268434 0.19141171134573381
0.8072785089119727 0.355599969625473 0.049929896340768734 0.030618387692527844
0.864755932276889 0.355599969625473 0.18286427192780413 0.15158239580856334
0.12497469676817019 0.35559996962547297 0.19651833044387051 0.1554916654630721
0.4868280359791157 0.355599969625473 0.5034647765783117 0.1889029916687693
0.5788873346554593 0.355599969625473 0.6669522655079819 0.18177835397918127
0.8620725633257987 0.355599969625473 0.3918334142830933 0.1846821819875635
0.09197836056600109 0.355599969625473 0.03258867468163956 0.02385288584050235
0.7961346862094026 0.355599969625473 0.8647404323860007 0.16294480292195065
0.8098761665458547 0.355599969625473 0.5835046270814248 0.16087141081573933
0.8694074753498918 0.355599969625473 1.1510213579944757 0.1911388291594334
0.5435520521146702 0.355599969625473 0.43068913683075255 0.17912238364111172
0.8443812102008084 0.355599969625473 0.5219034228981716 0.18145049320293558
0.8075468042385597 0.355599969625473 0.40868332891538134 0.18225944957204707
0.3880119516878294 0.355599969625473 0.4946886997444751 0.1758745225394459
0.8355470331135278 0.355599969625473 1.017096697843223 0.2076352957641697
0.3688945787852582 0.355599969625473 0.25407372656192717 0.19314170994011548
0.652653675084599 0.355599969625473 0.9084951961879383 0.18504104680698633
0.8532713960709373 0.355599969625473 1.1768753777148793 0.14902937960638285
0.856771719429125 0.355599969625473 0.9790900521962863 0.21021824635289582
0.1642143628764926 0.35559996962547297 0.21990605915249284 0.1447581882513967
0.19618300316010423 0.355599969625473 0.10308444199938312 0.185648138129545
0.8888510023712016 0.3555999696254731 1.0804376819575565 0.08221474816744212
0.3092631442571082 0.3555999696254731 0.032759602939357375 0.00721790372729428
0.8260042803112615 0.355599969625473 0.7054290772436568 0.205639961768768
0.8466790543133532 0.355599969625473 0.3932631300417811 0.16990286978675515
0.742654487033515 0.355599969625473 0.4528583147010415 0.17464073206892264
0.3883149849449447 0.355599969625473 0.6125522424262239 0.19022093557560543
0.5938506498516525 0.355599969625473 0.7884509504255316 0.1568729078384092
0.6870704236898542 0.355599969625473 0.29964377242206924 0.17684749933795438
0.8262673403881096 0.355599969625473 0.4535086851001424 0.17130781817712015
0.7288124314365743 0.355599969625473 0.5320233893512357 0.15098493897042367
0.7425488969743931 0.355599969625473 0.8821492270365393 0.1665453901746054
0.20055762580643371 0.355599969625473 0.3332583704408419 0.16812513001119833
0.695536534788963 0.355599969625473 0.3737525493542153 0.1797353185627232
0.20804679723323488 0.3555999696254731 0.03643409193662325 0.00397779723427582
0.7507042265798574 0.355599969625473 0.22599355538291244 0.16021625437063294
0.47849287473569535 0.355599969625473 0.11151784126571346 0.16669801061266548
0.8158805600255252 0.355599969625473 1.1056390303525183 0.19410735958275344
0.3106680111959971 0.355599969625473 0.2052539113707715 0.1749046362086701
0.4604544841469327 0.355599969625473 0.4407294726180269 0.20565789394896553
0.39527151428626595 0.355599969625473 0.22508095047137855 0.1687859777515361
0.24168287079334688 0.355599969625473 0.1546960284629383 0.15178694197584644
0.803325200995465 0.355599969625473 0.5515934695568189 0.17499116636195997
0.5616688336325704 0.355599969625473 0.3619269508727801 0.19703992134932583
0.7197094005512173 0.355599969625473 0.22821080866670904 0.16563344766614577
0.8241186993536025 0.355599969625473 0.2695611101526306 0.17308676060633044
0.3743318295328636 0.3555999696254731 0.42434022889135264 0.1766662488297692
0.36907192826069 0.355599969625473 0.20376306914805048 0.16924153604611217
0.8841828835774749 0.35559996962547297 1.457678331715113 0.11813161368629739
0.31025167559972944 0.355599969625473 0.46479680515817845 0.15688228094504988
0.664719432331581 0.355599969625473 0.6051400289848615 0.16489531940743526
0.5297689628343883 0.355599969625473 0.20247130618193662 0.16925326440743094
0.2984149364636151 0.355599969625473 0.09760922997891829 0.14703959983282805
0.31889412126069094 0.355599969625473 0.1779293447489117 0.16900053984924096
0.6467778493881584 0.355599969625473 0.2549338261390316 0.17553369607063996
0.6559425813015779 0.355599969625473 0.7269750772345772 0.16903712935089904
0.5576646500923186 0.355599969625473 0.5993056302624485 0.16566497617774376
0.5927095406887897 0.355599969625473 0.6533536034808315 0.17287344434483287
0.13496694959354444 0.355599969625473 0.1483270146143825 0.18411237967786892
0.7668681171782649 0.355599969625473 0.850782245520539 0.13910194893352834
0.6779724390785902 0.355599969625473 0.6641045296357484 0.16485955452463247
0.7732105688936957 0.355599969625473 1.0368628375141193 0.22261324629424634
0.1555826411564067 0.355599969625473 0.12791291360345391 0.17449770648885077
0.5236832495404444 0.355599969625473 0.45461558237682703 0.18604179372796364
0.27181623968711194 0.355599969625473 0.33509075902692315 0.16361792262699906
0.6455706820290494 0.355599969625473 0.5067785795139692 0.1746603383872604
0.12518049294743122 0.355599969625473 0.07591861185917191 0.16312331839482175
0.08834262999419182 0.355599969625473 0.13898468374906456 0.15556672731218754
0.6673780258004218 0.355599969625473 0.6901263764986455 0.17214217901553233
0.5300448224792716 0.355599969625473 0.6249990657749614 0.1648796515398446
0.6355910228044104 0.355599969625473 0.619272669279304 0.18055494509566491
0.4505981583073347 0.355599969625473 0.6792393041959031 0.1797691786422879
0.7099322875846608 0.355599969625473 1.0273932950819817 0.16832635883365718
0.06823499550563455 0.355599969625473 0.1133097970343349 0.1635409534695058
0.6869506289260118 0.355599969625473 0.5134248482834837 0.17696070903339844
0.2720825082753463 0.355599969625473 0.41815969746191234 0.17850549343475544
0.5367398932603833 0.355599969625473 0.22206995158416565 0.179623485533716
0.09217303752066308 0.3555999696254731 0.045863617801534674 -3.064684567697617e-29
0.607034902477283 0.355599969625473 0.7529855372901145 0.158170330935034
0.787367949904771 0.355599969625473 1.039868631095519 0.1725883728525317
0.17014520087917212 0.355599969625473 0.19001812196111295 0.1706130084098797
0.2368585736264293 0.355599969625473 0.21460565869813655 0.18870234422386484
0.6847032883724558 0.355599969625473 0.12155478076602257 0.17935826733928845
0.48997343524168735 0.35559996962547297 0.5478106558328171 0.18436360519624914
0.36129115491908115 0.355599969625473 0.11109000810724555 0.17095696548421585
0.319182875218544 0.355599969625473 0.02372413317175331 0.05774934595496479
0.13822825202529376 0.355599969625473 0.1912359035893375 0.15669078576790413
0.16332030938254316 0.35559996962547297 0.13693915187537292 0.17523948784635424
0.14892013179133212 0.35559996962547297 0.18714831305133614 0.16011829908301525
0.8463620046375305 0.355599969625473 1.3991719198554835 0.1900306841668215
0.841177620011189 0.355599969625473 0.009686771476308966 0.0646418776981979
0.47557310210178966 0.355599969625473 0.13003327007171644 0.17143026691660287
0.8343402533341637 0.355599969625473 0.9581928453606363 0.17228460669416545
0.7714719752481365 0.355599969625473 1.1338927121302338 0.19002898383342168
0.5275900536621427 0.355599969625473 0.8389888804504665 0.20787686361749919
0.8661885291010389 0.355599969625473 0.3458045730402808 0.16927580325498395
0.8809059724171233 0.35559996962547297 1.1461727153614087 0.1378812103479227
0.7885676076106379 0.35559996962547297 0.9753142622809756 0.20659157125316333
0.3900285996718624 0.355599969625473 0.5940706733706387 0.1832794256309066
0.8766497881123863 0.355599969625473 0.3496793925130666 0.13371275531617932
0.8148794493160957 0.355599969625473 0.02353853853323322 0.03343250528731431
0.6202538453805027 0.355599969625473 0.32625481340116574 0.17867563826205868
0.6856139054749563 0.355599969625473 0.04378409925630337 1.4082034146352496e-17
0.7960263100459353 0.355599969625473 0.4535897107540334 0.16991083018061987
0.5839178873724514 0.355599969625473 0.5561493676389457 0.15007818727790306
0.777067298867461 0.355599969625473 0.023000062185816534 0.030392689234784685
0.8503330709904149 0.35559996962547297 0.8881128529342831 0.16694966759894458
0.4100634610820417 0.355599969625473 0.10951955952094351 0.1659640799686752
0.4737036349568897 0.355599969625473 0.24414809770603135 0.16225888016694254
0.5470090186396969 0.355599969625473 0.0553408627946547 0.0341471971352236
0.7689096598828017 0.355599969625473 0.27107992617424775 0.1654926686184641
0.831200759950395 0.355599969625473 1.3490660764263993 0.18451989723720266
0.5105890224420239 0.355599969625473 0.7159940757868116 0.16625516461675446
0.5421695152363124 0.355599969625473 0.34623814102665557 0.18854172625377313
0.10311035341929867 0.355599969625473 0.09373198389603583 0.1650084986370405
0.6168821998679347 0.355599969625473 0.6450575368251121 0.1827607602860579
0.5510909740667405 0.355599969625473 0.850987239215104 0.18072006673163213
0.8557128683818693 0.355599969625473 0.36716186949265067 0.18913538055511248
0.47206845551563925 0.355599969625473 0.5472712693622858 0.15782310201164138
0.4882090975161145 0.355599969625473 0.48492548697742693 0.15547671166353697
0.6452962206894455 0.355599969625473 0.8536716170682118 0.16652732277796786
0.5884621503740731 0.355599969625473 0.5219339134893908 0.17447430151855825
0.44298477535172415 0.35559996962547297 0.7219866542610145 0.18703774916204602
0.654421780953566 0.355599969625473 0.012140732758193468 0.05731186927526
0.4885636128898676 0.355599969625473 0.6762644306338278 0.1866809300509436
0.44767191593684325 0.3555999696254731 0.553376592850469 0.20385379344979465
0.7567518593891229 0.35559996962547297 1.1774621060234647 0.17892017006767488
0.8398224408598961 0.355599969625473 0.3594659541223406 0.17540952575838573
0.7314092728037246 0.355599969625473 1.1678959916369882 0.16812966864405107
0.517406439701364 0.355599969625473 0.06159278524599764 0.09560508529884425
0.45345235495345754 0.3555999696254731 0.6504982674177219 0.17441946086529733
0.8148907905327586 0.355599969625473 0.7271791267887603 0.16263136665224948
0.7855147751983609 0.355599969625473 0.21359277043388386 0.17064711376970274
0.8819414479995378 0.355599969625473 0.11500885201539027 0.17333191294830722
0.5289683764513012 0.355599969625473 0.37273305708490134 0.1858722196011994
0.6343253594505154 0.355599969625473 0.6990287381582407 0.17633785987186437
0.3320857798861337 0.355599969625473 0.10891927396077801 0.17070450042684793
0.7797083802389886 0.355599969625473 0.4195168041998715 0.15724004256538193
0.0637740670304903 0.355599969625473 0.08115881175513269 0.16633714233403044
0.8465610914388738 0.3555999696254731 0.9876163721011713 0.17496331884187752
0.8369780954967612 0.355599969625473 0.9410316306720948 0.18262916936140355
0.7581211775842437 0.355599969625473 0.032226900430966016 0.022183674013783426
0.7320631728547771 0.355599969625473 0.6533300967719081 0.19349205525326257
0.7987419088537591 0.355599969625473 0.5377486296122937 0.17862929727468047
0.873959367601775 0.355599969625473 0.02612864685756043 0.0858590967799875
0.478907795729919 0.355599969625473 0.1972776445892205 0.1570794561967394
0.7865415530520249 0.355599969625473 0.3338710689270233 0.19049295129064556
0.8058519299710531 0.355599969625473 1.0984262427064793 0.1846383442872457
0.6652730207630679 0.355599969625473 0.9981139496503901 0.21224606687784983
0.4487180965504014 0.355599969625473 0.5690620200697176 0.21311108067022144
0.3072914868171829 0.355599969625473 0.1327048217136315 0.1819862656020928
0.5089147087533017 0.355599969625473 0.3905116956327351 0.18449390597893622
0.5337552861517557 0.355599969625473 0.09845684180503919 0.1747112563824422
0.6198249664437498 0.355599969625473 0.6908443283554837 0.1732122998091596
0.6311022143666885 0.355599969625473 0.1944702079409642 0.1891516742152421
0.5498137520243067 0.355599969625473 0.584669712490736 0.1672781043544162
0.8140693812925347 0.355599969625473 0.5474216809402793 0.17680944716078684
0.8317928176026436 0.355599969625473 1.1157735066425778 0.1613538590081389
0.2619615186938447 0.35559996962547297 0.412671864391916 0.171498330466166
0.7636169943884761 0.355599969625473 0.3665773195049329 0.17971710939198837
0.3808527310071491 0.355599969625473 0.32183136298121595 0.17464040443346543
0.7265968663559381 0.355599969625473 0.8037941078866794 0.1529983901708719
0.8163155296441014 0.355599969625473 0.2028168621457189 0.1860212453467711
0.65680445776362 0.355599969625473 1.0212690255418178 0.15950155432806595
0.30229402933310484 0.355599969625473 0.4770186614807988 0.14921852904635088
0.7857342201556663 0.355599969625473 1.053061231386585 0.1696533014759399
0.6183075870561276 0.355599969625473 0.9196822458506247 0.17270749907400657
0.536594981733047 0.355599969625473 0.32619853616506944 0.18076518634375457
0.5512758058155458 0.355599969625473 0.2206894244815802 0.18896582135935344
0.8071742539314946 0.355599969625473 0.21924681946365512 0.15540901081144856
0.5280199247873042 0.355599969625473 0.4235435101419857 0.17335933634348183
0.8523856640710743 0.355599969625473 1.0342788124374385 0.1985356633706738
0.5719906229181106 0.355599969625473 0.46498934980533746 0.1851016787112598
0.3929490112130511 0.355599969625473 0.5267557383566703 0.20782532350814154
0.3473840473288369 0.355599969625473 0.03927850069482535 6.46517913240558e-18
0.4404763451859002 0.355599969625473 0.43676368691209855 0.17555909382270143
0.5719027733586132 0.355599969625473 0.010793163220026282 0.06334158282568092
0.6431856473010308 0.355599969625473 0.051988892679542695 0.037560773738399736
0.3964707789116904 0.355599969625473 0.5735100423822528 0.21744599360480987
0.27945327858470337 0.355599969625473 0.37477113651443666 0.16369137814140367
0.288837369608207 0.3555999696254731 0.013543434885656647 0.0679903305131524
0.5504739346626668 0.355599969625473 0.4431418696524064 0.1889076712953628
0.7963985952464552 0.355599969625473 0.7068886077583858 0.18000599387362476
0.6945021176615409 0.355599969625473 0.7903890844449801 0.16264559161836514
0.5348318970103871 0.355599969625473 0.6647282709439387 0.183405240547463
0.381865712328142 0.355599969625473 0.5585959376108096 0.18273603681232878
0.6241555977379755 0.355599969625473 0.5856507964731313 0.17311206357284814
0.6081524237197224 0.355599969625473 0.12887682669008868 0.18038369995453876
0.6515644549122637 0.355599969625473 0.5199266624188794 0.16879564008805195
0.22294913513702816 0.355599969625473 0.1005119532651747 0.1570325859535581
0.6665485616236336 0.355599969625473 0.8208617707607088 0.16416920685946304
0.6824461160189765 0.355599969625473 0.39087662766260717 0.1490880609771228
0.8737015775174223 0.355599969625473 0.8028900233191568 0.18119089848034536
0.5930310854149222 0.355599969625473 0.07069120846252763 0.154720753389365
0.22826115419180282 0.355599969625473 0.1206396079575295 0.17034084774050953
0.6107379327645287 0.355599969625473 0.16140601436142368 0.16716249163510935
0.021677715378485972 0.3555999696254731 0.01184690769364974 0.07557359541663447
0.7794348894555193 0.35559996962547297 1.212697958860956 0.1878657103855356
0.06370814370127251 0.355599969625473 0.046700937530757436 1.0052345817321473e-17
0.7375126691538411 0.355599969625473 0.2037239514615267 0.18680875259323065
0.7947398713649991 0.355599969625473 0.9378717126880672 0.1696413475360937
0.48253140114028925 0.355599969625473 0.25470026820509134 0.17027389521501882
0.4666811273448549 0.355599969625473 0.7668578055991689 0.17476454887082157
0.6621686698232876 0.355599969625473 0.9869299061014348 0.17402880088915157
0.308026112679008 0.355599969625473 0.4020007979543928 0.15376953388770856
0.6645072208484645 0.355599969625473 0.04386815325014084 1.316683053810139e-17
0.8647056266720161 0.355599969625473 0.01058179564539355 0.09229497545300142
0.3157560767583394 0.355599969625473 0.3880426740673809 0.1741912013718439
0.7816827970874837 0.355599969625473 1.0102364313711751 0.22603405229753104
0.20882847201440832 0.355599969625473 0.1525956140782929 0.18395757218991035
0.7211296118004535 0.355599969625473 1.0569415644854145 0.16183153253328866
0.7994834375920247 0.35559996962547297 1.2751240099670293 0.1764558312717492
0.83913228588014 0.355599969625473 0.6628011952574551 0.16887695766700256
0.2570612186727288 0.355599969625473 0.2425557271114428 0.1547537634156974
0.643897589751783 0.355599969625473 0.2928234464103078 0.18111779316603588
0.7488555713543251 0.355599969625473 1.0186592303322837 0.15578727461361916
0.4490913218935855 0.355599969625473 0.26774281610133943 0.16606057370696328
0.5915701756171556 0.355599969625473 0.5107957540016717 0.20107404564852469
0.30364824209402413 0.355599969625473 0.41930139866287924 0.18899568154703628
0.7656349518562615 0.355599969625473 0.4025874179563226 0.16662647594081478
0.7793482299390136 0.35559996962547297 0.08437981563843303 0.2112381530764388
0.7939736028220314 0.3555999696254731 1.2491172988839563 0.18384034243506947
0.6890290523861743 0.355599969625473 0.06235226313658884 0.12204615953871224
0.49974468284116963 0.35559996962547297 0.754119572181027 0.1666533092374032
0.8674002392455258 0.355599969625473 1.3862836028814898 0.20569090609465251
0.8885959537019592 0.355599969625473 0.1263003420759064 0.07520366733865091
0.6705872813617473 0.355599969625473 0.22665541108183018 0.18692634621074303
0.678278938681167 0.355599969625473 0.579221381566163 0.17782838218022062
0.3688877818408446 0.355599969625473 0.3137003554652618 0.17805723535972012
0.8175544698567997 0.35559996962547297 0.9936344889562047 0.16215512228296994
0.4913657141056117 0.355599969625473 0.10554953141390494 0.16887646019311175
0.7124370043112433 0.355599969625473 0.4922747162942401 0.18319574141491743
0.45106410266759817 0.355599969625473 0.042242771599254395 -1.5374527735631343e-17
0.037401469294912 0.355599969625473 0.01867659125672973 0.06393449332796285
0.8205024843901494 0.3555999696254731 1.3400951615759484 0.17947821937022243
0.24646539089992603 0.3555999696254731 0.2643559448184483 0.1712010361819776
0.7531753982997769 0.355599969625473 0.9267278892305028 0.19426633272656124
0.8260044961267524 0.355599969625473 0.1391486500205798 0.16098032301622228
0.7392121723217967 0.355599969625473 0.03922027496308373 0.0012089374037432398
0.42585619667487784 0.355599969625473 0.673245652593545 0.1668237471974978
0.8638715254064908 0.3555999696254731 0.11355610530726142 0.18430799776609108
0.6909162590966353 0.355599969625473 1.0021256487088084 0.17941443476482585
0.499387379758671 0.355599969625473 0.43067171211111244 0.182879446007616
0.6135092190035302 0.355599969625473 0.03122893187804844 0.01617317978611501
0.31486406987591176 0.355599969625473 0.48967408845005467 0.19263706415694246
0.7831470660790432 0.3555999696254731 1.2687517857335087 0.17806241063088646
0.12363364512213232 0.355599969625473 0.16626707098553434 0.18010168287932585
0.524400988358315 0.355599969625473 0.25030972923653444 0.1805271990284903
0.6294677600624476 0.355599969625473 0.40156627260916583 0.17525115290135534
0.34902649076693215 0.355599969625473 0.5273931387351753 0.19771545180619193
0.7613924761124559 0.3555999696254731 0.00017112152419749275 0.0695250084657742
0.8441353520326054 0.355599969625473 0.6979088531511077 0.18092380597751587
0.284584473288274 0.355599969625473 0.24813179892524603 0.18069382356185287
0.4098738824660668 0.355599969625473 0.3002675616584145 0.17834240165491144
0.7272254281837744 0.355599969625473 1.216228090604737 0.16233846814263217
0.43312048780503476 0.355599969625473 0.5526656656885903 0.2022077507283846
0.6094165478191216 0.355599969625473 0.21918435816954632 0.1741140011693283
0.3998481489629411 0.355599969625473 0.24387290625343433 0.18303109292885866
0.8516948820923183 0.355599969625473 0.7394301366341565 0.18058382511817656
0.5202614151156211 0.355599969625473 0.528735318986471 0.1822459029352431
0.7224135498597124 0.355599969625473 0.8261945515716248 0.17379824361312202
0.884789284601091 0.355599969625473 0.5437480348089403 0.1459161719864743
0.26503428168268856 0.355599969625473 0.17916810004347844 0.15975554117331822
0.698011663228796 0.355599969625473 0.053519047572226745 0.06125001723297184
0.6368271980355661 0.355599969625473 0.14640778957300654 0.1807629688640273
0.7294370893896256 0.35559996962547297 1.145712825182068 0.17151745796115267
0.39400284495627885 0.355599969625473 0.5095257123426256 0.18102408954156518
0.6088281186085219 0.355599969625473 0.5007084501642747 0.19008951606405836
0.5099766474001853 0.355599969625473 0.8142627123312429 0.19293599715069223
0.44256243687750696 0.355599969625473 0.7069411936153994 0.19022848413303234
0.6084950601479355 0.35559996962547297 0.7657590899052812 0.152121604461406
0.5574470026897858 0.355599969625473 0.31828373829071194 0.1751267248903611
0.3415136537103607 0.355599969625473 0.2566257143834994 0.16871337546647505
0.3771779648937245 0.355599969625473 0.010129970425477542 0.09698033081041864
0.2168422262166391 0.355599969625473 0.14250619340485648 0.15315315419753814
0.4453126321695553 0.355599969625473 0.6951613621926516 0.1881870369146388
0.15064257780864368 0.355599969625473 0.2419394535622325 0.15647309873539217
0.5271067309327166 0.355599969625473 0.5989451685754388 0.1708731877986769
0.7891786653060182 0.355599969625473 0.6460897066404998 0.1757126461092258
0.42920021980326073 0.355599969625473 0.3617734153969776 0.18791352332711986
0.8105289936463744 0.355599969625473 1.2669663531548163 0.1912869480573797
0.7915577516255907 0.355599969625473 0.8045396785508924 0.18318862217234208
0.3324287824822102 0.355599969625473 0.34255351576459675 0.1744506958975958
0.18676425918834544 0.35559996962547297 0.1590918549863522 0.20562360056621493
0.5855347297803629 0.355599969625473 0.9771523368036719 0.1765545631488005
0.7522775196136564 0.355599969625473 0.09914984493426589 0.18824318767405793
0.3710007826961311 0.3555999696254731 0.5752622181890207 0.17870724407392133
0.8889845317428817 0.355599969625473 0.424366679662882 0.06674770587095227
0.4273906634972075 0.355599969625473 0.622968242665491 0.19374160335905322
0.6499543407507201 0.355599969625473 0.07996049460311254 0.15629064912321194
0.7896122806875097 0.3555999696254731 1.0749909710289995 0.1705799610222444
0.43942247827738506 0.355599969625473 0.1434089229885817 0.17453298923909433
0.58668726554147 0.355599969625473 0.5756032582322892 0.16221834412314498
0.7263509240415462 0.355599969625473 0.5845160257458107 0.18479234040809425
0.2730020432219017 0.355599969625473 0.046138396116014446 -6.347758187584452e-18
0.8308885612484675 0.355599969625473 0.8059028993332407 0.1758205258088686
0.47415548192879925 0.355599969625473 0.47666796498969743 0.1637225988094528
0.2691290592026686 0.355599969625473 0.38086379804511666 0.16953887970697848
0.7090819139894112 0.355599969625473 0.2086649330057238 0.17607537711493035
0.8334523967159136 0.3555999696254731 0.7547556886645281 0.16892398538508843
0.7602304197382772 0.355599969625473 0.4303755549449147 0.17439085250310035
0.7450324761779252 0.355599969625473 0.5756666507575546 0.18935229179225774
0.4760308557840337 0.355599969625473 0.5161826551673018 0.13211798678042902
0.2306366685280659 0.355599969625473 0.26764288825311977 0.18245857793766643
0.8534708261727777 0.355599969625473 0.3400948028378428 0.16498415313676146
0.8284739406953139 0.355599969625473 0.7168450282625567 0.19387711537412927
0.8547518178580129 0.355599969625473 0.4399507139019274 0.17798981434578173
0.32293428392650714 0.355599969625473 0.46855457286043045 0.16287271111489252
0.29506221473563077 0.355599969625473 0.2405298149255436 0.17456847187611654
0.8445932463515389 0.3555999696254731 0.928124165125956 0.16624437603624725
0.7995105128844133 0.355599969625473 0.13453294831064824 0.16817014943177755
0.8217155834050506 0.355599969625473 1.2978001357061584 0.16940099497027808
0.1862100178249204 0.355599969625473 0.21978577795396423 0.18137797866378286
0.6293550997813231 0.355599969625473 0.3356997120492094 0.16976237759100984
0.30039127242048963 0.355599969625473 0.08439242289094634 0.17282018880958883
0.7160813962033166 0.355599969625473 0.514307032201822 0.16791036022488745
0.4582050414248654 0.355599969625473 0.3283383176541349 0.17226002056704026
0.5267325046754907 0.355599969625473 0.29906775491056214 0.19500272422086407
0.6490397328492166 0.355599969625473 0.09765639016887097 0.17192347773572425
0.7204851724703232 0.355599969625473 0.3783906744697818 0.2015058949718275
0.122397003312645 0.355599969625473 0.11823455558801987 0.19297426837585813
0.27276343936162806 0.355599969625473 0.31340466639269765 0.17913969448521647
0.23146934452452567 0.355599969625473 0.03836394577589302 0.0004708313672963996
0.541832628169951 0.355599969625473 0.15749725465242967 0.19016942860483246
0.05878333771437394 0.355599969625473 0.058185536387960916 0.10218438709608119
0.3827044942181058 0.355599969625473 0.06608257715267324 0.1083360417612679
0.3323369561626992 0.355599969625473 0.2360225968893315 0.15960474010374984
0.4805687934197821 0.355599969625473 0.5285598582881017 0.16267006323205765
0.4576606916685455 0.355599969625473 0.3648005960697836 0.18551039284874513
0.62152963860105 0.355599969625473 0.2545321979578516 0.15661546662967527
0.09086779229798861 0.355599969625473 0.06515059055453132 0.11307149921681682
0.14460043515446763 0.35559996962547297 0.17393361052598008 0.1833977470190958
0.6302417516614087 0.355599969625473 0.5493853292402417 0.19180224790293116
0.6511586586874702 0.355599969625473 0.353631034089029 0.18086670997777318
0.14970778327488068 0.355599969625473 0.22055008474019316 0.14474967045190335
0.46312794389293455 0.355599969625473 0.5771946801076397 0.15985274936924299
0.19850710848933423 0.355599969625473 0.02757511554087459 0.020340948831967107
0.4648653047505219 0.355599969625473 0.49957633437484433 0.19488658484035679
0.6280570113929769 0.355599969625473 0.6574784670771887 0.17796560514707735
0.7061331954960488 0.355599969625473 0.7832098601975475 0.1812525991822073
0.7701934914428135 0.355599969625473 0.13856571821139171 0.18611856415881062
0.8884801941641453 0.355599969625473 0.04745675463939986 0.06654501873722532
0.7951874138612576 0.355599969625473 1.01485515282141 0.18709592793983973
0.1660767438918606 0.355599969625473 0.1796832495708107 0.18361334767419474
0.5822384458736086 0.355599969625473 0.4950057966585467 0.20135296745183767
0.8871401107429132 0.355599969625473 1.132357490731743 0.09845990063579929
0.5076879695065046 0.355599969625473 0.7369665877733712 0.17772015495902943
0.5101412697392278 0.355599969625473 0.5822772356952673 0.17687419514364047
0.8331597830136392 0.355599969625473 0.6834369022578426 0.16860493483867428
0.4775931211877918 0.355599969625473 0.08388680941238616 0.15754307728191097
0.7576422916286397 0.355599969625473 1.1044037341884854 0.18822632098619005
0.8760036498153432 0.355599969625473 0.6614715089116335 0.15196717220461833
0.5878076064599133 0.355599969625473 0.45431443110019093 0.18189513270774563
0.6676483647406575 0.355599969625473 0.47643682668225235 0.17767545507358734
0.8000090845587257 0.355599969625473 0.0025582520347860703 0.08384366112830825
0.13090314081444993 0.355599969625473 0.0874537405041364 0.19018506518283285
0.8849189424358305 0.355599969625473 0.41259192720953636 0.10709705009696235
0.8746031006228241 0.355599969625473 1.0283141137470722 0.16705322748171592
0.47223512603365314 0.3555999696254731 0.4449856411548969 0.1690271614205374
0.6357960316956628 0.355599969625473 0.03789892209072015 7.886968113422272e-05
0.6157771263694414 0.355599969625473 0.2925055529613326 0.1788016182151395
0.6407636464276973 0.35559996962547297 0.8191184407745318 0.1723232158566164
0.23627418548196746 0.355599969625473 0.2373650855834065 0.1491088299943002
0.44480328978821615 0.355599969625473 0.0326239734087744 0.02105302154327225
0.8513676221720947 0.355599969625473 1.005044358319462 0.12806116839273907
0.24962802326622485 0.3555999696254731 0.29272881787159116 0.1722331223800282
0.6955719869880317 0.355599969625473 0.6639855227749204 0.16911418006098924
0.869935448417839 0.355599969625473 0.48222889782452844 0.1493412149070377
0.5486992417460601 0.355599969625473 0.3888746345634177 0.183022959601153
0.7425778327547603 0.355599969625473 0.9723954684319287 0.19980080389103885
0.7197639266314331 0.355599969625473 0.006866366701561679 0.0411535610986086
0.30322035993044577 0.355599969625473 0.3560231194375258 0.15492521041516794
0.6823481126661978 0.355599969625473 0.14796621399027896 0.16980007436897404
0.667147662073958 0.355599969625473 0.02053544873888895 0.04333434619203701
0.5492049203414548 0.355599969625473 0.14354736919896696 0.1687128057857726
0.7668486146669871 0.355599969625473 0.5343279830182968 0.16168997965755602
0.5644304597540676 0.35559996962547297 0.8055696199586994 0.16146811472985603
0.13708857243307226 0.355599969625473 0.026217487529850203 0.059808507549326095
0.49830409123729635 0.355599969625473 0.2632473344536645 0.15983135340972435
0.6809065841550833 0.355599969625473 0.49442935457845916 0.1740609636880112
0.49093302062649524 0.355599969625473 0.30026177892484596 0.191156294457981
0.7763870639650287 0.355599969625473 1.1747268652738327 0.15530187278960125
0.2092080226400831 0.355599969625473 0.017382987617955887 0.04627095057774806
0.8133176144683636 0.355599969625473 0.8240627491428231 0.16943625175181515
0.8576291749755285 0.355599969625473 0.14675818866513687 0.1341004327967442
0.5177305779958519 0.355599969625473 0.6461991530964825 0.17935460061551917
0.506788851936637 0.355599969625473 0.15134967474798014 0.1721015943182098
0.6955720064982462 0.355599969625473 0.46696216111835087 0.1741253633692142
0.7338760688101744 0.355599969625473 0.7654278959039917 0.1698133995766613
0.6539914896538891 0.355599969625473 0.3762679721615582 0.1730585677210173
0.3462107021478484 0.355599969625473 0.07640251476241591 0.15346476023056277
0.8401323586200433 0.355599969625473 0.583667124701079 0.1771564813453909
0.7275944315545494 0.355599969625473 0.1530662442495622 0.17908010590588647
0.7133059185448695 0.355599969625473 0.27514125762785596 0.18242093484280916
0.5773889188549635 0.3555999696254731 0.8429682088116408 0.1980883064950572
0.7858432700434439 0.355599969625473 0.24235736945862624 0.17143219432496432
0.6482575581687038 0.355599969625473 0.03289012766588273 0.012029818745474267
0.6354514752277426 0.355599969625473 0.45207604540091834 0.18356536486183297
0.4574752582328092 0.355599969625473 0.6298832998652332 0.16679053912428968
0.45115761624622674 0.355599969625473 0.07999046722649181 0.14393510638713178
0.7487161590434768 0.355599969625473 0.5923564091511865 0.18450630278625188
0.6419301695279037 0.355599969625473 0.1847014335439471 0.17236486272296495
0.787713441925609 0.355599969625473 1.0241552562512828 0.18110989478566972
0.7866290813301389 0.355599969625473 0.5812636510840883 0.18322767524044067
0.7282327789492856 0.355599969625473 1.045831967046606 0.17281482438226142
0.33938805278676404 0.355599969625473 0.16301786831304704 0.15687474979336513
0.7968543791965678 0.355599969625473 1.3270483340171846 0.19491024457996084
0.7842074942941377 0.355599969625473 0.0440553151776545 -9.590130829477294e-18
0.5833348730342562 0.355599969625473 0.5403338228545465 0.18354832353639197
0.8006841830591773 0.355599969625473 0.7203326924224871 0.16851678680852317
0.8686031947221368 0.355599969625473 0.7476205668909778 0.1774480541791685
0.8882825842167197 0.355599969625473 0.7280569192855414 0.10389464654891058
0.6383117536960766 0.355599969625473 0.30512424616785305 0.18482463709634245
0.30091510577778985 0.355599969625473 0.4453640183019392 0.17206094545572437
0.8643881030823493 0.3555999696254731 1.2693332618504365 0.18031669021745517
0.23012405015718979 0.355599969625473 0.292179366173945 0.18341101516600555
0.20350955258198755 0.355599969625473 0.05604810046338013 0.07102166781387499
0.5105688572341777 0.355599969625473 0.3294347721791208 0.17269635263939645
0.5663776033378649 0.355599969625473 0.18598865432417414 0.18758237167626013
0.09226537343272898 0.355599969625473 0.010828465132699304 0.08129952289060048
0.5803823787221335 0.35559996962547297 0.9224197811691468 0.1715439019051422
0.5886107136501041 0.355599969625473 0.9637873518389182 0.15899419592501193
0.7177747704126061 0.355599969625473 1.0395222434496894 0.15649960688070336
0.6429939112286368 0.355599969625473 0.1993026024918429 0.17091091607287595
0.4406884293628876 0.355599969625473 0.1827599338007779 0.16264775144694202
0.36686260605533827 0.355599969625473 0.1787381762638209 0.1671739174886088
0.7565912697209213 0.35559996962547297 1.2465476199642047 0.18173222766670852
0.21677477358879182 0.355599969625473 0.28849231995212427 0.16415639819976727
0.4444208158744188 0.355599969625473 0.32249620991364936 0.20083855320665095
0.17363296596935107 0.3555999696254731 0.15308296967830548 0.14152650665272679
0.6986320941124642 0.355599969625473 0.6333335380378443 0.17378075486106037
0.7658066428395411 0.355599969625473 0.7022021080703821 0.1718648808234659
0.8426105598352653 0.3555999696254731 1.1705851259783413 0.18125387639900978
0.465559310005047 0.355599969625473 0.30042794548322316 0.17328091235879284
0.48952850950141213 0.355599969625473 0.11899629611379853 0.17528724204432788
