x y z curv
2.154734864092199 0.21660260329364645 -0.37155117294916495 0.01022094294641821
2.094440127295144 0.31814462601205235 -0.2942014956100243 0.000880261623393889
2.141267076597887 0.2524780584601019 -0.38278751081584705 0.010531644107706076
2.1571586194472685 0.1964455289121384 -0.3324492841273673 0.005449901902372873
2.1660550205269637 0.20367148396270304 -0.30343813682331233 0.0007319484896433042
2.162402941158507 0.18488825913668017 -0.2888698857514698 0.005386184844897419
2.1629372330869043 0.21635058443110367 -0.27869113464538725 0.004575714106096338
2.1544827167334017 0.21336971454926773 -0.3906227707370884 0.008639877527699317
2.119182192982305 0.2886735691278013 -0.3845725268688997 0.002185442543243304
2.145520977382787 0.24094850499976117 -0.39150577039433804 0.003616749231086327
2.118903313883939 0.2730315118790026 -0.4010465888021821 0.006613554466037101
2.1133676954435625 0.2861114560342811 -0.39743182314106446 0.0062725432138230255
2.1370228853701074 0.28247256186777503 -0.28453082396397883 0.003231070933654275
2.1540554302523223 0.26813309641770244 -0.2563881297186688 0.004616179943672116
2.1614322833966004 0.24745692013004394 -0.2610919605519515 0.008099059987145286
2.156573581274056 0.2587904243541252 -0.26124145847849123 0.010196173614698554
2.1315656726430885 0.2908822941115882 -0.26444853504730775 0.0013309764206985446
2.1178555050225047 0.3034157454528623 -0.28598108057313326 0.004599464460573954
2.1644345499377553 0.2318731717293371 -0.27545477932549206 0.005578226988800532
2.1343487710534634 0.25955153965479927 -0.3935259855903956 0.0005423093801659116
2.1515804920766124 0.2637221037185382 -0.3490906755491021 5.255468951882368e-06
2.136722885373344 0.2847784766355352 -0.3296599622272761 -1.963315825230054e-13
2.1638557456772576 0.2332476777063494 -0.28519991338953454 0.003993199006430984
2.1526034770456826 0.27072035610903467 -0.29092275319809663 0.003936996578235142
2.149590812547917 0.18940441262336422 -0.40950590594147224 0.008374801464484384
1.6468351228975897 0.3204731141942956 -0.3805135366203422 0.0029881366532579124
1.6425495321156685 0.3144636194903322 -0.3759612970192916 0.0029287450472003543
1.639562715821371 0.3090841428414151 -0.3912139840018128 0.0011728433781837437
1.6357702942116559 0.31543452718982073 -0.31031554537916756 0.0005601523996013268
1.6319991989676093 0.3090045910352863 -0.32647839342942325 0.008531480045959055
1.6327403262315596 0.30904143683439755 -0.33574971384298863 0.010404544508617832
1.6371233776873846 0.31565838990523853 -0.35158714698876636 6.304058167951837e-05
2.159155205683028 0.1956194887763102 -0.36494604587529933 0.001482550266091442
2.1367288943435314 0.24416236461316385 -0.39977613067579776 0.0045353597464833795
2.16012011245374 0.17591406014726527 -0.3365439691873306 0.0037935997008697155
2.151661919570774 0.11736409702697025 -0.347240181808489 0.004002698838512343
2.143526302241941 0.0987387992695109 -0.34112965834121406 0.0002944200720174929
2.1587939152885145 0.1775315939538678 -0.35108451914093464 0.0076357336993334085
2.1599295338058515 0.17868247597751158 -0.3221268409179744 0.008787009061846712
2.16739034537045 0.15942173839791943 -0.31341871005937016 0.0008937812409177497
2.1398893026190993 0.08113451489640908 -0.3133741160620556 0.016838895539265104
2.1661336551114587 0.133850805790631 -0.2955896099031579 0.00232074952515489
2.142401666354068 0.08895990523829889 -0.3175620795490246 0.005195959516269087
2.161355753667428 0.12761777805484142 -0.26162065632560816 0.007387322293238474
2.170094692498862 0.12650422437658065 -0.20397297778601156 0.005869673509809361
2.171397569096472 0.10790857347449484 -0.21423108790977974 0.002358287826097441
2.177441464526858 0.12197382775037363 -0.17490707940214703 0.005026119861651983
2.1736004016095976 0.14154502633117105 -0.17336071325573885 0.004008094953876857
2.1722765584634436 0.1397655083455401 -0.18732976418444452 0.0027617899458435347
2.174308474533361 0.16368505446281853 -0.18536126921573481 0.0019718459221272893
2.178206241602294 0.1595852055018961 -0.1606277244462376 0.008057071738475202
2.180875812048867 0.1507914906429236 -0.14281663175916137 0.005769203204432816
2.182631590353407 0.16118171128070063 -0.13173571188191277 0.0041133938824785285
2.1796895068764544 0.1673523713810466 -0.08851259280157188 0.004258269914557925
2.1793252838538684 0.14361270193739842 -0.15427482468251166 0.006438800773810446
2.16593593838401 0.1505276610973092 -0.259386756381892 0.006006923684548741
2.1691735156001304 0.15521374387321246 -0.2388770879193867 0.005499830548598221
2.166431281408849 0.17239544365773557 -0.23183703162384448 0.0020497062054597812
2.168882206899983 0.1856807866037668 -0.23399947159855827 0.01669506574946221
2.179917262426593 0.14533034406247156 -0.0930620545095142 0.0002724900241200918
2.1783525197816105 0.12296619135332497 -0.12604797103232396 0.0008006409703898574
2.1718403695216986 0.1149131253426339 -0.13543078594755587 0.0029975434404050315
2.1756811331991877 0.12654441882000408 -0.1463687847832087 0.009178681130859088
2.174919369614381 0.11042496807965933 -0.10703047824945548 0.003585676584183369
2.1753025835195863 0.12346325824423654 -0.09001610580341626 0.002183018143695119
2.1700165839236867 0.09648447699490613 -0.1134601173763098 0.0051115880608822994
2.162288561899959 0.09012723573858526 -0.14534855065717195 0.0024018107128377067
2.1641289499991982 0.07407155959604163 -0.14382464874271894 0.009021053813761162
2.164333827944902 0.07587158585387113 -0.05768135134034021 0.006756033107154337
2.15911693973673 0.07511517221049664 -0.10238796599301424 -2.451611586624074e-12
2.136269640857546 0.05572684949359894 -0.13223719465004394 
2.1075651138163978 0.04014307148143007 -0.15540950564399147 0.0010612598508126462
2.109917803653335 0.031054254917749075 -0.07751776356265536 0.003558742812154415
2.1304465138361572 0.058550146978275645 -0.17282466022536905 0.0014680134924336481
2.1179592871057373 0.05100662322506816 -0.19861427082998373 0.0023143699665336775
2.105233228972754 0.04674231276916842 -0.20456956415223998 0.0005413324646243341
2.102482203218813 0.043050625826463906 -0.18749686480658684 0.0015277572033552895
2.0839303800123323 0.03255946946756571 -0.20270530680503382 0.005216888116330819
2.088233826629544 0.03543203849485454 -0.19143610347312365 0.0023471987208451266
2.102134880628805 0.0460761550743899 -0.2368978467845972 0.014624856279931615
2.1148821360028505 0.05119283175320423 -0.22725342983682928 0.007495445964783712
2.1018202347786477 0.03441388883598893 -0.1204680889686444 0.008894933635893913
2.0926440223003633 0.033576096818388586 -0.12900938809154452 0.011851991588314372
2.103355468159046 0.026176446888612724 -0.0993866823563969 0.0019325385953162671
2.0777985021476617 0.021617830755107585 -0.09005824551214 0.007920273449850733
2.076293450648206 0.029254398783323053 -0.22060983962147707 0.006100323581893977
2.0595418174248716 0.024399721416067763 -0.2058268731774389 0.01142404630596
2.0548780580979704 0.023544704164105926 -0.16212918342168048 0.00809280626013229
2.0631558634019966 0.021595374941462582 -0.18936789819154953 0.0017093649494417133
2.063263147991066 0.020930951088752963 -0.14384587572393423 0.004888813665790189
2.049503207393371 0.014327095779218386 -0.1136021963205424 0.007820978432620269
2.0714889226379314 0.028499578783332927 -0.12059584865319808 0.005569527008656827
2.046441518306462 0.017752246131988766 -0.10209253490034106 0.01730915036781779
2.0149921459722697 0.009821219749694684 -0.1655273996551606 0.004083410506366575
2.0439803691427842 0.022714108415972416 -0.17924994400947478 0.0026944486296483733
2.015627722240963 0.010915446209342795 -0.19863609746979885 0.0016643401215408742
2.0049507363791688 0.012614875066883306 -0.18836350193822876 0.0006281750511087579
1.9897683741906258 0.009627913305172896 -0.18353613114603567 0.0011283627837563287
1.9997811238441638 0.008666381129103385 -0.23596690040097332 0.003598341645813926
1.9730418624623625 0.010128246703014623 -0.18137550273875666 0.002996309205732899
1.9798615464849516 0.00981804711657985 -0.21134127897815744 0.0024797657478795414
1.9652838009805584 0.007408060313333086 -0.2190049450148475 0.004467167676127776
1.9616882338502433 0.008870130607170724 -0.20587905420600525 0.003562227295117136
1.9569907485053715 0.00027202315208226836 -0.12185431759578287 0.004572932980661483
1.9626417353187546 0.005156248230151489 -0.09830259276816564 0.00333590955850898
1.9489523928188117 0.008722443378418479 -0.17299908420159374 0.0038988462076271955
1.9472144557191684 0.003325434409436742 -0.1953748628935164 0.0012093925044524376
1.9391514448082685 0.004378981071822396 -0.18771147446478112 0.0036993039324567955
1.9203440947882617 0.004725224562697477 -0.21827862282322075 0.0025890756591605934
1.9473897101803483 0.00795976649370112 -0.23717363668547162 0.005584243802786558
1.9054182019697874 -0.0007991569091083013 -0.18366662799089437 0.013682734436952834
1.922221493006548 0.004458414225278812 -0.21413112718161642 0.0028601262622746366
1.8953893623153275 -0.0025502510908431576 -0.1938820888263242 0.007060646994411802
1.8977596187385954 -0.0007039430170079249 -0.17238720719704004 0.0021865807692229393
1.9367128538108171 0.0028057007292719193 -0.14000585215976422 0.005182516659560449
1.9490934337085226 -0.0006439717990538328 -0.13573803436682794 0.0028188588318222734
1.921498977316175 0.001814311182122135 -0.1451263076566971 0.007285358979158991
1.931279066309459 0.0038279303892398185 -0.12770540791292811 0.0023313206585784773
1.9352228633699502 -0.006055649523048383 -0.08452719902306506 9.330728609631047e-05
1.905766723098064 -0.00020406976531342665 -0.1241454393704103 0.0035349120848689234
1.89641164488967 5.5528996107960873e-05 -0.09776473004923847 0.011687694030393728
1.8867817323157507 -0.0009134379757338466 -0.07944830307633219 0.003144734466878632
1.9774835143123106 0.0038317391014667974 -0.13932857802857582 0.0033696912279487846
1.9937533782464172 0.010648575844354132 -0.11153168005800031 0.009280808346229812
2.0060675942587665 0.011611727851237003 -0.15814816705885043 0.0012310057759262808
1.9903664715936942 0.006042300335139634 -0.1263267724550948 0.00236079938142361
2.01348494923839 0.010326254429775668 -0.1350152561007637 0.008138034084197695
2.0254993596184043 0.005368962301312457 -0.0985132599303136 0.0013969717719301213
1.9939815720350385 0.011197053776700588 -0.0999142151822475 0.00848636158129176
1.984003778964687 0.010462749165555648 -0.10053934880185669 0.005174302323194151
1.9876169985073466 0.006497575908681771 -0.07325306153227235 0.005442962810967487
1.8755702869809991 0.003432635465960839 -0.21647099493336933 0.00895616260581024
1.8818805471248743 0.004818918306581221 -0.1879210517695379 0.003178270871789606
1.8793702387522615 0.0025849575368505073 -0.19892264388744765 0.00333319583552959
1.8658659504808657 0.006382819704778178 -0.21518099910976435 0.0050520967000992935
1.8685129966574547 0.004883352559066434 -0.2237212749613559 0.011101231369297871
1.8684367349442632 0.009068210783589879 -0.17740756771938024 0.0035064043676375795
1.860843508105176 0.009423171421539853 -0.1515982981144494 0.004710711086676067
1.8839625464514964 0.0064820291927522086 -0.1307915595766569 0.005442140097580542
1.8736944769083514 0.009823913440680393 -0.16174907752457332 0.006072404769101002
1.8584729179350692 0.004303451940400534 -0.12544716580066145 0.005178228007836784
1.870098161286352 -0.004843797310297207 -0.09732662376887831 0.006383016806440568
1.8586566363564863 0.007291761740001941 -0.19522210986245575 0.004770427740441037
1.8475459574894175 0.00964526591540471 -0.18276929982665382 0.009205518187098114
1.8478802181760072 0.014721168543564306 -0.269866004995288 0.0040907725636444865
1.8331936400573332 0.011459100323008092 -0.22257279251897977 0.003623082652306509
1.8448454880369156 0.003710801774118524 -0.22810382283125016 0.00020346490200274242
1.818822846247972 0.010331250230421522 -0.1926695866949776 0.005907228789564536
1.806194282518851 0.014801406164473119 -0.21581415619122296 0.005074756012059129
1.8034876283538883 0.012216377383544676 -0.24037508115644 0.008644219918749136
1.798582429991174 0.009977900785027007 -0.1998934057641209 0.009369577039978266
1.777472792973599 0.022415097217247982 -0.2626840261096434 0.003213405413036221
1.8117251604874431 0.0014822902074750864 -0.16726629277633775 0.004046624098542841
1.789480494432327 0.007466002684681157 -0.16680031957565708 0.011512709165720083
1.7951474786869472 0.0018516084481727257 -0.1542475398060152 0.004703457150938798
1.7759593087982664 0.009872490318067044 -0.14195849247259812 0.01224140027239907
1.8425139964484911 0.003207677515158949 -0.109799101348243 0.0045251783777086
1.818733026624569 0.007715270354173525 -0.14089109584067666 0.0032095520687110764
1.825990133818776 0.0020646470644247973 -0.0914759314282793 0.0038583102458652793
1.80142407732696 0.003609529958285858 -0.08683991208654136 0.004728301263042814
1.8065545067407305 0.008672340211795736 -0.11088834095654215 0.0026465872882642915
1.8003519601494764 0.005172346369282932 -0.07845794462629507 0.0048504254149190126
1.7860334280145038 0.0023164822838795526 -0.0675504740150784 0.00530076294811276
1.7546845064913614 0.007817543104794161 -0.13131184576565488 0.00012974591614432868
1.7482377826519 0.018057884201588707 -0.11803186245304113 -4.093429609853584e-14
1.7914935367530351 0.010201694539323783 -0.11374971828837543 0.0036509704961795635
1.715380122826212 0.03232515943436672 -0.18370440423984397 
1.7538232786611012 0.01754639887245393 -0.18877335726690542 0.00028602852264461917
1.7521869666928827 0.018703117620453 -0.19950962954557924 0.0009710254179541639
1.7603981837253824 0.017999133621700428 -0.20500650605281953 0.00037965432991875317
1.7506323874261933 0.025078702535230472 -0.2280810076865009 0.00148477351448594
1.7391866900610524 0.030895066503995497 -0.24989644331778185 0.0004302353522545742
1.7356015120590953 0.033387072969916984 -0.23418803716834863 0.0015569794789067968
1.7267500586742341 0.034981067862323204 -0.22449548419582052 0.00346719701570555
1.7232945359347887 0.02655102166392415 -0.12644288835192377 0.008578855549548832
1.7119636757900194 0.034379296415455125 -0.1326223377617026 7.148208976102121e-14
1.6973687643100606 0.03729127518452457 -0.11236917543000596 -1.1542308884764871e-13
1.7701022631618204 0.010893967457430317 -0.1642620401735069 0.004258073390540428
1.7725573770075596 0.0125887004733149 -0.18971546740444414 3.9876652238416274e-05
1.8512579116392778 0.0031712370396133763 -0.13307409248295984 0.0003795386663995504
1.8885984965702263 0.004105545875546287 -0.16137288859354088 0.004402200357723972
2.0435043591804694 0.01737763107191378 -0.14293956434886093 0.0056151901935583256
2.087695814374753 0.0313749918058796 -0.15665378907283256 0.0029389385980593393
2.140650149234027 0.067629955617248 -0.19356571640598058 0.003934742339456136
2.1554664375345998 0.07159448127517176 -0.17518004539367757 0.024860598060323702
2.168185174823061 0.09659324009965882 -0.18833695585279997 0.0101430824783703
2.1652683150250396 0.09917659946265356 -0.16120257387039194 0.007147937434713268
2.1549033242269924 0.07711508538855293 -0.22313488744822774 0.0011069661969858133
2.14987542043437 0.07366706192804558 -0.23245441023558758 0.013230682335644093
2.1633390755484663 0.09123013628971294 -0.2533147481200956 0.003834785380490342
2.1341750180563226 0.057935585248853234 -0.2307392620630386 0.01196326106595
2.0523540627773373 0.024191878290551035 -0.2061582396317423 0.007124644895882713
2.051594474480435 0.031086982244034164 -0.23807961712341108 0.003583007414094142
1.6859229690052489 0.039349957064785224 -0.15337237692294295 -8.092088489195396e-14
1.6707447671403246 0.04777853550803585 -0.19962857822978916 0.00385463485154808
1.65534629258477 0.046323474370151864 -0.22162054118640054 0.04706084838585608
1.6479253634127777 0.04948815506529334 -0.23213374375088755 0.05828553721946724
1.6723808192479421 0.04902008950735453 -0.23463523784886733 0.0029793153199315753
1.6601967805019757 0.04914361863028115 -0.13365516635248484 0.024136795082930748
1.6577101349496468 0.05011475243254592 -0.1828474183457872 0.0276536630082337
1.659329211106687 0.048404013862253625 -0.15910812791675866 0.014835884872214702
1.6362487453683594 0.045003746188670854 -0.13603624621545787 0.06853841226728087
1.6236847918402262 0.042291139451128966 -0.21925126063727346 0.005592195707622248
1.6428049204870407 0.04614608818820964 -0.16700187867564428 0.02924157263495214
1.987668810142044 0.015812483668763214 -0.28416889050823996 0.0009152946236708717
1.9745034349397004 0.016974248830957248 -0.26263392963512533 0.0013915867238224334
2.0528968128313485 0.02756292998018971 -0.2744529378441137 0.0021080124961345955
1.8232840899106038 0.013600424572848109 -0.2705572682880936 0.0049400176599152966
1.813422810622793 0.016819316198794242 -0.2684254245718843 0.005363462326039223
1.8191325635078797 0.013834933083579143 -0.2815534247915265 0.006995882641136255
1.85396984531925 0.009840682175581887 -0.3056491537734587 0.0020923346284747093
1.8407827184971706 0.01546769167238846 -0.346437406859563 
1.8623133047344576 0.018751257844722802 -0.3397878874256913 0.006194536715241224
1.8161806201542874 0.012587227150683042 -0.30945925061204876 0.0006284619124117538
1.8813031027895362 0.01848163015754173 -0.30416905825787927 0.007212484337523755
1.8892753009566656 0.015372078317700908 -0.28086560981271425 0.0036250280800383256
1.8552024453825178 0.012839652919758242 -0.28434681561047953 0.006053561818936633
1.8976587250996468 0.01945105529336189 -0.3272796922240999 0.0008117953943864199
1.860991418696131 0.013512791808364689 -0.26788656540832045 0.004381167711200786
1.9429642284992983 0.018522927479816834 -0.3229242459326279 0.000679149746967772
1.92989261081841 0.013227587591832301 -0.3085736016197819 0.0029870801325078446
2.160712030551486 0.10152224009999129 -0.2560419059269803 0.011939636166744937
2.1668506975176034 0.1497694494973371 -0.2734859627868256 0.0060270250609274845
2.069072243382284 0.03541868341727741 -0.26143229901727644 0.005031024160951216
1.8807146826282435 0.013433770012177697 -0.26797600026937735 0.002613666185600901
2.101565697007696 0.05130348259940673 -0.3005323805710493 0.009115450584313043
2.1092183003183753 0.05677881171125837 -0.3066480509522829 0.011972398435763738
2.0255783361733437 0.02007077171278558 -0.2922664376535044 0.0009331351907310961
1.8432684373760246 0.011281100461061597 -0.29257054350569145 0.006736628302141849
1.8077592218715801 0.017754811848019917 -0.2796368304351479 0.005059854627632494
1.9624850080239062 0.02473328945731429 -0.33254724055501295 0.0012655425403141406
1.7902313773618412 0.029438208249801447 -0.36635497003050105 0.005326207911310485
1.742768900918356 0.045627178152047754 -0.365948948645687 0.0016374930913767175
1.7159890316473583 0.044060519812866523 -0.39077256361853707 0.007314264059197463
1.705264356525832 0.05228087052981572 -0.35604439636695795 0.0048918489566037475
1.7256048268183208 0.046360730237606736 -0.331037598330525 0.00016884359014506488
1.789478580157164 0.04894492819582613 -0.4115219376978892 6.804798407314627e-07
1.7464881132295336 0.04175214632263387 -0.3405833438097574 0.0014385217902249186
1.6752129485645861 0.04666993664870335 -0.25566658652410973 0.005047562493788
1.7241931731678786 0.04054075859572359 -0.24802524605383758 0.0020796888240469306
1.690841045051759 0.04508570779857901 -0.40210760150622654 0.03114794695861588
1.6921886147058918 0.05123097109126242 -0.3841498897133414 0.01497458170320905
1.682988381872401 0.0428627773359034 -0.3371727235411151 0.00488344790475101
1.6409765435838084 0.04482423865195307 -0.27205350805960793 0.04759427346241484
1.6754016775959186 0.0483549705910892 -0.27613507706633744 0.0017772578301139422
1.6873341829801634 0.04230751950860004 -0.29298995827577595 0.0015564059700639858
1.6965509769047213 0.04084263659078914 -0.29565027134429833 
1.707509679507452 0.04774674901552826 -0.38739398300855543 0.013210041623666657
1.6441510219530344 0.04774117378555085 -0.3194399884465828 0.041081194253891916
1.6309247600151568 0.05335668883824731 -0.3498780492018212 0.047026709450573904
1.647451128620596 0.04675087169839748 -0.3897730565698214 0.03483400792278456
1.6333759191601356 0.0516178948780702 -0.39997756233233034 0.03030512862930606
1.639642412437788 0.04504240050396303 -0.2932047583364538 0.06713682137255171
1.6389886969517875 0.048837388047722356 -0.303928662064289 0.015610455846910083
1.664642173058172 0.03485914829709641 -0.4068111840558511 0.010278362388269721
1.6684586645943722 0.04844139088559666 -0.36886781994893175 0.0015067448097453484
1.6655464672219906 0.04464480873408364 -0.32581127717938996 0.003979759095426501
1.6534217970613487 0.03980111222654468 -0.35151246499330063 0.002861717035559604
1.7912040015366504 0.023956873666898637 -0.34618744015339836 0.0008168557724074285
1.7725763781491526 0.03426297553375413 -0.34520395409920285 0.0016373375886457266
1.7575896832730418 0.03762215923650019 -0.35927460567633496 0.0032631670320821633
1.77676385872464 0.03196016690686045 -0.36265760744218223 0.003725496895658516
1.8119888358211886 0.02323117345026782 -0.3582178678940612 0.00042179676463992825
1.8953152766458383 0.01842726594493988 -0.36048180120877543 0.0014430383819362647
1.87525055222173 0.026573795496893236 -0.37241755095224066 -2.9552108203291506e-15
1.924277830571978 0.021930884610250626 -0.4149022811966536 
1.9379285141256548 0.025476019008351725 -0.38671973223278433 6.021426646109014e-17
2.0750380392881818 0.0649506687477499 -0.4021257277927597 0.0009802457033500035
2.107573588270243 0.07185729936808803 -0.3916584084510335 0.012648009270887526
2.0226573617655466 0.047004027618817036 -0.4072380850018808 
2.049215001382217 0.03581251481057776 -0.38803106868002457 3.394998409591003e-05
2.0144917946846523 0.035549109435488994 -0.3862673151817637 -1.2130262631029577e-14
2.0636402764978325 0.03973896696389583 -0.362062776247251 0.004482174613607001
2.1264902887690393 0.11109589329706729 -0.40553857210783895 0.0008321000924336707
2.148052219516632 0.15326565503405648 -0.4007254050311373 0.0034106013876088735
1.9829240462664588 0.024700392471581154 -0.3738032628019374 
1.9538071404342756 0.023215735436421837 -0.37219665326757195 -9.495752807096991e-16
1.9307593300811132 0.023343688648285156 -0.36608526815008896 -2.65857596624123e-15
2.1606112661391683 0.13451807367130375 -0.3268200112236841 0.0047646183063214
2.1190060968895152 0.07199162550890542 -0.3636569587576696 0.002309937946364034
2.145247510843164 0.0957616073786382 -0.3752644887000263 0.0155085508140988
2.0907000486110126 0.046482498358444965 -0.32976363059161734 0.00044421529969076106
2.0720853289876136 0.030667176557233004 -0.3173517916023074 0.0015026788121451486
1.7820675505038766 0.028217644257550935 -0.30586323291746537 0.005473159867764807
1.7453900928535069 0.03447109255339081 -0.30070360654040673 0.0023034275718196258
2.093652712324878 0.04757574632032101 -0.2787884172950057 0.0012926869802992668
2.11161449499506 0.05320970507168126 -0.2789758221477028 0.0033856882061469333
1.8522264925738436 0.03564401077536698 -0.4082349902997006 
2.1541674858750692 0.13180926877506685 -0.35965192849099775 0.003056271849502298
2.153152062298994 0.09604083456769096 -0.2939017340879762 0.0012476284141829527
2.124358677102332 0.06597471307414325 -0.316448224370898 0.01438490906386835
1.8596604505689376 0.012504224849653134 -0.2776903139129368 0.0059972702299807695
2.151786296847284 0.08508683165948577 -0.27271401649650706 0.008876015006580612
2.1562310420364943 0.10569368588692002 -0.28014346867914036 0.015914821058333774
2.1568670669508614 0.11144139464692704 -0.28154273713427574 0.015628332189201507
2.08551158064601 0.04203278076490911 -0.25889461254413976 0.0009010386202763533
1.8188909823948862 0.03532496710984727 -0.39178442139379943 0.001197526142651439
1.764959685712526 0.035463808679412984 -0.39830364662669754 0.006954346815196596
2.0657193524566138 0.03374239778925658 -0.297011891049173 0.008077361428359716
2.153871176628592 0.17847715601911743 -0.37729922783644837 0.006821609036289776
2.1649013963360284 0.1679153620110314 -0.2747641523031937 0.004074229334269397
1.736444967676731 0.03789490028986889 -0.28879554050503226 0.0027322323178599543
1.7596308012118544 0.03113485870090142 -0.2908071932542823 0.0030736297806004727
2.109433996416626 0.06627429822036193 -0.3843176488794933 0.012689794103976137
2.131850090957258 0.08566826243687369 -0.3885413700758612 0.019260984105303136
2.14005615740951 0.12108945988027617 -0.3910542028942588 0.008017642106164236
2.132545687756536 0.09932740817423216 -0.39560733631394945 0.015071432128385114
2.091560585712782 0.05117775189968764 -0.3729503251142655 0.011685423703105931
1.9448033828467846 0.01640872596197291 -0.3090003879462125 0.0022276901860983026
1.7662292290954966 0.02268534465245734 -0.2696817768085869 0.0009493382765603293
2.0970559237240836 0.06001273169103652 -0.38356785939364835 0.0194620986194993
2.081797141370725 0.053913741297658746 -0.38489778262980334 0.01210905431841046
2.0926745663484017 0.05044662933906793 -0.3504589432057229 0.005176476452063912
2.098878409796169 0.05525336253381236 -0.3394282676222274 0.0010377143539708927
2.164641715027701 0.15038692761210315 -0.36253290517615083 0.001678875419965679
2.0429532268140975 0.027432626250676502 -0.29959087517152094 0.004071746360623758
2.1357544729741162 0.062285133525804955 -0.29168647214791354 0.005220642548391414
1.8715818010559042 0.01627460589138856 -0.29854575619713264 0.004729937966500916
1.8052412823397528 0.020085776233698026 -0.29290066683514265 0.007058408840239212
1.9152336217608266 0.011805665763114127 -0.28962313495771 0.00169064967413857
1.9449799648693462 0.013744065590247032 -0.2871633539338752 0.001177109834828578
1.9709161485431577 0.021112277174959893 -0.2996361797654103 0.004033780377767845
1.9552636103014764 0.018669978636399104 -0.2970655060864409 0.004334703764932431
1.995237576535841 0.01816013069742531 -0.28956461631292807 0.00341539706958129
2.030523621593147 0.024629299793877762 -0.32978853754855 1.1684931241993504e-14
1.7362938115448296 0.03669412138894973 -0.2724208803373087 0.002452966541396755
1.9965401261934217 0.0220879650303397 -0.3328322591078546 
1.8540796514793538 0.026412759819854883 -0.38455295505281584 1.2421111131856278e-16
1.802658978709538 0.03647603215818648 -0.39528691497368845 0.01222449647958688
1.7660244093912476 0.03740819806920755 -0.3698146893492344 0.003202235749550911
1.7641301060627579 0.033901114893995145 -0.3189020388777008 0.004288808921860421
2.1794311995919573 0.20035439024355853 -0.13544007620573556 0.0047161228593412385
2.1806481778183318 0.1900556408356502 -0.10614441487297377 0.0036982173670818404
2.1774651621739682 0.18850308963548837 -0.1485618193055152 0.009931338124957091
2.1735126722025764 0.20740283086199338 -0.1780225192894045 0.004286564562753762
2.182304562892847 0.206893323203601 -0.110104579561294 0.0022419646843467524
2.177686668547225 0.18648042897374545 -0.19712114136177658 0.011160328477556743
2.170775662624447 0.23303374998216952 -0.16835318246658587 0.007328893862631612
2.1742735293265465 0.20869611371740754 -0.16244436815174487 0.011914757458591796
2.168146203690174 0.23697924099783238 -0.18792681211295506 0.0035784334747006076
2.1836471810424154 0.18646724903139672 -0.17542213468132783 0.003964616972052696
2.1682496195994836 0.2330322366144189 -0.20121343544352946 0.004405070359266277
2.1690851239209983 0.25233846900559503 -0.2131415596251899 0.02811000136605314
2.1713092242474654 0.2623585431717375 -0.185228674257999 0.017761657174647453
2.1667515558242267 0.2237280611278104 -0.24251516728279132 0.012277754698966482
2.1687366410954176 0.2371056265909319 -0.24927025803450276 0.008641238620866345
2.163143082454498 0.219256243530008 -0.22696292387977537 0.0032003064794489653
2.1693206314002715 0.18520102926708823 -0.2586557698210633 0.0047287677236960745
2.1708833132531584 0.20158581415753926 -0.24813481598952009 0.012254478753367912
2.1726755501416015 0.2005518566992652 -0.24230183068289488 0.0034086241149565866
2.1297367771356104 0.2950124315779453 -0.2436891426076062 0.0014466681809225605
2.010628546852795 0.35148568322094964 -0.19921031572040893 
2.0519844600537067 0.3324868372565802 -0.24199759907450952 
2.137455045016537 0.2925930441620233 -0.21494641848757418 0.0010396274492314415
2.124279086357123 0.3045239485601321 -0.21655172124655908 0.0018667283272426442
2.130289020852889 0.30165143104907527 -0.1894105397200014 0.00023539970557577604
1.7639378274208957 0.34151744519618793 -0.24780174233011815 
1.7594878374006255 0.3412789030670035 -0.22424103105995577 
2.1441114491091153 0.27906094823853084 -0.22932085193099624 0.0013795115909229925
2.1488190381602057 0.28188428037085855 -0.20041614319731954 0.002233124400151737
2.1452335614388356 0.30110021900755735 -0.12265147909678598 1.6675606430809795e-12
2.1525544674032346 0.28962974478983006 -0.12660178442765613 0.00563376136510051
2.149302347092913 0.29266465929157903 -0.1522523855126521 0.00013597486786564737
2.1347734132460388 0.30164410230259425 -0.1669889030234267 -2.7304588769041217e-15
2.1822180078946256 0.1993400636995386 -0.09571106653525122 0.004967509916133272
2.1798277292031027 0.2298778999068735 -0.142221278388781 0.0017373786861573585
2.1853909497315596 0.17810199801003712 -0.12277743034808977 0.002423297568374675
2.179854022418131 0.21544798322317174 -0.09061158311972528 0.0008063545996468839
2.093265328153185 0.32925860843512833 -0.1820249279971821 
2.166514834280163 0.2627467514090123 -0.16211227276523502 0.015467456682901849
2.132983203644285 0.140650374324106 -0.4130782826089956 -4.807296708332731e-13
1.798978596256768 0.04757843798979271 -0.41034546900032143 6.5820513635434385e-06
1.7300948557282123 0.047356579449258876 -0.4133177963865308 0.0009320983988585275
1.7127865595499805 0.050594055895728136 -0.41520930694310526 0.015656569109728895
1.6439172357438188 0.3038210830050978 -0.4073277243695499 0.0020007667863475354
1.638631343838065 0.21331288959477704 -0.4138531561189893 
1.6358435048336404 0.0536552704844148 -0.40606862187144654 0.029274831959084136
1.6270258693509143 0.2717433115126494 -0.397919221341218 0.0024836999365330883
1.626977738548121 0.2742502121843788 -0.029867177495036118 0.03199285410383841
1.6348083798014368 0.25406133270416054 -0.02219529291492709 0.029078994325469093
1.6356773160558775 0.2691492936818105 -0.06764983282440808 0.009282729892685526
1.6302521815609299 0.3017063608166647 -0.10458754789692848 0.012385374448409881
1.6240684871571385 0.2997469317402562 -0.11403490510790233 0.0010832445991329107
1.6296437423154633 0.25322209363324305 -0.04354636813625774 0.024338927623615624
1.6296859569244977 0.1928552881467405 -0.020234746958606102 0.034403164575890086
1.6279998905656776 0.20499115699997775 -0.02439290686027501 0.03495508095995058
1.624968466098023 0.22159548956926078 -0.01848517626992453 0.0034566712996014657
1.63275291829565 0.23029389745918472 -0.06852205123411345 0.003600433034792393
1.6367813837765632 0.1578195268009316 -0.06015900255485083 0.003932645176507352
1.6364985677350368 0.2593101514007425 -0.09695390249513955 0.006328859539667104
1.6339482704260695 0.24385281303966527 -0.13055975410760595 0.010512687268778041
1.6345552837673898 0.1427311804285594 -0.05818407083727897 0.005266852458613054
1.6330048472985157 0.09716471150348523 -0.12384064792736584 0.0020295135817979975
1.6347352413794227 0.12596632761752727 -0.06267555996581377 0.00654243997215224
1.6345392236391456 0.17991562741411443 -0.07094359734243659 0.006186720426269482
1.6319990491198357 0.10547110724951402 -0.08436658795607369 0.002716102294735986
1.6340051247232932 0.28260619726548913 -0.10264718870444912 0.004986536199064312
1.6328699743951902 0.17055381730107774 -0.12317969079975774 0.004080270780132385
1.6309774956561591 0.13361334456116028 -0.08456759859723205 0.001244235024677155
1.6303493364250823 0.1929811988406275 -0.10711088745310904 0.0034161839980752094
1.6320707468850004 0.09089415205159973 -0.09600773966824251 0.0014650892136291692
1.6312925182259588 0.16111866693580365 -0.03701788298335855 0.05123147076881987
1.6333810551344126 0.10654703057792309 -0.11274068943983201 0.002847108377191504
1.638647713023102 0.25448617469598833 -0.07652175347198298 0.005233528835580104
1.6318842325869365 0.12510777936026496 -0.11190298141242416 0.002519879814286304
1.6282663529341739 0.2270113570464683 -0.10005722729843745 0.0014028847652790182
1.6334596075511418 0.23951445153204942 -0.1052402259447214 0.00712532850124903
1.6319675327995264 0.22160131156375432 -0.11248721183673467 0.005675399481410692
1.6312603193782795 0.28633813396466107 -0.12531934391943855 0.013191684577253377
1.6339418453639074 0.27097466659575853 -0.09819595019539813 0.006423247189369642
1.6334357241877713 0.16095809663748253 -0.08838783452018531 0.0035310716731253838
1.6346597461830448 0.16097714668677426 -0.11180505544362525 0.003386884769170892
1.615978751093518 0.20553458847196254 -0.061000626550866445 3.672180871201738e-13
1.635101715804911 0.13901539915132533 -0.10272828458922867 0.0021166881313896234
1.6325651713335039 0.09711506737194425 -0.11348536998146119 0.00213566273992879
1.6327219855539215 0.12509506898602965 -0.050641331846161305 0.006152588335177805
1.6271956870481057 0.1662413743413157 -0.015904775413943268 0.02109022477379935
1.6331009891893427 0.14547325503770742 -0.024759103903688795 0.049634231313222504
1.6272842450075191 0.09253832771895697 -0.06254273641386135 0.013466181130541141
1.628916924299816 0.13811954452823766 -0.03242268723194966 0.01767472198312477
1.6279444629695192 0.09521779993105384 -0.04550559380022135 0.015809107307933716
1.6264041843004458 0.06931721212451691 -0.07610215073326015 0.08776936864163233
1.6297488093733001 0.06092870477988248 -0.08704594776764675 0.03784157875399562
1.6305189831553932 0.11610161616816096 -0.009539718750548352 0.00048800814575605074
1.6286087392343163 0.0808439977444153 -0.06468826196237953 0.08038900694535961
1.6340618910132891 0.10820326093143669 -0.03435286788781651 0.005849931191014203
1.6320789513196414 0.06394942253891552 -0.06613809501167725 0.05439241452983916
1.6327658921727826 0.07642935082629963 -0.05125931375045245 0.06407124776455628
1.6354959473968826 0.30446047526812575 -0.28481057183677017 0.008204207281825278
1.6363181325040652 0.16441094759264252 -0.41108108873939947 9.543638664081111e-13
1.6297516220878063 0.24742111071617132 -0.3751011897197624 0.005482105981203355
1.632014171549212 0.2514502312696759 -0.3275921804722331 0.005580546492734457
1.6287997160108847 0.17666258373356292 -0.39846911213916736 0.002280252302043148
1.6315039815534764 0.14586528124000375 -0.36997674473479436 0.002964908717355938
1.6250018338382768 0.2005830285641745 -0.3472664584121596 0.0017799728214611
1.6389884962954597 0.2957933072469646 -0.41794359943206577 -9.064124774492184e-13
1.6321405897625414 0.2839837901006223 -0.3115019070548496 0.0071815378387145795
1.6312283201745397 0.25449221371402314 -0.3854323127729335 0.003026313288862723
1.6283732127897683 0.22228496663228553 -0.39911699441670523 0.000817017056146738
1.62929620968639 0.18951663141541802 -0.39353339378863383 0.00012573790088892217
1.6351051430710564 0.23648920049979294 -0.32312123895813716 0.003578038726353076
1.6298222678861638 0.08623662519546547 -0.41093609051684693 0.001527195858775785
1.6313414965555175 0.10964490033063994 -0.4066927413282407 2.131911016118259e-13
1.6311744261432914 0.22906456451536011 -0.33856004541377316 0.00286690944437438
1.6258930548815191 0.23495208253185282 -0.35902154998035773 0.0025217373937486357
1.6228717543602242 0.27680046762368427 -0.3388839104960458 0.00028117347917032924
1.6330359282154485 0.27031196046626205 -0.3098884266978655 0.0038422544910416486
1.6283790082467209 0.15578449026083077 -0.36807682671156583 0.0023844412753846233
1.632600828472391 0.1436184734800902 -0.3986420904267475 0.0063011955696536
1.6351374258767037 0.28516374815650547 -0.2318912989557921 0.003884689300382963
1.6272900932530503 0.2646874403627792 -0.20025798727689048 0.006975949736551703
1.6298611393575224 0.10065796561455606 -0.35855012714337187 0.0035460383897223235
1.633837267722423 0.05870328443240346 -0.3975341256511801 0.04827262687286956
1.633484544839063 0.26931672968396764 -0.2848436577576242 0.003715522982490908
1.626886706286903 0.2676918790851232 -0.1900371767215774 0.013010740607593793
1.633946624656982 0.23320137341300676 -0.2941484478152931 0.0053287343571346586
1.6330916641748725 0.3023641857184838 -0.2601694909132716 0.00656080284875488
1.6326891686513187 0.22479688476784163 -0.25591487523991396 0.0060483902594581735
1.6345763942633784 0.18161283132637387 -0.2617979115877885 0.001613515376552941
1.6336641565547974 0.3020767992358184 -0.26818917243977963 0.00884740240476162
1.6279137832357928 0.25476972620672195 -0.2641879526289828 0.00039328341477319915
1.6336402634955614 0.2916124155460333 -0.2799387853429534 0.005339566190342352
1.6343272887368325 0.2494957816933207 -0.2304983257262742 0.012121753522325479
1.6331425174963012 0.26275751362067884 -0.23582187213286884 0.009588414590452541
1.6343165117530003 0.09810555385997245 -0.3818061889675899 0.00177934692964194
1.6359953464653834 0.2412222001239425 -0.30675267562170416 0.0032904374907404233
1.6304075593825396 0.20323018388402558 -0.29005458933405215 0.005825852431666085
1.63367953397855 0.28072879600956335 -0.2508660567150209 0.0068038471754429996
1.6294722941320356 0.12534977828917096 -0.3553208913325444 0.009148944678215748
1.6341344823089134 0.2992852796261773 -0.2263018449033709 0.01040792548368524
1.631178150892612 0.11867126378311713 -0.3419712170261287 0.009719885356864721
1.638239729500909 0.24529407405292203 -0.1927011939304096 0.02277736948517014
1.6283418473839955 0.21348263097775808 -0.2715601010656188 0.0027639091364169213
1.6316697882376618 0.22402722855466953 -0.29423996387290097 0.001693027690545456
1.6325813866643388 0.2789045830162784 -0.25345362120249004 0.0028382296342684362
1.6281333014533412 0.2843805635202395 -0.1687479365622159 0.009033921870399043
1.6281882950414366 0.20625671385582606 -0.3186842472773147 0.001692913528469199
1.6303755440800587 0.20900705327654667 -0.24051100951822435 0.008372832300703702
1.6205422715684235 0.14744527074443117 -0.33253587829780823 0.0029705641803300553
1.6294199550629036 0.08288588342207952 -0.033429215503225855 0.005297659902165872
1.633948398771763 0.23672542671056335 -0.1400981312058858 0.007705663996538239
1.628333624973573 0.05937045037465394 -0.25923059312341956 0.005707142478704812
1.6210323256200936 0.06863836149382474 -0.1708674688354942 0.024601907767313323
1.6296967220575744 0.17035512392010377 -0.12970397478698392 0.005994007601811486
1.6347469934445944 0.21086366836766576 -0.13802142101420026 0.0009472360062167561
1.6296954052496173 0.139463541835719 -0.13322713466988698 0.0031020664717080156
1.6310642177613404 0.1186918610745016 -0.1601671856855721 0.0010851897266481157
1.631654188298445 0.18706117892342142 -0.1335878527397644 0.006804189636184931
1.6353520053397113 0.0942448006533844 -0.18817666403820454 0.012554997112949126
1.6315183840867784 0.17759918096021418 -0.14601897664076702 0.005278860790950029
1.6341866943755128 0.12861154868099867 -0.18196782207353393 0.0038227133401126335
1.6336658859372344 0.10322931629749117 -0.17003532153727577 0.010424663269861637
1.6266117264580413 0.15940737978016653 -0.15007718829561834 0.003398074171256187
1.626263434993357 0.06313353354701289 -0.12702785350399742 0.06624829879499758
1.6265587075761836 0.14604448244338172 -0.22219842014229502 0.0029601349858352226
1.6307052196282255 0.13666522995472982 -0.15647330629528325 0.002569007869064875
1.63089204001995 0.20954446764129028 -0.1511260118709317 0.0019535585020993753
1.6353184349943222 0.09068444132413908 -0.22760044375444652 0.004523307366892188
1.636129949000046 0.23599799180371966 -0.1566746217948267 0.0069472078896154095
1.630538349365518 0.11016415361646043 -0.2328025938525252 0.0027039587954438547
1.6327603460593578 0.172492523594811 -0.18897604574807916 0.009265018047361134
1.6292849311749071 0.2561095255517472 -0.12978653004736665 0.002624832945868221
1.6289217722568445 0.08279507996590224 -0.13948722912713887 0.01487686722945832
1.6332631870981626 0.2072349533588963 -0.17602068991653083 0.012299999345370205
1.6315975829014286 0.10624637463292494 -0.1442337803178887 0.0029354485669335095
1.631431080473015 0.25426156388159243 -0.14165191521352594 0.00477936255381091
1.6305448605775317 0.10349181696230893 -0.21477775112179923 0.0045967571876907014
1.632281141037551 0.13934806876365768 -0.1730560576158643 0.009096846149279001
1.6308141281239756 0.19331817967960752 -0.14509114080100796 0.0038563935988004325
1.6287663705191509 0.06672294837863954 -0.1990324981164606 0.134806488212064
1.6315787079920903 0.17624459952003826 -0.19836465499761885 0.005442481438387972
1.6319297076800408 0.06859487919586738 -0.2240469417991994 0.11804874581352601
1.6331425385535687 0.12145423307128039 -0.13637875945598874 0.003187768248608635
1.633262564920379 0.18460055590731278 -0.1789203216120572 0.004199551951306033
1.6280330627434472 0.1565728715376066 -0.175096232186581 0.011555603134233022
1.6335179838357994 0.1135356330227566 -0.18102239853617236 0.005473053717908905
1.6308431250575397 0.08242615661103182 -0.3656671791433733 0.005351654863015365
1.632758991874892 0.11233120361955874 -0.3359110280694989 0.0057718935181655905
1.6339980319889564 0.08313565874928053 -0.3463372850752397 0.0021031130292131083
1.6342913560630608 0.19766369071509315 -0.23331912937299498 0.008677309858115373
1.6317123798005413 0.26403871683834246 -0.16862953952180745 0.012018546661081252
1.634115283850276 0.2793739668195554 -0.1501171382315231 0.002865611957301778
1.6290273540567182 0.11257245512177852 -0.29275974538691135 7.931421117722944e-13
1.6312524189692632 0.13426421351101145 -0.280995012638146 0.002725967880997422
1.6176316616630728 0.08191106299261541 -0.28507128137358845 0.00022477865180819056
1.6290989916690581 0.1092951565796136 -0.29114044991106547 0.016309774356226717
1.6285466008544236 0.05245061045706727 -0.37672700181948754 0.028501862521013454
1.6310350637046478 0.15971849592359366 -0.21764095453611865 0.006236729302575475
1.6315597634493975 0.2021527055863826 -0.21838064962457882 0.015128398040508289
1.6326886106508551 0.07415621605974777 -0.34532979923561913 0.01681893319629041
1.6293361127304093 0.05751192645928291 -0.28508767971836446 0.008471170923122684
1.6328783294495177 0.16889366349576151 -0.24313468253143353 0.003145251231968538
1.6279068101125351 0.07587212486515826 -0.2738951121532764 0.04502129550598314
1.6296726812866655 0.10834787393972033 -0.24002459176637214 7.211431871401371e-13
1.6338320148828032 0.14940369602617348 -0.2755678982513632 0.017787933487903373
1.6353603365764187 0.1974665508949438 -0.19927743109689058 0.016422877682391514
1.635773008166518 0.1566989341013464 -0.25933406577932944 0.017681646983239943
1.6386669239409437 0.22568954427045404 -0.1835302956826409 0.019628782696535778
1.6343141539739408 0.17344538635253717 -0.25554740469930515 0.002239255767361157
1.6349342395531647 0.1843510148751999 -0.23021583046504196 0.00867740944951029
1.628672533100487 0.06480914772954206 -0.31539169941306805 0.019664532432799604
1.6392867403301137 0.23825557570728323 -0.1722276355572901 0.013097257008715868
2.1366862626342784 0.205429937500176 -0.4156281789828922 
1.6477232448213746 0.04965083286403926 -0.10030644047439546 0.02445139439387651
1.6399028475903419 0.04465255191322956 -0.1222094398253401 0.04516099083174258
1.6599123934312108 0.060895948130885176 -0.060005299967859055 0.02731612735399721
1.640204173697976 0.06677740552373598 -0.03565233863552838 0.08553188088489541
1.6487944885960142 0.05576974339645703 -0.07767398272882357 0.014843292912808576
1.6609320425252865 0.04504771179173888 -0.09590541859102356 0.01047519086173869
1.6660997568914528 0.05504644253638106 -0.06762302907034093 0.0023763201262104456
1.671594242148236 0.04896128920867831 -0.11570980582791066 0.012607069213387957
1.6893957146436447 0.04233582316069207 -0.005237118125926421 0.012567665354972234
2.1735559145956462 0.09484868704608822 -0.003010499238776258 0.012286870079095024
2.121500773393737 0.04040580688174525 -0.0022560071080775027 0.0491117119084809
1.9458266069405596 0.0063600967984378445 -0.01161573077597518 0.006078108158891992
1.7004495095548542 0.02989173847849439 -0.03262238840720033 0.0010521328847718377
2.176764971655431 0.11701013690429488 -0.011147290369021654 0.007830301364347625
2.1903476605044934 0.17057000493629978 -0.027013149458170353 0.019648151564090357
2.1905396606334917 0.16475443041487323 -0.015619231847080133 0.021860061061991214
2.1761256013083963 0.13579677664119774 -0.023043575837341998 0.07723762002614254
2.1768460622360646 0.13475686581766583 -0.03246132936658228 0.006230745047452871
2.1864453922574008 0.16599890915073703 -0.054859378478323124 0.010905577800090414
1.708161472660649 0.028986016156278976 -0.006104116262158831 0.008317214214633986
2.182936039396831 0.14271194375346705 -0.051952124049809686 0.007598797618747816
2.0315165554315295 0.012757981565196261 -0.005943058406778569 0.026842484278630434
2.0625814593277223 0.015411098762050573 -0.020557497170091775 0.026181927079502273
2.175709400808656 0.1146852329014614 -0.0387361097462084 0.007282552491623831
1.7246711748423578 0.008094262422499311 -0.055963725321464736 4.753642977955965e-13
1.737341750620651 0.008349773178351304 -0.020546741133901238 0.00846073910957531
1.7507669742836665 0.010663185732432516 -0.02224810725940731 0.007213007053561829
1.7487906594505531 0.002905295005560568 -0.04100104128792545 0.008023564443651621
1.7932227866605037 0.0032507601109947643 -0.043910359934441215 0.0043456411099317485
1.7877252762356548 0.0030899453651238177 -0.054645073171406676 0.009802481921178269
1.7754220176229079 0.0018281576255384869 -0.06550486004762897 0.004311565301687036
1.9779124538251829 -0.004962212006481179 -0.051494871238848806 0.004463411324912368
1.9755639206041455 -0.0009229728058812257 -0.036155628175482395 0.012613105676801056
1.965419645556623 0.000541068612598779 -0.02322658795679966 0.007056198840680777
1.8534935614741295 -0.002063100690019576 -0.060223801067623935 0.0024586453230211174
1.8426668130419894 -0.0023143298520459203 -0.05105853262878578 0.00394307389049898
1.8630711014280523 -0.0018257915395790845 -0.06126717517167678 0.0026790860270486947
1.8838824525592022 -0.01240731569495307 -0.01263540471646666 0.015049432399026088
1.889406228907541 -0.00284158047845298 -0.052745880498553485 0.0001418851477571231
1.9135738728990523 -0.003090728304351063 -0.04739923794062512 0.003605817359297558
1.9368668400740616 -0.003165496092312141 -0.04674570735788034 0.004249539250148612
1.9253785538862247 -0.003398476277626507 -0.050312575708836564 0.005192707334475128
1.9536713951407432 0.0017434062316453725 -0.02058401256911433 0.005851029294227778
1.9587493209727647 -0.0006927083773654013 -0.06350802725818798 0.009050442041871245
1.9646342386509743 0.0007641530591054283 -0.0379559553846389 0.008252448444349362
1.9783477834474 0.003732520576903562 -0.015292582249251166 0.03406423336421853
1.8088316907753483 0.00117236725525928 -0.04770347444502167 0.003428895610063044
1.827405637160844 -0.002520278148908428 -0.0395068181183182 0.001424286296120978
1.8292287871796915 -0.002772916352994984 -0.06364517228686983 0.005094371332058864
1.835453158970833 -0.0020873054257045326 -0.016554409741502893 0.03562334761139008
1.8484293168236585 -0.0018183519196249556 0.0007843175031277266 0.012013729179388555
2.1659610248994383 0.07936824384790199 -0.03181508434368356 0.013028014943790514
2.174990033995939 0.0988302680671355 -0.060477454924216946 0.010633956707166737
2.173693801309017 0.08874456706698641 -0.05519419050522381 0.02481970169811911
2.1432869806365034 0.05624701707033911 -0.033958282475978804 0.002225901502623076
