x y z curv
1.6330253647214177 0.23385473764301898 -0.27229907770203304 0.002938366131424062
1.6325379235538267 0.19223491968017747 -0.2369685403446371 0.010893639818077451
1.6277904219482395 0.05010035585365526 -0.07125925942013947 0.00371777391733303
1.6345778363188883 0.21100777291760095 -0.08516098830137228 0.0034719375000893745
1.6366430167569626 0.01717376069372654 -0.08496749764056863 0.05726023835774643
1.6337892506810914 0.0971997493322272 -0.08069637601373687 0.001236449338187849
1.6331230904652603 0.11001914033817542 -0.07369113105560267 0.011317436689352442
1.6297427900519625 0.06812747285543538 -0.06624048555538697 0.003827530187960672
1.6353612377881594 0.020183069917081173 -0.06359010456464097 0.06852737602224394
1.6295312915513636 0.2146217681779726 -0.28104246584852266 0.006227440107060407
1.6317054362740073 0.26911265548625973 -0.30294417131858165 0.007160667862408519
1.630879515931777 0.2953953662075585 -0.30704802022873967 0.009178222453616549
1.628084889571193 0.2944342733166744 -0.32603109348644926 0.008808981366405719
1.6383718029131482 0.3155812673542194 -0.3264171380129888 0.009612165899118716
1.628185552911392 0.2625295469072635 -0.32224393313761773 0.0032762805931202624
1.6308796721817074 0.25602410253488855 -0.3110475739067678 0.004448303534810307
1.6319176781565319 0.251452468994136 -0.290588686828005 0.004544172939606408
1.6279595679468886 0.10545527124271553 -0.11869432750757394 0.012914471325140339
1.6340911794304802 0.334353539404266 -0.07889970685888914 0.011654977010588936
1.628249260558148 0.28560974930318367 -0.09957144124462108 0.007510140665872398
1.632166250493777 0.23537738936839114 -0.10294076198458156 0.0018473885115714564
1.626447217160126 0.13475171028367597 -0.11338522696891296 0.0066758220830722735
1.629281674277683 0.3134597819472018 -0.0909438808052774 0.006491776973705068
1.629505956018218 0.25359764329383 -0.1137032882224336 0.008114071501612268
1.6235776827225212 0.34020783293561685 -0.0969755510363986 0.003971708094271615
1.629811030435404 0.05443019086274735 -0.09481397320267687 0.013677323171856479
1.6311178548374705 0.29722048238589266 -0.08490068975477293 0.003477499760012426
1.629508223361475 0.03715491510044575 -0.1188067537726417 0.010965580817553737
1.6261195978179526 0.07240348993245664 -0.0923180288893882 0.006589246382671924
1.6314114892523655 0.028253480227186364 -0.09427599795655546 0.055729511471918146
1.6335163969116042 0.11757045930641231 -0.09150373786579771 0.0032341591868847493
1.6286612827274811 0.2551140233274053 -0.09574754235856468 0.012556737434066052
1.6300118905586027 0.17730526650527947 -0.07911421436021578 0.012047677474886935
1.6239475121229887 0.1398984965844484 -0.08413913005455151 0.0016385093927628574
1.629044672052512 0.19534457138178907 -0.09636986398799448 0.008261977267645505
1.6290780018054554 0.1604355689633203 -0.09708453680737732 0.0059190647289161435
1.6286933203884177 0.2795172161756217 -0.09000382128316267 0.0021663999227331562
1.6289897652243368 0.21196061796464824 -0.1143263527140275 0.003691292482541912
1.622880882152166 0.3055742648363512 -0.12244843852118233 0.0010336364560557293
1.6283907433151137 0.3281907728152184 -0.12088486308251674 1.0627631384550267e-12
1.6237857208652244 0.19204071965179043 -0.11974959216102589 0.0037480769140611973
1.6345428745167303 0.2659969628178696 -0.1320885916814451 0.002144210444096557
1.639452538926656 0.24522319945520893 0.0068764825601354135 0.0021412296859028616
1.632424336681251 0.34593596455299125 -0.0007509930268150516 0.05646374756668596
1.635822596602514 0.05864576646825547 0.003195799772294672 7.211683651625056e-15
1.6316707844209493 0.30052049242983997 -0.007217871173518296 0.006993886580494285
1.6260947055238615 0.21816847171863094 0.006376539960341368 0.008384316054790075
1.6362519619872873 0.07863051539255561 0.0025111530917513217 0.00687413947255499
1.6317978998773124 0.19631365782534754 -0.009085142924236103 0.015768878076857434
1.6262941609683326 0.3221809693942214 0.002416176287743695 0.019577928878529962
1.6301666714800382 0.3394869181268525 -0.0077246615059827365 0.06749338582416031
1.6391971668556644 0.2618470016542623 -0.0036550643873004807 0.010143839660241061
1.6376907330081425 0.13613288515551866 0.00927922379817096 0.004816882956344129
1.6324551786298278 0.10056028097271204 0.0036947368168213563 5.7842723749326955e-05
1.6358416414238464 0.14525702278283448 -0.008005138065885587 0.005909689447180831
1.6316563145281908 0.17029006949946401 -0.003687485881787176 0.009565579641368258
1.6383739493686047 0.354695341307373 -0.009299348730184682 0.05081406864354774
1.6349331242568421 0.17211750180312424 0.0003885447996309641 0.011088522457895293
1.6257050902873236 0.31729171377156173 -0.017465435224347053 0.006281536333393039
1.631319143110526 0.24858620893864852 -0.014681023053718496 0.012198535274981952
1.6292598481434488 0.1091434034094912 -0.1282130032408879 0.004983979871611939
1.627700148557515 0.16749488322873723 -0.12458392313111004 0.004677400878734174
1.626200769605713 0.23813643865645584 -0.13513349949490333 0.0040173800401401985
1.630718712755037 0.045342350552312866 -0.1285821174896219 0.015100102595943026
1.622339712428382 0.07148219172259675 -0.11168626713161121 0.0010569522851583313
1.6292165323583183 0.08726173928066688 -0.12565493410993617 0.003164977846813495
1.637492866443134 0.18101073384052704 -0.20329778320029163 0.006018852864654936
1.6377349990810646 0.11003120043797902 -0.18050126227717328 0.004116215173159228
1.6231791161863474 0.1940422963544584 -0.14719679609778416 0.008736925430317746
1.6368961140735832 0.15885804877604703 -0.2183085013794834 0.003894085562245112
1.631450703110437 0.09317377201039019 -0.16150489778606172 0.0030527515101901716
1.6275912380727215 0.21063616166246638 -0.19800936644002196 0.006757322646244525
1.6319813731683637 0.1287565992116682 -0.15952242684732212 0.0020633507696828646
1.6316520775815881 0.2731985775317967 -0.14698403875256652 0.01568684169854311
1.6303042774890504 0.08864753309755943 -0.15157698264252042 0.001477568737444813
1.6358097869788584 0.17498583149595393 -0.22590250857164032 0.004298497534002251
1.6366880471501613 0.10641764238435686 -0.17574843083311467 0.004561804668091269
1.6297893812879487 0.1699727503582929 -0.14144702814506335 0.0017776012583137274
1.6326796654501832 0.20030524300459324 -0.19956499042129086 0.005523836837575265
1.6374683159958001 0.13711478038431715 -0.1977571947783961 0.011230615199009758
1.630176881061683 0.15725800758050607 -0.17185132181243135 0.0011495862198584589
1.629723192429044 0.23528086121127248 -0.17626498886855546 0.0029893219240324483
1.6327097570357783 0.2631755005190951 -0.163883857508429 0.01121346389957068
1.6322039626947362 0.23882286683620257 -0.19806966143977564 0.003017430122746033
1.635266233764183 0.12946838485449413 -0.18843065134774015 0.012112259184981461
1.6367315956804063 0.17251280029648164 -0.20074214733964071 0.007298103081574754
1.630964411417586 0.1506841832987823 -0.1726062521656158 0.001546919091324186
1.627453399680873 0.25135332706131214 -0.17276717502093888 0.00629585561351574
1.636474193143326 0.16311769093854928 -0.2001405476762227 0.0059009655552775125
1.63337612028103 0.14964620504469942 -0.2274215133032849 0.00526220201784245
1.631713244048515 0.23332052442903253 -0.31858596100723646 0.0042585728424841445
1.633794400523255 -0.0010255508345073314 -0.02484072530730591 0.10486498048274505
1.6324247315607552 0.13740410826865593 -0.01808507714075425 0.011993343874924196
1.6372783215234825 0.017656479005911573 -0.010572652550417725 0.14989978062282694
1.626888399348748 0.04993622756562944 -0.012188026044418621 0.0011608083857700606
1.6275006588758545 0.11343458877201906 -0.020797662661261374 0.0077026986853894665
1.626821579164811 0.16391806194266365 -0.02294080885366828 0.005630685233484743
1.634724118918129 0.2780799303302658 -0.01830542811048845 0.012099830685892305
1.6299459267460217 0.0957311858793025 -0.016180133127223925 0.006673467207045331
1.6331403742665715 -0.0023709453518190983 -0.01081735365504384 0.13871488082659994
1.6254386959879656 0.21941327439553865 -0.012192791079995307 0.02165408414946938
1.634238866825862 0.020918034479757344 -0.0134242622788154 0.049882711428641056
1.6343658371444472 0.19036767323268455 -0.031014025751183297 0.006855703825335753
1.6327926839569484 0.057369276395132486 -0.008038028141046566 0.0062217300672955875
1.6282676564156202 0.2512165493054251 -0.320199214762533 0.0020543762105525417
1.627163539567607 0.3133769274613084 -0.3608418110715747 1.0452872394855296e-12
1.6335305046607134 0.2905224932208068 -0.34329845026889705 0.012428867860116632
1.6331820295926824 0.2334579150865988 -0.33462564965100106 0.0024289840082020236
1.6287535864834066 0.20358296356899333 -0.29744429813777273 0.0063293885750676905
1.631952842692219 0.2792200387940135 -0.3859413306045363 0.0025846417358078447
1.630216906076802 0.25757550493753456 -0.3584785876612527 0.005186931670087552
1.6365182385687598 0.2583653978618017 -0.03939624180547702 0.009342426244168268
1.6381084166662778 0.2771785086137615 -0.043638264501210104 0.00945288379583758
1.6371009077133505 0.015223167827897724 -0.054531168016268915 0.06582620002479159
1.629334673128785 0.058773274138990125 -0.057703278589913705 0.010697124386807689
1.6314071461515345 0.19871815611002192 -0.0527051694991443 0.016294443581809624
1.6195381464187826 0.24488271183937999 -0.06055913085014614 0.006282174091646645
1.6270109810310143 0.2399902713499174 -0.039448186979943956 0.024469055330878977
1.6424329383484273 0.3474020165068579 -0.046108386154840926 0.03803669734410171
1.6323610082595321 0.30200973437576845 -0.0395794908208128 0.01193039450521292
1.6332403235271153 0.1642388385750155 -0.05873068448884324 0.00940391053603763
1.6335771697858437 0.15685825715391843 -0.06942481561457937 0.011297864257087798
1.6352603974493847 0.11567963499282939 -0.04889729211503882 0.0038632518150176444
1.6329932133083993 0.0881408831793754 -0.05495433609978662 0.001843230078834918
1.6352154381196122 0.3148131404154384 -0.060533209805249726 0.005991594512602937
1.6287978033430908 0.2865096696786283 -0.07135134321377262 0.0040024451110411766
1.6330055167658115 0.12607670752723066 -0.06299967758719557 0.010122351231606905
1.6266248243020256 0.19489609699305965 -0.06285172774024966 0.006554802984177475
1.6302423485316229 0.30250628674982205 -0.06480509649331011 0.004794168290172566
1.6369208206372323 0.33934356330971127 -0.06311233429330802 0.010905263135401895
1.6278920059610906 0.20828490347064776 -0.058539036389814815 0.012231095741861068
1.6332487675425784 0.276979464641441 -0.06280404284792082 0.015665499826007272
1.6295878726368243 0.21023299445020688 -0.31199239900378567 0.000910964856842438
1.6326574846584654 0.04428866950513115 -0.15645701053023064 0.013698416633572066
1.633635552545523 0.058573661224403925 -0.20248211370747154 0.0657361304730643
1.6314459161266994 0.03824072908233903 -0.15073297404027544 0.0034591497038640178
1.6328766604750666 0.08467704924098932 -0.2072381418562497 0.00348918063916283
1.6300098562026906 0.10974432599139769 -0.22021494971856662 0.008385474068402373
1.6295125568047608 0.06692056490922936 -0.1626320927257429 0.010877419914178146
1.636996884416166 0.11630307852126395 -0.20110524053485992 0.003376783767786799
1.6320550390965372 0.10426701518810266 -0.22778247972587687 0.010459322506519134
1.633528163826703 0.05335831322840714 -0.18854963371729103 0.08977806649098945
1.6362166532367413 0.0841087815293545 -0.1801302712259322 0.0032083804227830866
1.6266865522259608 0.04748265774307888 -0.04457581672273994 0.007418780442785731
1.634673574217157 0.111292541039055 -0.04193054087614734 0.004884610402208262
1.631823754440336 0.028513899259531645 -0.026444253073088436 0.04219722712514914
1.6281720749276767 0.14521227492077404 -0.04117741115511024 0.009276892683358056
1.6324307786201735 0.08450647753672869 -0.04697278834724187 0.0029045919822611233
1.62686606110308 0.1301648802912969 -0.23145592052606878 0.007181662757700411
1.6343956895096003 0.2674918495748775 -0.23585826246297434 0.002769214682022889
1.6306478052651494 0.28802194587955393 -0.22102532396220603 0.00996792406987705
1.6316144786669995 0.24966490175923803 -0.2325465188874945 0.0008915242866224649
1.6348297856726066 0.2344890457969162 -0.24836911267483605 0.001916492843009352
1.6335931346065469 0.2135845006831608 -0.25442155071526185 0.006498463799256944
1.635528866026548 0.31313656896140096 -0.24154994987966605 -3.0037038329456225e-13
1.6322081554381203 0.13033930167510066 -0.3653773424036551 0.007489091132714873
1.6317325646996887 0.16262552872726482 -0.3174337323933715 6.145192183200428e-13
1.626526770203378 0.25256071270835007 -0.3633591699879444 0.002085528720398091
1.6267017506966035 0.20508985280230602 -0.32581295523047143 0.0001281322785975987
1.631983147967435 0.16949281197036714 -0.38090019707412215 0.01046513083005302
1.6324702774807751 0.0911456500470684 -0.4083321643812362 0.013367505810122521
1.632552157143116 0.12267583819096996 -0.35572463352418937 0.002965920265236908
1.6292579556627833 0.19806939515614427 -0.3816025870702114 0.002747798947793242
1.6287515214693398 0.2148271820558725 -0.38866711392825704 0.009368075808162544
1.6334938749903185 0.23496772189104528 -0.3988038011099316 0.004039755094783558
1.6338583108234075 0.180726324131503 -0.3530977174499733 0.006711362565240781
1.6354604238396324 0.2994965165741662 -0.39855774445869807 -2.4845100999522844e-13
1.6325765907411134 0.07922936078925813 -0.399461030496864 0.036373093772579364
1.6348320274599777 0.16130590993683835 -0.3890743051843625 0.005452750866734377
1.633140906602413 0.18204070932337893 -0.36851350411801753 0.011309896854437047
1.6323435392637753 0.1483780979887446 -0.32777951495644164 0.0035074576170286594
1.6324245523584742 0.2643196270672898 -0.3817340991833176 0.00508121632503888
1.6263943576393887 0.21903673221972406 -0.36722190126544674 0.008453813709703165
1.6310653641558546 0.13536407173662546 -0.384395682611274 0.006467246500249159
1.6258617520598109 0.1576689734060275 -0.3619864797742341 0.0010864682334372072
1.6312630294151205 0.10574128671146132 -0.3733142164120978 0.0004015656225029811
1.6249721245983875 0.22573760877046 -0.379017259154588 0.0024830505071751527
1.630543886839451 0.25983674049914995 -0.4079588181931206 1.3059041248156367e-12
1.629733949599097 0.3104840374934542 -0.20007474925784438 0.009117061230628505
1.6291524800038604 0.2705340653418384 -0.19647885132981305 0.003757711932739089
1.6235324866874832 0.2954630198675664 -0.16771022848504336 0.003030079557047115
1.6331462441879956 0.24645047842843065 -0.2060240459599619 0.0018367166606276144
1.6317213686627274 0.21805285789365653 -0.22613182732294151 0.0023141349310076536
1.6253854936871772 0.31514062332088905 -0.1885313665599136 2.65645878061706e-13
1.6336486605893412 0.2652304184472604 -0.2299304277198117 0.0033474633818102247
1.6323885692439617 0.2425709866107996 -0.2558380662996329 0.002097687951731222
1.6274127299252097 0.28843950110900723 -0.2529984483289251 0.010950382347109502
1.6335296336921135 0.2675818071689927 -0.26559108292004974 0.007234036862941048
1.6343021485866691 0.32977679336124727 -0.272360819114156 1.811923223427579e-12
1.6340254613555794 0.21518075754326016 -0.2616641361499571 0.005208518577134589
1.6260492517325573 0.2801088863796031 -0.27709816958768985 0.008586771719068041
1.631945349989506 0.1274356606789289 -0.26725273932653754 0.00987981647617784
1.6275262979422729 0.11653565248863429 -0.28170290410972154 0.004173610452076326
1.6360935646389654 0.09839641898465099 -0.2485014338236997 0.006229704526187766
1.6320138544414158 0.07637883714849804 -0.25005970693032187 0.008981110916154944
1.6322421373579061 0.08497382710134693 -0.25998552267477343 0.00349427987219452
1.6305331741054117 0.06138594983958399 -0.26338780898036707 0.03770154818683269
1.6341925731318552 0.046374425881526696 -0.3643689732865227 0.0797963581244221
1.635832974325775 0.10448110899400495 -0.3423571733519974 0.001261413647342621
1.6332771475807855 0.09840328456746195 -0.3605990797294565 0.0016589745337759064
1.6344540312186544 0.11761853902276391 -0.34668494391004767 0.0015111832266842577
1.6302912879789555 0.06300234412921074 -0.3769851179229333 0.06453473514737246
1.6333238926129998 0.0717058128685445 -0.383616906791152 0.06597923221817185
1.632003258009487 0.13082219894748898 -0.32602557271701643 0.0010694118238487734
1.6407181666248136 0.04916581957853635 -0.38770151929556346 0.08726626943377194
1.6407381804685954 0.048271741544799476 -0.37438923201518104 0.06478396617355325
1.6348266981615407 0.03807037703699342 -0.21042422497086286 0.02511081921643078
1.6382782576537995 0.042197763793777925 -0.22780878856629927 0.07563974410432145
1.651252598966403 0.039119548061010624 -0.19096526813801246 0.0415675535907959
1.6705544456588757 0.03826774577215953 -0.21792284958085006 0.00433700566007441
1.6587858060595695 0.04374673898018287 -0.2648743383551639 0.0345870029372597
1.6603396082078892 0.03633762858191065 -0.2204962985789531 0.04094771141649419
1.6297684640950607 0.048850874152183935 -0.30748137972855977 0.02951031827725153
1.6328130674694459 0.10084638534851045 -0.3010459067287942 0.0006680517310656954
1.6313405344551244 0.08166604488163341 -0.3217128568718734 0.014552153922111656
1.6337285842407732 0.07656991937737517 -0.3398757275681591 0.05386998105146345
1.6669573587188566 0.04194402256827829 -0.2751856375777193 0.010963101322811818
1.6750034743764604 0.03436804214686891 -0.17298090971322896 0.002127608778889364
1.6702688863653266 0.049555480920808054 -0.337839633080405 0.0004407350452185333
1.694264843357401 0.050518592557392716 -0.3644635526997679 0.001518501234187489
1.690553190842228 0.04320541592126021 -0.2904311909930418 0.00281486646676289
1.6794878241966045 0.0433721453129196 -0.2539225924051025 0.0016338101683768275
1.6969669131352259 0.04811673497259359 -0.3985361350864819 0.002446408986933552
1.71537850388316 0.04899390677913179 -0.38374726455083324 0.008670734287507047
1.677234178814921 0.041042482665410746 -0.29763689341590516 0.0038641736092970796
1.7146260557385407 0.03744396033749076 -0.23569898131312675 0.005921309029554452
1.7253231351037774 0.041204085976121796 -0.27377056008681644 0.0031940816435820953
1.7256627690419115 0.03467022860228855 -0.14987355907858985 0.0012765115164655022
1.7257589836337606 0.03764874232817892 -0.1665882840675499 0.010620768700310741
1.7499227452813 0.044124381142600394 -0.24896029004482956 0.0007350585337082196
1.7198404816465789 0.03212321249443189 -0.1998985957674146 0.00014802605243086422
1.7133432733150717 0.0382380738265426 -0.1684206997563972 0.00912213038306769
1.7016842025067593 0.041378318627149586 -0.24977405639475495 0.0013840155341061755
1.7042420696036613 0.039244201172664354 -0.2154344935359377 0.007941050065555833
1.7336257807828224 0.0402072522396139 -0.2946421565551896 0.007963116109006465
1.748800793710178 0.03309563433334595 -0.16942599318075408 0.0006987247532284677
1.774837432676879 0.0429384358132116 -0.2235614518094155 0.0015957955501342041
1.760828031398994 0.041144225456810644 -0.2553294848688464 0.0005448381892854894
1.7493016708231022 0.035254266031239524 -0.19936462782982156 -6.083362002524894e-15
1.761493706542557 0.044771720613615895 -0.2754643050808121 0.006228801648990491
1.8166043488485777 0.03973577164631537 -0.22494093642466917 0.0019048981234228548
1.8128793962672325 0.043336452560509345 -0.234517046548943 0.0024374024997963956
1.805001594660191 0.04263212092214733 -0.23086897990952704 0.0029500953311219734
1.8366124575345333 0.04159688193568816 -0.20443447593244446 0.007933760729006704
1.8240663731893705 0.043886839286028836 -0.24608071839704768 0.003858259501160122
1.8363612197170203 0.04642006412192511 -0.26689482840380374 0.003428133054341925
1.8159769274658846 0.04270069603653716 -0.29730240286942733 0.00112177102570484
1.8174726298438224 0.04618931383341779 -0.26806505618679294 0.003559845803820897
1.7991433412491293 0.046994390511691415 -0.25505952326744485 0.002088190566591605
1.8131981958158057 0.04638185268345413 -0.26911416302699853 0.004411483877780821
1.8365299859259778 0.039288907538313295 -0.18650596921937396 0.013679498233994059
1.8547555418185673 0.03787238990601734 -0.145892786065006 -1.9779911642754877e-16
1.803836675738107 0.039099411596792935 -0.17995232169686398 0.005581615641642785
1.8219341660241044 0.032376269841450055 -0.18252617898985796 0.0005930914646333301
1.8640418205822928 0.03939414612835381 -0.17542464998306767 0.0017751264809114874
1.876657193115424 0.03369539625364039 -0.2037238939543098 0.004290939686856868
1.8668976077075288 0.038288676097415396 -0.22119727791831054 0.00451583796744348
1.8522007988376308 0.048589945121976084 -0.2873861407874154 0.006618910600299222
1.8396106639677656 0.04867495333453312 -0.2843455189724669 0.0038367041966151883
1.8540316064111284 0.04846946876675278 -0.2576953670980135 0.006624112993044773
1.8366448852362722 0.04589422587727933 -0.346959044488291 0.000696663908832461
1.8462373105326912 0.04811935073343347 -0.365587470099388 0.0006253597851966142
1.8230376203509033 0.05012990692372562 -0.39911358406060865 0.001927021780441354
1.8543347872432008 0.05362694576373989 -0.4003593087408915 0.0006883583991057023
2.0359989971495023 0.3111513291167118 -0.22898328393770548 
2.014336509380188 0.31695506954825753 -0.29136427657446584 
2.0705024664809377 0.17760321160205064 -0.4121726194611317 -1.1078078997727207e-12
2.092169877731551 0.21119847389971524 -0.3603303543528055 5.8722973751897845e-05
2.0854307811565054 0.20073493541033047 -0.4001008520201694 9.753480602709053e-13
2.095428678567455 0.19493554325307846 -0.35457179033954 0.0010031972542832621
2.0933587755459864 0.17444840503281955 -0.38991034312149286 0.019585456973216283
2.096193128920172 0.19568823176328348 -0.3066027748185743 0.00023128784078537302
2.1053986540971867 0.20198578953885823 -0.2527287333289604 0.0007603014774609715
2.1015498440756404 0.19796702747508363 -0.27229056169889815 0.0006218000671049089
2.104049961877703 0.19684147934395077 -0.2202841927657258 0.004939032527033182
2.099542204294465 0.2108462624165697 -0.19392410558698558 0.012805300673123358
2.091171652327122 0.20769630480818402 -0.32870181670985876 0.0014424129771004148
2.100091178804419 0.22453687656406815 -0.23589568835810765 0.00648054448665612
2.1003777810882007 0.2155927184145623 -0.2246270595148245 0.0047738553077518115
2.100166461124483 0.2329114777588736 -0.2584942083240509 0.002633188217704174
2.0858156573351905 0.2411612502866339 -0.33073114657658664 0.002555467553537349
2.097718810255727 0.2378911171517402 -0.28895293942195416 0.0026768167183156407
2.089315555358716 0.2155084920748656 -0.3440042763189817 0.0013536348317221057
2.0905136829366535 0.21300495334233302 -0.3787487962418128 0.0021007537273601013
2.078571855449339 0.2425206158112258 -0.38207116319157874 0.01748162795460408
2.0841798034898207 0.23598143313131853 -0.3523543450692314 0.004483986555748605
2.0288046271993436 0.30413665980904026 -0.3497831219320211 
2.0359768150432638 0.30292986159526997 -0.2944639561611187 
2.0520865330860105 0.29387303806651416 -0.33794851439753487 -4.701261459577123e-13
2.0983825448922473 0.2238926151245429 -0.20984360092955634 0.0060156151785256485
2.09878399827756 0.22472706450181767 -0.1954052950668631 0.011461943086060319
2.098410478104949 0.2573156422842062 -0.2262653552356983 0.017904472883317136
2.1033757023462742 0.2461183245031152 -0.20163355592530158 0.007400984150649437
2.0911592207349123 0.2519665448455656 -0.25774591173246103 0.00541328289624213
2.089688640242838 0.2515443752483605 -0.28337825986720794 0.0050649856195957325
2.0916816504670006 0.251126575678474 -0.3134100939519707 0.00611201218417508
2.0864987331599836 0.25727438459256635 -0.33418847142543284 0.0034825989340792197
2.083396565649357 0.2488257335882173 -0.34817062909275753 0.0038540241617050146
2.08042293436843 0.2680512030809336 -0.3745449846254419 0.010859195933155628
2.0739551912882668 0.270106917629367 -0.39107907118612434 0.012459612283705573
2.08786559017825 0.2653914312564112 -0.2677677541328654 0.012516434705391
2.0850355434768115 0.27237349630682944 -0.28536992417255636 0.00853616537815174
2.0795777459203 0.27292084842910347 -0.33965674735222473 0.04050110114981953
2.0894956878766435 0.2656881249547677 -0.24113402325512906 0.010654627780176326
2.084757391901575 0.2764335818906124 -0.20788698127501223 0.0009793789839254742
2.0749540597734715 0.2828764698099768 -0.2257362392608331 0.0007181338285724267
2.0664785186782613 0.2926456513006312 -0.2138063806926431 0.00023620590091390695
2.0686306603768974 0.26803738015164397 -0.39736757305856213 0.012651113115458282
2.0780762649298192 0.27338516288363285 -0.35735460313641765 0.03780622578983255
2.0994877097984763 0.22133013435313748 -0.26421719822514084 0.006567464383636361
2.0788444727772695 0.24775518616488393 -0.37938511681973347 0.017204399313105644
2.0776947876993312 0.27806776237527053 -0.28999522392614857 0.01966491146063206
2.0550112361225206 0.2924032523314547 -0.3923991621837208 0.014495404182770207
2.05812437658798 0.2882792084821271 -0.392969574032231 0.014848176965634315
2.009316850423254 0.309600446459783 -0.35453040440640876 
2.018980086565847 0.3034153431534174 -0.3938832212360913 
2.0668137916008815 0.2856948328170711 -0.2759995506368176 1.7049495079858624e-06
2.0444753120512265 0.30650240867984146 -0.24358737174810247 
2.111139597691262 0.17934674661741196 -0.19773821943692219 2.803569714185066e-05
2.0982759469420373 0.1573110260408978 -0.2834234847345272 0.004756531128247809
2.0921647219151263 0.15844788961032102 -0.3616026926371088 0.002293428528599656
2.090822269932005 0.16952915377769592 -0.3554666462899187 0.0016004752112373075
2.0863157405396264 0.15614721574211243 -0.39365059463600116 0.034074897711296404
2.1060453932040115 0.17197770193288606 -0.2502657001864167 0.0074387167228740165
2.0962611736442676 0.18446185342044322 -0.3078436106893488 0.003172283275877912
2.0982740786739758 0.16271311097183694 -0.31664136960904266 2.400855509134448e-05
2.0964297841288055 0.1433807607115869 -0.2996744182462376 0.01016152559417157
2.0986642061680536 0.14780970896521936 -0.19833450548383572 -2.017670093451727e-12
2.100128787019339 0.10882688447716182 -0.22938002071219302 0.005511122910236073
2.1016292871085653 0.12929571434939077 -0.2091486197392664 -1.1382991897207692e-12
2.1042568985889742 0.17931444968484167 -0.22655357884895208 0.012129021345982696
2.109452095550534 0.15541028530743808 -0.2422059434635921 0.003619304777309136
2.1020675919595972 0.14534036788882018 -0.2173925623958829 0.0035317625788333627
1.8631637481691776 0.052443674911158394 -0.3824436675186264 0.0009753298819915895
1.8276761293231532 0.049190338442842145 -0.37763563972114456 0.0027744153664665005
1.8339353942962382 0.04717340480278515 -0.32231940425433603 0.007403176875150233
2.0958829127604 0.13316288072192825 -0.26321623781950854 0.003036280460444284
2.089473819580758 0.10803695590467219 -0.28038277701184383 0.0055551014632934945
2.0820499232933383 0.09430857648877553 -0.2994695863973542 0.0015599226979931512
2.078986634706834 0.09001185719216438 -0.3505340941737908 0.016615835737642
2.0835627452913683 0.11003407278904322 -0.3481427332883349 0.0007836119478658981
2.0875602208059214 0.12942284730107173 -0.34833946616169514 0.0013263795227656608
2.059674663071461 0.07529587611139192 -0.40638016886295025 -5.538332283038224e-13
2.086810731963354 0.12838768780354762 -0.3950318785104924 -2.5360511682506414e-12
2.0863375332386234 0.13673186751805505 -0.3770538082997263 0.0028380909178771056
2.0900211767042194 0.11955747031059924 -0.33004563998184844 0.01167048015237536
2.101010310041478 0.12023805971264655 -0.30274973469462546 0.0015368428608988345
2.0816632121458896 0.09533995022425282 -0.269744071056978 6.503046480293784e-07
2.0745129531623494 0.07706429448906332 -0.2954787661783205 6.5606409986321765e-06
2.0831814914324176 0.09125536701514252 -0.38642219255590815 0.005722766490129774
2.0814212361851787 0.08330339118097968 -0.23627185494089165 0.008888518833964921
2.0863986768933214 0.07174920555924674 -0.1991760094681627 0.000795434543385594
2.0813050000418074 0.09188603371192697 -0.3116841780241451 0.0069289219289494506
2.092714453063813 0.09070473173124723 -0.22817626133702304 0.001954060960339273
2.0628851144495486 0.06199671675854089 -0.2860822693290743 0.010181144166723794
2.050029357746272 0.05362717166323913 -0.2613642382226486 0.008362645930594976
2.0590556031197735 0.06203018653477556 -0.24175464939178282 0.0015211705192443778
2.073597400317569 0.08681856454810402 -0.3966046225295202 
2.055681282701906 0.06978655064690754 -0.36402529524432464 0.0052511787664927196
2.052487512647954 0.06566624773584055 -0.34666255971510673 0.01408024509976851
1.897690136424932 0.03526952920880612 -0.1635879158973213 0.009538627190208556
1.8929249164253077 0.030012163275413187 -0.14039296039026336 0.007091503345480134
1.8740995832722194 0.05352893188628949 -0.3721866296379742 0.00042769365824355427
1.8765004696105447 0.05350973782244062 -0.3813596999038344 0.002678828917240509
1.9100412511534457 0.05373423953904357 -0.39654652783585476 0.00019698503747064074
1.91661663073838 0.05048212168058524 -0.36053224282453683 0.005742437816702624
1.9231372247464076 0.05614759943421389 -0.39236610636242 0.004732663382926043
1.8834913626919187 0.05478275424242529 -0.39426157623684716 0.000677684730012588
1.8895979888152856 0.047600605361611044 -0.33205965006152416 0.01741259041154748
1.8775182037387437 0.04826704351551833 -0.3176888034087917 0.009024199182558661
1.8846396001401315 0.04023359311088291 -0.2798355065658096 0.004454869721286854
1.8740627739551157 0.04669615314298517 -0.25990014017576163 0.0069176818009902925
1.9070742969326862 0.0473754269028592 -0.2674985153419504 0.014022087855106002
1.923101472778845 0.05371892058313639 -0.3079126231987205 0.010953991806591687
1.926251706539782 0.05281727099357108 -0.2963828165883494 0.00876320527956864
1.9447640431320277 0.05013154340420518 -0.2960725991762892 3.1585261918752586e-05
1.9140739192771696 0.040219206251332476 -0.2104455984829963 7.568886575776607e-05
1.9007278677251014 0.04549765283012998 -0.261788794927006 0.008805420593512612
1.8943872520201157 0.04273504644033511 -0.25233392963108003 0.008645745463433212
1.8926436957723594 0.04450704952652566 -0.23176178731000963 0.0036754767781641846
1.9078205162377415 0.04819666844052801 -0.32506899024437524 0.006830923233858034
1.9283889987570229 0.053550276172277304 -0.32130293142942534 0.00603038225446596
1.9618859572911571 0.052072271384467364 -0.33894688960618197 0.0016250878899533474
1.9622210355646346 0.04493398923077968 -0.28862774817967274 0.0003964184609045715
1.903530189298576 0.042438272631421727 -0.3439074789159446 0.0033336817745171655
1.93571826894729 0.04907247111905001 -0.34680263718060467 0.008122978205398453
1.9329902142022684 0.05552086196207137 -0.3918091644937851 0.01018086515638871
1.960612809443177 0.05232990039137223 -0.394932634307058 0.00620185161822357
1.9523546148849071 0.06065975033604734 -0.40579840371170534 0.00040750398075811657
1.9504727766753907 0.048134633024716635 -0.3629426769591045 0.009233322947093784
1.9700142141101615 0.050692666122437564 -0.33575360802937365 0.005913485479055801
1.9562301005446316 0.0333064814305985 -0.23352521676493693 -2.0418530929021318e-16
1.9334379213401998 0.04096592402707957 -0.25606782660096633 0.008743672818879097
2.061013751446618 0.06481196673022187 -0.2451521282354157 0.001974522044011984
2.05567194064387 0.06146281196245167 -0.22370193441166078 0.0048294197653972375
2.0535912573451887 0.05761874958955332 -0.1995148028299168 0.0035001156622809356
2.0234891802930792 0.040635804568640334 -0.22042366878302824 0.006406693155594466
2.0191319514318864 0.0474250992389466 -0.24743946672134448 0.006787493739726152
1.9914682713180372 0.043840899719082935 -0.22198976519833072 0.012370870112417115
1.917497874473239 0.038705419179296305 -0.15612215365584253 0.0038689389961357344
1.986700862109392 0.04735740803978772 -0.30168875555890173 0.004278776670370661
1.9886017480552138 0.04813688033960313 -0.29808724551486776 0.004150152977250184
1.995683094688639 0.04406060809777172 -0.24123100005246312 0.0050550257795503465
1.9834025710615457 0.042781721679235246 -0.26601699032216025 0.0010367577906634977
2.0124339518997774 0.051747387047625756 -0.2841406352085174 0.0051640535531947826
2.0207344853479166 0.04850611536517595 -0.3119978962769647 8.677872521366543e-05
2.028266371991247 0.05462687919642122 -0.2917061504326875 0.010049619218943703
2.041834819044602 0.051769842875849376 -0.23522520721616988 0.010271724359610948
2.0452320651497833 0.050895692641927434 -0.2413949777795431 0.011680848547567351
1.9826761387770402 0.0552362202979636 -0.40381697887583506 0.004102087784468891
2.0044279731813455 0.05907650668444307 -0.37967162549980216 0.0016013603223468792
2.014916405100972 0.06057259807171907 -0.3870571106539659 0.0011457466416339452
2.0235945214377224 0.04640455652596832 -0.2645977989511166 0.0007119120419862785
2.004124345691093 0.0590130808552004 -0.35175963388268766 0.002030149291502685
2.036228925745657 0.06797840539495505 -0.3830805611556885 0.0005373373690555464
2.0322337620214044 0.06367667344428055 -0.36497048788431363 0.002340452560328311
1.9736688881518265 0.03972419006453911 -0.19233791034438213 0.0003260194275781646
1.9736345425049795 0.04156029713102086 -0.16374739901895707 0.003413910160607206
1.9705646463509412 0.041963081848846034 -0.17664300760865745 0.004693124058417512
1.976002370788484 0.044486980220877145 -0.21700660149483197 0.00568960867967529
1.997877688198844 0.03690390046893745 -0.1498786323147476 0.0060342156913913815
1.9203765748033752 0.03673689981844639 -0.14780494478680067 7.84053718789974e-14
1.9505727891307318 0.041122619925685236 -0.19017208513410247 0.0020044433198989037
1.9123496925489816 0.04569748675670864 -0.22890884334532574 0.002053384293238971
1.8558955349020323 0.04339986009610133 -0.3069024746662982 0.007592868721953658
1.9796187081341927 0.04741178147780785 -0.32874033343335096 0.0006721745976281975
1.9976418831008698 0.0433770695406977 -0.17952436514943454 0.006271245778689436
2.0295366882395456 0.04759520152119809 -0.17908560425170247 3.372323752449065e-05
2.0861466853209225 0.07831443889071799 -0.2028049286815593 0.004055006099865171
2.015767209621001 0.04300608356086784 -0.17203692400014106 0.0003571951479952383
2.037792629239733 0.05116909840564206 -0.18811078483905302 0.0002508578566695001
1.837738254217402 0.046672645439121536 -0.236741217626844 0.003702718327939392
1.8127734214753586 0.04694372903974904 -0.3432610472776432 0.002614519499328522
1.8024022322765976 0.05092095745451469 -0.3245734295947187 0.002162770323315861
1.8161089095091152 0.050112348377529536 -0.3825734779178607 0.001911838591736033
1.803246786578182 0.05336445605486323 -0.38020962655393775 0.0002725856286734252
1.7921988573907628 0.04861107666489853 -0.34961621097117396 0.004067290589704051
1.8004194986081161 0.04992638884880926 -0.3604763505599384 0.0027926797418167315
2.092354510884435 0.14941905291659488 -0.3359667723132555 0.0017550082876996716
1.919932755584775 0.03634535285525024 -0.19244057049212882 0.002347538086802916
1.9650914534533117 0.0449427970836256 -0.37752590350388937 0.009725384854916017
1.7729870683258426 0.050099079115021226 -0.3495503236160552 0.004332769735853339
1.778811099395943 0.051082212993659115 -0.37745907301867515 0.004197331890529086
1.7743802452026727 0.05073454459572543 -0.35761225920115836 0.004645329007210714
1.7651850512983358 0.04618241609688628 -0.39621495948058644 -5.174055347028788e-15
1.7511743993146087 0.04422716313097653 -0.3795779909760225 0.004381782526483889
1.7092670049682068 0.04289746095731184 -0.30466075150195343 0.003129168722846809
1.6677146174159183 0.03715926665749222 -0.19704099570477385 0.03841876806609451
1.673297676179511 0.051271327856560515 -0.37006888364006396 0.0020073536521262817
1.6907579912555957 0.05136468834786209 -0.3781093216689752 0.003592571771648319
1.7181930036864004 0.051381059464195064 -0.34012459671440554 0.0004982025715409236
1.6698937721608729 0.04928559678895434 -0.3500065490113466 0.00276098881492569
1.6589936901396336 0.051408910746550435 -0.37121021185589703 0.04374791520219496
1.6551085727466361 0.05111811816704302 -0.406525920553324 0.0915605041237502
1.796681461631412 0.0396530155809145 -0.20637881676610617 0.003974996091574217
1.7795673274805692 0.031243820144834393 -0.15831624915276157 -1.4294443053219066e-16
1.643866483868492 0.03806382593796374 -0.2787427044600267 0.0829734606827484
1.653635901504491 0.051240885231207144 -0.3506429703529227 0.07403781681915379
1.6884498054452937 0.041433527176718055 -0.19186972414071604 0.0056109419693970135
1.7069607121934318 0.040577233661710524 -0.2773994053322041 0.002501168038475177
1.7108299811667862 0.04556947316756364 -0.3131206510567179 0.0031226711485260344
1.7113237720919048 0.049946097929537726 -0.36775738466320407 0.004328787230275497
1.6288647383741734 0.05194266824174549 -0.3346966188136883 0.06678115199507104
1.64252067970065 0.05033173040963354 -0.3184533060110507 0.0890321482597034
1.7581684141047973 0.03760078508385742 -0.31410069138624397 5.499243513351031e-16
1.785175547485744 0.04894147503515452 -0.29832505472627674 0.01831793306009771
1.6417493515624273 0.03541049398238789 -0.16842024579041395 0.06144176284944471
1.7831514585149548 0.048010295250411554 -0.28136061775794974 0.006183581525566598
1.635046822278634 0.3152855639698418 -0.29856773536818393 0.012166951786484892
1.631068444603927 0.3233844955433338 -0.16966714238318728 1.2450967305826841e-12
1.6344975625572737 -0.008691155820017662 -0.017717848715069786 0.11005863624681367
1.6553497461827427 -0.01635925460800123 -0.004496583755796486 0.07927532875216588
1.6683801398076588 -0.007528496674420168 -0.014876634686893927 0.026399896630546517
1.6735645723189556 0.0033409692124346368 -0.0036938132108858724 0.12364759722167723
1.693020770971952 -8.153158848508655e-06 0.004092544117074368 0.00417828314325688
1.6877038930204211 -0.0007388957774142544 -0.0035634080290110615 0.05178446627068795
1.719247465099979 0.005290363566764655 -0.0019645726289458983 0.004228871920336899
1.719285115528561 -0.007410596980043161 -0.008705071091814554 0.01302352759821199
1.709399636932278 -0.006290769206392956 -0.05243467977782271 0.0010628486596531701
1.6764028973964618 0.006487610227317387 -0.06109955145200794 0.008123869044022037
1.6883607607853113 0.002489553806497045 -0.03602725172801881 0.023288051631706018
1.6594808999841184 0.0026238209834828817 -0.045697811073289775 0.013942090894187891
1.7082806603174594 0.005164355661875722 -0.09511580342232152 
1.6810955719689435 0.009274964269983817 -0.09828617632779667 0.0005018117035050799
1.6458966386531817 0.020656834332565908 -0.10715202713537963 0.057096374231686994
1.7527129420361758 -0.009741200684274259 -0.0024789378430561107 0.013848460527007793
1.7338589915965306 -0.0022811429135769987 -0.052251295258806285 0.004447271716187873
1.7651556634079166 -0.0010000506247137015 -0.03384419875493449 0.015510299584326629
1.6549265969952365 0.008695354653172534 -0.059325408794464775 0.01997586333798888
1.6356533216112807 0.012639009973624169 -0.070278572693317 0.05862981285504826
1.6646297012745699 0.01153561101935642 -0.08607302352176005 0.012971319850238696
1.793042724348593 0.01892683240789688 -0.12584560019921492 3.1983724378956744e-15
1.719058047266492 0.030563284140401836 -0.13843223499810486 2.7346842850640832e-15
1.8288349791831435 0.015327018929129542 -0.10778958541264519 5.170881330745593e-15
1.8166297142885262 0.0086972140882829 -0.08853142106085446 0.0033300500558094627
1.6569765843312239 -0.0010341035109175706 -0.03558019656575464 0.11185626256137732
1.638493892122135 0.0035207263197372675 -0.045290671047912574 0.08561127162565
1.7391481541310936 -0.001360193224298152 -0.034362819583006805 0.017432764921442037
1.7745536410200302 -0.002545889480520794 -0.051713384587632846 0.006588676800421387
1.7538169911437975 -0.002741021440377414 -0.02784542772873017 0.01118932401529461
1.7754601170387123 -0.004035835899786026 -0.01639251809239432 0.02047084105612776
1.7860737194071854 0.002166707529215858 -0.0036872138775262 0.017614265462498353
1.7913105349297918 -0.008029427558945597 -0.03385102723328407 0.004534990973657492
1.7856895487949487 0.0017824025107872083 -0.006055853392543276 0.01593363367446326
1.8819476802840724 0.018260132945951708 -0.09973619665798142 -2.641631192780643e-15
1.971648470544121 0.035305860273141726 -0.14115747662465286 0.004184916873271568
2.0149360967934777 0.015857023902630836 -0.10044724333318678 0.002481158160434165
2.045536512058932 0.01473135360494223 -0.09753564453392566 0.002887503076868157
2.08690742433898 0.03287187208621581 -0.10094289358684541 
2.137033595236564 0.06092362476135045 -0.07059459743431144 0.014988873998289768
2.0747351754055128 0.027556159940917382 -0.10588235280381418 -5.030951614066269e-13
2.1233895794362656 0.1554854541460919 -0.12947995956134437 
2.0046685273321057 0.024435376923774725 -0.12560249297285853 0.0022508216128004173
1.9859238965030823 0.02424727132391159 -0.11205429008778851 0.0015578621539337626
1.95115315532505 0.0069602494034247155 -0.08645889957720251 0.0034503058251773334
1.9273129340782613 0.006873374651301095 -0.08325870871235906 0.011001344637994036
2.1328765890365666 0.08513062951794959 -0.10023290990282648 3.642873835581439e-13
2.1465219852686075 0.10733933771664464 -0.08971705197889851 -1.193412361609579e-12
2.1505244687124723 0.09819810537431838 -0.07054843597031207 0.004191287422478024
2.1448798262615263 0.1640487653706663 -0.09311066698072401 3.463766544467749e-12
2.1512064559084565 0.14895980440784287 -0.08743058234997553 0.0011050294078454532
2.1591335655147574 0.13131069123921882 -0.058839674691795706 0.0013828258940193816
2.1611872595602493 0.1760691244177164 -0.06354020457049776 0.0021963352539513294
2.162056040649712 0.15266076579732743 -0.06137832538043833 0.0021208043851062086
2.167447590399164 0.14375037124364962 -0.04320888179954996 0.0010975016877811093
2.1689535289990163 0.17046696359941038 -0.0465272155447551 0.00025401628031463313
2.181784270562643 0.14004319550306843 -0.001227852827823897 0.019795247636050714
2.1720301405533675 0.12420484210238823 -0.026585637940690486 0.005814687996818087
2.1794184943323227 0.16142543257322353 -0.010394592198428556 0.013352393816115983
2.180696015609096 0.11504944079580953 -0.0015509383019521117 0.003249829086508274
2.1647445410399455 0.0916718757311107 -0.018211676799152816 0.004344954452591567
2.1592521643396916 0.08799568088699239 -0.047653886479739026 0.004918335476306451
2.168539450866716 0.10676744514542218 -0.0381707160462088 0.0031319045904456303
2.1443426596416844 0.06146286489186217 -0.05958644536929566 0.011892014035658413
2.1398007077345773 0.050546827128470286 -0.06228735683844851 8.02772469514186e-05
2.1810893416932755 0.18595426714341431 -0.011712914181501152 0.03047920517453699
2.1735925417987514 0.1567329157447156 0.005220699230146018 0.0016768315385016657
2.1597075682105973 0.11918547487167698 -0.05830861409308565 0.001617049799163556
2.085902391222884 0.0158300959454559 -0.05235548369181203 0.0016772052653861726
2.0631738778383433 0.015482215074712181 -0.06515845785201574 0.002361608758907376
2.060698904162085 0.006926898718684887 -0.04916356809002223 0.0012158296516238236
2.0251398153736586 -0.003938985417795282 -0.03820388434878625 0.026918442269774977
2.072322527699765 0.009277428936716015 -0.035467062318331036 0.023143651114609906
2.113430118292656 0.02107310021437953 -0.03792615301977268 0.012871891414757471
2.1116488354051275 0.013996696899264641 -0.003998134275353508 0.0810731934204984
2.109574842083032 0.007331452031519375 -0.005227326953400677 0.03619225371865274
2.117135760651482 0.02514698683655391 -0.0008596966600577234 0.049838000293506574
2.080192220949751 0.01649882487126781 -0.0035205790747072255 0.029296316203465143
2.0715988205844824 0.0011116480258329866 -0.011069996793446616 0.025227915228055946
2.014797873746437 -0.010315416192433778 -0.04810617951178317 
1.95931714888484 0.006965689632420231 -0.07994428733352973 0.007928815195192633
2.016260549118494 -0.0064721431401645844 -0.005402189900155462 -1.2723876598036474e-14
2.0057083066273056 0.005156263141609508 -0.005384151164727906 0.007071353827970052
1.9736253552511325 -0.003089631366202464 -0.01947858713515131 0.01310032521573156
1.970607780674605 -0.002394793557664889 -0.00493927887738168 0.0008030529843245079
1.9455005548469855 0.002637309475140911 -0.04487875755985741 0.004012438666253523
1.9530067354131402 0.00044496069278656607 -0.00939660092399037 0.012678515910312342
1.9540111247697176 0.006376205983455352 0.002774560948084831 0.002018091500632839
1.9745835775301526 -0.003898006135949512 -0.05186220315192371 0.001777633187069627
2.0421338726192064 0.0022267286538103564 -0.00827920542082482 0.020709935758863977
2.0544904048234742 0.0025006631689345046 -0.03248824671859158 0.008152997797036586
1.7524345109015147 0.014913364999216978 -0.1111935342982821 
1.7857794451807967 0.012603397021755905 -0.09957939621738644 0.0018417467771691563
1.8025731910178056 0.006698536237999606 -0.0890683210443676 0.001398985006403972
1.7853346165117636 0.004636910101918813 -0.08271214513052487 0.0023822563504209424
1.7402867547079355 0.004333894215688883 -0.084068711420954 0.0015120390098543866
1.7530462288666055 -0.00191553181381726 -0.05938762524520201 0.003436341241201364
2.0227695688015257 0.03616033901444006 -0.14095798172706114 9.56787321141916e-14
1.9931555309308164 0.008215707762822402 -0.07880326222909065 0.0015545888707963994
2.0368803446165855 0.0050602392111178925 -0.06332217893736254 0.003989956162035283
2.0517467223894794 0.015596529244780243 -0.0767690093412998 0.0020381833277115743
1.9015296375043507 0.010485966279090398 -0.09782932982388876 0.0016115879530707773
1.9258388721007633 0.015656871830611478 -0.10077387838787069 0.005479254581194434
1.952746602043502 0.017729911598577217 -0.10522903920645833 0.0010875099561007506
1.9295049915347409 0.018490321066669646 -0.10566526227499501 0.006684092566910372
2.144327313355067 0.04529560083222922 -0.032903095074916545 0.012356537206414832
2.1485380636625213 0.033237647785641304 -0.0038140871795431914 0.01403826102760503
2.1314234828878136 0.03824554731002443 -0.039520740308671504 0.004535947340259463
2.16243696990435 0.06355981665823102 -0.002594375498744156 0.007323829642363646
2.165380000525742 0.08402904965217606 -0.003895677997875486 0.003535029792074766
2.1604056684734507 0.05018925681880147 -0.00973444675093571 0.0026085967007507573
2.1726600218562755 0.09987273943993187 -0.005018692011691072 0.006229346661468525
1.8577416530349535 0.008365896620517815 -0.07874571899349833 
1.8992641580951526 0.0025475351367952427 -0.054284260129356415 0.0015691972667588486
1.8841376716440943 -0.00999121375767546 -0.037021323654979565 0.0020518453111127927
1.9043465056764926 -0.003405267975092132 -2.711557127406145e-05 -1.5767447767383038e-14
1.9256617624871608 0.0023183244207907842 -0.03165795163035657 0.006574021036600952
1.9255889091587484 0.007052483338247581 -0.05353487582057307 0.004026430125094012
1.8662760353443648 0.024088387497236505 -0.11658768718933164 0.006445974490550576
1.8232353963559034 -0.004411302296591694 -0.044600085630970135 0.006631379714029323
1.847013750001728 -0.0018887694405882102 -0.04054823962708558 0.004587922306009175
1.8618568233441504 -0.006947995842908088 -0.0002950392575598337 
1.8701242454548166 -0.00905900864258399 -0.010589970326643562 0.010540848697219619
1.944700139235908 0.0013281850691740597 -0.0570201373837678 0.0026151808074577998
1.9210130039556108 0.008446406478336445 -0.07957857347407418 0.009673497021057565
1.954213146844038 0.004314521630308212 -0.07600299426274489 0.00813078325398148
1.9332087401373186 0.002211432920219455 -0.0070225443429376404 0.013716463621621218
