x y z curv
0.5941624200247181 0.4408488279105345 571.7857484144516 0.036696305355015654
0.5906871293191055 0.5225047082122575 571.7930168746265 0.020728924118087588
0.9702776584198272 0.5608626372770185 571.789960203787 0.09786657451223056
0.9604790324515629 0.23583568539692143 571.7891206937306 0.01922663320773058
0.9644196391593961 0.38177059575184535 571.7915800657433 0.04856657767752037
0.953357410710477 0.12138361289023324 571.7931706780126 0.010117041229091935
0.9188403235097501 0.04240966442691821 571.7855808977815 0.02874358888112737
0.9627469233800667 0.18596895634534003 571.7864141447643 0.03494630070331956
0.894353224709308 0.020288956907690166 571.7811243182 0.057522976921003804
0.9577192832604586 0.2730504960854642 571.7948505634178 0.009401998851899768
0.9615540353026937 0.45825034983579566 571.7930552306727 0.034533151476021914
0.9536973235869544 0.34316100118727555 571.793410450357 0.09317074866774053
0.9539912782018366 0.1556888375303843 571.7903740538338 0.031434093004338644
0.8776057140545901 0.017595796893596118 571.7879222306407 0.05200770088556031
0.7595372124080155 0.003554919535137396 571.7940346129809 0.01929663451590074
0.6993258035836194 0.011487192325328513 571.7903650127442 0.03256701823329416
0.6637000237741597 0.018928069889509642 571.7856326693495 0.06526184003092762
0.5970293498346068 0.2397527476148237 571.7889908348867 0.0704767988859137
0.5993774365513458 0.40064813396723 571.7964189101122 0.08605974658271501
0.5974582563505212 0.47083329885526637 571.7810144428892 0.021946800951490597
0.6424555739649337 0.05099025258433699 571.7891911529036 0.04156405574396471
0.5958054846048915 0.1729056762164525 571.7859092954342 0.10249946939057636
0.5947185723326754 0.19240623614438115 571.7922268071816 0.0808437906904421
0.5993106122197451 0.5511847511895375 571.7951452984906 0.09528950057902501
0.9617005213861081 0.5068336552412259 571.6837110817754 0.00977143655149857
0.9578288326104554 0.5731383497566583 571.6811231921769 0.010885493852129372
0.9568072553480158 0.5756748419140209 571.652677006806 0.008032640489984092
0.9548282421787239 0.5705573796006398 571.6636627701955 0.015454758468162603
0.9580776189840379 0.5520220648254224 571.6805689698454 0.008716912864536727
0.950998345382165 0.5052718783707579 571.6348742063005 0.0033965997311749055
0.9519789261373256 0.4672619157849375 571.6195440123387 0.005362823485648211
0.9613041747486324 0.5551392838804264 571.6933636517772 0.005256318345453581
0.9576050352458176 0.4490235600176816 571.7069825280157 0.007571377940353312
0.9558136350322975 0.4699482989160812 571.6911797418616 0.013971003431120996
0.9701058767703008 0.5752844865588477 571.7734402948595 0.057267995718478924
0.9629086202381337 0.5229258727053604 571.7654779349986 0.009238132944441202
0.9664308337101891 0.5651962203432883 571.762112056416 0.06661133248320032
0.9657786693257298 0.4978396649154967 571.7562433297111 0.017511020496003858
0.968084598972468 0.4618148405209152 571.7632306954519 0.02966409771667766
0.973856656971828 0.5250897085108885 571.7368310723432 0.013044998330794704
0.9739628126379781 0.5511978761446861 571.7405990729966 0.016700789092449597
0.9638816003285944 0.4910539114260627 571.7376419191023 0.014665710176663757
0.967980094063006 0.4704185634939441 571.7434591035653 0.006449802497131927
0.966611273721894 0.5225206593062884 571.7069445911974 0.014869796790582096
0.9658610375714958 0.49341339089790426 571.7283369591387 0.021082600681486662
0.9623813047518552 0.568702746489337 571.7132163185629 0.03574621406906948
0.9600082732852062 0.47079086244408896 571.7137174931303 0.0224083059008194
0.9742197812868675 0.49863601457075946 571.7125780702977 0.0021089775639579443
0.954341656531734 0.5438248795204459 571.6332125029554 0.0032206020441691617
0.9536505909372741 0.5481226484754305 571.6285198950873 0.003947302513277511
0.9387842715234157 0.5218864602891613 571.5449232887499 0.00209717196143115
0.9378723295734677 0.5204435916498239 571.527580479331 0.001088274829985627
0.9511350227888582 0.5864926856793952 571.5600985675906 1.2796839685486793e-10
0.9424762577815292 0.5508781580089124 571.5605227443865 0.001090424841479417
0.9402558695375574 0.5067153573386783 571.5561279611318 0.0010651997560475108
0.9390276527611988 0.531053666817038 571.559496642 0.0016120096848236654
0.9468097122326504 0.5050582209901312 571.605080720105 0.0032766246335394324
0.9535266722708216 0.5547392440314831 571.6251971521447 0.004022470531734975
0.9489809198575552 0.49898990022196843 571.5971331270025 0.0013579968843614371
0.9466813419714861 0.5326464474847167 571.6068388616661 0.0044097786282325776
0.9500130150071678 0.5659270109985957 571.601951490868 0.0047272193900181995
0.9459544057631127 0.5316756835730437 571.6038189945189 0.0036985984982278526
0.9535813626137815 0.5784800327667259 571.5979420324926 0.0016336927017928922
0.943575795040085 0.5497360512417759 571.5967151936153 0.003976734129747305
0.9494476092344404 0.5688278209131059 571.5790781935696 0.0012765981266364002
0.9422567559618594 0.517620817196964 571.583987528874 0.0013251286588269193
0.9418737736441872 0.5496836718045808 571.5844462494402 0.005598935287300878
0.9319056136781149 0.5460235033967153 571.4933511065507 0.0016877648186098292
0.9651539848289135 0.48434443266545835 571.7747467705004 0.028533288532773076
0.9644674229932427 0.479271188788322 571.7854421650842 0.036681515388840305
0.971107906451345 0.5481577491011964 571.7868612831953 0.03926776352640252
0.9650783678637112 0.5186994061949383 571.7886476951775 0.05522452988264834
0.9557260371373345 0.4445165533543946 571.7891138098736 0.04058921677447701
0.9595367180110809 0.439054531407794 571.7472459817109 0.0021956390808220987
0.9454000120444062 0.48569644765032943 571.5909639464652 0.0023650422184844093
0.9496296855918412 0.4610316901334942 571.6104183635275 0.0007321615711628495
0.9502867225003414 0.4671473138920053 571.6113675848958 0.00536794799430324
0.9384879093336818 0.5250465343900934 571.5364925275408 0.003266632023003676
0.9411239410431681 0.5069306914079329 571.5375276580105 0.0005706331398305161
0.9388934715038291 0.47492003323376536 571.5396914142077 0.004737926071426172
0.9405304880720244 0.47683015441192694 571.5274533714252 0.007802478854831335
0.9570110325176749 0.44215945488735275 571.6800518088816 0.014591409721670492
0.9629453633113331 0.43450865676181827 571.7104714066267 0.009587914120715134
0.9481949162627773 0.5198210535649455 571.5996825565072 0.0015769722580634834
0.9492473626695052 0.4894825729646119 571.6402169904839 0.0005134957218978567
0.9351838795220287 0.47752178658280964 571.5082796324164 0.010806944515256267
0.9344117351699524 0.4699960426019086 571.5072669755258 0.010632140442356578
0.9376231598637954 0.5164542842644477 571.5149464723803 0.0010049125814415624
0.9437461628749513 0.4545479588976343 571.523168713763 0.0026967880876632828
0.9012910011344282 0.5813373783312216 571.4033417868004 0.019206641516748946
0.9127838912930645 0.5651201205487815 571.4378709249191 0.012860104841390954
0.9087564924186985 0.5780228026761502 571.4231623795789 0.024690505769653526
0.9229266371624762 0.4936029917968032 571.4668976562212 0.0006486515475286655
0.9303456790684139 0.5606011844326658 571.4832194240752 6.899815348071732e-05
0.9290381596780615 0.5206343261762294 571.4812414806662 0.0010145697926347357
0.9155090788632996 0.4643980111435031 571.4388407497923 0.001887363275278531
0.9190533170704819 0.4864135997900413 571.4473548875526 0.0025106203981576287
0.9156896611385861 0.5420195267157962 571.4398772681479 0.0004943126310188402
0.9181959768527501 0.5141627110267089 571.4481516409815 0.002832748388501832
0.9172241343887269 0.5300482164096353 571.4413535832781 0.0032543685819062026
0.9134845644660273 0.5203298335419366 571.4184589510769 0.0004548099961872924
0.909163318703138 0.5664934327683522 571.3991142753987 0.02695389916788823
0.9015070224398871 0.4834026818035668 571.3819880815312 0.0018036263309946599
0.9000378789671583 0.5138651850078924 571.3810883452514 2.6674872074056767e-08
0.9059272358092664 0.5199312608665507 571.4018877144007 2.638699106051874e-06
0.8826000893217041 0.4593175730113685 571.3656640872357 
0.9032806634227785 0.5062024102373298 571.3970907790446 0.0039939178498563654
0.9204581142666299 0.538361284392578 571.4652093712207 0.0008662350880644561
0.9212860065366875 0.47608792116143483 571.4480096523888 0.0007985297589085524
0.9191447554732652 0.4482100621319766 571.4545958630873 0.0008691058519771303
0.9196631332097804 0.4613531167878446 571.4476913508105 0.0019221709302486522
0.9416239781537634 0.4770386668885842 571.5755249628035 0.0011513836924292725
0.9437422138780174 0.44804948663957495 571.5481215663277 0.009705495388645896
0.9453490048872255 0.4623875902238567 571.5763529349205 0.00105685613097964
0.9557288176363118 0.5496675276704843 571.662355917323 0.00715580921221169
0.9585142115989969 0.5272816069148076 571.6552309012285 0.0026488488990354005
0.9649733011816829 0.45762879521260214 571.6593235237815 0.000781055673151438
0.9538700800947982 0.4834252868820654 571.6659718796531 0.023124165170669637
0.9558572530697539 0.4340829813910189 571.6665805156904 0.008503919342235123
0.9096395703099441 0.5016572916528619 571.4210133382417 0.0021428730763760426
0.8911218290383759 0.4509688710720579 571.3806847127124 0.0064971182442265935
0.900910065709899 0.4469562081483096 571.400161904277 0.0005831879968611702
0.9616253739251195 0.39105670554340727 571.6991795107458 -1.554134438852253e-09
0.9629428012634278 0.39938510901042235 571.7421127551834 0.009474791798902028
0.952814971497539 0.39494527545456287 571.6525472826822 0.009024128212789334
0.9540053566430619 0.4044339452498638 571.6801896710796 0.005981331706934444
0.9576057775316498 0.3840831336718695 571.655458866991 0.007654605564561037
0.9530119426430887 0.3865293072677203 571.6147201844111 0.0008731938586778734
0.9509299023111936 0.3957037003285176 571.6265605137529 0.008626829102809371
0.9493030148741104 0.3708570940850921 571.6259984006011 0.004974287149687049
0.9444917040532234 0.4016234090185084 571.5894286999422 0.0067033038940073186
0.9465343188846024 0.38366810047315425 571.5968154230259 0.003615807716052264
0.9417347192839451 0.3774809884608197 571.5777325259639 0.007315299333387192
0.9407805173636989 0.39564729557731043 571.5451950550361 0.005035967987071116
0.941765454578365 0.38818877006405433 571.5643676748631 0.012408709510545093
0.9292159067914287 0.4024521675335528 571.4957501440692 0.0017090034796831413
0.9320318335565889 0.38459965013761177 571.5073188013397 0.00201800108933644
0.9363122226783536 0.3970511415295439 571.519392824143 0.0006143946900541717
0.926419463783874 0.40042531597203557 571.4747130630622 0.002384197237532127
0.9297908085942213 0.3914168668641326 571.4901351047187 0.001667154034244984
0.9202549035954838 0.3995263832110076 571.4598540069813 0.002036194848301815
0.9253353479235965 0.41243983525010325 571.4683042870307 0.002039774707744925
0.9142320787967726 0.40172941068454604 571.4401602167214 0.0026768664177100523
0.9151459656749841 0.3834550715393896 571.4318485886779 0.005414707715594624
0.9079931421958551 0.39331223494666606 571.4086933703434 0.006274411006893361
0.9090142460634887 0.40356706543286197 571.3989413528924 0.005562441716386074
0.9670286201188973 0.34420660389394514 571.7472024359505 0.007440840273201511
0.9702076641201737 0.3658564026687025 571.7448002938171 0.0019803340193279054
0.9614611037935473 0.3531753295297057 571.7671644314571 0.13353354161702144
0.9655423719270705 0.32018387317265795 571.7495159726097 0.004174566721200842
0.9665848486756851 0.3310924104983591 571.7109984063813 0.0017934640623688044
0.9661879450727868 0.34466400751051884 571.7231176860518 0.005816445119612133
0.9661417235680482 0.35795087504630857 571.7260317311658 0.00218364578335807
0.9625681077786077 0.3251302875885242 571.7283647895484 0.003162138069885158
0.9631329894697792 0.3651502019577828 571.6663365191955 0.002285571330929325
0.9571670258534334 0.3354240607626338 571.6737379840499 0.005766663388269489
0.9614804033761828 0.3351228362978789 571.6580399523552 0.010071154366005104
0.9429727590042315 0.3461383881538815 571.600956710209 0.002777730432381216
0.9515531344100013 0.33900054893627507 571.6326350791429 0.001094936758724475
0.9432638356645231 0.3646862989528735 571.5800528123966 0.008594776197792364
0.9473156899804225 0.3570142028481272 571.5654753145313 0.004256252718508447
0.9442198486007273 0.3612947477207029 571.5754527373948 0.010931488510127381
0.9378083927952174 0.36525053944520547 571.5426667906933 0.00368538233288192
0.9369799381338593 0.3531484174228401 571.5178383845373 0.002270251853227581
0.9267286532841782 0.3678207283416791 571.4882134949527 0.0012491873741122298
0.9234586725870683 0.37659234852974244 571.4603582918261 0.006488998543937966
0.9299643880641085 0.35757991282921897 571.4671907500466 0.0076082964049953555
0.9277209377940313 0.3524974539488339 571.4633697069197 0.013212334036156506
0.9035130457386644 0.35148274132008006 571.4120503786319 0.0009494741122538559
0.900016520862552 0.36410467299473775 571.4009134128854 0.0023139826564180627
0.8918911878848127 0.36591128470982465 571.3821006211434 0.00016328184242440133
0.9678563280255214 0.3111973215657352 571.7424348021281 0.002854386273410515
0.9674163455335125 0.2827581424570814 571.7373886217913 0.003324402139755616
0.9651590059922184 0.3038736359792611 571.7251375999185 0.00493353461572681
0.9604526621792487 0.3111316219962302 571.697825125197 0.006190309439367894
0.9580782043468008 0.3139069476969412 571.653034946024 0.006958451290024027
0.950363648988896 0.2964949576596515 571.6288804053548 0.0029272317485724893
0.9519045009959792 0.3182056374325761 571.6347830202636 0.002134863695999695
0.9650157165843033 0.30385399839448046 571.6684110752547 0.009332055842610905
0.9618595070199069 0.31123247597880555 571.6706898110893 0.014210033007073774
0.9471057401313332 0.3266028290425707 571.610214877638 0.0015702716250010921
0.9491593564190325 0.31242139843828814 571.6209014832084 0.0016317281914231152
0.9446684501509541 0.30569613608919605 571.586220695429 0.0002898408184708048
0.939306105134191 0.3244360715455475 571.5557384732573 0.001410746452341491
0.9441488077713559 0.3247852597059716 571.5420069937874 0.004147598065152361
0.9341092142838255 0.33383019990930307 571.5143987141458 0.00018733184090401046
0.9368250527804062 0.31163339916046084 571.5204581845057 0.010283391308688255
0.9209570455088734 0.3186930161461758 571.4687145964725 0.00010607444888768135
0.9281641603682149 0.3182746035781357 571.4923822797837 0.0004929103485187776
0.9131806730859205 0.32626577600268886 571.4299069574136 1.3250872253366303e-08
0.9053490408300268 0.3323896972866198 571.4134573887609 0.0005152400575272432
0.8931239526523931 0.3390240332606851 571.3788232917526 0.00024355994059561145
0.9659861891350423 0.430919628257617 571.7248227555467 0.006761231148758909
0.9548158159028365 0.4123609871073794 571.697760672391 0.0073059937839420825
0.9591565842764206 0.4328241167072423 571.625050183475 0.000722313752353855
0.9511715405840846 0.41845582934245973 571.666741101607 0.004512335662358593
0.9695446793204694 0.42805481321697136 571.7832161872458 0.05963660138211158
0.9622984984409145 0.40863355429159415 571.7874434490315 0.10714627897990513
0.9636685369826594 0.4071468919995197 571.754711895933 0.016758421392453805
0.9532200261869088 0.4222055341172195 571.6541520932724 0.010652459970498383
0.9529811036683138 0.4220588483395884 571.6261407751607 0.011426489649185967
0.9589682875475469 0.41515093174076967 571.7180639328801 0.00930788421325004
0.9489202126732822 0.4104149675974718 571.6101215506495 0.008973388925546506
0.9334392689758717 0.42462885954690216 571.5111166652109 0.003271284859358995
0.9352208645085638 0.43744020771318376 571.4973334901658 0.003937341858643129
0.9285872948694824 0.4383943963089711 571.4826420676139 0.003525006093904747
0.9180388361088622 0.43399309201094216 571.4487491449987 0.0007581741016457805
0.9124296945697713 0.44235226877767625 571.4286773215841 0.005951236419770891
0.911543674675234 0.4144056861100592 571.4069335830286 0.0037263854589422033
0.9009640634272358 0.43131527073866244 571.3958617345205 0.0005812311625010372
0.9698454132022086 0.37042595196536143 571.7859325593045 0.047325514875899526
0.9694113743290828 0.3086551092158068 571.779187232702 0.02960203861196218
0.9596922430994007 0.2892860679511109 571.7853471225243 0.032918770610535296
0.9526655107603214 0.4246775313853587 571.5699390872459 9.130596700071006e-05
0.9389981564360296 0.4230709392896335 571.5314035483636 0.0038072963799413
0.9655048546784719 0.33554495428627745 571.7809287522812 0.026820718967778687
0.9663482523120676 0.24562728090215993 571.7458729294094 0.006509379079465561
0.961168258995861 0.25777251265618245 571.7281645482525 0.010842090187662105
0.9650268126996411 0.27245947814897015 571.712672422141 0.012576858984993937
0.961319942829961 0.25710670679322256 571.7224277305528 0.010831365734186266
0.9734418758410932 0.3936518351750747 571.7767104556741 0.04880583748588949
0.963040562063085 0.23692527134532407 571.7734193231961 0.05434442656146698
0.9719111892721418 0.26320618962669984 571.7791741503476 0.06019542968503863
0.9651681591348145 0.2694906152060741 571.6958325804792 0.019203440767887665
0.9540981689701042 0.25880750913991357 571.6708963527973 0.0024690939301909207
0.9539150405036764 0.2761122309829528 571.6241934495114 0.0015557381298131573
0.9392296649102732 0.2984810494200413 571.5250257147922 0.006024878923993114
0.937635687348054 0.2937950899966092 571.5387520358069 0.007312711057287195
0.942945992965925 0.28212316610133564 571.5852387943609 -1.0986804160654354e-12
0.9435161151436124 0.26993472633033005 571.5765952918222 0.0005437626395492982
0.9484811055350629 0.264916362584661 571.6245052752719 0.009298126486189058
0.9595961185666959 0.2799337982720529 571.6609516254068 0.0070594949635959066
0.9157779487171351 0.4151579134574914 571.4441062391619 0.0028471666002450194
0.922663046020583 0.29093890819933976 571.4782057558467 0.0005815966713148577
0.9117091736657219 0.2844551235793729 571.4457453390797 0.0017897149594842704
0.8931957007316461 0.3977231174853921 571.3676533235875 
0.9060515615126121 0.2930346693346512 571.4268429292208 0.0006030985977545272
0.8948125783520523 0.3134314064957163 571.3828577955728 7.707820663478655e-05
0.8844977965199093 0.29766941483290876 571.3709867553233 2.247931565217791e-09
0.9346655977717668 0.4304385634260433 571.5101426374002 0.004926107461243295
0.9580136629424487 0.13657061908236923 571.7320299124727 0.00023452836982722536
0.9585109118752038 0.179721655206478 571.7444355880097 0.01383531321618036
0.9634505376083221 0.16445610808999706 571.7452459151506 0.0034850536370773207
0.950054740819233 0.09601898169024267 571.747280402456 0.011572041214356427
0.9404857488970958 0.0823154232313218 571.7444458781115 0.012247353997444461
0.9285804377377407 0.065663112421889 571.7408247782647 0.00429007020813514
0.8445947909895976 0.018598353944575603 571.7345909116609 0.002642091404403554
0.8672236587759177 0.01820696445731419 571.741048332326 0.013258142795543753
0.9524842287982448 0.1437088763348646 571.711632881502 0.0010617515009713938
0.9528279094096109 0.14516825005154405 571.7122161429157 0.0013527646302885234
0.9448982125146053 0.1206278736618582 571.7054334387964 0.003572778082568525
0.9389238064704261 0.09994867509440251 571.7109124695259 0.0006729262119881502
0.9033047445470342 0.0440508202579005 571.7316891655582 2.0830470025968104e-10
0.8555383055653032 0.021689766622427803 571.726773964469 0.002162926064592667
0.8425482016288528 0.024718849071330918 571.7154234569489 0.002877637864653154
0.9487814817845813 0.16581288884746156 571.6973247446957 0.00023776540187989725
0.9445321271345134 0.13524509017800615 571.6717088966255 5.886948684014584e-10
0.9346778137685702 0.10689810489299856 571.6913756141871 0.0007404845663104682
0.9174730010631599 0.07594020435343744 571.6802832289713 0.0026568491790571885
0.8876903838809062 0.04912229131066609 571.6929037291471 0.001706988995224311
0.903265104017234 0.060042742520676734 571.6968993574836 0.000987036797013256
0.8978386170151096 0.0629150674107217 571.6797025223507 0.001155586074852771
0.8614776011871483 0.04424821078014836 571.683362638219 0.003785751283013401
0.8732903445287781 0.04389610762588743 571.6914271132558 0.0023165909370565767
0.8510267034900008 0.036665683045670756 571.6900687490081 0.004511083324262844
0.8414230876635409 0.029491910374159384 571.6986999910919 0.0022518744497058763
0.9403441144273267 0.1822775092223717 571.6473198934283 0.0032382639405296966
0.9502990469764285 0.1504817970139172 571.6516655270711 6.565281592407804e-09
0.9239283821172336 0.1275899494108637 571.6322262585975 -2.858078261647271e-10
0.9177739773505434 0.10884388893949308 571.6382299726835 3.924501951942331e-09
0.9187644275204009 0.09049083693430011 571.6561210440015 0.013401858235065914
0.8905626879464312 0.07361711191927131 571.6502012417722 0.0006576276537937918
0.83697814008446 0.050078432404081705 571.6330557135379 0.004227101583295049
0.8562364139303412 0.04547077819793019 571.672199028417 0.002112272377771835
0.8451024921611485 0.03988403337322724 571.6570168074993 0.0009577222879044916
0.9318943084318965 0.18634094332590637 571.5919781380635 0.0027483598525006735
0.9336283656176285 0.17502863893819234 571.6067901181987 4.1015730822858165e-08
0.8839085609889538 0.0760234121735843 571.6069360445639 
0.9054749568420133 0.09431396496536484 571.6213360826886 0.014674148404458378
0.8632863268241406 0.06638138802598822 571.6232192644076 -2.0010322587872223e-09
0.821558711947043 0.05058644045370217 571.616319800284 0.002494500512570973
0.9268883511612994 0.17837453755330193 571.5803805922593 0.0035202331530337604
0.9209148798410076 0.13429164316415557 571.5870427938881 
0.8498668344204838 0.07753510842731921 571.5794864689417 0.0023600957739906454
0.8295093504408024 0.07069710517693913 571.5709580674946 0.0060976435831879795
0.9363790263657434 0.19647908306808182 571.5714840278356 5.300149268117104e-06
0.9219491591583038 0.15817752043564065 571.570117193845 0.0004899126796383632
0.9149584923413354 0.14780934094398457 571.5669558916636 0.0034540273772697815
0.9005737844379286 0.13445307479870477 571.5445125327869 
0.8709763470741929 0.10122157894513854 571.5471578055325 
0.8456105367258803 0.09375981496657514 571.5443397767351 0.001171330943754546
0.8245079677096525 0.0752360669700248 571.5559885975194 0.004005518038371399
0.9192753983505609 0.19390977146991 571.5227763846777 3.083193632166171e-05
0.9142675847667897 0.18006162448076563 571.5408231009134 0.00034007671179154923
0.9074659218261482 0.17396218842242067 571.5285285056647 1.0731028439271383e-08
0.9033531752648947 0.16723820261483047 571.5266996332863 0.006469493456836816
0.8375154648682105 0.09933423613596594 571.5270825811081 0.0006424122792942115
0.9173379315424296 0.21859962680184541 571.5035270186789 0.005686588428465072
0.8325357651562807 0.10213637442013795 571.5169516599904 0.00026301440161920176
0.9079381567950643 0.20726667879494967 571.4908224416861 2.074190678375093e-08
0.8976734020818715 0.19244648937798484 571.476747516061 9.627755353563936e-06
0.8748743896108685 0.13994318086664193 571.4747729795624 
0.8904095450141348 0.20077817174905385 571.4493266347936 0.0008385896116616431
0.8876661357186898 0.1790111900568029 571.4629806556788 1.1925762850258984e-08
0.826576797164741 0.1277279186832014 571.4512092184331 
0.8978826157344909 0.23868839464673425 571.4414426620975 4.788754612155707e-05
0.8728779352377736 0.19554056421278102 571.4219582858284 0.0008551645643408741
0.8889908115663825 0.20117288133420258 571.4457102505404 0.0007481990137011197
0.8608104428470196 0.1637594043790851 571.4257936465084 
0.8856283254025495 0.2250243334650175 571.4252311689563 6.179821950957249e-05
0.8577272128082849 0.19003259345444418 571.3950631711755 
0.8302504690495187 0.17901245888494582 571.3936045523901 
0.8758694988958562 0.24155354906175455 571.3882640785963 
0.9678808239140201 0.20719985371783256 571.7792025605039 0.050494629615828984
0.9627127856736298 0.20481218030046114 571.7877689342398 0.04649470983081892
0.9659521987424287 0.2271720444298438 571.7862829684343 0.021136790892329903
0.9612986386635494 0.13335520202570705 571.7824599926901 0.006719287703740586
0.9580239773917564 0.2045001734167415 571.7498331829376 0.006265866515450173
0.9636848703749843 0.21271070435256817 571.7304574812755 0.004044788400437259
0.9603378952436249 0.19471449883289746 571.723782590209 0.010033491756707435
0.954562873395291 0.18239936766247217 571.7107927292438 0.0033315327611731435
0.9604910335349708 0.21462032996529914 571.705324207767 0.004224069947406787
0.9565651436471219 0.1662289719463297 571.7664921940864 0.025282979322859674
0.960865819875724 0.1520354084229384 571.7787349933271 0.02347675907802292
0.9539797564892457 0.20181153956752063 571.6821241430906 0.0010075936870340778
0.9555061904689729 0.18585244533465167 571.7042700805187 0.0003367289539206022
0.969443166879333 0.24035471570836706 571.7031446117778 0.006713856015499048
0.9480447366805802 0.2450534984280472 571.6411390708995 0.0063361903408063105
0.9483897687490928 0.2348027591591725 571.6349701796837 0.005751233702099715
0.9540741393959072 0.22970385833491222 571.6615579750803 0.0034799701038655466
0.9435645940220532 0.2505446914939353 571.614380099215 0.007557507846653699
0.9485706325537387 0.2234483977893399 571.6033698306937 0.0014307884357342149
0.9540796333932684 0.11142311973762481 571.7534492939203 0.005767201799875371
0.9491325586934064 0.07680142584897971 571.7636361784396 0.007626064987695241
0.9240807437701051 0.06619219589401211 571.7843518665971 0.07530281054314382
0.9306374018843672 0.05942257126973949 571.7692619939137 0.040120368331759346
0.9536059014992976 0.2179092166179346 571.6793086893637 0.001648876754197655
0.9465910416426687 0.20455033531910308 571.6446701035752 0.0062150318349313656
0.9525593718625938 0.22957841079994973 571.6485124135203 0.0032305019180109518
0.9530119565113462 0.21919900968522232 571.6557853946215 0.007278781321640192
0.9468756562584308 0.20194865073208326 571.6255148105462 0.003951426053443304
0.9605788136897835 0.18970130739855848 571.7632820188809 0.027034987757881677
0.9043580731678768 0.027417386448311196 571.7816961072924 0.07203353112127872
0.7947957181538557 -0.0001737217706083284 571.7757144253594 0.0441864357968737
0.8212777910067404 -0.00469123465072285 571.7797910088385 0.02009275956081402
0.8853533496208983 0.02621419391697916 571.757571483661 0.008855322100483358
0.8664656854751253 0.012008401057517312 571.7746010262188 0.06460338986715067
0.8619572879206143 0.006080035631600648 571.7622070066215 0.009296346199573528
0.8349531902432271 0.014287487056986225 571.7420945591559 0.0019297465152891737
0.8095879368468644 0.0010897208285253106 571.7663007758758 0.05390933373488327
0.8321248749946781 0.008940531975917815 571.7581587574139 0.05074220036846875
0.824287783098425 0.027597713748007475 571.6848810928166 0.004638494321282266
0.7877009675527175 0.029514891350139478 571.6728225529083 0.0017106658760704
0.7997200545111948 0.03998119305104698 571.6516420081107 0.0011354377996164856
0.8170023543483331 0.04190611560606838 571.6426450797029 0.006837307817743821
0.8214388538652312 0.019451114560884903 571.7167710728721 0.0010226741374720833
0.7998787293583198 0.02255490070752139 571.6954637298091 0.0032070393121754223
0.8152955347989103 0.02042476200921818 571.7057659768072 0.0007869133687970207
0.7988123754553577 0.005805416975061714 571.750626919279 0.011422242975325358
0.7832929720480816 0.018365237237010626 571.6962862517018 0.0014922420664338217
0.7890532839183313 0.012336960764948422 571.7219188187895 0.003537344601552169
0.7992171889249527 0.04259200761408184 571.624004737473 0.003849022828125838
0.800845259463398 0.057593726463979554 571.5891320477833 0.003987945131537402
0.8217981274399672 0.06295561795375276 571.5880138540138 0.0032079583263660244
0.8239415238400472 0.06856053056519208 571.570226473869 0.005752473580010959
0.945162156241738 0.23548323343122196 571.5953372788853 0.00635118170962198
0.9428135568699277 0.24244619670358838 571.5902401814043 0.006700885419825525
0.9421982917639481 0.23277955042179702 571.577286823957 0.001166538638111834
0.9360057970927144 0.2241789764023075 571.5598931776652 0.0014096362324707453
0.9304321008359365 0.2403205163891223 571.5315811009561 0.002229684633071457
0.9305496533493737 0.23302318415192824 571.542289470558 0.0021841702447570406
0.9415530835035124 0.2659990735364218 571.52422927869 0.00027235268813987495
0.919284751242889 0.2796131112508782 571.4621325457393 0.00295702762983086
0.9026040027635824 0.2676663485325503 571.4227936549863 0.00015500662846203977
0.9221965636855561 0.26142761524451413 571.4680186363348 0.0018557244437779328
0.9195015870105797 0.24285921059637403 571.4760768622197 1.4147676573522982e-08
0.892939507402241 0.28194081989578135 571.395855245358 0.001626386200545548
0.8056595632664107 0.0982297932927904 571.5024745049412 7.490914761001497e-05
0.8022085088503006 0.09435780303648432 571.5110482545491 0.00018663434059113651
0.7997413429750866 0.11767937826446992 571.4641016117558 4.714330529219029e-09
0.7774783081912208 0.08949835257110862 571.5061554025616 1.8327187654413456e-08
0.780992865859506 0.15085792613415405 571.4002100807869 
0.789035080082159 0.068142041338927 571.5624914744446 0.0049030876431786375
0.7741826711934712 0.06672808341800399 571.5548180546891 -2.8967041020362397e-09
0.7975425760656605 0.16876793682113897 571.3858275596601 -1.5583601997810722e-08
0.5975099510240814 0.1519743372037515 571.7619073945368 0.009065629029708635
0.614996294683219 0.08338621904209734 571.7509021018549 0.003017169522783637
0.6012797259811616 0.12435741124520691 571.7397357055038 1.1555093379232873e-08
0.6397277153250693 0.0512816255708136 571.7484073100235 0.0017040385157751823
0.707374969164733 0.01672263448660546 571.733631592507 0.00046804982969950534
0.6927697165365154 0.022841838161403165 571.7445143865152 0.001050371537023949
0.6809377947199924 0.02813048591444265 571.7341385777241 0.0017011641401945975
0.6692952938874641 0.02862102167048511 571.7518853726223 0.012916615656634295
0.6012846480441592 0.16232528235613436 571.7223993840279 0.0042421718458412975
0.5999390372121298 0.16873982703287418 571.711281471232 0.001691243766844937
0.6017514275872183 0.16943878591175118 571.728439330824 0.003448328354454342
0.6167769616170743 0.11630672466302046 571.6942872080555 0.0004740392752068356
0.6166353488386274 0.09909286164419868 571.712735592611 6.450027135105743e-08
0.660476397160678 0.04712886932872313 571.7156219236595 0.0005420813398780668
0.638154908069205 0.06449251612067809 571.7187044809945 0.0014501559838327616
0.642678186126823 0.06882017287156533 571.6974739509664 0.005596462513449335
0.7209740988621007 0.02161138904875822 571.6992241743881 0.015140651454115334
0.6998775868713492 0.03463646761372751 571.6969550337141 0.0010635233139221546
0.6724463755315735 0.04631265841376366 571.701039520843 0.003631172182194684
0.6083285154161583 0.15967518421151305 571.6978006318521 0.002627653554632568
0.6131899319399292 0.1486366219851356 571.6748556862182 0.002258327746611386
0.605270959529755 0.17324701537348422 571.6824221929849 0.001876147574219272
0.6207235127871007 0.0974318652274972 571.7018742177797 0.005812036149608032
0.6336958270921583 0.08148109392818095 571.6856258539184 0.004293462914624822
0.6555996094477127 0.06615820367776673 571.6878109595825 0.002014533615258652
0.6827656703606619 0.03892974516209477 571.7000679885609 0.0007919123569816479
0.6776321434764194 0.0499860977040449 571.6803829534779 0.005148152549531894
0.6117250143873674 0.15290452482318345 571.6697300380924 0.00048481533933823913
0.6211521149370782 0.16271366117766542 571.6202178743179 2.7304340313933986e-05
0.6119061431865358 0.18465880548134986 571.6419137128855 3.3230576881823124e-08
0.636761553601694 0.09869348278817447 571.6682038996418 0.004437673400741141
0.6379132495403133 0.11195528449649646 571.6367106141528 0.0002583085495648375
0.6360651600305602 0.1254104327920167 571.6275707505025 0.00038463227433150514
0.6218327242910098 0.13211149836454225 571.6567993107901 0.00032376179290713783
0.6252757098435678 0.14358694589721988 571.632766296599 0.00025965843745650316
0.6654668312912536 0.07334581436614168 571.6533836808004 0.0003374119674844651
0.6485685598069367 0.08288787920562925 571.6666735583267 0.0070292559170914365
0.6717584525504661 0.062414586864711706 571.6633026355119 8.105448148835061e-05
0.6371855065680073 0.09290043979304076 571.6710175577175 0.008698574885730897
0.6462574924748886 0.09347228521400205 571.6448544700903 0.002051267912879232
0.6784425937509453 0.054431607200895085 571.6673745861859 0.0003027537390165165
0.6969520907207208 0.04499271285763932 571.6532086302188 0.005100970672810144
0.6887340632746656 0.052162678135159124 571.6218140276466 
0.6226987858435775 0.18870292016510487 571.610722128111 0.002054705309701547
0.6190391151977808 0.20372054939570475 571.6065314568891 1.231895034894048e-05
0.636620863220235 0.1348516634850139 571.6100386620342 0.0012629930614200089
0.646414858315481 0.12510583768851335 571.5968045278463 0.0027255444928480864
0.6833231812591937 0.08508341074874837 571.5976312749317 
0.6244877061727828 0.18943278344375092 571.5804819774935 0.0005778526695212025
0.644847219377594 0.1479725054940898 571.5802968143644 1.3266932472603067e-05
0.6598278714959809 0.11231432197319736 571.5905382279253 0.0005908277678944421
0.6705437926264197 0.09587543190520223 571.6025707008464 -1.986197467779291e-09
0.6317731442966028 0.168248530140979 571.579071281544 -3.0708374786674235e-10
0.6349912437896617 0.17677275980142276 571.5393313654063 
0.6580381090124707 0.13534686784869965 571.549879471087 0.0010881898766655555
0.6926809861119992 0.1053948258714013 571.5458221168718 4.0167399246834966e-08
0.6374996521284148 0.19718528088031775 571.5352525543715 0.008994536661190326
0.6642254621852074 0.14680705940694128 571.5282141739958 
0.6878685838167194 0.11456429239994975 571.5392161832065 0.000813807544737586
0.6426567538097917 0.1894713031162621 571.514344781996 0.007937138962932706
0.6411407939824486 0.20833161910997164 571.5014454681638 0.0027854593582024097
0.6333363499696174 0.21975216014254914 571.522018346796 0.00037028987255477674
0.6524243903610355 0.17962054692094534 571.5030662131396 0.004259361013382525
0.6939611787285722 0.12014102454630396 571.5155388532653 0.000831631499797607
0.6771808212232111 0.13069004979136478 571.5194508086257 0.0017874204206882716
0.7037513901642204 0.12799593074453883 571.4970100473904 
0.66134369155291 0.1773612242329761 571.4835785481781 1.0331863520261628e-08
0.6593862296363193 0.20752427551785207 571.4577225238536 0.000868635520363553
0.6634878109798559 0.21446662236652195 571.4468259685174 0.0034432861948208767
0.6601885148661946 0.2280544338512904 571.4455299107938 0.0020585608020879153
0.7245810574470808 0.1369118518457369 571.4467793006619 
0.6623604856700048 0.25274765615345135 571.4207094682424 0.0012711213345157875
0.6809922440950242 0.18799894212878585 571.4373495130747 2.579594132653017e-08
0.6741048692814258 0.2156936095434136 571.4224417653647 0.0006404916894755426
0.7180379103942974 0.1735116574676959 571.4139176478171 
0.7326918297072929 0.17296101160730948 571.3977548115652 3.576038411168177e-08
0.7004112984460042 0.20702890764193355 571.3822446966966 -7.438713798333329e-09
0.7350783051093542 0.18385728904408505 571.3845015524043 0.00013912094533350422
0.7318049421739884 0.19317085592846797 571.3747210430017 6.687198134345011e-06
0.5960722734105576 0.16100695420859923 571.781616833108 0.09070544509666091
0.619500797439154 0.0727153828494147 571.7873808573469 0.07252432497284761
0.5996770201982388 0.1068547258783453 571.7910029232567 0.02470561867119163
0.6037451858028193 0.10938480605263164 571.7740265993524 0.11011383791026476
0.5929968955944162 0.23220440882377735 571.7715081818011 0.017829995138515436
0.5995169562513438 0.23155762622279308 571.7412287638505 0.008348668240456115
0.5954276480596513 0.18878983723763326 571.7439434005281 0.0029522870033354366
0.5984615824527244 0.2205917645046101 571.7326768548935 0.007454591849518781
0.5974383719212542 0.18175280425797052 571.7496152416873 0.0014681248201969135
0.5938590532929994 0.1906604207416415 571.7542935807438 0.002774304035495704
0.5950023438247852 0.2058992449505957 571.7068902583068 0.0034587602189785735
0.5970092675596813 0.2374805816848492 571.6274556693637 8.901563903625183e-11
0.614773671242159 0.2590021409084258 571.5711031157831 0.004051037186296886
0.6122577442559891 0.22060255891355882 571.605977129951 0.007600723334039264
0.6125592731877085 0.2172039851396576 571.6223774961422 3.442979335450829e-05
0.6022073098681091 0.21736850310050612 571.6761627209189 
0.6022959087857196 0.25729196692375983 571.659582452986 0.0039580689076882765
0.6015815017161271 0.21249779410211467 571.6698756368722 
0.6249123237977235 0.057023533738642634 571.7700147494564 0.052034012372455765
0.6016326659028265 0.13744564879131344 571.7723685854801 0.03695305260370289
0.5919053034356005 0.21381969643765972 571.7623315685487 0.0054259954000866325
0.6553119299577749 0.016640165352380484 571.7785421674619 0.05268649158603987
0.6373449204213071 0.049605544628185165 571.7810781481131 0.0668867044148641
0.7108231304833029 0.006232219336368975 571.7722715508778 0.08985923696764962
0.7691977378106624 0.0002451736744123055 571.7749868249416 0.04417408656027008
0.7159445414030545 0.010385710924865985 571.780165979304 0.09819599166929838
0.7583952791966493 -0.0019638186530355844 571.7808540178007 0.048065308996649514
0.7382966502370675 0.009297022316736014 571.784555536526 0.047506566710055396
0.7203474117878228 -0.0005036254650005829 571.7705254901012 0.05440343905365679
0.7004395227025331 0.013084185745249392 571.7726337337402 0.07072647490527026
0.708093752011828 0.01378783830891005 571.7512845328715 0.012457313131969287
0.7373350687122672 0.007324026306015401 571.7422109446672 0.009962220080675583
0.7378461654150337 -0.005248944521726756 571.7737904106738 0.05344566905994438
0.7482345104321905 0.02933165877697526 571.6830951699222 0.0030273163920036816
0.740156466267699 0.05678242328790612 571.6138460728484 0.0005215488422571313
0.7581430894382475 0.05848700563899889 571.600832400106 0.0008946719531838208
0.7285430431344517 0.02889004537544057 571.6615344557591 0.003833312289456894
0.7465198971282573 0.03864576830141381 571.6460600834928 0.009358578791383878
0.7766995483716218 0.0273931215532737 571.680452691012 0.0049613202158352
0.7720147206359145 0.008715431089338994 571.7517390231974 0.0013208813339572873
0.7549661818469312 0.00798189427546582 571.7529425912778 0.027681154206216852
0.7679133571061306 0.018229193260715305 571.708832115722 0.003198509331443502
0.7672017551031629 0.00963635689371972 571.7286860764731 0.0023156386291049986
0.7712879401740131 0.049747381300627405 571.6240041468822 0.0015578111093396973
0.7724937471605737 0.05402143479128905 571.6105029905609 0.0015927580705753445
0.7840230492029399 0.04989594085388351 571.6097045416801 0.0062634296001269915
0.7719572079448528 0.03460417723926 571.6540827889127 0.0023426619816762913
0.6293466860630528 0.06008573473812998 571.7553901864283 0.014283731300321794
0.6284243584604868 0.2413686845111263 571.5410087463135 0.0005045594153351994
0.6319296358060719 0.21670380186118002 571.5415864939952 0.0010723099328141072
0.6462893078572597 0.24944508296253418 571.4739473731764 2.1333956906584763e-05
0.6385184177588867 0.23639966118191286 571.498741392871 0.00292758658626533
0.6651540910696513 0.25292572049340534 571.4098394867524 
0.6471854626717344 0.2687439839362151 571.4469849732972 0.007835837256514586
0.63931219557383 0.2631220314880748 571.4726686179606 0.006655860297708644
0.6211528956863215 0.24348216441719522 571.5644102709391 0.004984827417201163
0.6251731075647791 0.22467333128041528 571.5660821143628 0.00027343637640548523
0.6728194673808449 0.27482955099390693 571.3758235302104 
0.7699157727768969 0.07492113257227925 571.5429268246636 0.006133025083350922
0.7414273929651488 0.0872822379535162 571.5249030772069 
0.7535083754666321 0.1448555925039374 571.4282775438886 -4.4038395385852635e-09
0.751942265598857 0.11583646141841869 571.4717698431608 
0.7712653647433484 0.1040660357186277 571.4841820182171 0.004756820787854766
0.7777197980520594 0.12424090936902034 571.4431660282482 -2.1837278320175855e-08
0.7503272771169147 0.06761756268038456 571.5682769649155 0.0028256437778378875
0.7233348285655549 0.0710766386337265 571.5586777291761 
0.5967057043570496 0.3617878592186383 571.7454021883273 0.0018850357050031127
0.593457855125039 0.3954181196521891 571.742926875311 0.005441230443475307
0.5958879070424664 0.362919286191935 571.7344029054425 0.007873352681063086
0.5862992410362576 0.38183896981496235 571.7022849792596 0.00024234866973675992
0.6051885317126778 0.3752497600788903 571.6532327108758 0.004464538421662796
0.6073206046039419 0.3739671863234642 571.634986023758 0.0027172276766379354
0.6064224707226644 0.38980655825576327 571.6417804811998 0.003159600733937541
0.6069343276090572 0.3954431846777584 571.6069775751115 0.006494380869631585
0.6060562463332105 0.3813299650904269 571.5776591899244 0.002959237069080369
0.6118845413905184 0.3909065206039146 571.5678844958887 0.006023316911673798
0.6115899023069287 0.40382662997545704 571.5751648260108 0.0017109115969757276
0.616060659151587 0.3897519734474183 571.5466149252803 0.0018638125236348697
0.6210900100151912 0.3824542856792345 571.5272592810358 0.0001256984255067996
0.6208242848545091 0.39795475895997395 571.5020619805591 0.002578495723571825
0.6266978583334238 0.4086424312129518 571.4892966811577 3.326965129345344e-05
0.6321916320205655 0.3835615081333418 571.4440746461905 0.00021815023017233913
0.6467771502880126 0.3979776395748716 571.4176543780821 0.004007258836249389
0.6546097363161001 0.37872180895003643 571.4004560051034 0.00018348527929453856
0.5935403748554836 0.31947503121057724 571.7477016124525 0.004712791237026101
0.5904836144657247 0.3297138400744795 571.758208888499 0.004594083634894756
0.5947211824734878 0.3469814918028462 571.7200859088636 0.0004670850077351961
0.5976452614253697 0.3190313624882099 571.68867489696 0.0013108834412659707
0.5977323284993711 0.3466636139734586 571.6957692461519 0.007234698812672111
0.5965026016710833 0.33707960838832157 571.6820927153335 0.001659265069221745
0.5963100467255569 0.35671119814715924 571.6976333232375 0.00793237365937103
0.5989856256154323 0.3469102673901164 571.6685098269098 0.002185676234395973
0.6056223722473535 0.34523519039176764 571.6457349794955 0.002276302374142043
0.6039462488245441 0.3638574740598981 571.6341832232841 0.004423380711799575
0.6032700455959003 0.3625171790399928 571.6586383730925 0.003091435427622403
0.6099145654801191 0.3424008024630771 571.6152100025087 0.003425618055856302
0.6062822683037842 0.3666934770763674 571.6111030813107 0.0038377022191397113
0.6136190436103184 0.3483575326568066 571.586585699988 0.0032801379952108593
0.6110601643311361 0.3609494223966056 571.5749015774711 0.005402598392274389
0.6166293733700777 0.37306143426238414 571.5467595631835 0.0034470692367058126
0.6194702269072442 0.36147345406836484 571.5138839950723 0.002800168903973911
0.6213867729127375 0.352329147979918 571.4836785786289 3.701007903537983e-05
0.62280852800964 0.37178298867852483 571.4895567208688 0.0026556173937018882
0.6425938505218985 0.35103022461713385 571.4301352001735 0.0005676915194891775
0.6422375885048858 0.369029369721216 571.4281313255642 0.0015599132273133982
0.5925768934301087 0.2767788146077531 571.7368346010884 0.010903281551510775
0.5919212637180343 0.29422912439091425 571.765136099412 0.00675573392198236
0.5890874047960087 0.29360296945905445 571.7313594414536 0.002352174937827206
0.5951414520383771 0.30311633888310413 571.7082723292737 0.005295133239858421
0.5930663612851444 0.2899369664101182 571.694652323319 0.002665604399506975
0.5997543284980618 0.32091661396598814 571.6607713400173 0.0039463378361907385
0.6049236616751629 0.3148255999449647 571.6267772163296 0.004886885165136384
0.5982493395601994 0.30939846305566493 571.6415695237935 0.0016770093324515382
0.6095932884015678 0.32357875587818724 571.6049409988085 0.0025530629991416635
0.6086836790050918 0.3116183852520266 571.5863866616761 0.0018897414356003467
0.6116640839102576 0.3313323963769977 571.5750796390015 0.003873294730549138
0.6198680794357436 0.3187092030742503 571.5399427213957 0.0004342996653692616
0.614523875955517 0.3350765588261651 571.5531580747712 0.0024758153311129115
0.6242062494903154 0.30390716988704236 571.5203709032468 0.0007415993887447866
0.6243183625787648 0.33509378618188684 571.5118144121566 0.0029912517132763285
0.6306712836641857 0.31633526809993745 571.4920391510653 0.0070323127669199665
0.6309235237756059 0.31251686301757825 571.4847667865935 0.0012023430279894758
0.6416365666172719 0.3182757476059998 571.4449375731032 0.0013357395544925708
0.6517850056341783 0.34972916486561983 571.4053107553132 0.0022777577723880056
0.5908600082362337 0.4232204156854075 571.7294186549071 0.0036106225549990796
0.5935166267824851 0.41688116922035434 571.7300632827734 0.004545967965194602
0.6025378180407969 0.4086300084911742 571.627405620861 0.0037343992718873
0.6145148295430274 0.4153570770531728 571.5814051951387 0.004852897394449622
0.5979316759236062 0.40690192795602165 571.6755934665188 0.025363832289140773
0.5919750444568965 0.4347630740826325 571.6699349419581 0.0028103454454565958
0.5944133207042341 0.41408282393731227 571.7589574577182 0.012113139829716811
0.5973800621744905 0.4057480151342965 571.658673918337 0.006999274826266931
0.601304756507572 0.4190507895331843 571.6938221676762 0.0003839700451575618
0.6113332736354328 0.44002870623746926 571.5385354808617 2.1362359053505674e-05
0.621216657220388 0.4366255406990283 571.5074003838085 -3.922122558996769e-09
0.5919128209610244 0.42875277752568175 571.7839413911173 0.034453733112257495
0.6437509104868907 0.4240724949303904 571.4218144583613 7.27906817003509e-05
0.6486037528952978 0.42820140495016235 571.4121409061372 4.005421886290806e-05
0.6656482294367295 0.4266592988762554 571.3783832638095 
0.6373957069418993 0.4335730494519216 571.4606322192614 5.942580725967311e-10
0.5891873587993114 0.4000234670502114 571.7564713291557 0.00391726021559009
0.5952555458592024 0.3866984558955676 571.7685817529975 0.07010362964244522
0.5904851500729834 0.39916829002305426 571.7656510409628 0.006051948337758398
0.5966044054874041 0.3721466966092168 571.7881129127865 0.13835558732511952
0.5929405194721421 0.35596947632092113 571.7816373323205 0.09178044394445221
0.5960948668994691 0.2823248952764495 571.774138844179 0.020678275734108496
0.5981156743469891 0.33016082349292136 571.7892537265395 0.046103611805121514
0.5953471427865833 0.3176597765754622 571.769033033434 0.04497586217467232
0.5972523382233509 0.3187337843696525 571.7863464633226 0.04389773660230011
0.5983158394997062 0.24053803855697972 571.7313363026557 0.008000560316897262
0.5929153203285357 0.24132823217405844 571.7134186349247 0.00020619273949989525
0.5938750917680652 0.27084978496902556 571.7188371378542 0.0055628124655739295
0.5938811981036345 0.26578265970681736 571.6800564508349 0.00020789453078806376
0.5947253558353475 0.3023669722793619 571.7639024972383 0.005126648414722796
0.5875057460582955 0.2653518346923379 571.7589264611943 0.011301515555875384
0.5915569796777563 0.24984211804505502 571.767381343997 0.0192642376145253
0.5900164419423806 0.257719787504982 571.7703191369097 0.011040295706552938
0.5975060530598445 0.2827432390825813 571.6667578168716 0.004910492539913298
0.6018705566053814 0.27026223341079353 571.6544237298576 0.0012932198453935318
0.6086650322046632 0.27855076917760113 571.6192942064205 0.003928135603005687
