x y z curv
0.2813008943973586 0.02933724938443187 478.5850500590696 0.060889217392155325
0.3472184372757696 0.09814000945349613 478.5935857154167 0.054412298478977446
0.32076831061612254 0.06664387323531529 478.59321570419337 0.04668688295909535
0.2703873626134272 0.03054342504971173 478.586466130616 0.06917181882659891
0.36453405171290315 0.17425309907271383 478.58756683102416 0.12896451061913325
0.18086321374043662 0.000862781855391869 478.5955707086506 0.0007688776974388861
0.3641711845553486 0.1901439613132636 478.5943801158537 0.12290354352896221
0.35772760205796605 0.20579044117553674 478.59473491673634 0.15538318964392314
0.36460498088230653 0.2256718191296312 478.5987021746806 0.09063229910987654
0.3117211570055994 0.4643387270661595 478.5980859661649 0.0002873358375564119
0.3221744505628831 0.39706341382878674 478.58837963624865 0.03425103050057669
0.3076093220026441 0.5199069183563877 478.5938894364035 0.0439591081697928
0.2357744371752635 0.00483552197509921 478.5824200801954 0.06391519246384549
0.32737974150235205 0.34248435331863786 478.593643347916 0.05680234693039128
0.3391648392577078 0.35590770401615257 478.5832103914155 0.11912095692038305
0.320800413487529 0.4727525956290749 478.58272790500837 0.05015064045190392
0.309261643183178 0.49673354449306684 478.58461835423884 0.08118969629388034
0.030858553895661046 0.35300624649753765 478.58897699229607 0.07996197494548654
0.003614056574422405 0.15317548049911991 478.59215017333224 0.11289284719353432
0.00179331937971783 0.2598756125154394 478.58199988888987 0.05884430538289196
0.0015953114627896645 0.19687861616558092 478.5886528726285 0.09661996031522332
0.03174081168976155 0.07859370085576434 478.5819512080823 0.052773386738100926
0.026508568961342238 0.08987634435346788 478.58208700949933 0.04486284322534834
0.3040849215135313 0.034762572897834465 478.5786119665503 0.015380424716169757
0.36010923745086676 0.1473744441710738 478.5772186140565 0.09250355609130362
0.35182361957245606 0.12273177377214775 478.58266541636743 0.12402070961271297
0.05311586076128787 0.4291459452062999 478.3267221745609 0.002584452669586696
0.04975629042632544 0.41517970265791565 478.3266424156945 0.007520913607898447
0.10173830228310897 0.5254108873874556 478.33974398129476 0.022983683287199415
0.049701061331247 0.5026004838470635 478.34487326894237 0.019923694383306125
0.050734914034668364 0.5291095706943117 478.3371961322336 -2.1030944548565093e-08
0.06403413790316445 0.17454390409106157 478.29363928886795 6.107220730510625e-08
0.05108333030334696 0.31492520644279703 478.3091227017103 -1.978687321874624e-09
0.10618571949916564 0.11776667713959914 478.28656844845125 -7.040234463862298e-10
0.31012435572503955 0.2982322212136389 478.30733631119637 0.0007586641379490169
0.32019777451125614 0.28839020292036116 478.3144479733653 0.013454085865361728
0.2772747405763154 0.5299443722265805 478.3351384267724 0.0024718944796879474
0.3111245457126627 0.48927324753924967 478.33258549340377 0.0007510727424634282
0.3082848654465475 0.43837084208607063 478.3288676509741 0.009527902061365478
0.3064476370287255 0.45085773825349645 478.3271895491686 0.0069203788760516275
0.3152905432967949 0.2322568112868476 478.2996177735425 0.004028662703865343
0.32567635847249876 0.25165179275494404 478.3131419850993 0.0011236858979508028
0.30736493642061863 0.1953931892640292 478.29513371000155 0.0038582103330520438
0.05383379802241792 0.35365547194582364 478.31508797100986 0.001197146458997739
0.2508084361458466 0.5387810503175021 478.56955892660903 0.0026628920578309705
0.19489562830133067 0.5370126913811487 478.5772107596638 0.034197081922266045
0.28270136622796993 0.5326688483103895 478.5880011898861 0.03664158467572466
0.2327009666957564 0.5218911837282925 478.58861731191456 0.025719244544783634
0.1900213822506408 0.5312223479305291 478.58706165660294 0.0065471086411020415
0.18021275491384103 0.5291276425458754 478.58409902866845 0.03285725727501447
0.20805352301266442 0.5163284094956893 478.5905165321215 0.008131867116909917
0.13964550213878987 0.5210806879533636 478.5949723863104 0.0419663517865432
0.12333671783662714 0.5295523952198461 478.5721091210138 0.05270576278108202
0.09083467841461768 0.5379210403640533 478.57970248339234 0.052193853976952566
0.2866917214374556 0.5260814070269412 478.4982788573222 0.026862796062888477
0.28609952369763003 0.5278786640456337 478.47543178457335 0.009975728084001368
0.2500791980881291 0.5291876415102719 478.50341084996217 0.006547045072740568
0.23611549837894963 0.5301544031643983 478.53142092819957 0.0004359936850428022
0.3063459549161697 0.5302644172127977 478.50525754998966 0.023427825692925997
0.31390869430106244 0.5284482171914682 478.4922547594215 0.04219774795001865
0.20365419590503583 0.5333816918837014 478.53913418308605 -1.588809444595181e-11
0.2631490274595126 0.5351448993711351 478.5379211441755 0.005521819324962459
0.22987524425650904 0.5317057314979499 478.51396594781056 0.005110388915745365
0.15516311306709407 0.537879741799552 478.557139049582 0.0003126876554795289
0.140826597752599 0.5304237713271802 478.5742950214821 0.012616798055214231
0.24902019501208641 0.5340949599949661 478.4643029349982 0.004946059199543322
0.1048949049806997 0.5322306393190194 478.5419437391578 0.0002986971826152237
0.3025935375837334 0.5326039061224203 478.4602654957854 0.015641732662194284
0.12525569248313684 0.5304771344126592 478.5373514283308 0.005226468441462056
0.11750169362322506 0.5293126773581317 478.488117357534 0.0028544471437177386
0.20081139694907216 0.5281247601423527 478.4178362578526 0.0029729133328948443
0.1870645878830956 0.5328053001108096 478.38920753481415 0.0019213749761187678
0.1991587099398712 0.5288351779701383 478.4955147450892 -7.762716308547072e-10
0.16183369907876924 0.5327140725006543 478.5263003485285 0.0017279697893672406
0.16916585638301357 0.5268404012041675 478.3725956675221 0.007514749114164624
0.13482859367438504 0.5279540148094662 478.414681888373 0.0023006518562377885
0.15406595609174342 0.5312669670224321 478.408334797661 0.005137951030083091
0.15339672207995178 0.53246535624266 478.4377074764673 0.003374951993220513
0.13768544118467452 0.5340569540567784 478.5181495492998 0.0001538584202280647
0.2973648521678552 0.5291333588553282 478.4701267654293 0.014174250034240027
0.11359409558535043 0.528235096905968 478.49972157958746 0.0016362026386627815
0.26052221206562065 0.5330225265278623 478.48304028756564 0.001817652255183723
0.2415469244536754 0.5341458831532747 478.47841662343666 0.0025489548128401563
0.09254103470823366 0.5330197657415497 478.5204365695598 0.002126103957938502
0.171117689224574 0.5284172861364969 478.3881054682248 0.009998644473800559
0.17470251093848596 0.5338915481061727 478.45408648186867 0.0028560410883864073
0.22541147523336258 0.5348280568703773 478.4316846192992 6.351233048331106e-05
0.16647166142923997 0.5281281722372542 478.41775650945294 0.004524656064650989
0.19286037964072328 0.5287145119808074 478.4395945062295 0.010998597287557667
0.2801701333481259 0.53029070380887 478.4556440244787 0.00865619853766956
0.11608659139964032 0.5315507433512511 478.4482603827753 0.0011652950425821854
0.15945773866189716 0.5274007040255588 478.3497135590678 0.025633675315383915
0.12762984070657007 0.5288323050759096 478.44734340986764 0.004080359817037591
0.16880739849094467 0.5335591556035493 478.495013300584 0.00021338445791720093
0.14374807139619397 0.5311086487553732 478.4986389640495 0.0021441319825868887
0.20390981254959123 0.5289240177716571 478.4211867511039 0.0042450178536611715
0.1336535151582619 0.5295852858067649 478.4426809680166 0.0028671165954647342
0.2632837704046136 0.5300362124539362 478.4429107350771 0.001062671386417763
0.25808795759366193 0.5335270598230254 478.4824308534384 0.001547260883939834
0.19456994739386124 0.5263651435353337 478.4650119530887 9.268571724641539e-11
0.10938296335859785 0.5320528262430702 478.5514231666425 0.003949659673449407
0.23897208589739755 0.5344164980905737 478.34426386577456 0.0008423120408690203
0.26287905805580863 0.5320795661635657 478.3441039844472 0.003919120719339635
0.2575081677266482 0.5326661583416746 478.36210810526404 0.00014204445011401577
0.2070014101368674 0.5291251212161383 478.3523977363214 7.236455849384027e-09
0.29543467887710245 0.5215738917220126 478.33744188813574 0.03229905966748475
0.18757949445813965 0.536126809898682 478.3385995078565 0.00035300526696699006
0.3172245787985394 0.5262582331058181 478.3542446920934 0.013005380692761444
0.26993586593591307 0.5280587983403815 478.4175721438526 0.0009505598602480891
0.24433171314782776 0.5352499921028768 478.3662439094658 0.0003756634556804917
0.3103471641337515 0.5263708236670143 478.4065564962139 0.0671315282137496
0.27398704306968613 0.5333644969516712 478.3753876995648 0.0002496583857610595
0.20494769631153323 0.5300201170546953 478.35772966146493 0.009330343363762561
0.24160770829335784 0.5367096577459515 478.39484321679146 0.0017699433942225122
0.31610117055548176 0.5297719446541007 478.4338574248954 0.05575502236339503
0.28724181116037717 0.5287729211353391 478.4351220751118 0.0015960143338142442
0.28071378143744624 0.531771504666147 478.3771218280952 0.0015944478720460132
0.3013542318721334 0.5282083437443701 478.41870339119794 0.16737095325491905
0.2975160799098051 0.5328571864027712 478.5485435416457 0.045770452328140566
0.2734367292203238 0.5299042465946187 478.56326711914255 0.06962387148142575
0.11598770361011275 0.528317859880877 478.58939873210744 0.07782784583007632
0.28879059404450863 0.5302196242210059 478.53630133171845 0.017684710635507177
0.05456049206710245 0.5257602780798672 478.5894696451594 0.013419554637518425
0.05496631525273966 0.5289510566613858 478.5576027317589 0.02951424874912207
0.09668068759499217 0.5376214467048476 478.40077960864147 0.00028171730487349896
0.13052054286512862 0.5313458332296496 478.3531237642017 0.012345780339856612
0.05394253363740208 0.5342738717273503 478.38599622527516 0.022679840457493064
0.10797478160460247 0.5313257318128443 478.372516712834 0.013574009428723832
0.06642048203023926 0.5310755017881045 478.4180294542916 0.05074188137720012
0.06056715364994627 0.5298980501394471 478.54025885076805 0.00991610624109227
0.05367705752230988 0.5223396283156093 478.49023838357505 0.0394553255723699
0.06248749697606984 0.5282114419476532 478.52376011198567 0.02050039384223586
0.07609356282982858 0.5316547971471594 478.4722379379268 0.01048911136739318
0.10881192780941777 0.527668783152781 478.46245018306234 0.0008954488450463939
0.07160846373186545 0.5283972837477908 478.4317634152891 0.04012665600546892
0.0560388117607747 0.5299142205540949 478.45814238368865 0.03135483922461013
0.1416463281868539 0.5326897102851478 478.37316236545706 0.0010530405855824787
0.0767253965887304 0.5321437616818 478.51255183161135 0.012447523501431666
0.09445708611083102 0.5291966318777754 478.46988177371276 0.002007398627546138
0.06950095715944196 0.5317717622253907 478.47736139807535 0.05705475719762072
0.11050422005024849 0.5318915849149085 478.40162687622325 1.8867965668221805e-06
0.11720950666662526 0.5306833050645526 478.3925681708964 0.00923913285365714
0.13157695578428671 0.5204549568075055 478.33455543756276 1.2322133174318622e-08
0.0930607734267057 0.5373468906379747 478.3543501682769 2.0518768527321184e-09
0.32905056958157247 0.4644496709440997 478.43838916464665 0.0034380481096454416
0.32841617147222846 0.44645753883958234 478.4684555548654 0.004904734585103051
0.3197610866744179 0.4334661649240336 478.43654686913135 0.011310464159388954
0.3289707744476624 0.4092984391255788 478.41539192629676 0.00043197160739477663
0.32643810993691436 0.43022886124859355 478.49878249249196 0.005642154997944721
0.32480776104673614 0.41456894074295786 478.4673967606344 0.007984031302790335
0.33547412862076637 0.38329311753536044 478.489428038479 0.0014297530275825497
0.3291535541890669 0.3973558383812524 478.4912170444459 0.0002978753799398169
0.33397052020176043 0.3761468074634754 478.4551639985825 0.0002590007821316655
0.3327714887691895 0.3916956763513819 478.44439739745985 0.00042100094683722537
0.3314852584224579 0.38643122424369736 478.4348635538185 2.0279584140624607e-06
0.33842302851265005 0.33950788314359076 478.4388045810688 
0.3370830390594148 0.3670534439233417 478.4867275693794 0.004054557693814582
0.34311516452356167 0.3417764666961764 478.47495889963676 0.0007953153631771578
0.34014153146519743 0.29995514848466387 478.4591747834772 6.284071660679516e-10
0.3331180593707034 0.29327649165083336 478.4200646318046 
0.33595207932045074 0.30314244435227555 478.4231855651106 -3.172761692755185e-09
0.3399110625930466 0.250972373230463 478.4345202703294 0.0020224065176137
0.34020416157389755 0.279682379723664 478.4691770597615 0.0011638631906445104
0.3450879058014887 0.24605873056950003 478.4666847709936 0.0014894552246379137
0.34164403388338865 0.24043486790783394 478.44865459758483 0.00024075673231586838
0.3404850101213282 0.2986171964972589 478.48362008453074 0.003656938051151954
0.3363972693993387 0.21140410356066627 478.41300711270776 0.000612036391488786
0.34442350558122264 0.22679991511454475 478.4382424513889 0.00010609309796917261
0.3304860760881966 0.18286377688336475 478.38663817378773 0.009191379231564108
0.33629190633883416 0.2459393482230604 478.4117203483683 0.003159957305290571
0.3518771129911278 0.23328663853562162 478.4857330248087 0.00033294544029869043
0.33704530142637 0.22029479091431095 478.4135030132261 0.001190364569676704
0.3492295280863016 0.199900747164401 478.46969030635046 1.0702283243674428e-08
0.3401070221208382 0.18349572878008233 478.4194678033592 0.00015488722441288764
0.34529708627903244 0.17181474789582146 478.43357075869756 
0.31675140382954037 0.14623666636899374 478.391011266786 0.001454807837613886
0.3389985346440542 0.15036365031979876 478.4755333633637 1.1204318158749434e-08
0.3191240358822782 0.13487792609620058 478.42416500924816 -8.955825567055318e-09
0.31207675865885537 0.10730702657925142 478.4330711939723 0.00883686068278652
0.33676511525021846 0.13564233470509793 478.4740031558989 -4.810334979041808e-10
0.3215964723322329 0.10862394563862154 478.4493877295862 0.002352898960101995
0.29336787314704604 0.109200394128916 478.3882684533072 0.000996273885830258
0.27646014478284664 0.08320445310128412 478.4062495988151 0.001320904698062052
0.29803021387132855 0.09871755912161499 478.4151491070933 7.712086089983832e-06
0.30674705123130974 0.08680225369232326 478.4638934543141 1.6479047754007176e-05
0.28182385449208763 0.0824673481360335 478.4201646190017 -3.454920470816338e-10
0.2786847421267718 0.06840430157262048 478.4539889600481 4.103401544611154e-10
0.23145170960135328 0.0346337433495883 478.47065345095757 
0.05781846811935113 0.10693162270992097 478.42203318641276 0.0015364714317652082
0.056315082556811634 0.09706624051121993 478.437754357569 0.00023750211227996273
0.07856403269164876 0.075690284488406 478.42945139301827 -1.5417479713856646e-08
0.07676030112190678 0.08387507696748991 478.41560352814975 -3.4286178309917316e-08
0.08403679387080468 0.06370817456103403 478.4681812423342 
0.10444426334860343 0.04403323154082867 478.47660510506057 
0.021560911134381897 0.16040127631431164 478.434828542479 4.24353187853321e-11
0.040399392435878465 0.11633471087631982 478.45289933666027 0.000843330259109905
0.056409911308835124 0.11908839357899588 478.40603917365195 3.3693383355679536e-10
0.0353410429345116 0.13134133303685552 478.44910928620345 
0.019832418276273717 0.23152098577302527 478.42527628002046 0.00010930317287551025
0.028829166988027552 0.2019126327757756 478.4023661273085 0.006022847603050641
0.02285034336538264 0.23729425072621552 478.4192608393918 0.0002464963641522251
0.017085862436841896 0.22456197631212685 478.44385368954715 3.277768878997996e-09
0.010666607213465983 0.2386328719036561 478.48468178351163 0.0024242393578016723
0.019111535220136547 0.19772887545971848 478.43700026668347 0.001187156807976773
0.024585087524124687 0.1778360479784233 478.4304628150874 -1.2216695766626542e-09
0.020999295103721456 0.27254098272025934 478.41154433659966 -1.533922728039493e-10
0.020710151174073863 0.29560020533457104 478.4561603804494 0.001695928012121021
0.025358612376305132 0.3062417275417784 478.47611210520864 0.002963977357478858
0.017349510855890746 0.26600926384037693 478.4644481229564 0.0022682466845203877
0.02343325961277036 0.2737687351348407 478.43606220725553 4.159942783197625e-11
0.036883249110351915 0.3878850030699454 478.41363121717865 0.0003613266624354356
0.03087444110565767 0.36342871587512626 478.4428784540356 0.0023374466321344654
0.02823944397234609 0.36999362425370114 478.45694575847756 0.007487243947785501
0.0271208284937859 0.3371378239573259 478.47143790690285 0.0042239558462004705
0.027040086391976758 0.34759679145908107 478.4802521918385 0.0038610428192362776
0.02924729192777588 0.3295691093620645 478.4436788895867 0.0018973027822562795
0.022934179496700853 0.36139411083958356 478.47050256524443 0.0004844336615708776
0.028319812611833084 0.32068697348540465 478.4752226900476 0.004400780640089927
0.03854213662070848 0.44480436003395224 478.44400943487835 0.004991819604975454
0.03476183379457157 0.4330671308438098 478.41810527964157 0.0023281768147164266
0.03914197577867049 0.4301986180803791 478.44205892563446 0.005164658062226853
0.04246812203614608 0.4596798333917595 478.41810470479817 0.010102118057093393
0.034754567277053436 0.40733491273066413 478.437769613267 0.0002769136403718442
0.03745538818196464 0.4410962978263236 478.4644665611184 0.0020475609669633648
0.03426183700503017 0.4130448316599856 478.48552154522775 0.0001222199224445283
0.03044472952833513 0.4040359905351173 478.4864543568319 0.00021312688475390277
0.02533755280644523 0.3800997310869717 478.48027724486263 0.003821078352043068
0.32616340832083446 0.45855453815432534 478.582726864303 0.006050292048185349
0.3218601562682735 0.4573280065462406 478.5542771727963 0.002062979128550879
0.32823884398651826 0.4703695430378981 478.5153019877418 0.00046382079785737564
0.32170855586392394 0.5146799088130352 478.5299512981309 0.0341765222598088
0.31957111930358867 0.5009860397091283 478.5318001853243 0.004780641228122741
0.32113090944714684 0.4804118759350452 478.5569051526015 0.009109724926568998
0.3171925047215634 0.49830117426335613 478.551233277523 0.03459220025790919
0.3213478216024207 0.4642780642902517 478.53758167680184 0.00545943371930172
0.32393919713618247 0.45156741819320084 478.5082647943308 0.007114390631159765
0.32375520337679287 0.4549130756665792 478.5323069648239 0.005525898351007966
0.3362951254613848 0.41475149548091206 478.57440853689485 0.01128954607702673
0.33427684556037995 0.4021266780608242 478.5471572833953 0.009659611819765374
0.3296269749923031 0.42130122152144955 478.5131809807092 0.0005338865432973882
0.3263828190065628 0.398065758231164 478.5840316885563 0.06474270551485019
0.3156204428790309 0.5160343407554356 478.57666322515036 0.04462277849683088
0.31435187108847046 0.5223913635941716 478.5545031367096 0.0513005142953181
0.33521133559830846 0.36905529883912214 478.5690667223304 0.02736928953611221
0.33545369612951415 0.37025835430809917 478.5494807686711 0.0027369914139847968
0.3358714093731616 0.354054857998568 478.5104978666756 0.002210127475216699
0.34395138530327446 0.3421763782419649 478.55492968656876 0.0034106832854163944
0.34042799847254074 0.32740507394269314 478.5107030185664 0.00472437599541011
0.34068072945968925 0.3523378986776296 478.54144892717073 0.004393401417486384
0.3445834863346055 0.32911966143297916 478.5274215350517 0.0015121837127304721
0.3420683132706896 0.3455887414125197 478.5381833241045 0.004234383683743399
0.33696214139939873 0.36873384262611325 478.5282491159018 0.003001910644123961
0.3428677643830643 0.32508397593735905 478.5511270719572 0.006241140716787878
0.3413870756695366 0.33628184096679203 478.5820202719242 0.02211081877215346
0.3412069016824101 0.290655007074247 478.51492404483247 0.0009563855906215703
0.3493489638662718 0.29345736937373573 478.5807607033583 0.10364048700887526
0.34714959584179556 0.27193196481180765 478.50058308660397 0.0014889593083317239
0.346321417980527 0.2774239561178232 478.51897252015243 0.0023188362903318843
0.3543479357298531 0.24568638515198585 478.53827981795456 0.0019480871206970039
0.3468536577659845 0.27179590098286366 478.5216594867626 0.002312007056748535
0.3497729432246255 0.24295707408292574 478.50561389162675 0.0051106649306798205
0.35686723063129616 0.2524267783454145 478.58959341115536 0.10178498675002348
0.34681727927975553 0.31585725580274754 478.57960962417127 0.08589472281457947
0.3424515725353268 0.28872187514269754 478.5895592133968 0.09046423781880315
0.3567901289340355 0.2796637506498236 478.5637707182743 0.007323980348317429
0.3439347230823316 0.2993970959790224 478.5370286417997 0.005551720739709115
0.35752375786993623 0.255967832189 478.56444600518876 0.008446283265472991
0.3617949312945875 0.23412371286539646 478.56732388997733 0.009759912268167003
0.3632094694211298 0.2258605141841348 478.5390303960865 0.0008606794904655327
0.36018770446033277 0.2160325022955637 478.56697848290037 0.17004931987569752
0.3611316721009438 0.21427581666131568 478.57729384833647 0.22703459668833237
0.357014526808445 0.20259354974942803 478.5345585265189 0.006868583038738356
0.3568715933380453 0.1945735291725705 478.49697673057926 0.0006647985060561904
0.3633422216882955 0.1780135419708436 478.54513101426835 0.001188340683372576
0.3504971882644525 0.1617585342361221 478.50253585951145 0.0022846136523265075
0.3585936395219305 0.16678584755368153 478.5567528819373 0.002014084990963287
0.3517726670822492 0.2126615788969988 478.5026715807013 0.006141950305721709
0.35075104360283466 0.17379562212631133 478.5022386762654 0.011119007401371615
0.3618164774392095 0.19041549201162306 478.56612481145936 0.14631282653243297
0.3593298120675739 0.15363632738788824 478.5645381438296 0.07206198798613955
0.36192495627793514 0.18410501338323257 478.5748179937231 0.13488966042627498
0.3597394922621021 0.14048737543011675 478.54935335904423 0.0032806522021843663
0.32813871567174335 0.10872093164843331 478.5013738461674 
0.35256228951740565 0.10791220617287034 478.57129018707786 0.057544105119038916
0.35821111880641276 0.1385895328847124 478.53061206129246 0.000526365367347804
0.02073670016650587 0.37856444945494266 478.55433749527083 0.0058927864759808005
0.02834034243848533 0.3856550610521749 478.5762690872498 0.012093231792044572
0.03735457295560811 0.4282634781739459 478.5643040560475 0.006280244288673195
0.0281274119028372 0.3934753379218984 478.51556327946696 0.004019612341175764
0.03035923398751611 0.4452386787193049 478.51784927159645 6.537901819679319e-05
0.03877720900861985 0.43221788139693745 478.54364778604446 0.006066998864274165
0.027370174246338922 0.40457425653034684 478.5343377084477 0.003702121910274466
0.034526258620638635 0.42015558252035445 478.5089309455813 0.013696672379518722
0.010478334828546546 0.29210679251558824 478.58626171072586 0.07866810468132031
0.013602818205778052 0.29693855752693765 478.5576592758698 0.03941449499211603
0.022658283052165558 0.3423793640561919 478.55051615666923 0.021558573477508617
0.022850462934720803 0.33445368769662287 478.52192563184377 0.005347547668876827
0.026321705781266247 0.35945931387796376 478.51258519512305 0.0020221384183832015
0.019322479543805983 0.33117441623479243 478.54378366811295 0.00543866970644415
0.0266527120207824 0.3504794080258257 478.53009400736426 0.013407717514362028
0.025320219714744404 0.36166457838977745 478.5537592304081 0.018514623792636024
0.028501252166356073 0.359582047415396 478.5617984189143 0.01776829828464755
0.02603426781545249 0.37172706828843316 478.52985991259936 0.006739142355182217
0.03288967212727506 0.36821997786350663 478.5796403039576 0.04427623469776174
0.04441540837108973 0.48843363904737563 478.5764400743059 0.02367725697583015
0.047375658331417624 0.5229512863292992 478.54908405467836 0.016856178544210298
0.043853154078546216 0.445422486703847 478.5919843914977 0.07135806557906277
0.034420916866897404 0.45551450962793755 478.5352453365369 0.005993194731033448
0.03373408512918892 0.49988537253941256 478.5463103321832 0.010147330358757317
0.03580974715559658 0.45132297893911105 478.53784898400994 0.00506495829000132
0.03741543687464867 0.46230200727075715 478.56593389015427 0.01603811374992892
-0.0036646870657918887 0.16542023828363553 478.57788108816317 0.03405760557056019
-0.0023035643780128126 0.15745874970150303 478.5714844640735 0.03493007624225157
0.0025864312422704747 0.1623701202681508 478.55466689660193 0.014404181783316514
0.0023182973452645387 0.1773886658842965 478.58444599381755 0.13374121127549835
0.011015135691769736 0.2126869927570638 478.51139738372 0.005179308855870462
0.008123333828473774 0.21186059773346547 478.5282187803577 0.0004367039296403404
0.00515658436930278 0.20670452593498284 478.53343986862586 0.003725652004188222
0.012393416873728946 0.17004010237728331 478.4906366627463 
0.002612513999496314 0.18956828731627315 478.5677857666339 0.14200992223718836
0.008254075451898903 0.1857559726078114 478.5008357553597 0.00019667811357749346
0.014369789972962725 0.2200258119719752 478.49821068187157 0.0038498568163024215
0.001300712145596795 0.18845742085377493 478.5412784350922 0.0012284050408878674
0.01823669526379674 0.11624714287689811 478.5406193204165 0.013274490315330371
0.013489047432621856 0.13172594838255686 478.5210134706216 0.00873796949890855
0.04606369921595713 0.09783264276406713 478.4854804350123 1.7799740136217398e-07
0.031135377379235017 0.11908685750809118 478.4902764966965 0.0003021684466206935
0.03588271749108269 0.09870774153438697 478.516014944569 0.0009246160275172292
0.011614249813787962 0.15465259003276793 478.4904864973954 -2.366461351730582e-10
0.02594248337724805 0.08584478687122236 478.57487083324366 0.04920373119619154
0.0025197968336842886 0.1289973593537688 478.5557247893206 0.002339210970990308
0.012733601476482902 0.11984056365566675 478.5766374824421 0.14046600473032017
0.009040341243687902 0.14593788450041623 478.54208517922007 0.01393502126637977
0.014559936718388468 0.2983073595809726 478.5718332676209 0.1402239174869103
0.00841040583552279 0.2724509971369219 478.5647415125269 0.026840759595270977
0.011643967147773087 0.25373168453548645 478.50691583382445 0.013728982353273075
0.006160028827995535 0.2758609775049287 478.52698791935717 0.001709162175943775
0.012392887118261798 0.2459580012977013 478.5042068793036 0.01022098401273395
0.006825298922480504 0.24909945903866948 478.56133725471574 0.11257292900943844
0.016803119071571938 0.2755056430767633 478.49823119243985 0.0054566673536086355
0.012587031845849143 0.3034014557063286 478.53074042377114 0.0071668315033779646
0.011921148516533597 0.3179235154101266 478.5460783322922 0.001903502676906555
-0.0009562016754087379 0.22120354156979632 478.56708327322156 0.07928581873608546
0.008794425398702541 0.22895211311639976 478.54285830891035 0.0020034717626210754
0.005067891668553079 0.23648756447045227 478.5755262489357 0.16973840255301798
-0.0028203366381379233 0.20882485054292133 478.5789651521038 0.08678481463026666
0.3304450220178168 0.07972621638925972 478.5523464840159 
0.3183139195939133 0.07176569081711638 478.5150339574767 3.496220637660855e-09
0.3213992962772031 0.06689563322876714 478.5575602678237 7.594766060013028e-10
0.31894451904295273 0.06981248920671668 478.54160270697685 1.2087061079128359e-09
0.3208735201674335 0.4875626277620592 478.5124866698321 0.00492155559716532
0.31691521033464687 0.5190641011870043 478.46368089940745 0.1018635137748509
0.3217422578245685 0.5098451075789313 478.5001526548467 0.06566311796339798
0.2934316819850853 0.03580317826843823 478.558486852 0.07540399160456468
0.31642266671582414 0.08575828505365166 478.4881002576572 -8.859585746531873e-11
0.28526296349783575 0.05354770961301491 478.5038872509033 
0.2708270242463996 0.05170565113695033 478.48560778947996 5.118153611540634e-09
0.2621956978896159 0.024501811901732472 478.5425838793064 -3.6523008754010285e-09
0.25241711262506783 0.024056509438369393 478.5308302603688 
0.25476004109010447 0.015313698523605635 478.570923901202 0.009501817902389019
0.24650180667870666 0.03435270233575472 478.49319738575315 -4.193172608403739e-09
0.20610586979828913 -0.0028653484843248755 478.55828914065955 0.0010401030727090071
0.3178158819948632 0.4980658595362456 478.42687714092534 0.014369518607913342
0.3190549308856099 0.48324205474349174 478.40873149132193 0.005624649146423708
0.3266671610157899 0.46425355222488535 478.46664625701163 -1.2762835463080083e-09
0.322522951873769 0.489811584526013 478.4671486719295 0.0015391753308263423
0.32700931984232806 0.39987055232092095 478.3755406611484 8.819297007111655e-05
0.32202228117968407 0.42703743015755863 478.36248093912945 0.01473286624572401
0.3155785451998479 0.401243157795691 478.3313716063263 0.005034570492382297
0.3227077330398984 0.4054303824309007 478.3537135167783 0.004566856294161663
0.3192943006042963 0.42753551429725617 478.3401411211887 0.003999082745690157
0.32428787398430325 0.4000978387178854 478.39240454410617 0.0012723336002003962
0.31728099757595296 0.4594502240573581 478.37904567026277 0.0033406653110232033
0.31714616689654157 0.4421350227159622 478.3876837544778 0.0015440903969489237
0.3180788161335724 0.45648683381511257 478.34503740752393 0.01236459889074087
0.31839383570391583 0.4472568165359155 478.40259095241146 0.00018506134214358366
0.3212140085960372 0.45926274600939054 478.36133151948945 0.009536227107625677
0.3205175936006651 0.5279167734185395 478.3632210263557 0.02215657052065733
0.3149501168809251 0.49557107643961323 478.37394864695284 0.006409406919052561
0.3172609255100398 0.4697931245649312 478.3959772367155 0.004476584535715659
0.31316645709390434 0.48251764424576227 478.3523243993976 0.0037285969689676854
0.3144695574182641 0.49827141952402715 478.37970590952807 0.007559532579090224
0.31613221134034053 0.5230152147363946 478.37152945747476 0.13407680587900803
0.3146997328519981 0.493052479991804 478.39365309593586 0.004196852923579164
0.31962181219838515 0.3480399006784249 478.3265555883968 -1.3073029761447132e-11
0.32160921796781 0.37610405399358215 478.33853772987806 0.0019439428298919296
0.3242815787332362 0.36854487429551935 478.3774973237322 0.001912922043560571
0.3273542773926511 0.35547074641528476 478.39919516593835 0.0007391352976456428
0.32678721063516863 0.35827479694597897 478.39091183355725 0.00039689861926253233
0.32515090704318383 0.37224003392179894 478.4002728350303 0.002288301233436367
0.32366241579218613 0.361651962993354 478.373416336364 0.0016992113745648678
0.32353796883098085 0.34135268074940245 478.35480021345563 0.0015914949565514033
0.3268578131641963 0.3274668964517529 478.376086024198 0.0005783422345418579
0.3317194179279467 0.2943522341852494 478.3795908788444 0.001223879102679151
0.3338196373485594 0.2595410658903644 478.39776544005383 0.00023347685600663245
0.32255808412594245 0.2794220820892809 478.3302022618414 0.008674774993928972
0.3288526613088657 0.2956120460166926 478.34550067644886 0.00047227426340454423
0.3285929089725906 0.32190700088524266 478.3614812566459 0.0014029870940515648
0.3317633901807796 0.3077301679922592 478.3827329758587 0.0013978500076313378
0.324152753452014 0.3233985756624546 478.32759570881507 0.007111956832871211
0.31974029624159306 0.29657109394747405 478.3163031351528 0.011124864981656372
0.32460717327323835 0.2968586054461374 478.33232573934873 0.012796045738899166
0.3261742967371433 0.2240100369841006 478.3651907531437 0.003681395887330994
0.3328941867938647 0.21209598128962767 478.3902098494509 0.0008472724145668903
0.32993552796220205 0.21358135600654096 478.34592308703225 0.0029052153117396073
0.32606408345424026 0.20028601076815158 478.3302513851707 0.003555894105176625
0.3283568153164606 0.22747496856179159 478.38416539537315 0.003742047027495351
0.329677790353884 0.2489952625710631 478.34344777585653 0.008363715509198838
0.3236997665152968 0.21477725976289927 478.3182759380546 0.006114493247604089
0.331946938284844 0.254154610182481 478.35476155479637 0.0046224370061473796
0.32099034454305897 0.2148880110929736 478.306875176969 0.00037033286482645125
0.30510992480097865 0.16850094182009798 478.3108257241434 0.0007332383420303769
0.3068627807100928 0.1765671851802133 478.30942054160994 0.0003728971652331417
0.317313978897675 0.1755307257630789 478.3303516259391 0.0003027143208003957
0.32480725524919885 0.1646461883319578 478.3830506832199 0.0005591200560451793
0.3060382827230713 0.13467271892251517 478.37254245288034 0.0005077565769896747
0.30919074335845975 0.14985051012304385 478.3504049260594 0.0006009313408699207
0.2993879128465299 0.15573537967067122 478.3125139784896 0.0021309145579395013
0.29772294919501807 0.13660564398753328 478.3360326482978 0.0015306875154115457
0.2922543218705803 0.13764585146038785 478.3109332515196 9.334296526951398e-05
0.25577712803996283 0.07471432523254931 478.384264597783 3.639795715847206e-10
0.26593943847787377 0.0849943115577784 478.37556655260863 7.57790183291484e-05
0.2565608352295595 0.10102704294109716 478.31018021150754 
0.28558283774302873 0.13469203816680633 478.30653078775237 0.0017075657029843303
0.2902135844579936 0.11675561201288112 478.34268772489145 1.2268471369247749e-05
0.2926727192431283 0.14717138438230776 478.3060222889904 0.002608309718081185
0.23684221327682747 0.06369995826477529 478.37322022403754 
0.0930641579047353 0.021597262343466594 478.55654733418464 0.018756643217906807
0.04376943899736655 0.07361149123000504 478.5397875289324 3.265036980275341e-11
0.04962070630904231 0.07594669730498733 478.50436841401876 4.321514842283701e-09
0.06888639277370352 0.031145352272746476 478.5779958691368 4.090351551494876e-12
0.04625803796836112 0.5163920091589441 478.563578307352 0.039493974896101
0.04655841260240725 0.49696060620466687 478.4788915895932 0.005238824952900268
0.04306165485377473 0.5210654442315484 478.5134391335662 0.019333595186813348
0.046765928155743666 0.5060937573933971 478.4959900155095 0.03353171815237855
0.050400666077885486 0.5219552575841405 478.5079963091931 0.03547968595274791
0.04326238597155453 0.4827676285927007 478.48792780434894 0.002030637669849909
0.1089224574500736 0.10774496507469768 478.2994122168044 
0.06756102778420195 0.10767213950627774 478.370626336554 
0.0658972151323128 0.13119916083800184 478.32900038101855 
0.06517030952171625 0.15039901073765344 478.30819712667363 0.0002922814220447946
0.07764366341467707 0.13780637574990695 478.30187143142274 5.567458912623181e-09
0.09648481821594415 0.0956734006041062 478.34430431617363 
0.10861457280609212 0.08432814791450507 478.35029977477944 
0.1402459751637628 0.08106301366845362 478.32567784044556 
0.12311823242522674 0.09198049191648647 478.31067841731976 6.419451726364652e-09
0.11546011422963506 0.06927380471822647 478.38223451719773 
0.05555005501688758 0.17137847139701526 478.30861823995184 0.0012043617943305793
0.03142389299983961 0.18565597276745857 478.35878742519776 0.011606702392572657
0.04706329261548279 0.20141628185006216 478.3246842756106 0.0018547994904770013
0.05705742027985128 0.18867285602318323 478.2959108901332 0.0014128987330136026
0.05399518946132142 0.21340654001358514 478.3031430774211 0.0013724147128921984
0.0385869879459987 0.1653910307964291 478.35929813873736 0.0007782822614756922
0.029939394603590616 0.18625488108195176 478.3893283581935 0.03263556131942899
0.04778993303970855 0.15173014010884925 478.3811202119537 
0.037255279411222496 0.2470233615499938 478.3282063692657 0.008320143544928068
0.03951906104801064 0.22619923788476312 478.3387703664708 0.006689718086167908
0.034221844067956815 0.2528665644661876 478.3644356059913 0.0009512352133590216
0.04173273842377926 0.22143279920427342 478.32416964068796 0.001750596909388054
0.03444459445154811 0.2602210545224669 478.32196853404224 0.005937102782391738
0.03810720091099457 0.23882905523151962 478.36182247877207 0.001987177115842131
0.04461304774788881 0.24726902338923318 478.31107202800865 0.0034450688513418246
0.03672625700599612 0.22060221130886962 478.3754687854756 0.0032341647541564043
0.02799988673800683 0.19443456713670138 478.38012422376187 0.009901794546877219
0.03666589549833619 0.20710342239565596 478.3541634513278 0.008958741764875459
0.03769105489850107 0.3063460362369777 478.3691689306607 0.0011372701412484584
0.0427524892078585 0.3127074478685689 478.3507554080746 8.29640169841727e-05
0.044640518216190875 0.30782393582321527 478.31813926797395 -1.754260055462467e-09
0.04115750993872159 0.3263111130547033 478.3584947010841 -1.615770104520457e-08
0.046204387901300624 0.32640784677347373 478.319774423869 0.0187325917231138
0.026822641132105175 0.3172386274115716 478.3990491257662 -2.3763125278549887e-09
0.03013625794726817 0.3028767177934188 478.3955083232844 0.005503860992152804
0.03716357259337627 0.2784077080017185 478.3623625577601 0.001511766965361717
0.033513333635912086 0.3654820517843387 478.39884615728084 -1.918753438995257e-09
0.03502330190976728 0.33378348813863756 478.3997917031381 1.2900799434773071e-08
0.04131346780850088 0.39166720741809996 478.35295316794554 0.00275907318541047
0.04015894989603619 0.3509777036572628 478.3261105134028 3.2672850880431856e-08
0.043108028054635886 0.3707303459042086 478.3700427229109 
0.0486535213617271 0.38986888374731826 478.3241121021821 0.007247185635939127
0.046981620539242604 0.5043389120976367 478.46485179137244 0.022009026706504464
0.047176233339647274 0.4685877680160901 478.43741552530304 0.0029138863001292995
0.04372238634926821 0.4973987799561912 478.4652597373811 0.004332547438799467
0.04309945496587112 0.45751756069817445 478.4799990546167 5.189227614330238e-05
0.04309725357745985 0.41976561398859563 478.341196834747 0.007218312741926075
0.04249626076522606 0.43224110928312154 478.3370421821508 0.003455755212456972
0.040267776202598714 0.446649519787777 478.34409558955406 0.00903871055820844
0.04607500227130318 0.4492161086976965 478.337969020007 0.008230783970077779
0.037657596172294736 0.4443724021415423 478.4047369356275 0.004529082656882167
0.034819796373873065 0.4074472794013142 478.39945427393985 0.0017355959552235625
0.0403610428781162 0.43468640462873037 478.3986239977052 0.005110690933794964
0.048059680836826886 0.5001821399530546 478.3810702324133 0.012922137482714735
0.03901896685733206 0.46611080689380974 478.395724948255 0.0025440236593404866
0.04576792965187192 0.4920827506978363 478.3566180463657 0.0051296605885749035
0.04429706858540738 0.518600049512076 478.3588576218939 0.010758709775136995
0.042685041396771706 0.5185440447729699 478.35348790630167 0.009460900981578122
0.0485389098661578 0.5323593929578202 478.3888234498557 0.018934983400267762
0.04744690636973563 0.5210483389367243 478.4386971171508 0.03367951561954343
0.04036754829906881 0.4752925515725691 478.41965184957076 0.0030807558833519178
0.04974397549553204 0.5093333561676922 478.38438197759984 0.0064893000869458125
0.05112079166875002 0.5247612937937696 478.41955971355446 0.047940413846622384
0.04855921910698239 0.5042701703586233 478.39365055185107 0.004894470947186965
0.04813208905972588 0.503795599933979 478.4241909371453 0.05342691015811579
0.31567645621067303 0.4971735445924459 478.56350546284597 0.039864102943314224
0.01618248278555011 0.31769322692303914 478.5134925184128 0.0022324359239682245
0.024415361053194837 0.09385610993681878 478.5626186729193 0.15964185725392216
0.021602098930055436 0.09310620754662657 478.5737997481556 0.05122903162741341
0.005508215922617172 0.24989145226952422 478.5677918092371 0.08843012378608442
0.013793815682307729 0.2387399012444625 478.5137791777562 0.0051625567578946875
0.08014727477554373 0.03888043486390586 478.53298599509327 
0.05056480315831594 0.30642555163736723 478.58253950959465 0.030265630595889933
0.028700865216024312 0.21095107074626573 478.58556517205153 0.10857989521081685
0.04227777697941581 0.23386171266117187 478.57561028523037 0.060932407577662086
0.03911110677412164 0.18769560050992293 478.5833457312936 0.09038420755308789
0.05077590894941298 0.1147874337541985 478.5805458997897 0.050686539683995634
0.045891283427737115 0.13825732183032913 478.58140777816703 0.014075625935626316
0.11220101470515728 0.04789668615078091 478.58981103525997 -4.152279139954141e-08
0.13424699169412269 0.04448460187594698 478.58116148086725 
0.17386198903733388 0.03936328243813823 478.57649398146464 5.509312341971011e-05
0.3204606983251325 0.26217006130354925 478.5833694101518 0.028264904070116174
0.3159595147760879 0.249401053235059 478.5768554022213 
0.30072071220460755 0.34672367740116417 478.5820213340097 0.02201052761125098
0.31570022083519356 0.2982013174603465 478.58431484930895 0.07675476208509542
0.32534201007303376 0.16797296794475114 478.58165255187515 0.015682191033628376
0.3270729393095193 0.18465613946171985 478.5804093856109 0.10235211619824623
0.3136694891310697 0.11788338401349968 478.5875514000232 0.014235467673540173
0.2998473133594096 0.39903734149592907 478.5910995276172 0.015794868700807433
0.3247125839922326 0.2088953482637637 478.5816561004657 0.09531327990515827
0.26148023375078217 0.05578945492158602 478.5931931505812 0.00015954365581638395
0.30580080760274286 0.3128054716244223 478.58470502275026 0.018306348146439017
0.31057935416189 0.37241892536331794 478.59231322115033 0.06738589497497621
0.20361044873576703 0.03516474279198931 478.5868810760884 0.05364527082858644
0.21762601398150577 0.03667927851399068 478.5925184759366 0.033827373469681156
0.17852566172102916 0.020335357020534735 478.59318487952333 0.01559113133525355
0.14905940086529584 0.030396964578451643 478.588912117661 0.006418926650328971
0.054183497180939615 0.34381473356075054 478.59458099450745 0.04092557194157152
0.03747200540508301 0.16135432420468018 478.59130433520005 0.023944626122014215
0.08216461231651952 0.06659813171643457 478.59604119897944 0.0005392450999305444
0.029045436004840434 0.19194270247962675 478.5924626385431 0.08452118039007112
0.03597028822158426 0.26386005095094156 478.5976657152068 0.029664475358071197
0.04451337314560459 0.2945717986403233 478.5861098575133 0.05153434506487453
0.28890046252696905 0.0734665440678278 478.59823476821254 1.8444775949999145e-05
0.21263218407424858 0.4029994403559388 478.59531104699545 1.453534971644313e-07
0.27016452440570854 0.40690161133758673 478.5944597739438 
0.18381767337655966 0.39169662399101396 478.5881613953493 0.0001361423525373921
0.1539454360360525 0.39399647060210596 478.58964965509284 
0.031099189801030644 0.140250375903655 478.59040386076373 0.011879954969342672
0.051331928441470144 0.07232561732266725 478.5898111076431 0.00842451409642507
0.04748562869535067 0.08089911610022926 478.58704762674375 0.024778020145086368
0.018436320307226882 0.1445757155258914 478.59131332732295 0.06978169415137346
0.06995750307792226 0.054755783800470956 478.5918688986307 0.015867753223401757
0.014228274676193767 0.24357675990703573 478.5927009807455 0.10964045288593983
0.02909905501881435 0.24135298198561703 478.58714032867493 0.13121427260243604
0.023893384748394912 0.22160593397035414 478.58877618075275 0.09029855516535702
0.023630731100201533 0.272653577530136 478.59053676944546 0.05889221386530928
0.03572029063325115 0.3035916797618997 478.59016424288484 0.13463877264372953
0.038356657293446395 0.3512099961398926 478.5939268997301 0.08703538367784462
0.03844194644386939 0.3659925694542127 478.5907048455377 0.0508581692986545
0.048329513556769337 0.3997797425198554 478.5925708396638 0.02328621395765565
0.04514588599033946 0.43525292229105167 478.593243160536 0.047180888423873246
0.06425944591502576 0.40209685638185044 478.5967442872352 0.024246579252899383
0.2042987213298656 0.014878433322781891 478.59387565667373 0.09908998192517433
0.21185577402126338 0.02958923540838044 478.5948683406592 0.016283001908135926
0.18254877850310522 0.012136996490507096 478.5959709312747 0.022492135452588352
0.25332900621402915 0.018871660249186375 478.58528013602233 0.02039686258767305
0.3272452815009832 0.08954252587959835 478.59381310093215 0.06423898854272338
0.33424913339443896 0.12456479911229348 478.59133773188404 0.04328415454589584
0.316265688391033 0.10152009591292402 478.59849634779295 0.005902360200541477
0.3585746508257679 0.1402285691835237 478.58678404620133 0.06718902170775372
0.33576754989328866 0.15642247230331563 478.59068094649837 0.07232298582454141
0.33524318170032025 0.17473229819450348 478.5882700309233 0.1100768275617755
0.34152945384537325 0.20015108915293642 478.5911870933163 0.14358374595375703
0.3532335121397132 0.1433437704651543 478.5894920243691 0.06999773228257568
0.3379640947318629 0.216174643158001 478.5954316912868 0.14906779615957674
0.31561276045089914 0.42800641926982935 478.5962875243818 0.01175064125616259
0.3315175361930501 0.31533764646239965 478.596111974597 0.05781561441083308
0.3382148239146542 0.3244268078278822 478.58748587349044 0.1331578852910571
0.33209792581718156 0.3003143687762467 478.5939392498185 0.06432461406169564
0.30929038842761736 0.421881160884606 478.5963231004734 0.03786923087655538
0.26046295444464906 0.5034340466079187 478.5976793788977 0.0026832027960563705
0.2923282151895217 0.4876301296139784 478.59450032407267 0.06885550688267868
0.1014867072752364 0.5058791122360483 478.59322694077355 0.029584420943325168
0.1394153998197597 0.48209893899703055 478.59486003237265 0.0005922319905829394
0.25307059680307004 0.43044479535715197 478.60177742900987 -1.758936266598542e-08
0.24765129404327937 0.524007355760504 478.5933665497215 0.017489211534805947
0.21252592642039211 0.45409874390297633 478.593146414954 -8.412952059802939e-10
0.24305880157355236 0.49785825087123226 478.59629341466825 0.003989688585272692
0.15581207182466703 0.5295562682371647 478.5806732859949 0.01577978658155831
0.23085121108573933 0.4499237661078154 478.59556815086404 1.3172099247269655e-07
0.2710711031545603 0.4672829193778079 478.59904600112657 4.6656279388691386e-08
0.18348355597128904 0.49983111937607244 478.6003416062395 0.0038605068678595252
0.08550322249619044 0.5292585707692758 478.5895293547924 0.01195235206192397
0.12813321010726403 0.48945081893008163 478.5926774596531 5.1753223773763995e-05
0.12534173966337317 0.5301841283392393 478.58746843302123 0.06027004629610389
0.27748884399536494 0.5067006511446464 478.5927200017506 0.07463064797568027
0.21668568628339516 0.514743133794557 478.5896818581654 0.010577838104476328
0.21453289305879894 0.4971016210351404 478.5939228625908 0.002286389606399326
0.18529148958975075 0.5171444432027982 478.5901891604303 0.013835002656252551
0.24745540591059928 0.46306975225955094 478.59739214151807 0.0014211208162720657
0.1977616105478193 0.5298261028857464 478.5875538939164 0.010311945744437114
0.1328073420811146 0.4655210320028203 478.59469035566985 0.00024172777712629144
0.09621455245914487 0.44748493532558514 478.5939920052499 0.0010325322541336428
0.11631054555127851 0.42453168455216606 478.5972275614728 
0.06949942155437934 0.44346270843858526 478.5927031347889 0.014182392405040153
0.15127502098911544 0.47648541537494177 478.5953513737285 0.00017864022004119513
0.15287679567672927 0.44592545581263876 478.5973400141893 7.51410020528955e-08
0.103757552344884 0.46268193133657814 478.59413170811774 0.0010565957391846935
0.07814854574303821 0.4677494350450206 478.59453508576564 0.00012355546506476837
0.10964126626694043 0.43196500456056414 478.59678987680303 -2.9858080356453647e-08
0.19219294521683725 0.42077146727997733 478.5977309930713 0.006836563473591017
0.07140489765242204 0.5205560014091887 478.59269278219335 0.07159749783211006
0.17907919188799085 0.41069524848060207 478.59407995908947 0.0016721963799617896
0.07480602758748355 0.5065122656946723 478.6046981895809 0.0010053863952407295
0.3337593578514735 0.281036097564556 478.5985498129986 0.03580173570458348
0.3396696019637032 0.29771433329971825 478.5936413867721 0.1254545262910647
0.326946441285329 0.3782714282289614 478.59223770369687 0.03383683943459287
