x y z curv
0.30157638616529786 0.10927456792208565 420.24118627346184 0.009803481093018407
0.3237475096434606 0.15990581872731152 420.248505001098 0.027755277206366093
0.2736285979980003 0.08808653931947943 420.2422081587185 0.003091700379512907
0.29739923164859733 0.08554848763386799 420.2514892849458 0.04892363605567929
0.3229711954679067 0.25076705174004643 420.24244690683685 0.03624177865366796
0.3136638439379273 0.2641793873170229 420.23697301369407 0.0034486896465697275
0.32588301525096824 0.2933962341909457 420.24392893885675 0.11221891570575657
0.3311074870742407 0.27525841593431155 420.252901923666 0.09328308504211892
0.32086584715861294 0.2090853311034148 420.23649786019905 0.002710889461162439
0.3205984450442155 0.3207609590658729 420.2442376910853 -1.295189653789913e-09
0.2491052788283094 0.3897345608915731 420.24112765305836 0.007610080592955414
0.12199459790138041 0.40586363947318 420.2447040807352 0.011850174146850643
0.09240077048322712 0.40122376968279927 420.24410466415816 0.005418703616023083
0.18909849463916217 0.40097174843106387 420.24828489392667 4.426698635158073e-05
0.012607097761031702 0.4405955392570393 420.04566648173954 -1.19231823142557e-08
0.341877340427213 0.43847877888898495 420.04573442712405 0.01000556639017968
0.33091673492783313 0.437056863099478 419.98602470915864 
0.00957708173895842 0.4386608233246137 420.09970090007744 0.001587887569242288
0.3208603609644987 0.4376895867319175 419.9463942218088 
0.3556042506420591 0.34390973505053124 420.1562371889084 0.00042128371712468033
0.3519487579808613 0.3203754881019885 420.1364944386846 0.0026389380134388086
0.3612512485364378 0.347986591943029 420.1869951596075 0.0017669039991519621
0.3613086488377531 0.2981503402309181 420.1489049336182 0.0035086704930497813
0.3569823564066681 0.3290872766562015 420.1663683615404 0.0043688360637225586
0.36179007933777085 0.3663498183318618 420.17061831915595 0.0022658894315997313
0.3522833003094423 0.34306008064399773 420.1329191168776 0.0011703047386174108
0.3564012363827657 0.3634732408279406 420.1492344674862 0.0016040194907436123
0.3498594061983355 0.33924655953411936 420.10192554574814 0.0036519418440604887
0.350042903107103 0.3314969796023728 420.12233747819766 0.0009618085161240071
0.3511047264910076 0.3258102013223678 420.09701635992826 0.0020266939898651057
0.35037199877469155 0.3076669949087851 420.10198470361246 0.00105591540529865
0.35193931164035186 0.35382521235429953 420.06090322426905 0.0027834660990059047
0.3527905212049822 0.36470094946327486 420.08855624701215 0.0056162453326583026
0.34551532523851397 0.3317832911522154 420.06553944384007 0.0020702988222677755
0.34850485329130576 0.3174295758238151 420.05373577111027 0.008645198137204548
0.34778384366667286 0.36803669603267014 420.05696013404435 0.0051025704238786915
0.35337959719524525 0.34784303363731467 419.9957409246992 
0.3573413094737527 0.2532829783310633 420.1552106735083 0.006005662884760414
0.361691950984654 0.23622287434844086 420.1756586312283 0.004189052489400655
0.35863638582780905 0.23937887044897235 420.15966661288707 0.00869592484684444
0.36149473009852073 0.2657142456445351 420.16362737154554 0.0024409194327713454
0.3598097290116928 0.2339229162816445 420.15794030342994 0.003356633786119577
0.36158041220385895 0.2894668159496418 420.1607695102392 0.006289614037594222
0.362276432144597 0.26802556488854784 420.1339464030098 0.0004884792929117758
0.3514025769701355 0.2400420882955862 420.126172782741 0.00560517755298856
0.3542123505088213 0.28803621107332783 420.1244565509979 0.0013968528340825826
0.35556280082033204 0.2524848206802193 420.08196382430594 0.0007458164559006483
0.34907652508367065 0.2900235840230003 420.08593310211234 0.0014072044074373822
0.35028890236624954 0.2818455504880534 420.07265462976363 0.009917914280048545
0.34576253952188646 0.257692392983402 420.0563483672827 0.00360476830114072
0.343534726327163 0.25258585777035963 420.04172299077993 0.000720990016258948
0.35178072548018086 0.2962957190346753 420.0520687945113 0.002998660854067063
0.3458033310662419 0.28374469422485604 420.04318862618067 0.0035075419285031167
0.34751799270650047 0.29838484598863674 420.0360526140355 0.0032012607984207185
0.35933996889532227 0.15965379486465137 420.16861627244265 0.0029914442786890517
0.3665064341412191 0.21264072514532922 420.1903020522237 0.0015158413467752786
0.3583036655033295 0.16764159251436075 420.1948480613805 0.0013719163859871302
0.3643777976805977 0.18004366504898567 420.18375366520775 0.000763237242540073
0.3557828843084992 0.16719320500509557 420.14206386119093 9.35806354714936e-05
0.3591747726815693 0.2117845354338756 420.15882918333483 0.00015339533842510913
0.3586036478571606 0.19575374466690337 420.13290206078955 0.0008733128347911296
0.3519244849798022 0.2153038493054774 420.11304590304184 0.0016644515264352044
0.3543799421719286 0.20870312798390117 420.1152037341786 0.0020421956604839593
0.3512457845696494 0.2119233705797842 420.08320593502776 0.0029256756172914037
0.3437595289442218 0.1780143405158977 420.06683948880953 0.0009694450118137422
0.3485302412065281 0.22399966395887733 420.09900369372434 0.00701075840376446
0.3493766111374717 0.22676851729423864 420.1064116266423 0.008846280342456036
0.336487219112808 0.19148192690635804 420.0307348117795 0.0005069747232726852
0.34541994017803607 0.20212279054126628 420.0583341971111 0.0006153369092770475
0.33996920423552796 0.18296817712701086 420.04494262772494 7.67251185367137e-05
0.34618275058968273 0.21153644936773994 420.0558885426857 0.0005973822409218397
0.34144797765015994 0.22960367355149464 420.0302126478836 0.0021189491710537686
0.3430676614291817 0.22192495631290815 420.03400506037104 0.0011300366586835615
0.3336117728753409 0.22183076930729506 420.00550156977476 0.0006955573322101033
0.33425689497159833 0.09041705920304907 420.192648159316 0.001843551627055564
0.34360447741150446 0.1066286458586404 420.1348976566505 0.0009500313127336136
0.34565864226445675 0.12837572842834472 420.1826509494576 0.0002471623211145899
0.33893598093512894 0.11385705192631818 420.1524169721292 0.009373360702565642
0.34254952173979425 0.12647252942388973 420.14977427002856 0.005010782843911917
0.35290911834468125 0.1553710134544143 420.12528624949505 0.000278340129602516
0.3285525702257035 0.09409168717176276 420.1141099804176 0.0025611326905223826
0.336454056283553 0.11970133927412858 420.0999877614706 0.002747218801420955
0.3279571824549413 0.10792849227775382 420.0933837981972 0.002228585140767576
0.3234602458144453 0.10483404308550728 420.08076641280644 0.0019118775423514608
0.3506970988929712 0.15890569848374214 420.1123352665248 0.001843822724234616
0.3248782977031375 0.11596690483996368 420.0646190058986 0.0013775866248581026
0.3411495117360261 0.14192883751327032 420.08603987657636 0.002434238350528954
0.34286900769733697 0.1430584466206822 420.1028516826069 0.001144148862401027
0.3472005974456243 0.16040224055997257 420.08449711318093 0.0014591452996168914
0.3260577479646247 0.13000243754530777 420.0618524741047 0.0005033689670424365
0.31519011436479455 0.11159885420928722 420.04484223084495 0.0013234873045933858
0.31766977537794105 0.13499176058336282 419.99748778786557 -1.558490579075765e-09
0.33271718504775316 0.17086417360636233 420.0317314816828 0.00032347762750460944
0.32226233528789977 0.1572378314630604 420.0008737395435 0.0031821062022084393
0.3021221804057378 0.04858817723866901 420.1753150325344 0.0005497975481301558
0.3182431802265451 0.07143052011231824 420.15637889182045 0.0011398817198366286
0.3264918069447334 0.07988653127704189 420.15126301304537 0.00712029975928602
0.3213943222016369 0.07809715846610868 420.13248652559616 0.0013814548505898848
0.3145409762024806 0.06781108760380307 420.14597649337503 0.00038251228510253213
0.30957310524351783 0.06666083226435258 420.10459882741054 
0.31703941000040264 0.0900433945506743 420.0701837983556 0.00039768886263825666
0.2776089561444876 0.05832820045206584 420.04426244665814 2.1549049195668333e-09
0.31230346907477835 0.10770216955334881 420.04012805226046 0.0006838893102951498
0.2996254119410393 0.09723046126994031 420.0163358458901 
0.22840321312540224 0.010165964399951854 420.15470649172806 0.005064797566736625
0.2332280778349104 0.008113220131164809 420.1769118439472 0.006412180191017263
0.24451916922220046 0.015374993981858699 420.1820837806119 0.005376921178790535
0.24257397779894055 0.022010708718494892 420.13300741312327 0.0006670225664898406
0.2511214746828837 0.023265065634645383 420.1549675924739 0.004000673858588218
0.2736456286646699 0.02421454830685349 420.17100876359837 0.005643427553203592
0.2296442523962561 0.017479452816682242 420.1124709578223 0.00040169409076507283
0.21045604200980322 0.016336484943728254 420.0828540144904 0.0045299213984578675
0.24923187871872854 0.03164341370417423 420.1095583678204 0.0017683257675365543
0.2639972872643109 0.04295096762440169 420.0776876112889 0.0009014570886022283
0.2325038850419178 0.034537162406961815 420.06211965298075 0.0005771645896793597
0.27933762927193484 0.03952265969938418 420.1144671946792 
0.21898034592580518 0.03835885441633512 420.01765770543614 0.0003449302887118884
0.23167362724695562 0.04228306138432522 420.0355603733299 0.0016630079019718173
0.2564016062857273 0.045317315179618636 420.0538137810245 8.153102380687236e-05
0.23958636828365576 0.04989370160861375 420.01328856799046 0.001964483716309962
0.2694035867252412 0.055740923311104536 420.03928325355787 0.00016850363805818823
0.1430414499166442 0.014828091214626504 420.132079433909 0.005858730149566208
0.18442814350112105 0.0065418128154393854 420.17225364976963 0.001183513764187304
0.1618527816168058 0.003898369122136135 420.160261168793 0.01343352055669162
0.2040292134652804 0.003273501050146085 420.1769202364032 0.01207117847333697
0.17380548913823612 0.0058267079949634055 420.1910393125507 0.0018058658190045446
0.15469282223328368 0.004473772019324617 420.1482357283938 0.009766942947643546
0.1504801063632599 0.004872833191079582 420.1850007122103 0.004987732799497297
0.17970353219324464 0.00021173327318041446 420.1384721513313 0.009697390230944215
0.21364292133024473 0.0014079378609187752 420.1596605223687 0.007908336729905034
0.2107724379051553 0.006665920453296681 420.1235427518884 0.010854841008106497
0.1887156622786482 0.0022022763384701265 420.1417660772738 0.006690386568154126
0.21400370026673582 0.008062049844777174 420.11782985001264 0.009939100637318123
0.18082784244817848 0.011279125240599524 420.10800176112383 0.0013917123233521237
0.15146980601121615 0.02495452151065284 420.05868099575747 0.002106118931410136
0.18627374850554848 0.0231693954323376 420.06695143228643 0.0002624558392713307
0.2115642062789196 0.011828773091336701 420.10154071241794 0.01402397748832252
0.1781265522841873 0.033991708881802155 420.02994306285916 0.00025558702951865265
0.16658164182281338 0.03292444775194903 420.02978022960383 0.005021384349283205
0.18819724402732768 0.027431933469105725 420.0533061524482 0.0007490505752140454
0.15928925600213742 0.03657521210580014 420.01163304332124 0.0045422029550176105
0.1968293485136677 0.03220183502610786 420.02629300555134 0.004549224774780824
0.11910370362467204 0.010790561738585667 420.18190807757014 0.008968171506315792
0.12347333214777005 0.011451354089998481 420.17383398024816 0.022802098951179614
0.11935656920710805 0.026667170589630924 420.1236692775342 0.005537557413112341
0.0828724021778709 0.031582719181825765 420.1723479442671 0.03669592859990805
0.07433486607823778 0.039140910857544085 420.14214214748625 0.009387748355156818
0.08908091480569769 0.030491960964764645 420.16511562273547 0.009281155195232616
0.1129354393679041 0.030657331994611677 420.11035770201295 0.007072880461727816
0.142800943964818 0.012814201324709323 420.1114976051022 0.006772136787847546
0.11855186295667218 0.026480327429832487 420.09383678575 0.004681219868391336
0.10506828363690565 0.03561641110069965 420.09359312022667 0.0031763645056350903
0.103177386917917 0.03983767985993244 420.0694801717307 0.00015225138038805336
0.0897470959024302 0.035270418694960275 420.1148817688054 0.012661731789515249
0.1357449775494212 0.027492973245620136 420.07115680151503 0.0026615118863148003
0.13572660148317098 0.03518859920233211 420.0512901885183 0.00039798295043126544
0.10831692806703652 0.0491299717721895 420.0235705388277 
0.08402032983618822 0.03581971402369085 420.1224372443747 0.010425845540477648
0.07141607669430215 0.03291339458988602 420.17025346506193 0.009648799347570578
0.07799143530982355 0.03427737085376158 420.15463056863234 0.01459356446487872
0.06752575267162358 0.04606050058755568 420.15530853445534 0.010838715438995363
0.04276667201954499 0.07297024955275319 420.15543573535183 -9.369280857746206e-11
0.06014017166444424 0.05849754245519298 420.1269787404882 0.0015276769794370117
0.04855846816541892 0.07733103896408694 420.1001791491022 2.314555942079592e-09
0.07788198640248097 0.06444508766531805 420.0690323172487 9.096980373659567e-06
0.054274771299674104 0.08612945361900556 420.0776196943202 0.001694460113202419
0.08703261696770906 0.06246907077147959 420.0389856030286 -8.687156176117718e-10
0.054473276847341705 0.10045836036015354 420.0556691450717 0.002358407404951705
0.07695490974445109 0.06757204751850891 420.0619645931884 1.5196427302382378e-05
0.06845309495144063 0.09403017144171688 420.0122007351213 2.6430880511272827e-05
0.049457306189055396 0.11431120519569421 420.0185605163535 0.0013999663312078306
0.05287173293651182 0.10658456262867862 420.04270937433853 0.00010855234622056101
0.02704159698716766 0.09678292364071954 420.13309068641877 8.233753279859057e-10
0.0046665870873680215 0.14928917392820729 420.1780487693006 0.013072287874348705
0.005694600707654724 0.1476102563075846 420.1620082925584 0.010642330671660483
0.017414119817111738 0.1125019844717476 420.1320146005476 -3.678271273165655e-09
0.025522404761027274 0.12851945912350618 420.088720076782 0.00014725040293742288
0.021430895920014806 0.13544567651420902 420.11557638446715 0.0007782789042555898
0.014713462242356744 0.14962411765160968 420.124535962358 0.00346583161296735
0.03750305160876556 0.09773026052135182 420.0978667490213 0.0003760269083434205
0.0373041846091024 0.11717762987754772 420.0736155139782 0.0015013405877973322
0.015630581846107258 0.16960966945009773 420.0836627393045 0.007024177955868081
0.017176492797294638 0.15848431091556206 420.0971284523098 0.002098420303239226
0.026580333096253888 0.15365694290452891 420.0552638763448 0.0013939506456615257
0.045964201307221605 0.11476853267381108 420.0314413767532 0.0010683674951100365
0.02946529220871175 0.1423373511577691 420.03116590469966 0.0003310794755767512
0.028429094395129077 0.15773411939457516 420.01646735918416 0.0023104056836816115
0.0006008315221254432 0.16630757843540234 420.1515799344391 0.0015676293593973453
0.0038763479680278407 0.20372793967142136 420.1416604508906 0.005750347376219851
0.007791221174245616 0.22819518447440154 420.1394756520724 0.002820760710916557
0.009680527516731253 0.19754259427565987 420.1233993232895 0.00399101666305172
0.012355615909368445 0.17324665080793392 420.1102353667853 0.002193065390596843
0.010407250444872201 0.185074600708522 420.1188410776372 0.004360667412376475
0.0126867240476946 0.22959024761022934 420.0677949342728 0.0005003295977359445
0.012438913743196701 0.2337641998592597 420.07848027265817 0.001956288943261188
0.009783289519994168 0.18805048789749268 420.0618952077024 0.0039975742350167424
0.01415706473745554 0.1964248466529921 420.08509049452226 0.004339504977505634
0.008246288778562122 0.21499018269128853 420.10228903843296 0.001018133604455673
0.023685672882784836 0.16574910394103887 420.03221256089574 0.00841343676465552
0.01971703039393099 0.17163901230522816 420.0443762233637 0.006308486782432915
0.02523722611838076 0.23316403737099034 420.01536237086225 0.002200930211740499
0.01943806376740092 0.20240070021595874 420.03040331880095 0.0002847517211948253
-0.0031431739590022743 0.2576561668247381 420.1532679211368 0.009203802187461056
0.0023011669205344285 0.24695970146095614 420.1743985347368 0.005640961607619574
0.0017487751274428585 0.24196905277847655 420.16415286962234 0.012197518764116622
0.003789612873916309 0.28406732268104384 420.17608794715363 0.006964631364648077
0.005139242091930526 0.23738257651264008 420.1220741192715 0.0047942002645056025
-0.004731528995449761 0.2843997801238589 420.1496430227869 0.0051065361492991365
-0.001852833255370969 0.27065737435982784 420.158603190832 0.0059259312349267505
0.00865733403992638 0.24560779254185308 420.1007133254567 0.0010347435376021554
0.005152738145046193 0.26713672634759095 420.10723134708445 0.0028867263929282694
0.005497208729901753 0.2926937918377476 420.1223498583621 0.004785708696417615
0.012115254343729679 0.26069511127962564 420.08000478888346 0.0036654384833635307
0.007730053227100546 0.28187434713059883 420.0711950156415 0.0003382498202994
0.017625565447658937 0.24878373800674408 420.05643153860655 0.004675741161657057
0.019948195232823485 0.24495961361491758 420.02888365863856 0.0033057215279558632
0.02039373658002573 0.2617607527464155 420.03902649871054 0.003476868319444199
0.0188410606479672 0.25928867514933207 420.0175966218524 0.001749798770102708
0.016739576657048498 0.2852550678478602 420.02728384038454 0.0017537351640289204
0.0208816835605783 0.27845081656838655 420.01511742338056 0.0023298988126956638
0.01760094216832674 0.294796438416617 420.03702341981796 0.007157371300633824
0.017324183858575103 0.29630939433597514 420.0275540770544 0.002474904395450088
0.004289971989275779 0.3150773321821995 420.1510374059481 0.007631600782736726
-0.0007902956341075441 0.30691573783907716 420.18916552134453 0.0009650449780676608
0.0015005275851902476 0.30182573574025434 420.1481430731376 0.009037517840793327
-0.0003199233762808751 0.36398275566742905 420.1774432020898 0.0006397736444517549
0.004223058102309476 0.3309650270432256 420.17260898799566 0.0020056911644983767
0.00371794031396629 0.31695159152397484 420.16674621286785 0.0077542457238535265
0.0030829875363464557 0.3266025611998011 420.1368435051671 0.00219684901785197
0.00285744914979871 0.3518541823777428 420.16074508278274 0.0013014488175364142
0.0005678628096075838 0.36766284051357745 420.1353023285658 0.002330953340770592
0.001009600662187595 0.34131998271897174 420.1419386563031 0.0021986985356096445
0.005740209683176733 0.3284642953661509 420.1221878695875 0.0022971596975136905
0.00840427231040265 0.3198342005308626 420.07823677999465 0.0018227913069405975
0.005646973934689811 0.3083757118662079 420.09010851601215 0.00038533776654093714
0.006552380472787303 0.31888461580589017 420.10107078190555 0.0018069954300392798
0.004521131762725642 0.34610625614722296 420.1113463827123 0.0006227225514345853
0.00986092012203857 0.3364177765464024 420.08586695597063 0.0018546767115825008
0.009579876479860416 0.3375783329655618 420.0753170463552 0.0010725627023260864
0.011997198740545622 0.35326758692912347 420.06934576646483 0.0017235905399495181
0.017923928545619732 0.322504650081102 420.0400459587597 0.0014425744033403195
0.016602861059603635 0.3083300142680907 420.0483659731544 0.0009843253118774235
0.023227912933391996 0.33076487467690113 419.9967825683084 0.0018444392120252437
0.019428076502787 0.34797055821542244 420.0399945401891 0.0027644806431454936
0.020552922187102356 0.3737021848615107 420.01670749657495 0.0022054120798009123
0.020302053214624544 0.36651082063259655 420.04024909469433 0.0037469819458401895
0.022160034321958965 0.356980924369613 420.01939350194186 0.0022858884433310895
0.021106183616471555 0.34456657377879796 420.0049181981011 0.002599545943620687
0.017347583634382865 0.3770500347425069 420.0060247949408 0.0003898395962686405
0.02120417106182778 0.401436793466994 419.9783623506273 0.00022972458179663365
0.36134814171016044 0.36916467615985776 420.2307291199016 0.02542326229314814
0.35822560589958524 0.3825313215133742 420.24779787033475 0.04018445780142205
0.3614075820634234 0.3874253728146597 420.21284328558914 0.007364468049184527
0.3598998886089497 0.3988400478702183 420.2442095691181 0.05144080981326963
0.3653828391512002 0.3041145185844665 420.238660124624 0.013287224627105083
0.36399658969593657 0.2930563342697551 420.2329613289512 0.12742161308639285
0.3598402705332512 0.3489821574250943 420.2510296288342 0.05908678483769414
0.3640424197789618 0.3529356031409206 420.221616855743 0.013267209195606469
0.36497834742344787 0.28423366630360447 420.2080743335608 0.003010539689825785
0.3641021015968054 0.27344871259241726 420.2341502886761 0.07231702849048663
0.36140458888515536 0.3785086109440737 420.1620786332779 0.0030988091211526046
0.3608213725809503 0.38746736099249823 420.1299298714221 0.003769645144756681
0.3568555604736818 0.37447772727500994 420.1421268324667 0.004683389101349647
0.3550706665830923 0.373156577891267 420.1232451483145 0.004281200705537593
0.35809253388405643 0.40681435810313027 420.1479038472609 0.004609841529827523
0.3586240924539282 0.4364427933185648 420.15825308420386 0.005120401430111527
0.3600138810731853 0.4342345165340735 420.18555804201765 0.004236738590055192
0.3636785148543351 0.424098522478357 420.16859855015383 0.002214008862489436
0.3641982436198436 0.41208149963568164 420.19199423272926 0.005190384237373892
0.3671886468421241 0.41328275303757694 420.2283644496296 0.00560988772826259
0.3627613765875663 0.4059664557441855 420.2087943387141 0.00668999060379297
0.3646380127938307 0.4273133403926829 420.21413576244294 0.0035263856572563495
0.3605910451662213 0.3947327707850233 420.1923017253337 0.0003108206921740638
0.3613038363599316 0.37401529977746983 420.18897271759414 0.0012463302520646677
0.3653842643549626 0.41208565367867667 420.2427260461935 0.06698084879670875
0.36010313736689253 0.23555126418087802 420.21738466419134 0.004278155725917475
0.36261578439480624 0.2686771840683808 420.1890058972195 0.0013984938303584302
0.3663771840999785 0.2526810966032636 420.22400995292975 0.016261024813551656
0.3613481674153046 0.2617135235784361 420.24797341059764 0.03755185489072283
0.36133176213601054 0.25234165923844243 420.19238293490395 0.0021719032851083547
0.36839191254815423 0.21793638260696158 420.2510551758894 0.08109901334304918
0.36632789529998094 0.21437601653138488 420.23638375349077 0.10453380644853649
0.3622274104963778 0.34109784666601545 420.23394651091104 0.06438346029536227
0.3629496816784669 0.3313310823644466 420.20549944652186 0.0043517391585747274
0.3669392224501423 0.30159032718607665 420.1940073573654 0.0003421902075202254
0.36317441639916714 0.3395113020219931 420.20413327682996 0.004008159876253887
0.3656125425872421 0.3378742574753061 420.22732504500976 0.015457455555733354
0.36064438120202896 0.17577419780387826 420.2075250912049 0.006764283563684963
0.3667770565858232 0.1950617505260127 420.2414901747328 0.11458831230644456
0.22148679913068414 0.004850564701823444 420.2278923540138 0.09074073707501562
0.20818445005439298 0.0009325876804997515 420.1841153420859 0.013932774903799945
0.2787960559479171 0.025260017841484586 420.18922754004495 0.011196276454209057
0.25637184385513767 0.012806240389136492 420.2100593167028 0.016520336280503208
0.25103158875079823 0.00027964097544557094 420.241792753901 0.008907179367805483
0.23491213122137883 0.012726817008332973 420.19841642643985 0.003556130655342305
0.2703413390322219 0.021380873553411558 420.23287809239633 0.10001530806827875
0.35738666486417375 0.15163779271322425 420.24419825110584 0.1160457065644357
0.34367917088960753 0.1095904856374441 420.2211658478389 0.0918208397216014
0.3567090818190641 0.1415177039307992 420.22242391012935 0.06055066639355397
0.3542770841040256 0.13963564515074633 420.2450412045721 0.08571193160215332
0.3573013068573289 0.14667720661432998 420.20431066638685 0.007327663668659931
0.3657389328772197 0.16870533499925694 420.23745515129895 0.10774831217900165
0.3301196476302982 0.06719371908960652 420.21746392267994 0.032019870550644085
0.328809217693412 0.07335215666712594 420.23740640549477 0.055737852687759326
0.34348973719235343 0.0741777403289715 420.2303775117227 0.03237973073398574
0.33096443025538674 0.0875746043761155 420.1855427369428 0.0030697505143564307
0.28663584771576134 0.03342686548705499 420.1882949407254 1.3882907797921294e-05
0.3128392111789276 0.053120036493122316 420.1980877858379 -3.771156903249163e-10
0.3387096208017826 0.09278126571945744 420.20869250021354 0.024272082946913198
0.36155565524482564 0.21526269318939784 420.2038159301983 0.006533722028705825
0.34760460820864447 0.42646657351556405 420.0196472499822 0.0003475188459801418
0.3266740631337557 0.4186710224514673 419.95025546909625 1.2817991632678788e-10
0.36076233152703757 0.42527375044652477 420.1057641413311 0.0012927523835219586
0.3576860587021122 0.3762982899339495 420.09371736843525 0.0013663266260431652
0.3552506457246609 0.45403052287093165 420.1063659126855 0.0001824546820526747
0.345068061830262 0.43105926474107525 420.048048026929 0.010926230406898602
0.3458359130168382 0.4239860033657628 420.0520701606802 0.008881656584798036
0.3456580421420841 0.38288583216773237 420.03677064566733 5.833921020034253e-10
0.3390963071179355 0.38258068288261454 420.01293084773397 
0.3271579555344328 0.3382813472384501 419.95107575576566 1.1920302712734777e-09
0.336692805855193 0.31460445598498654 420.0016918259764 0.00333271850012607
0.33310822726621137 0.27484910574389676 419.9619645327814 0.0036862030518600136
0.33237490414358434 0.29792881788092074 419.96360395204607 2.6160742489593912e-09
0.3374466441428356 0.24626852827936171 420.0071249034178 0.008388943157053958
0.3391709641349834 0.24680094228396204 419.971237603801 0.0041969689723040425
0.33639152492570196 0.27562557202518656 420.0032389188899 2.721675422829508e-09
0.3231571481472899 0.17380089498170737 419.98415427224694 0.0015663808804002655
0.3189726377630891 0.14039673128396143 419.97731159708013 0.0002481125294647611
0.32283058783590746 0.16442248759859812 420.0015038803722 0.002264208081275136
0.2842044810296814 0.09228826534441911 419.9736046740766 2.215231502365755e-09
0.28609049737611997 0.10254523382740213 419.9657387956212 0.0001387126391680205
0.3216108974425429 0.18430796213306067 419.97086673276823 0.006724267032313958
0.31837949412410627 0.17689098020856592 419.95174780164575 0.00038089615401013253
0.3263974985545132 0.1911283463726976 419.9868193988487 0.00033870863642824426
0.327859973230188 0.2028712385583525 419.9817377339779 0.0006561412326491383
0.22601325064097394 0.06789908037001821 419.9435149213371 
0.25159682354791024 0.072579459888148 419.95173867862644 
0.2629034595236025 0.06615210027884033 420.00202591099753 1.119091426642085e-09
0.32443680955131293 0.36840603838713937 419.9485252878599 3.667950868295327e-09
0.33405890166002766 0.29824457465871757 419.98986974733975 0.0001820904931383665
0.3319581830263886 0.234796392594441 419.9621205997216 1.0592941840725454e-08
0.32353357396483584 0.2376852280735004 419.9429561392249 -2.079152469245792e-09
0.2905194448345194 0.13059674558743842 419.9395579420364 2.4250465146211065e-09
0.2912137135774525 0.11867935331233292 419.9518866704832 3.376618889645281e-05
0.18869062767437528 0.06561183418832434 419.9413727959388 6.545736601877158e-08
0.20597150187335414 0.04807375379322206 419.983868265348 -2.000247977134278e-09
0.3584985981790643 0.39497585906371135 420.12737705432573 0.004219828842560092
0.35742512394255566 0.4081512756965254 420.13489359362705 0.0043228383143667035
0.21157589893046463 0.003983054598385291 420.2124748712034 0.0023938368148961387
0.17341190510655605 -0.005507722251253969 420.24076124888813 0.06327243182344654
0.19171782693346454 -0.00464868040544746 420.23370644701396 0.0366121816532572
0.20233654114643515 0.001806762422396486 420.20950233065867 0.017126244727841265
0.15469282053078542 0.0006716145514321361 420.22147326725883 0.009441945613235933
0.15829546941921788 0.0025143639996593166 420.2108048742743 0.0018683123641581537
0.1252300151127379 0.006469812766465028 420.2054726948858 0.0091721202361028
0.13711468469879895 0.005067783254096716 420.24641485620367 0.08338959744988532
0.11098799472590162 0.014504406798174 420.24651459757735 0.034372247420794304
0.07900727369805206 0.030110316633930746 420.2137224420589 0.0013048909985411159
0.0685646664057747 0.03442744296151411 420.2412675852763 0.08960655952304314
0.12940318516584437 0.007164236229068715 420.1999389722172 0.012410235124069295
0.11181486517217167 0.013481423559749413 420.23002164510666 0.019164354046641716
0.11231185867895749 0.01782071478549717 420.2078842327323 0.0022336524028080448
0.11637331701548641 0.009197957085880872 420.24076886834325 0.021295950849652554
0.12811425729690096 0.0022334436334348305 420.2181940959013 0.011699615967487127
0.050732353561585654 0.04090500487528734 420.23655490992786 0.014682343652689665
0.04725320645364591 0.0594952673914237 420.2133823559375 0.023176330375773886
0.026186141446325403 0.07778507485454886 420.23530051516826 0.023955753863138602
0.009434773722364434 0.12345871351440259 420.24846446814047 0.06604784930421394
-0.004670652568551105 0.1501077780917633 420.2110960689806 0.0036750711474950585
0.004202530720332719 0.14058604819542647 420.19192632382436 0.011647941702437476
0.008346156380925618 0.1239283112653022 420.1997876249893 3.100322499658974e-05
0.013297555463733114 0.11665774399914917 420.244817338493 0.05739759358126946
0.022232030960041536 0.09603642934849975 420.19688345361817 -6.927495205530461e-10
0.02540601723369748 0.08621314266177049 420.2061932571429 0.003345311879973461
0.01983273952133365 0.09200946234660573 420.22903880402544 0.03436023875661132
0.026954724596431837 0.08169472346303472 420.24425150089724 0.08101678342990432
-0.008007382365906429 0.16252018210744806 420.243038521005 0.030451439672105157
0.0005777425737096231 0.18795486064764608 420.23664259685074 0.11970775826086434
0.0030416033035684307 0.19841909384360287 420.22782636316924 0.05965436174376875
-0.0007516834496037808 0.16597735415723627 420.2177637198142 0.025524984051368143
-0.0020652867780455338 0.1724912262463331 420.2263319891628 0.04988946982093204
0.003379418274130479 0.17418009316294364 420.183630057668 0.008654585858922731
-0.0045348153726244575 0.22128089499026957 420.19221167445664 0.0009467784414166621
0.0005278095862608651 0.18657353900647103 420.1937787668981 0.010157427840892092
-0.0001394321813585342 0.23972016321139053 420.1972634292663 0.007381599796455953
-0.0017697678613805626 0.26059361374658735 420.2256254814744 0.05715734913879006
0.003972873968278019 0.2729618593101572 420.1960878217376 0.0032626019912611864
0.0005400068807436872 0.27977608713474905 420.2211262814025 0.027417998927036336
0.002303472960017712 0.28040625164729793 420.20496498608526 0.0035781553432921195
-0.0015077439497059178 0.2633171551344946 420.2299760429153 0.05885501827045303
0.0010397651849938043 0.2881226381818371 420.23261606232086 0.03050993743204549
-0.002096067987622192 0.314579415658751 420.2193191407317 0.006080332862304375
-0.002986329362867789 0.36466196293445036 420.24294286506364 0.03930454859795549
0.00313745751352499 0.3739953597132238 420.24770077111384 0.03144891651815317
-0.0033324357788482705 0.3688516665265394 420.22552015375703 0.018104376842767483
-0.009408979314604398 0.3990413733709807 420.24173085645157 0.06139707809612125
-0.004802857022714454 0.3521062571881744 420.230596551701 0.011031690498308306
-0.0021646323332484055 0.4416246003419908 420.23428510367523 0.048650667044547014
0.002360466059908881 0.21581569150344335 420.22670245125073 0.05949035460079813
-0.009329550154350882 0.2473441245806209 420.23548599844105 0.03180770430955642
-0.0017501803567184994 0.34430645394085296 420.2080906959377 0.006071738783649206
-0.0015807695993206444 0.3631240417380072 420.204145135905 0.0030595278008692765
-0.006774117898684313 0.3348046189517448 420.22855433843336 0.005796452795058944
-0.003735561344125591 0.3858227999442969 420.1732117801346 0.00010431877386657657
0.003026955286052231 0.41969691570076834 420.1518552739102 0.004124345067978554
0.000901760328451514 0.3770669973548498 420.14690331029954 0.005186939695841622
-0.0005280629222373066 0.4310234911648036 420.16594634124743 0.0014617934128469125
0.008006133655071407 0.40432442830083026 420.1206602679371 0.0030921857133042858
0.00390368606610366 0.44006354550410276 420.1436596955032 0.0027757570842628834
0.002406806239060996 0.4172975742388245 420.12973237289555 0.000505620786213243
0.005165513449275631 0.3972266974963339 420.1329651215631 0.004954774650846027
-0.004664208066660295 0.4181208021115709 420.19891303321333 9.70472562845592e-15
-0.005231434432366242 0.40036376811911484 420.2188176606922 0.021949688255494145
0.01426017377860117 0.4072114600523661 420.07976090148577 0.001930061418326433
0.017263189765633815 0.4312087677449292 420.0532165147643 0.01617495141264019
0.012537005416812458 0.4279151399481142 420.09408378950184 0.0021665174801532862
0.01182015940383865 0.3774735987309607 420.0677068413252 0.008931995623082827
0.004982681110126851 0.37852749427264537 420.08795454731666 0.0007952253817927129
0.1568312004485443 0.06315494757716439 419.95085113343276 0.0102498327147213
0.15244551245904425 0.05836059888536797 419.96614516396477 0.0007586397517651203
0.05474363839285963 0.12111306705866089 419.9679904714463 
0.07591394829049072 0.11071071210632676 419.9434445049826 0.001335002002313979
0.08277381900057473 0.08576632136938869 419.9969092147726 0.0007967190265895266
0.06822337236091718 0.0992040134079451 420.0002326455206 0.00033828287986181413
0.07985039763449778 0.08907168299280181 419.994214687476 0.0008265110437550658
0.10881773515444597 0.07193191671983043 419.97950809640577 0.006190047853486109
0.1414788818500082 0.04915767467776191 420.00272031890694 0.0008530595737426045
0.14032439895651072 0.06815273504100608 419.96148214881975 0.00044460544234116873
0.045216699167460614 0.1643397701115292 419.9679165852684 
0.17353268017456303 0.05790625857971449 419.95131638589646 0.005074515898139037
0.1980729158636755 0.046373251141890594 419.97799301425385 -4.466081738224538e-09
0.1764359153559672 0.03938888720023303 419.99950643151396 0.005805274949973945
0.037390881302903294 0.2900421346260149 419.94871089783356 -8.5479757132837e-09
0.024337559199103527 0.28126628133956444 419.9786283494026 1.1831141176050683e-07
0.026724443886005724 0.21996122139039068 419.9851539776534 0.003079304216932314
0.03349463886417464 0.21890878634864827 419.96803699467387 0.003289068599207254
0.026382844858966976 0.2116920750901663 419.98375502564073 0.00394626857707392
0.028300226338450155 0.19428667770419242 419.99100477356336 -2.994247397009128e-08
0.02556358565522233 0.23786161937787567 420.0018004713911 0.005237512825549058
0.0286803562778325 0.32485468412648666 419.96864721745044 1.0276030416974516e-08
0.027253433997921038 0.3190902361979318 419.98591213430086 0.00044329238002247944
0.03601740292087747 0.3204616263973371 419.94707933800794 0.0004228995540378294
0.02804970559889665 0.35252703104945654 419.96362423734604 0.0006814029333991206
0.10327134735516352 0.07564385390728451 419.97495065443917 0.0017812214462449624
0.09862355641198321 0.09674225872453901 419.9430851605203 0.0008862494272279292
0.08955357186198566 0.09156336283946227 419.9626331649537 0.0017251452956158916
0.1118609685451835 0.07956819785844932 419.95972494617706 0.0025429714196752817
0.03524111786510868 0.24107341729718282 419.95640950958153 0.0005949442714956141
0.03455359793148718 0.25441361389751443 419.96363988707867 0.0009833358208793243
0.03097055446418154 0.3934430683309828 419.95380129771064 0.0002618351489406586
0.0281861656111297 0.36937472115417197 419.9586128702594 0.002233188994816256
0.03834180155906878 0.19436282415109646 419.94616234709486 5.894851973664625e-09
0.028056391671321654 0.42368562976906765 419.9743458219948 0.014495538590921769
0.026630438740378598 0.4413466873239657 419.99600504691637 2.317974222603468e-09
0.027360246046954525 0.452224722838379 419.9737219825277 -6.850088748456461e-09
0.02309298925729139 0.4300336503447175 420.005088014382 0.005910621178445951
0.015452871982348966 0.402443578574213 420.04142025695114 0.003909354564987288
0.27051137694858346 0.08011703978938688 419.97001527454887 0.0027793006965332245
0.3297624414638067 0.39790794004430946 419.9661424284152 4.4578629987409785e-09
0.05684984631441072 0.14160187885337316 419.9487673915403 2.2444793869026502e-08
0.14630386991435268 0.07242561129929762 419.9426400420139 0.00212786744538703
0.04266279429586899 0.2249100958860427 419.9415121711194 0.0028281796993542777
0.04432080751894335 0.2447859331463353 419.9418364468917 0.0020320239223393715
0.12752327773531655 0.09366205236299571 419.9322743773591 1.3795220102128992e-08
0.04269497471821074 0.3811517836331452 419.93794930410905 4.7410265911009155e-08
0.32168068487753926 0.30116129065344704 419.94022559202523 1.190313134251333e-09
0.322387099903325 0.41538296386086015 419.9430729612333 8.757790802105548e-09
0.04624365863751941 0.41981325762723043 419.93975845514564 2.692615903417751e-08
0.31226177771621716 0.20150885733703813 419.93836518594037 7.417302360511675e-10
0.3232723919680497 0.3568215678657241 419.9441944262349 
0.30318368434746196 0.14903398886403282 419.93879857071613 8.817130841699302e-09
0.03030802701027361 0.11361823665795673 420.25492294736546 0.04702271215208753
0.07955718257087052 0.06244578714777925 420.25547818213323 0.041645859517394586
0.06267923721826697 0.08187425959242495 420.2575589540097 0.018378773431739836
0.01162879596545657 0.13490432390228627 420.25054311356337 0.012991831035771794
0.01803729326866997 0.18594652697483977 420.25600055119685 0.10681500995786655
0.10968244710735386 0.017118468042630765 420.2506540563079 0.03024410479741868
0.17729114317640712 0.01764552865438583 420.25579844121336 0.05409199398932707
0.17025917944719782 0.004055508263635406 420.2510208253381 0.07882902792071618
0.1529164609448967 -0.0039730058472779595 420.25511861013314 0.05029302061128968
0.1580049446222802 0.026532681871981753 420.2602549237783 0.033574024992473625
0.08538455673240417 0.0404321860862 420.25759864826784 0.03023666764210769
0.027945215979378105 0.24415914843583736 420.2527246377576 0.032088532180420064
0.015872763707562944 0.2468212610927307 420.25706927417224 0.10659257682593944
0.01816741687143637 0.39527937285946696 420.2550787964246 0.0022898258768288605
0.007035517791648772 0.3565516249477357 420.2641021578341 0.03212886639930797
0.02438228461940832 0.32356348994534534 420.2646177629714 0.03142296042307167
0.008599624540993318 0.2807556327896063 420.2589453208573 0.17610096389091204
0.023243984337403725 0.21653438672044284 420.2569447396509 0.11830374543954923
0.021970745284392447 0.25856829035502416 420.25456425885716 0.13206851407768924
0.008139525506544875 0.2682395172433137 420.25663617147734 0.15368907930532447
0.03299838801243337 0.34528608296714247 420.25754245481926 0.014494130294655289
0.021428070550821278 0.2918994317468737 420.2586099333059 0.08789394712220562
0.22254441248999 0.03156977546907184 420.2574191351086 0.08710473168147899
0.21458266871217072 0.030572860047446186 420.25812594471057 0.020449891477385143
0.24373232333789824 0.03549752711559169 420.26010230417694 0.012190494189137018
0.2890879883371501 0.04437344247205067 420.2558217657696 0.031236379986064065
0.2988737402763967 0.06157069850646039 420.258232065318 0.05402380366691849
0.2890468203815136 0.0610583960243965 420.2548121432946 0.038176825428193
0.3092607529837161 0.0922530798071456 420.2548759895693 0.04471743839893772
0.30796474676789165 0.06959147202609646 420.254621614786 0.014863162790699871
0.3458567061777314 0.10580785618441339 420.2482193230367 0.048628966534042854
0.326500933741905 0.10905275012786256 420.25379294269027 0.08574012991194521
0.33000483648362006 0.10804065712045074 420.2554857787833 0.08057814949574924
0.3317179643790304 0.1446520737006559 420.24903908050635 0.07023746061086061
0.3297413362557936 0.16344729338310227 420.2511641215252 0.03972211982312601
0.3382930512071655 0.18979085524772912 420.25188703491136 0.04956766377829166
0.33845413567638044 0.2633135944954724 420.25579479727696 0.09720302000979837
0.35247368075794455 0.2223496638823389 420.2562249025664 0.05126830944833114
0.3406795377473357 0.2410876949171795 420.26063643709875 0.033595137048792294
0.3437683758695907 0.21899366826179587 420.25443770979894 0.060230055916424975
0.3337756053118398 0.42764141408223477 420.2581322081494 0.01692525203401479
0.2927415061754036 0.4340339839529656 420.25918298727026 0.0005315251927299352
0.09448144291518701 0.4143996096898573 420.2621405444013 0.023335813101609898
0.2903516565766769 0.41687573407065814 420.2540768217485 -4.8949616784308544e-08
0.08851779274551082 0.4169437447173411 420.2623918760921 0.03783030117914145
0.23656148545596903 0.41971514063642035 420.2566199030389 0.012557456773274328
0.16009492106300133 0.4245946707193544 420.2587998607808 0.006810191396597761
0.264416329226334 0.4106603674202156 420.25557282244995 0.005289164864694932
0.3355351298530456 0.38973897594013757 420.25815142664703 0.0031706342186065516
0.3508774647704049 0.36257208051291456 420.255078032751 0.054234292703976034
0.3477660410763874 0.257130225001741 420.25971507255434 0.06573687412690363
0.17920097161766313 0.42198208240325297 420.25872064307015 0.0028058727035092227
0.12721445041046703 0.42154562931624545 420.25318145495385 0.010187540260829851
0.10989938101065268 0.42457955146448995 420.2584135707076 0.020231140971982073
0.04664566177317369 0.43046763835852464 420.25899853369776 4.938909710370465e-08
0.08012671212920167 0.43862591827226843 420.26211806962505 0.005774382171264711
0.2505419454328915 0.4336768854238306 420.2568860723349 0.002519330459288489
0.23447064881595708 0.4341340155124908 420.25810558447785 0.004067758906194501
0.1488350513908771 0.42579926807251434 420.25737944064366 0.009020109150713546
0.3597377703441412 0.4048358581021094 420.2480479686784 0.08695489728113678
0.34884597676464424 0.349786090191646 420.2561014208245 0.07686792358243179
0.34978900342617447 0.3102504316899825 420.2634888573405 0.047833356294978535
0.362754894563487 0.4230459612959061 420.25615351961903 0.02447549287668356
0.3614227665203777 0.32922847190042487 420.2573553292035 0.043811101153273024
0.35705369157934425 0.21492157983841512 420.2537749488426 0.06654547274824038
0.3525979054001869 0.27958585333633074 420.2479838015883 0.08241661072427409
0.34556179179980456 0.15421311702966461 420.2541591374693 0.07871101203616725
0.2613504290375949 0.021731464192792448 420.25456408180463 0.05326541607070349
0.35388392619088493 0.13262568300287403 420.24640722099736 0.0633142254899427
0.22832374673524014 0.0003938147874652676 420.25497751920716 0.04695679078442294
0.3562920554266321 0.37158890006405015 420.24725424530374 0.04437389186186102
0.296727821117466 0.03326739666400159 420.24715046843454 0.0295716860390502
0.3456340711521272 0.10136581963720288 420.24085648419816 0.08414267271572864
0.17660227490510916 -3.7085187318164955e-05 420.2491337715606 0.05598383532184991
0.1976102966618934 0.011528857488511757 420.2556402961204 0.05528561244573507
0.21630802598607787 0.0004617658980256762 420.24823209662964 0.10653470908043859
0.044610750852860634 0.07122210898509669 420.2511808773795 0.07103164287596371
0.006769355987767102 0.15629429312435203 420.24982128835666 0.12955366100848406
0.008257858351893781 0.16761249827692354 420.253042708094 0.13534361629039135
0.012812160867739165 0.10932558593064487 420.2543039313784 0.03478948782946915
0.12088574526973614 0.018531825430274176 420.2508552571498 0.11545607034985053
0.005251065947641652 0.3858073588297771 420.25356930416774 0.060234614067287855
0.006099074435872734 0.2936486134709484 420.25308573164085 0.09638171496074069
0.005085340211460256 0.2550182611089659 420.2569127769383 0.12323707752425735
0.006553909158663709 0.2742193922602677 420.2453275080584 0.14381167764972597
0.004964649233895093 0.3249838068190666 420.25225591841667 0.05800033504615917
-0.004709360578559092 0.4161692551456765 420.25271824470474 0.03843066648073545
0.3648994788607074 0.3113283094383025 420.246221850097 0.010384196444244263
0.3522877431498396 0.2711745104895974 420.2500212094505 0.0928325023124515
0.3589718952464508 0.176812816347273 420.25682601560146 0.019997327236716142
0.3247025058444291 0.09536462688172892 420.2505684162938 0.10140832049127742
0.30023014690240013 0.05154622732294182 420.2500829955657 0.024357758855210652
0.3103382917238677 0.057965400682542065 420.24526524483997 0.033553235362447593
0.154648026764243 -0.0039652230344792445 420.2395571674657 0.08821827673910124
0.07347501965777725 0.046181765485489086 420.2554934567825 0.011512852603124315
0.03250967140241937 0.08393569176885944 420.2479266743958 0.043857571228127834
0.09124578520888492 0.01936380214589869 420.247891393001 0.016022732123069854
0.050581652524093336 0.05941726672244987 420.2499092516276 0.06913057721603247
-0.0018461362058400039 0.18744575874467653 420.2532420119272 0.05909232443160449
0.005023635597738679 0.21501467284613507 420.25122019882286 0.07981917470280159
0.002467687969719898 0.3398528774793464 420.24838389552525 0.05922899889488446
0.004463414902662541 0.3129731257499879 420.2534039653667 0.0245212052583125
-0.0005859858786144613 0.22269078303408135 420.2478089312868 0.06791492860016288
0.0003646111208817413 0.33829793808569414 420.245256547423 0.06789529252983532
0.11191433675208244 0.4833876080589638 420.2651938443358 
0.15149573244514278 0.46496185728761336 420.26460727557827 
0.24513761860238498 0.45217181305220816 420.2588557954969 0.0023769696826375225
0.27477728717170147 0.45484659607852274 420.2585602606774 0.00493775165437109
0.030973547153921453 0.5058853234716023 420.2605526174942 0.03224480456761191
0.015933580227749895 0.5026973303409318 420.2599861063323 0.038427202652579956
0.01270409812736355 0.4413101445648782 420.2520373120007 0.15610834012754493
0.020113075681992613 0.4722431467663487 420.2567381314322 0.02139504500889367
0.014462173853564696 0.4846041345344301 420.25301811014435 0.08228298544713201
0.02672220967140174 0.5180654328952662 420.2635939362367 0.061620303101292725
0.18746720844487139 0.4860191885195495 420.25935208511817 
0.15198943424279532 0.4941716565300459 420.2628243091923 0.000488327611020431
0.2643967323457792 0.4569773480474413 420.2606930993655 0.0005467962269174046
0.0567525609443546 0.45707875541724974 420.263731131929 
0.11703477789235218 0.5317757264228985 420.2588084312713 0.0002068644829302271
0.2026740716169247 0.5497676863837336 420.2559785249857 0.0024316080790823384
0.3009326853468186 0.4902557678166985 420.2615712323286 
0.27060425230803575 0.5219386738233709 420.262062452189 
0.1501753007037151 0.5166123752316232 420.26021814245524 0.0012959230823340637
0.34208611714382575 0.5262299321427686 420.265217135478 0.016741032151819484
0.14209793571110166 0.5326708107424758 420.2599267001773 0.001609880120615064
0.3444859942694496 0.4475760063331202 420.2514400569476 0.029796040943228318
0.2386375336117315 0.4742560199241618 420.25987284863294 
0.1530952301530569 0.5416888991291408 420.2586883702975 0.003130245439175197
0.04025675640560632 0.5573549932459758 420.25271708310675 0.0012240657925387602
0.3438723701696768 0.46373411079386395 420.2510318335918 0.058715719173084234
0.29820596840188535 0.5370612747451328 420.2576246833958 
0.3101454222904354 0.4648110281053796 420.25393516981393 0.003005097879749176
0.1733963484000613 0.5412633509241639 420.26109467828155 0.0014985617068445883
0.3516354075686912 0.5549494160588212 420.25548792642957 0.03355070153996302
0.17806737917178647 0.5241117225191065 420.2593227592595 0.0013756897751900114
0.17352572177493325 0.5524223962865014 420.25836858933076 0.002590732749915395
0.3399613938741169 0.5073969869859885 420.25860194048215 0.05558092868530508
0.10482093660923875 0.5230980201247133 420.25866730420233 -6.699010059755506e-08
