x y z curv
0.3617393806214649 0.25752607364361074 639.923336889658 0.0021411923971323393
0.3784905157590202 0.27714053026934293 639.8898946368785 0.00706322008957259
0.3686111964284205 0.23274904870695423 639.9390322603119 0.009157581536758627
0.37003696920670204 0.26799088835272306 639.9078143320282 0.010098851851457518
0.36630358167064747 0.265101536405578 639.9368467656686 0.012379228504599726
0.37817574832566414 0.25704263770918834 639.8470598882005 0.002513786447818678
0.37844154303896904 0.24148937249743627 639.8904126329604 0.007719368254797689
0.37900157695518555 0.28324004416681203 639.8461705380148 0.003413468512074802
0.38080402573593847 0.2713529142838714 639.8635955871389 0.0005975299885062068
0.3950411164998462 0.2767145264469271 639.7593698932172 0.002381241606715907
0.3906153721991232 0.26444967758188304 639.8083227017316 2.9629011691094406e-05
0.37723885524799616 0.22145940281328896 639.9003591007333 0.005105372382605972
0.3702209548507738 0.22883102602843658 639.936314515664 0.006518275200099965
0.3806851675854715 0.2326456523637638 639.885905414029 0.00014768616853609606
0.3818859324131919 0.24713390611600672 639.8212551815943 -3.7155549857150954e-09
0.3803024810433653 0.24501196213098814 639.8356214643037 0.007489001441328626
0.3778597549387049 0.20862010200343248 639.9150255246878 0.0023826933990062967
0.3767122995530871 0.2261402960018583 639.8558346044236 0.001482506657826543
0.376953007826247 0.20810392074271036 639.9062870852173 0.0032227582501579734
0.3768735389919806 0.2078937777477933 639.8865607230229 0.0020953158288880215
0.3940186557431753 0.24912448779861784 639.768894789182 0.0030660498367287305
0.3779185144463016 0.19734333379823427 639.9054533105281 0.003687821608591586
0.398057037966735 0.24333320661862787 639.7543689790502 0.011372030305966322
0.398435459474743 0.2222188767820054 639.7903391049908 2.8112603758787646e-08
0.370607811038145 0.17374867511937195 639.9277712259491 0.0004220469054295854
0.37882961993676395 0.1879728160823022 639.8669392335092 0.0006453726851795552
0.37701239077885074 0.1682220495053019 639.9060263354064 0.009646519455458509
0.40384861540744194 0.22662970870106527 639.7686548881871 -1.2582776485518226e-09
0.390804341841466 0.19224191803343307 639.7985318599297 
0.3909997878002625 0.18849883626532374 639.8165228138135 
0.3854916514567335 0.17200004857664397 639.8603303757523 0.0021424985337432974
0.39136823326810866 0.1340675976453216 639.916874800399 0.0012627548132883293
0.3881630245998177 0.15957923109416597 639.8874362910192 0.0007198304666268446
0.403561462819277 0.16776860125450313 639.8279506983371 0.00010515604068638142
0.419844289752316 0.1925094658776844 639.7486366322563 9.617962664308005e-10
0.3908595605839199 0.12271510056941173 639.9388404767801 0.0025394901012054548
0.3984286239956178 0.15371902678190352 639.8544152692517 0.0021243969835762085
0.4166405886719363 0.15490093596391322 639.8066434381221 1.0744066552690904e-09
0.40962640465383576 0.10790860633196436 639.9142478128128 0.001505046643200241
0.4132406311891179 0.127039221437922 639.8686967670565 3.586541738224319e-05
0.4315843614920792 0.13768883113215827 639.8132069567342 0.004543249688175893
0.431596630856952 0.14252484379258518 639.7832932909712 0.001240296198734777
0.43615532727241885 0.16441643472175616 639.7493506168498 0.007321632791977357
0.4200343676168028 0.09440676895170663 639.9245256274555 0.0001078849362462497
0.42454516543415666 0.1099742190187305 639.8909458113302 7.307849188611844e-06
0.4303590876320225 0.11330516565414989 639.8694241440778 0.00013919727012127764
0.4458720220696181 0.12592172001736016 639.8072446471278 0.006486169953709243
0.43154004834270077 0.08631090634076961 639.9261795885675 0.000373838197538368
0.4362581835935329 0.11675557214705679 639.8442920601775 0.0006622856194039346
0.45651999171464913 0.11016327909834354 639.8314767006508 0.0009629327805907854
0.464951346299286 0.13162922309851458 639.7832818756291 0.0005928685666879076
0.45755326989274114 0.0770404166824377 639.9042771158947 4.922952536919118e-09
0.45740711590921446 0.0937131021678435 639.866616969715 0.0013586582816953188
0.4629389067247801 0.1018496319477744 639.8420784439068 0.0011099043469321845
0.47593743980739783 0.061859427694559876 639.9236858717194 0.00016374097416647852
0.4869914584659769 0.1313198547125405 639.7600487249351 -9.836050669153612e-09
0.4750756325023476 0.07618548785582054 639.8924302093519 0.0014203236271824807
0.49179405456832337 0.11944440071919876 639.7754006279123 -1.0142462380912266e-09
0.47824091220018006 0.08494446178488307 639.8604575092306 0.00041101567139304205
0.4815430494008857 0.09322841257432776 639.8443446074456 0.0009711761466162176
0.5062392431121402 0.06480548377409442 639.894157076876 
0.5066893132277117 0.07602388838886567 639.8538584175884 0.001906786174325638
0.5127347652774233 0.09044449427994679 639.8255305739513 0.02109433477983626
0.5092994498096444 0.09835380383812109 639.7918243776995 
0.5184938411497414 0.07855347581604727 639.8558456750397 
0.3760229716330088 0.4142410470242242 639.9168563294049 0.0038102551729568813
0.38286467883558534 0.4398623142181767 639.8827315306597 0.0014733001507964882
0.3746115383676752 0.3810171699308949 639.9284897562544 0.0013713079575764424
0.4060027855237446 0.4583058320215385 639.7384043277418 0.0009972372252630992
0.412365100232166 0.5416171023524747 639.6804475641457 0.06470350890018481
0.3570463733681367 0.372240009927069 639.997555097857 0.017866875464269818
0.4054319776040086 0.421055776586792 639.7467143822128 0.005652458502369296
0.4086261373758204 0.4539548637059136 639.6944242151445 0.0031648559763919563
0.4138427167883747 0.3921340145307411 639.6426299225036 -8.862397145767388e-10
0.3771652190934059 0.3833822500205095 639.8967125003428 0.001657185647458048
0.4053801070912635 0.41738336208984755 639.7142911924874 0.00128471860837007
0.40480784820118076 0.37732011260130577 639.7142158993737 0.0010495005977700534
0.3991070523764671 0.49732163862862266 639.7138484830529 0.0009816921726473933
0.41071589721380575 0.442404586209653 639.6966081332125 0.00034604240556476305
0.39380620756785983 0.3866707467357599 639.7877213007054 0.0006615351365563478
0.41491743342108717 0.4853394527891817 639.6780986534238 1.5192699501399373e-05
0.40886466486652695 0.38825774285236947 639.7424708207708 0.003885427450229726
0.3749399428549285 0.4270786303425894 639.9309673378873 0.0016573140801221817
0.37801443303321736 0.386177784883465 639.8902667952358 0.0036666574352213262
0.4175891819956601 0.5242602146310653 639.653767694914 0.006310923780531429
0.4222024197036556 0.5288462781756381 639.6329419810589 4.269755867751111e-05
0.40881933662583053 0.40727570097254556 639.7365049936358 0.005264397764835698
0.40928335171205904 0.529134315564404 639.6969522762579 0.005060675141359106
0.4134364966236175 0.5038745532504213 639.6734034009274 0.0037564554794845195
0.39154503098711635 0.48966707332125753 639.8067185959906 0.0026207473355887704
0.3657910576058621 0.398654779033232 639.9465680199429 0.0020402566563291254
0.4249525025641342 0.4708978178637818 639.6242785812505 
0.3862059184130452 0.36637662760305273 639.8177531026046 0.0001550997996858181
0.409423802617106 0.38061507622078494 639.6732935592642 0.0012836485878615787
0.41095509834642185 0.3878177022569926 639.69542582368 0.000711512069368624
0.41766299587957617 0.4294190583242616 639.6683939369179 0.0025534498446549265
0.3863525491906545 0.44055522626099586 639.797569898981 0.0014216811756363533
0.4075723794701194 0.463422444216469 639.6989076389959 0.009576214570234075
0.37972723002537456 0.391278836473117 639.8667714411636 0.0012595183550604275
0.36379509159720663 0.3854704650523029 639.9730872433564 0.003927296660471538
0.4134506699274712 0.40560820857060026 639.6657534452224 0.0004455263224995696
0.38151718571605053 0.43100926862427663 639.8611456531623 0.00056602373019737
0.41418154768075355 0.5126686897582714 639.6449109456426 1.19453495487809e-06
0.4052125440296415 0.3664089378605097 639.7423702797995 0.0014027440749917928
0.402759062703673 0.40447574389828045 639.7645452033281 0.002021773240684812
0.3495109921976218 0.3865532143537797 640.0058087320704 0.0034750968660669547
0.38745017327022874 0.4072154771330371 639.8530348436792 0.005179613470355149
0.4261711444629641 0.4307869056396243 639.63421724059 
0.39427295806803864 0.3671525223228091 639.7959375441553 -2.3238683066673165e-09
0.40028322224375434 0.43111628459912077 639.7628115039656 0.002903953682848629
0.373206575554643 0.403397474152905 639.9207847776631 0.005248104931239796
0.40281936426543064 0.5058841060101598 639.7235142759911 0.011577805389138213
0.3684284574009265 0.3941685192219362 639.9393975860163 0.004144770234706903
0.38394825458790444 0.4168924782219173 639.8737773435363 0.004674965159160107
0.3969933050742007 0.4124617422875784 639.787631158988 0.00492818773687951
0.4052913037345302 0.48413431828178993 639.7237395052637 0.004554777038277974
0.41208614184338854 0.4626660611658489 639.6772675872802 0.0015475066945057122
0.4186322108140586 0.35490400847059334 639.6702632278049 0.00573319698427586
0.39239310880437667 0.47386693989983647 639.7877895516556 0.013398544285569742
0.39246215765439874 0.4542679672308825 639.8169202192101 0.0032918403772793235
0.39147779391052656 0.4601834283518497 639.7977326125261 0.009953947832001316
0.3887298460952014 0.40284786509595966 639.8204570730487 4.26762994823194e-05
0.4051088463094024 0.4353794036369047 639.7358734901138 0.008376653866294647
0.35393096687522124 0.4229314963559241 640.0511309478314 0.031384633995065414
0.36203888391058775 0.41218960670935717 639.9811582536859 0.005488705227385236
0.389026794151167 0.4784580522191132 639.8279550649809 0.006860130872696114
0.3773988160063139 0.4739441414805153 639.8680015763135 2.127965782209917e-09
0.387569251611161 0.48228294128500543 639.8193245880885 0.0009964459760910525
0.3739261355953273 0.4603523292616545 639.9128688673164 0.001708769283060197
0.36221004543987684 0.43592072611363714 640.0095133474418 0.008190341940533507
0.3662061450246946 0.4358990400290583 639.9958354689011 0.005470783420248811
0.368035838059671 0.4464412155686904 639.9487020859083 0.00011056989758305143
0.3553517027055423 0.3877734550014916 640.0399198690275 0.01776606270490232
0.35475157381545064 0.416843267563124 640.0220858721802 0.032128017485141165
0.4020968124536226 0.5153226210962545 639.7393132434848 0.011775966470887153
0.37759522542266 0.4450678129370443 639.9106251939446 0.0008002830949167081
0.38017366429779087 0.44950838736645415 639.8889042913096 0.0018635208928772834
0.41128908718163565 0.5667428214838887 639.6865276960817 0.09770110961264915
0.3820360508464221 0.5243833280247779 639.8785091017645 0.005044204205215685
0.40603918573239084 0.5531646959929378 639.7339204937862 0.0763164953192964
0.40507941594170316 0.5619292122971266 639.7379799527996 0.05429188012490064
0.4211723660177328 0.5698357105151708 639.6445272714358 0.031491905605062556
0.3623611628001699 0.49264680084468987 639.9608297776144 3.402141519391338e-10
0.3941696921223604 0.5525227081246644 639.7863203629445 0.02380954846042328
0.3959162169290904 0.5626717988419875 639.775830060724 0.05753708263467442
0.399012603779445 0.5667547005013304 639.7650482751695 0.06230237052761616
0.3842726244439376 0.5275720162007803 639.8589540878854 0.0004039400395152669
0.41268897945265903 0.5701506247261616 639.7185400570897 0.09526217870543018
0.40402915308172277 0.3255591712906946 639.7261441528398 0.001433746750813654
0.4153637892375046 0.3215873754240904 639.671477953172 0.00039593884617384776
0.4118434036747486 0.327072253840769 639.6972016184196 0.0014967999612048094
0.41902905370726673 0.33013359534048076 639.649078348624 0.00026428896915801274
0.40557044168354595 0.30266703187260097 639.7372583734658 0.00625858891445856
0.4122291026372345 0.30992254146432363 639.6835809195496 0.0048709231037070725
0.39227601152863595 0.31911572585528725 639.8075959683769 0.002445936093944016
0.4188641761730843 0.34962942107959666 639.656772520118 0.010713267301733477
0.37697019983171426 0.32231769106118585 639.9104935175369 0.010082458632349646
0.4163311329069056 0.3469139105483181 639.687801139507 0.008289741194983255
0.3865218058556577 0.34074558182330894 639.8419573584188 0.0038203560154104086
0.41245918789107994 0.33782657194687377 639.7048123161239 0.0006508919621863332
0.36941222114160815 0.3280478433137607 639.8760698562925 0.0033394865189170456
0.3848675527998985 0.31819706210683485 639.8269020389494 0.0002940929088264253
0.37003793325468226 0.32967760214543396 639.9310692819905 0.0001574306502472143
0.39178211394452117 0.3280449124909759 639.8124808844412 0.003984974615943115
0.4049695188752774 0.281931826031112 639.7340834417962 0.0016206022047658244
0.41134892650025506 0.2901307616723095 639.7141801684444 0.001354386313643972
0.37646942302915953 0.29128597735235107 639.8950180013877 0.0017627339568547318
0.3926744485418812 0.30994398573934556 639.8009212564301 0.005997419855655822
0.3743444931363775 0.5553369344594737 639.8525844083838 0.027296381346091365
0.4012247574607063 0.5669998969596175 639.7756416237152 0.031147833906089273
0.3690557905421742 0.2802566970807011 639.9258855915934 0.00866766030474438
0.368747133720294 0.2724422443166019 639.9357349954468 0.015277525113592077
0.35887827586342097 0.5541413012379398 639.9610286910623 0.04857505268107205
0.37858853229112105 0.5601297856257959 639.8796362369013 0.10113478980887396
0.3690154223416772 0.5513700976371432 639.9370097111678 0.01349393116370634
0.37636327168538136 0.5659721688943097 639.895282016437 0.02204222657447115
0.367118962103846 0.23169800777941807 639.9665540894528 0.004633494358875571
0.37055391670364535 0.2211482920918248 639.9540890749857 0.0027270253439206638
0.40561687067731694 0.27006523815175315 639.7225306115782 0.004539713072089401
0.41832999068071314 0.3004307026415178 639.6397606989943 0.01323936016250474
0.4193594351268263 0.2613898332619129 639.667879516013 6.288983747986735e-09
0.39612952809059704 0.24930381800628976 639.7287225830805 0.007279948720057083
0.40575286301333036 0.282948483485315 639.6666803360363 -1.1066288705908393e-09
0.36504982624256466 0.21456898543638425 639.9744658164926 0.00574859391569251
0.3691334429971192 0.21299481229235817 639.9612664342981 0.0029004548639499747
0.3556443228188963 0.2057434869684017 640.0067870461196 0.006776287071187459
0.35595548622446227 0.2251229691462811 640.0337396395961 0.03502655349705185
0.36919253456765894 0.25277581309789804 639.9592826791101 0.009331759492296652
0.3614918014269317 0.22900537825131473 639.9965802305916 0.006161636665834494
0.36023820613877955 0.2126987250255538 639.9945441252446 0.007025889957748402
0.3534236749357735 0.21974875816490008 640.0399211693394 0.036214881736456456
0.359552237411604 0.20115162217855098 640.0331598087615 0.043516325516225286
0.35292200323747874 0.1784197547679563 640.0381547299592 0.0668842223513595
0.36608122213046457 0.1911705244152081 639.964797591306 0.016145296379051963
0.36006875053634047 0.18370273808255397 640.0176740604908 0.007286214588534323
0.36359994723643135 0.5518712969322718 640.0482078148334 0.09961434842867763
0.3631131632002148 0.5593819801001026 640.03818163539 0.06091545649881693
0.3534554410419059 0.5448057931889747 640.0347163721062 0.006817881155627839
0.3641858339847269 0.5661485461820619 639.9816158506478 0.03980458115660205
0.3576852360852572 0.5533325307878624 639.9906837976046 0.042617345540510776
0.3671602626086356 0.5696681026157767 640.0221704109089 0.03861902640020897
0.3591815827700898 0.5637445132428898 640.0093675727209 0.021378376783056926
0.36185143477577597 0.5434959300500883 640.0068953222084 0.015078816352152115
0.37098260809151556 0.5713267121273647 639.9466437970535 0.07664882426857941
0.37396350437452913 0.47362139566642963 639.9102085972008 0.003128211994502139
0.35852779562852694 0.45420680638198013 640.0424486390626 0.1198088833741422
0.39121332831053446 0.5191995607511122 639.8053104560831 0.0015651018367581803
0.4060104673776634 0.5391025599024951 639.7276320885951 0.013342285412950114
0.3957255475798418 0.5333118288660129 639.7525918156973 0.0015353940409000412
0.39065432233142083 0.5275106224849438 639.7761642844101 4.363048088396254e-05
0.35942751714862575 0.4363995886171638 640.033293308878 0.05052440969829403
0.35180980405907897 0.4761244184869644 640.0015195218168 0.0060392019076898045
0.3778691205553337 0.5044815068519142 639.8570680596016 1.6134640464198114e-10
0.36073651792182776 0.4593424818253823 639.9724264144821 0.006281273016981996
0.3592137313712166 0.45849574130293697 640.0072781548295 0.004547838014098456
0.37410892197806983 0.4947922739299459 639.9202794598773 0.0008931134917774146
0.3573296072575698 0.4351172957221491 640.0502638051223 0.09373167270358965
0.35961554025349324 0.437153434635948 640.0178936689427 0.009248724500776129
0.41049065426693937 0.5583226319682185 639.6747943432374 0.085158261889588
0.3722075585713396 0.4971998866836209 639.9061760713092 1.805436000116071e-05
0.3679873199791213 0.52319593013868 639.9503242263074 0.005509643106483586
0.3480393165165401 0.4844943286704408 640.0387374492237 0.010768119610180624
0.3598329590606188 0.5208415796275069 640.0223955610413 0.03067230300789531
0.37399498443964735 0.5147618815922645 639.9206101863903 0.002616539516385798
0.3506234073991231 0.4971022064817505 640.0273977508248 0.014490154861677212
0.3571188430008296 0.5096367269203586 640.0185322855921 0.00988672577026145
0.36808134246024765 0.5357990069396372 639.9462920217447 0.013447812360243165
0.3585462290765954 0.5174390773800943 640.036347061747 0.018756846850978514
0.37458749695373417 0.5231886716846179 639.9086134794593 0.0047637015818899385
0.39274663837423945 0.5472794030735011 639.801596541021 0.009074523902460125
0.36198031632343375 0.5254588909345997 639.979337535499 0.009839930378293775
0.38380410405153914 0.31506890733016546 639.8465001599334 0.0035951214427116652
0.3588920084184858 0.30448971912213657 640.0080888284062 0.002963577367635908
0.373366694843819 0.31946286435142907 639.9402748575435 0.00169890531198205
0.35964924462157744 0.32468956218457906 640.0205357984668 0.012457042457076427
0.3560352968411193 0.3169524558989941 639.9927114077005 6.703831416529667e-05
0.36553829713909297 0.3239288238619501 640.054412565291 0.05617777283950948
0.38003274654099306 0.30517377645204574 639.9002376923513 0.014352231146983953
0.35566936465794136 0.2944596113673288 639.9846707040278 7.197703349491812e-10
0.3532167809625892 0.286326148622124 640.0247016379342 0.018529808018343544
0.3770294149558037 0.32072952125764825 639.914157543927 0.01022919706536602
0.3733364691965133 0.31366520664446657 639.9406872724294 0.009045940131379684
0.3643324181169745 0.35594308928714413 639.9570757949285 0.00012564962475923233
0.35620707228801773 0.34715643422648984 639.9929690695541 0.004532494235944429
0.3582502209920936 0.37195605376637225 640.0388117502793 0.03165605544997888
0.39742626671779197 0.33640297634456934 639.7722138339747 0.0010347524610024737
0.36851225432397294 0.367365045342701 639.9448768515844 0.006981567522489154
0.38188128373011343 0.3620680320031647 639.8846636293368 0.0007415374537822303
0.40390563531674395 0.33338706391546036 639.728607348881 0.0034546228867892766
0.35560556474889865 0.35439108445464707 640.0321403337448 0.02687262102783812
0.37356802773824727 0.34185453050521397 639.9107332074174 0.024138208630675423
0.4026061230419382 0.3389803816802007 639.7398072842376 0.003932763330459739
0.35813489850707114 0.22933807907955278 640.026256573825 0.03663347422929939
0.3557560202693447 0.2745206118959449 640.0229826699469 0.016125478953684574
0.35495363843963273 0.2599736222462137 639.9933184970379 0.005804814489308711
0.3575971667752241 0.26317797184160546 640.0317294526263 0.011578418608319792
0.35468438279932707 0.25384796838114826 640.0167569359114 0.003409467283440976
0.35609277908910847 0.23421866586288817 640.0428423607781 0.02291437462848321
0.35602682799741225 0.20566857488762394 640.0477512099125 0.05309404189206111
0.36693599789366776 0.18747999988771058 639.9525658157393 0.0060742484179188315
0.3700245076091337 0.206139282371386 639.957394319788 0.004038744878292649
0.35630403211063694 0.18048250630420398 639.9849424505803 0.006102183273326219
0.3622013527420595 0.17329501184076787 639.9631103802878 0.012802838289106
0.3693030719025404 0.15685753654734244 639.9834359534449 0.008880447430096874
0.36810867644189504 0.1445358036187256 639.9987757373185 0.008725282891736333
0.36574889522744086 0.16484899650809381 639.9695171742534 0.013017260043506148
0.36223742872885345 0.16173806852257616 640.0013924503013 0.012979850564978449
0.3634566969582399 0.15988807192349425 639.998316625442 0.010498876658349749
0.3602091959495544 0.13843791352816734 640.0438587964613 0.04714075302865755
0.3627720696431469 0.1345705392550965 640.0147463030536 0.0026322189505888663
0.35863739516461396 0.16819639788865537 640.0477895648969 0.05507809159650039
0.4119203149527879 0.21311394991977664 639.7234924698361 0.0020449431827801318
0.41126430646249634 0.21559972117049742 639.7287857954817 0.0019851824365984677
0.42640311849187024 0.24689597420773202 639.6611799648623 0.005367761576247655
0.44200780978680365 0.2542300950645871 639.6254678051529 9.013752450756508e-07
0.40779274826493955 0.23546481741772154 639.7080533479084 0.004665453953733362
0.4353622026998091 0.24136565085809136 639.6407754459375 0.005634305706725009
0.4477491519762618 0.1668322582177453 639.7317077771403 4.745093775946543e-09
0.4419785395080172 0.17446861390335638 639.7187678476479 0.0006694964433024098
0.46059929589239 0.20026676634340757 639.6506207974304 1.6180197327940103e-07
0.4345701126299326 0.20005855433799247 639.69880262645 2.980684259038966e-08
0.43863898065636303 0.23366840912930573 639.6385898530864 0.008165052772604183
0.4334140029858005 0.21939007759122978 639.6782205728042 
0.46904789604830216 0.15862892444422744 639.7273622004001 2.1431726072052852e-05
0.3728063646051593 0.12456711727988179 639.9883365291598 0.010492433991755567
0.3883239657447987 0.12983641881183525 639.9456083241465 0.0001423599597916718
0.385804074364484 0.12255307099110281 639.9522666794022 0.0022490391396957784
0.3942459879142239 0.09515355622244026 640.0025489323144 0.004136895353074142
0.391388327962322 0.10146426467695038 639.9976134649958 0.004090201929631456
0.4155514512202248 0.07818246295730057 639.9674624910566 
0.4113728915721705 0.04635639303744258 640.0438187634797 0.04871111111950183
0.4293326591799796 0.04598855457282263 640.0049257881712 0.0023265333800533096
0.43570349241114437 0.04744844152909537 639.9957521416877 0.00032073660383971007
0.42508830641507156 0.08218447046234766 639.9428596267638 0.0008556923695087783
0.4086417758765684 0.08775359849620169 639.9511377512633 0.00018871094943760455
0.48152359198905276 0.16261966914440684 639.706355220689 0.00037071277407610523
0.4825989385895211 0.18770782554251966 639.6495039095955 0.00030798973086778637
0.49318498041629033 0.1811986495125657 639.6602798536568 0.0018975732935256474
0.47943913358117374 0.1771835521406419 639.6799551165544 0.0002641753965723923
0.49830687363274045 0.14587165057617993 639.7276729205024 0.000500805856752967
0.5050062796744095 0.1746600299693318 639.6662232608984 0.0011323575108943618
0.4956387406571153 0.19257153864724164 639.6358496407653 2.920715422578805e-05
0.5184473385321844 0.15189060633028362 639.7007408140657 0.00037025099604296726
0.5173758917869646 0.16321858951715756 639.6783364845434 0.00038157810953684616
0.5096461149992858 0.1604471497291101 639.6930013882152 9.268611756495118e-05
0.5316618689365574 0.12035701579264983 639.7566780312699 
0.5383725702669135 0.09623540681108843 639.819558456848 6.327377241470617e-09
0.5323505039763504 0.03349700420702201 639.9400287850838 
0.3702633250388394 0.11246049360315417 640.0265104036154 0.007218817821035827
0.37406748885026736 0.10225236252028268 640.0396551464588 0.002151369687847018
0.3778620749467787 0.11802691316735539 639.9979275459581 0.014763580618542096
0.3849600985115007 0.11271132151349811 639.9759107609945 0.002657024116110213
0.3982029795494837 0.07161961996446285 640.0227630638176 0.016655416105351244
0.40598642881181357 0.06087096094928613 640.0290849462507 0.04037670142827888
0.4207214238784506 0.04985285361365347 640.0132131923594 0.002821782952304519
0.42649953170964344 0.037240038716050285 640.046350662167 0.05761035986678104
0.4310565734121774 0.05169138808474388 639.9941121576198 0.00029946630911860405
0.4459800750100765 0.019407527617125497 640.0390379853461 0.07146024254570216
0.4497210169637889 0.05783565729935852 639.9597745718708 0.0003335715811689749
0.45786464989288944 0.027970468669951763 639.9986112479593 9.714562186976526e-05
0.488861254125056 0.02855682043063872 639.9880979776282 0.0019268090253284121
0.48510025253667777 0.012569968505188413 640.0192946044373 0.03222377815400919
0.48173589347387336 0.009928780475022079 640.0311375439196 0.025488869694065944
0.5078392513615246 0.021343726589087897 639.9756561371063 -2.65844101599865e-08
0.5179328506073988 0.040425845280475665 639.9420369187912 2.3211380228379962e-08
0.5323520130943715 0.011149168145258249 639.9925525278557 1.6399561414884105e-05
0.49543301688390395 0.009351804822829081 640.0237265514762 0.022359444708806152
0.46631642121565187 0.008897653964247633 640.0414365639587 0.017377111314905734
0.4679559166563206 0.008792585419381558 640.0445617998623 0.01706470411954241
0.5028318782661373 0.003321338329360762 640.0436422233611 0.021894212651034462
0.5117335544897159 0.0057192456458101774 640.0315672740771 0.03446659372046398
0.5321779442601101 0.007501150444506854 640.0240994073854 0.034672161490247995
0.46788447929344085 0.04566972329329592 639.9593623289857 0.0006682317002994665
0.4555188629108568 0.06014557647111911 639.9427615572556 0.0002626650688510639
0.490784419210407 0.575317544187442 639.8581735185486 7.818703448231221e-09
0.47162499874998753 0.56726497288076 639.8772811629792 0.007090009063627329
0.46298053636880865 0.5762586300839654 639.9107238910618 0.007160252407411767
0.5319773408581173 0.5721274227723433 639.8434877247521 0.00016048481550843107
0.45656419496138784 0.5708290071471193 639.8834545255789 -4.8138607921610166e-09
0.4712681266581951 0.5782415826265991 639.8429071707634 0.007957472362033941
0.4768527201128127 0.571188920384496 639.943218825792 0.003740453567620785
0.515913363671671 0.5721640746882688 639.94823430243 0.002702033112792032
0.5261137139267674 0.5826296782105617 639.8946102798868 0.008522873461049454
0.49745480709391543 0.5764683966280149 639.9065544621205 0.0006242053241354405
0.49784111370269646 0.5678569496258958 639.9366918931115 0.004130763349647928
0.5087389149229653 0.5694584800267403 639.9266038571456 0.003680739161606305
0.4650062345016229 0.5797870393756557 639.7398779114209 0.0005677121243954167
0.4898793206044367 0.574631004776992 639.7528472997458 0.0008651631072111271
0.5000544067155346 0.5720712477162356 639.7348356588427 0.002124806792170707
0.46671325032660743 0.5750936490302242 639.7787397391129 0.005272957270056138
0.45923470518992754 0.5730349979550318 639.8054401477735 0.0014913684124755705
0.5148969253588187 0.5700460559830081 639.7395073995277 0.002638970193982786
0.5007885963305165 0.5690987675920478 639.8054595146524 0.010956136621999856
0.4920758103955135 0.5701285757154272 639.8101694129435 0.0003039152663724867
0.5267248589900779 0.5812014475587859 639.791728416216 
0.5271084496411101 0.5717865378681041 639.8339413987387 0.00019881974727009962
0.4845552590468126 0.5737588899951844 639.8298810223785 0.0009859461418656869
0.545086681059639 0.5800495087196338 639.920824985065 0.009603611335523711
0.5505547034860335 0.5741898700595772 639.8559527130863 0.0008035078282458114
0.5426950338115544 0.5754213241386694 639.8691678184207 0.0018718125721300315
0.5335769049340179 0.5724421812354341 639.9494055517175 0.006806601239705783
0.5652173407407675 0.5739677987354633 639.8425895526647 0.0010776020835990125
0.5604849748522053 0.5782369515889769 639.8926807712784 0.00093415142571091
0.5714156453261586 0.5730621870569885 639.8606832753164 0.001182358315212309
0.5948891541955794 0.5755582047377571 639.8621051763748 0.004861521791391899
0.5884021645296168 0.5749765487857105 639.9084304622198 1.4119103087379865e-05
0.5979051697452317 0.5799760251399828 639.8738796884843 0.002824534035506762
0.599976575564635 0.576534231760135 639.9046026321349 0.007620212136374753
0.6250627074671907 0.5727154595375163 639.8742459198337 0.002063774156075423
0.6080591353935306 0.5772451211721359 639.8955131366773 0.0055085471856845415
0.5480774533806113 0.5727382999537116 639.7442753045756 0.0044980287317323816
0.5774485332568445 0.5691685782176831 639.7449643801668 0.005234775353089803
0.5569838363494146 0.5722738442143228 639.764374107782 0.002314992341234483
0.5873259880901142 0.5709288622432788 639.7380459612393 0.005120707717212442
0.5629051854004715 0.5689034271215844 639.7458944960467 0.004417152090993502
0.5730339582276464 0.5793161434030678 639.7802594560067 0.0004500591517833371
0.597662926448517 0.5701357154347584 639.8289902307663 0.001085377154724707
0.5827817336697996 0.5707993183377524 639.8104126545072 0.0053150228841174615
0.6107571099042927 0.5767814795990145 639.7560000193728 0.004453271218854226
0.5602585250995799 0.5706051158868825 639.8177379875813 0.0014305923933473899
0.605684015013882 0.5732939493498601 639.8137645814508 0.005046020657698459
0.6117265043280972 0.5724889827169778 639.7892212520381 0.005809477314135072
0.5717089231262602 0.5727147570070257 639.8163104237806 0.008450436933291394
0.6367493188576586 0.5713683721269074 639.7614402451741 0.0057049480466967555
0.6226735322404258 0.5772339758650592 639.8221607708797 0.0011097673420219685
0.3816970764358272 0.5757307979749059 639.9878914622683 0.015144344902593613
0.39705436227598473 0.5780703138661915 640.032651094682 0.011394071052987486
0.3808327492391973 0.569176481725466 640.0614348318693 0.11602822846655476
0.4761961253554972 0.5754804652963185 639.9911590854849 0.0031401723539627143
0.48379750877583866 0.5768370995637674 640.0327278259559 0.006014775689289907
0.46972464650195606 0.5697400781069776 640.0055845694054 0.004319436498430581
0.5173413622710528 0.5721914725631053 639.9685976541894 0.004827505174418284
0.5046227973117139 0.573738712374433 640.0017318971474 0.0053860735156443925
0.46011016871536836 0.5714525202503804 639.9649965050293 0.0034584016679903443
0.4682475617266629 0.572915359500353 639.9785645979223 0.006080894003621729
0.5143326949931418 0.5746926296089304 639.9767855268204 0.0024550576012465604
0.4944178913142858 0.5698060000372347 639.9705860059112 0.0016179046475442943
0.46126793925687826 0.5701463083349543 640.0005050272292 0.005277884983400956
0.43705231188256954 0.5695810106765086 640.0064282613579 0.002455521586578041
0.44032851587314564 0.5766774910665627 640.0383262827175 0.021548449777329837
0.43021943492464504 0.568306800925447 640.0586978993887 0.010585315341051891
0.4288553625901057 0.5727512511605586 640.010593001637 0.0031586259948834113
0.4212207371841367 0.5587827987679248 640.0599767532301 0.06869668381264604
0.4339811724949805 0.572851447803353 640.0404479836369 0.028359092065459786
0.45943813184793003 0.5707003861250949 640.0247726223091 0.006184147967267877
0.45322199119218226 0.5727936994008155 639.9859030494458 0.0034440435753373046
0.4943210674565055 0.5720714174883457 640.0328820482912 0.01754838931422551
0.5067066444067029 0.5682250662187113 640.0428776910777 0.021110635518551194
0.3702496609201714 0.5673896922087419 639.9634066282634 0.0626294152450123
0.37096480100047546 0.5674187483194455 639.9934239831491 0.055056807346975024
0.4069608210869928 0.5739679939656752 639.9836012760175 0.006709649542443287
0.41260820349761934 0.5741117558411358 639.985300263378 0.002238273657557894
0.4016191799398421 0.5731914490402141 639.9583671135204 0.004319534988697872
0.4198666848981062 0.5722877407117843 639.9697659721678 0.00310369756955377
0.3881944123468914 0.5732661221261685 639.9719975604926 0.02021235167576452
0.3983055342634188 0.5742030035776154 639.9944223858594 0.008782999916525992
0.41265143777167335 0.5726825015002801 640.0167037804093 0.005092846956799951
0.3796162787281686 0.5721966878241965 639.9308574401355 0.03799704688166943
0.39879972080268805 0.5724199752361406 639.917482881735 0.009427103441622444
0.3960841293821227 0.5753243813582798 639.8883211319041 0.00880348877591587
0.4096179683523686 0.5713616540319835 639.9004540596858 0.014249840675182118
0.38401430273752535 0.5701042473143613 639.9190334265078 0.04282626278346033
0.43395334080137393 0.5755704731107384 639.9524152332624 0.0035881954930444444
0.4111457606405378 0.5701456379706638 639.9431534176003 0.0013883143594522645
0.3895668890850539 0.5718590267533084 639.8754409762093 0.015957625258886353
0.41100517350127996 0.575985216247168 639.8118792043974 0.03327921341214888
0.4047356981879391 0.5689782978913719 639.7510963365283 0.07429220971925231
0.41462543726140333 0.5738753047239087 639.8173357210843 0.038575304177119595
0.4018984426757533 0.5667485362711785 639.8063569540335 0.03900977954627226
0.3935400576252741 0.5694387107817557 639.8356770337824 0.008470716279122803
0.4236978186918666 0.5732562190838074 639.7105507679403 0.02277031578403632
0.4347428972957373 0.5685174035817321 639.6850423579964 0.08110621314770403
0.42812520283772454 0.5697266218155728 639.6767491279417 0.09729589818275478
0.4262065699974117 0.5764780365611799 639.6569428641192 0.02338711474841341
0.41924016147172016 0.5722301682738508 639.7338162304111 0.07288338133617907
0.39751286539683534 0.5722262334128382 639.8604237487555 0.019070076843279635
0.4277604916881629 0.5762999509020851 639.9156567448056 0.0033139572701412112
0.4428015501084683 0.575448739359398 639.8453755456825 -1.0079126272412756e-12
0.4190591916556917 0.5740874052305479 639.8569373836244 0.0014483763332279
0.43769967905159546 0.5761753684827035 639.9356442788342 0.0034361061395025362
0.4240691061040231 0.5776719267474743 639.883914371887 0.0038067093360345107
0.5255624833787157 0.5709323023764398 639.645588233121 0.01109651294058539
0.530835039753638 0.5683581236768931 639.6398442181792 0.007114953086621284
0.519875619565774 0.5643936722241698 639.6327496993094 0.0052404583322206945
0.5262804772311981 0.5734520884038626 639.6798631985297 0.0023168238516647274
0.46272947813389265 0.572455833765086 639.699907546067 0.00415225294030203
0.5048017961360498 0.5761632808376019 639.7011230436234 0.004533130855479177
0.4778307498330795 0.5817939772293182 639.6894145167458 0.0003133796960231316
0.5308616064816657 0.5730283963143994 639.7253270802939 0.0026662651533847295
0.501316853093843 0.5762344210806666 639.7204637457185 0.0026642102495261014
0.49213270468233433 0.5714884236647828 639.6361554071007 0.0013090107553488301
0.4992177320454326 0.5770025700033125 639.6556515549748 0.0060121273730001845
0.42994420033131425 0.5732673653248969 639.7760935342882 0.00843113913774266
0.43182544425823355 0.5787298187208658 639.8009140060981 0.00998180944485988
0.4415080967089552 0.5780445864476876 639.7902634972096 0.004107717646076133
0.44737743412641706 0.5748816119131703 639.7652881302264 0.005784501368064158
0.414922207230744 0.5726118876204533 639.7674984868137 0.02245742423029014
0.4393603525154906 0.5741352085519065 639.7385600117725 0.025230383312246172
0.45569194647787775 0.5787040420987638 639.6383724053662 0.013376862437968621
0.4472327044838915 0.5704003368167695 639.714953140548 0.001983381732458403
0.4469618370489983 0.5686927192050186 639.6822844033743 0.020242521883292574
0.44450241936140694 0.5710135094817265 639.6597183353465 0.04209280517486483
0.526555669320868 0.5700949015140131 640.004038529272 0.004114398242847491
0.5357564037975362 0.5727367409981542 639.9821272773004 0.005395104470438365
0.5262234951062015 0.5748110971648351 640.0251110657853 0.015041074470022514
0.5257935175083085 0.5700638518115899 639.9984230352096 0.0040441388336507275
0.5288332993752202 0.5721414835916071 640.0447247792539 0.01691358755493515
0.644663038639769 0.5716897181334593 640.0238023145113 0.029006443194076064
0.6559226719381152 0.5746603949229283 640.0494460692898 0.016392628213863107
0.652887895730799 0.5679968385175043 640.0011396095375 0.011982649428136307
0.6249266936977473 0.5664252710762648 640.0497373843349 0.062237867292631546
0.636792934260058 0.5709512951763863 640.0419408126209 0.03248662155778939
0.6301458169165061 0.5704198842719713 639.9865042646966 0.006600939477008623
0.6338782960437941 0.5748853649403711 640.0163531900964 0.012025527430178162
0.5931042075553623 0.5681872608107038 640.0401499818367 0.03804409820596103
0.594734324799792 0.575679943845597 640.024269699375 0.019436574749832895
0.5738686000036552 0.5800210803866945 640.0432075848474 0.03192497640578119
0.5471439963873643 0.5709540636781739 639.9954396966164 0.003805698525190135
0.6147104476905529 0.5790277114083855 639.9994157294936 0.003216781057600167
0.6947445874942831 0.571821576128894 640.0512743830473 0.053753671060408244
0.6890446639487214 0.5753607778856551 640.006919633825 0.021759875234969688
0.6680007564520472 0.5694903564375671 640.0391624033193 0.02784549342313869
0.7012409775997155 0.5694178033376919 639.957380763274 0.012098791360449756
0.7024729597593743 0.570852501035124 639.9956284649776 0.03706603359816399
0.7142217283438396 0.571431333795168 640.022967157185 0.00911141164124949
0.7022676496426056 0.5693118002407147 639.9865251090589 0.031347202634570914
0.5681416560070593 0.575159180042668 640.0074735556741 0.0032639525070033803
0.5612656840567076 0.5787517418884702 639.9556655097535 0.0035887375703497443
0.6219409658100169 0.5796343991084875 639.9570824536314 0.0005076864063415631
0.5854406146023107 0.5731916597482415 640.0109301597895 0.015294637360214134
0.5812405312569321 0.5786926744336865 639.9569129636693 0.0005157343290910654
0.6046507351109234 0.5749999925284239 639.9853987430026 0.011558933331735743
0.5770577619842616 0.5731388995824379 639.9756144705115 0.004419399292057177
0.5629260721217912 0.573112468019291 639.9651897529832 0.004954719816733436
0.601400813816892 0.5743252295185539 639.7165723500901 0.0034777347871198508
0.5755794740648511 0.5680253460646513 639.7254274648543 0.005480396303083427
0.6041582117713803 0.5730093995431823 639.7125679283139 0.005652963123123835
0.5882535953433802 0.579151601820594 639.6749282160754 0.010888522438927364
0.578189480540353 0.5687173029989618 639.7113730579509 0.00892020338445656
0.5920400840490673 0.5727936957363944 639.6391117344283 0.004865296797674041
0.5675572402995197 0.5816128744729981 639.6819402129656 0.00390841889675466
0.5519392375469029 0.5705710366876635 639.7244751648582 0.004417813481214838
0.6182034255169642 0.568748889567885 639.7058253567149 0.0037326544853757025
0.6139018516524023 0.567383770676735 639.6936381378903 0.008770647254160073
0.608651699935765 0.5739799938903029 639.6622960705714 0.010933237087044932
0.5469189560827871 0.574238745568024 639.6844511864458 0.0008250198073963086
0.5384541429895712 0.5751814891702756 639.709361721724 0.002808201835702392
0.5590753277621826 0.5681956258037916 639.6266956837416 0.0004975258775343979
0.5434112361110017 0.5747415001846111 639.6565169739637 0.004285112509534073
0.6330408324046943 0.5748952795208757 639.913104982995 0.005856347768877227
0.6420132180881344 0.5747451025448345 639.8622884024434 2.54414884769547e-06
0.6409669347011895 0.5799772178408986 639.9299010711704 0.0037307559730368096
0.6373920956840899 0.5754285439153249 639.8571324612698 0.0007049219703536588
0.66063520030988 0.5793161127799212 639.850427370836 0.00025493975127516885
0.6811620974166005 0.5773959745875035 639.8922157393525 0.026734834611779612
0.6623949472723528 0.575884332190392 639.8995764792195 0.008376059682561672
0.6596745147139759 0.5719313236996775 639.9416623206428 0.005936403627936308
0.6804927548514452 0.5724091320210614 639.9357552997419 0.00349099633310326
0.6849369854783477 0.5689128179702949 639.9263636069984 0.01026707448756039
0.6858454919351148 0.5772913232836385 639.8557495840605 0.0009047944620108239
0.65691024986404 0.5727921569225634 639.9498002230681 0.0065334740495364705
0.6741198056742945 0.5763557212097231 639.8346340191691 0.0035036250974911634
0.6646240853032349 0.5766235225883681 639.7468413905128 0.023237462136136033
0.6795249664843356 0.5714203427036084 639.8018453878941 0.0016409551782705265
0.6656299036642759 0.5718204998000549 639.7894789010917 0.02217291253260862
0.6562781726265297 0.5763427753793731 639.8136714221217 0.004670773473584996
0.6265601716129828 0.5734467560747644 639.7349597143044 0.009900926004550272
0.6451938554017866 0.5718231341015487 639.695525084597 0.011267703265587833
0.6488426550923603 0.5744139702113609 639.7592544406596 0.008314444784819401
0.6395176008671458 0.579384849122468 639.742614448875 0.015828449123027485
0.6297843113556192 0.5760036383159944 639.8288621196256 0.0026718369749568266
0.6357426693823313 0.5703402255037564 639.6747720885469 0.009747046655421305
0.686616024765955 0.5736151151151381 640.0022617985367 0.03725499038433043
0.6512767996454825 0.5747651500783542 639.9547246702913 0.007221018109652025
0.672899402197828 0.5663083642918961 639.9871581381251 0.0070450454819953115
0.6887160114689106 0.5746259584661206 639.9631635681126 0.004554253480379846
0.6532433291535776 0.5696348820918598 639.9950310759668 0.014356646615326958
0.6719489946505908 0.5721734472616183 639.9586959427728 0.009437898045511792
0.5497865932533504 0.5739961643279938 640.0367133758008 0.04850840866407531
0.6924625290508382 0.21007599802468588 639.8350300882526 
0.6710060566176707 0.2166081204474469 639.7414643874316 -1.8389067802422308e-08
0.6872170767255682 0.16635082212146418 639.8854267220602 
0.6800917770735778 0.17599170447454346 639.8152632971256 
0.693589773525871 0.14720344098223712 639.9320428886443 
0.6587022129312885 0.16956354283018452 639.7932735127748 -1.4275767758474786e-08
0.6557768000547027 0.1931365965634105 639.7445692826632 4.611348906368851e-09
0.6545279878096643 0.17611992590789444 639.7683073516957 1.0496499990410486e-08
0.671017682240125 0.13170176836924918 639.8799926208483 0.0009510584167717555
0.6737663110700178 0.12534454688908359 639.9029066383239 -1.7479904941784108e-09
0.6646817074069824 0.1128185350316307 639.8965771239591 0.0006198720402547974
0.6728956999671354 0.10856495269391636 639.9290629627659 3.0277044952380723e-07
0.649420653271064 0.13356213743820208 639.8392260103707 -5.184679300322404e-08
0.6462039874852629 0.14505601438787535 639.8148643690528 -1.0039841360152465e-08
0.645161865705704 0.10455152420031977 639.8811276484884 
0.6599222132519577 0.08573219926421541 639.9359589939186 3.414909748556166e-05
0.631255650580813 0.13084429645960063 639.822063705431 0.00033852923917573744
0.6330223482373765 0.1551153829774465 639.7582081934822 0.0010845248417519218
0.629346629034178 0.1187454182987997 639.8401531701355 4.371408093707678e-08
0.6407495543978283 0.08216103742592717 639.9222553407961 0.0043886899872498325
0.6020819033978712 0.14007711503834824 639.7611126483635 0.0011298207804902043
0.6130370840796421 0.13669956683080287 639.7742581794364 0.00017467124368725212
0.6247346867959652 0.07382227371896485 639.9065470925007 
0.602713026887919 0.13545191071593923 639.7705968963357 0.0008288257170463822
0.6046649006128969 0.10656226499324288 639.8236484998217 0.0001110678209616848
0.6141825237027163 0.06285038820167001 639.9342396830277 0.004131193780643959
0.588227357134695 0.13910236194721032 639.7469144073642 0.0014231231095467446
0.5973534989829836 0.08797952253120885 639.8655978471464 -2.708205249200636e-08
0.5885668469464047 0.09180599558672352 639.8403187068645 1.5897485588022497e-05
0.5762270596460338 0.13641201903665928 639.7342416690661 -5.805437944826622e-08
0.5793348394310754 0.097235864612326 639.8174961634293 2.1219461911262784e-05
0.5850306674020564 0.07965534820626377 639.8721990832956 0.0027724588296871946
0.5838691356061034 0.06815812685103209 639.8984943459955 0.0001266268615289049
0.5850257937427763 0.04793302345816639 639.9314815638046 0.001492521081964895
0.56352248033131 0.11210787227697 639.763009039047 0.004297999703802351
0.5733187070082816 0.0764581987727718 639.8752737463284 4.206104359699132e-05
0.5629113240508291 0.10397698592921406 639.7956176608533 -1.1749527201123664e-09
0.5619034259775577 0.07988797063035623 639.8415266299447 0.0007289052373710109
0.5627649252829422 0.05437352229011199 639.917952002733 2.1541136999078244e-08
0.6544941562450454 0.5681837615702798 639.6678653045385 6.3902086520125136e-12
0.6571868215250658 0.5736296922433136 639.7020994874824 0.005057070608992307
0.6664393059077305 0.5632729329069128 639.7215324938231 0.0010425818248192065
0.6924795578838623 0.5673660817039613 639.8225905590164 -1.0399110596928849e-10
0.7045080035331233 0.5539996627173454 639.8945476496252 1.3310357862417942e-08
0.6983717045791951 0.5674305242247383 639.9356572084016 0.007780068761550851
0.701426856615497 0.563239178670676 639.9247670534176 0.0008338866243307154
0.6939520201250391 0.5742440728309891 639.8868942436617 0.01818404012014908
0.7216010468441665 0.23679785549692722 639.9649321523623 
0.7186910755185942 0.5597572209549353 640.0176100437278 0.02633367427573858
0.7156572359956619 0.5551031245161345 639.9860599532651 0.002503629418325096
0.7144797426241105 0.5669415158304297 640.0344293398174 0.026206441327783613
0.7049213429088586 0.5665622781190536 639.9535039115437 0.014738839714003069
0.6847463510667068 0.5472899779926278 639.7695104109566 
0.7213711809498083 0.18682508568227202 640.0512888679664 
0.7165093262269645 0.1482741291674987 640.0421966607756 0.07130288476391294
0.7132759712043427 0.13748368409554776 640.0500062064723 0.01633391440258198
0.6647881617214054 0.23397062900709795 639.7032067074101 -8.035474419384074e-09
0.6720618669359929 0.2327972480971671 639.7308020867382 -4.820400190686703e-08
0.64901653953301 0.264239314419316 639.6403055781597 
0.6501603546257284 0.201551533839015 639.719199783728 0.002712523748903052
0.6265555032165018 0.17709576161428442 639.7118884991576 
0.6442184007415248 0.21260797903081874 639.6846859290666 0.00024742603820989583
0.6277903178056979 0.2340136570479652 639.6295054895714 
0.6290483775540081 0.21570329869444096 639.6569233385014 5.431215418316178e-09
0.6167772678333651 0.1914202097625816 639.6714278698515 1.4640266039098757e-08
0.6912049512129124 0.12903310321538317 639.9566512632648 -2.7186440910994387e-09
0.6880280627313397 0.10338712537297617 639.9889559021437 1.2641700149578525e-05
0.6844369974861657 0.10203086489969149 639.978166367955 0.005145728084358378
0.6862748130749505 0.07307104240301146 640.0392870606548 0.05468660263079376
0.6660017950232162 0.04512544047875697 640.0476257640993 0.0488946092895476
0.6604311447527851 0.07364633584093246 639.9830515468979 0.0009292574765934628
0.6469627451437794 0.0418058553754621 640.0151918111686 0.0006001098380651866
0.6445047962642528 0.06040406541033424 639.9727393072071 1.4641856426869909e-08
0.6733876208430132 0.07360397706320189 640.006951418541 -1.6894061693153886e-08
0.6751177115103486 0.09292333833945651 639.9686224677522 2.5248281878668732e-06
0.600061257961605 0.1781083873802002 639.6770029326093 
0.578352056458682 0.17776927587742267 639.6474647964649 
0.563096862033726 0.15329372490333645 639.6870099139626 
0.535688561536912 0.15499111956319211 639.6835072222883 0.0027547012563306638
0.5498562109186504 0.17601966028539154 639.6387488743342 
0.5338718280097358 0.04456118253908895 639.9152299856443 -4.937044557256216e-09
0.707069325687295 0.12186303075953311 640.0103379189347 -1.0126645381551666e-09
0.7002617621114947 0.10383672843584162 640.0312801345834 0.0053088697887886446
0.7081376373161514 0.12713298123590644 640.0355881286439 0.029474268446459107
0.6191816798946013 0.019508414147054915 640.0259376645947 0.03517897015584341
