x y z curv
0.02561306548284249 0.16678962617629084 0.23649241254281056 0.00028396973404406
0.02827726643645089 0.16792038788775931 0.21667740296624385 0.0036579685208907122
0.013927277019685175 0.14644487493810113 0.31561195650685697 0.0012218737824712335
0.018266497107409716 0.12408238537210696 0.3336856131321012 0.006791762887963528
0.017231448562431067 0.12223418393607582 0.3423841828114402 0.00421792307630601
0.08055009524561113 0.19613480804494277 0.07143076960237872 
0.04593508348662053 0.15097718283255926 0.20017708896878933 0.0014324995041327658
0.0487313498280744 0.15211306815135256 0.17969250128035646 0.0025888809950367544
0.05979220546883353 0.1638346812615543 0.15125557540568688 
0.04175754963764339 0.12698372038480937 0.24413892623570016 0.0016190861761696909
0.03758229804256843 0.14867283045849747 0.2332208275587248 0.0022030816187015166
0.027121891223931927 0.1274376767188823 0.28128823285847915 6.147481395324819e-15
0.029743338191005417 0.09569198670126512 0.36525591566601423 0.00011316394888104241
0.03136902285405402 0.10984354878604109 0.3108651956983856 0.001300133475141855
0.08337872894782442 0.1748527028559083 0.09486895822456827 -8.096244755151696e-15
0.059334136790984676 0.13176020817855338 0.19696577421724898 -3.643800765319142e-15
0.05271552658188339 0.1014911433214374 0.24103550399706725 0.00957257322865065
0.06317205109263717 0.11432751832166695 0.21317070403908617 0.0046517001153181855
0.04137097917189693 0.09746288678857373 0.2982472912936763 0.0018304263474306316
0.052616707972701994 0.09156412276585366 0.27482868824281365 0.00018606291776320064
0.04509103376561292 0.06700578535810152 0.3530338222012892 0.0012872113673230861
0.039474321477655894 0.08008645041672059 0.3283770673518131 -2.7613054510992626e-15
0.09592438197599792 0.15961737347712524 0.09247133089335056 3.681831575750377e-15
0.08699116418611277 0.1536057957577028 0.11932044929398446 -2.480183341641191e-15
0.10179590689770705 0.12413345119843729 0.1288549470201931 
0.08467964269390199 0.09938617904861242 0.19700059779853074 
0.061657315095228336 0.09374008540357456 0.2382156133213825 0.012269964960470664
0.07657410566137286 0.0791705763777188 0.2564913577882498 -1.4627109752432028e-14
0.07093780120784907 0.05554246164476961 0.300768686580312 
0.11554090188400934 0.1571867952774573 0.061346050046503356 
0.11407095360547183 0.10991600654298994 0.13505571870521904 
0.08863816174442854 0.0842759387624961 0.20481026936272395 5.388654391856404e-15
0.1038572284948448 0.0704805500450527 0.2247666411925411 -6.297787716260829e-16
0.12141103215585625 0.07102453585790824 0.1992476895481843 
0.11847575500297902 0.0511419827484906 0.2494383963581673 
0.10316566085622876 0.03348476327138131 0.30382517404459736 
0.12118385118510017 0.032268180190703384 0.28894074570896416 
0.14196011442433998 0.02017693214342178 0.3131763404264825 
0.05820610525810282 0.5226854831832751 0.07030268944967241 0.013880612829269483
0.07482193500761196 0.5551146284561917 0.07449183399234856 0.04502726935729031
0.05945197769980906 0.5132587000049668 0.07538025254706172 0.0012123867500823515
0.058029317204706485 0.5314195306707535 0.10085399914110897 0.032769696325980674
0.057467608208809695 0.5106147604172627 0.09126443927625782 0.00022011677385302305
0.07530027955287207 0.5473818688959248 0.02685389330627068 0.04862830652519684
0.06532235768107127 0.5257919342249566 0.003787200241376635 0.028214672687164412
0.07561318662670691 0.5474422820948593 0.007792242091945585 0.0377434607922844
0.07699225420948169 0.5267363520113313 -0.006009045283316521 0.050566692396386774
0.06837886027317266 0.497731269542347 0.009552223862178086 0.011928092597959076
0.058573201420086936 0.5253402353851595 0.18400604864861012 0.03042554912645488
0.05769350573665586 0.5342112445222745 0.20333207255888133 0.040755891449748345
0.05961473231203366 0.5093487606076477 0.18995599628597704 0.004022693786394028
0.05932344529481099 0.5203433937749885 0.16511437317180724 0.005540922917995001
0.06424252666235154 0.5409944188174692 0.18990747541974476 0.046954001302330774
0.05893653959446922 0.5337409009162759 0.16200689731622755 0.02685473665885645
0.03768599404643801 0.5092235293827724 0.2912716064170856 0.0006113828099133995
0.0512786641402711 0.5404547825436609 0.2855996949949163 0.022251856376292883
0.050682786196294884 0.5229916842044403 0.2690226701301919 0.007743144708186698
0.04950562582227411 0.547340839690762 0.35011288806909036 0.06447288308577494
0.0490965081181547 0.5405563548646501 0.3079265219614202 0.006824062460589294
0.047857684563702096 0.5138330635078923 0.35609381807730345 0.004560858736474974
0.03378999106459967 0.486767863736478 0.33353347891883206 0.00469473130548492
0.04573428090976324 0.5177538981595111 0.3403431078847621 0.01136008556666728
0.042137872636079224 0.5094280893127061 0.3359861578327157 0.00032100366848499646
0.05525262489537365 0.5343835775360825 0.23464893465846018 0.0470547287488849
0.057715687133007045 0.5410417517670055 0.23555014682722414 0.05972404044162395
0.053225846057729245 0.5044874895055814 0.22213038281671704 0.0025330342896528455
0.05605593746291196 0.5326149794635161 0.2583287972415254 0.027441680702601823
0.05371500325861241 0.5028334327268591 0.15830664295763183 0.005650473143995633
0.05825371503173657 0.5075360818676993 0.1264294359287262 0.005720766844959415
0.061039736173008945 0.5247074932808719 0.1521650146772392 0.002105783985062077
0.06488654553602646 0.5493929603554774 0.12164774490458072 0.0003272328134920865
0.06363167924082237 0.42218966400799524 0.01924674383183355 0.002403157506883227
0.06590369307658114 0.4713212772880635 0.0026273565076810968 -1.9705214146552544e-15
0.06702233819848787 0.47155063858642293 0.01597954733904363 2.6569033073367224e-06
0.06130284806148589 0.42275684808789005 1.8037824420435826e-05 9.75718773979819e-15
0.06489840450602209 0.40050122983353337 0.011785587841064987 0.0034046596981686787
0.06957147912484525 0.3679477990640842 0.0106381662707229 0.0009530732614344313
0.01662279310273876 0.3812399294501408 0.3768770751434137 0.0037543780100530227
0.021015448244167203 0.4009041125869818 0.40252671199023915 0.020758713435532598
0.0061639949546471815 0.32416080161942995 0.3877124558090111 0.018601080009521636
0.004597918663440836 0.32725506376644375 0.3952238810528625 0.016740063362794877
0.008030201462454561 0.35386328551376095 0.36248281338173 0.011083793379876302
0.013120573465320947 0.3293001871404949 0.36762022838314945 0.005363386497779021
0.018854440815519288 0.4520792584309305 0.3872198110603026 0.015053494277385402
0.028060739146289846 0.44914597009826107 0.36374488485486217 0.005432844145687149
0.024397305537083594 0.45172787118054597 0.40077115829284843 0.02435464488080339
0.06998278235602626 0.3277916991614826 -0.008283877062999484 -1.2940626839202619e-15
0.05532174222377227 0.3037363344239143 0.0028408119954082 
0.0006056384313572031 0.24774114571266923 0.3732132481040228 0.0039709175490886236
0.06232806446134043 0.3329863938225871 0.02555154372197317 0.006361942798557812
0.004104168663526003 0.2968347939292858 0.37905751533209786 0.00786341881880268
0.00511315748248444 0.26886166091706964 0.38111316015386837 0.005599550622067051
0.0009407916395039657 0.2775726159411731 0.3949261568807048 0.02197880375802802
0.0006590910466929205 0.2834330114004521 0.39634737567168 0.024523569927246736
0.004593341689730596 0.2727626542259086 0.40674963043491885 0.05401145590388868
0.0458289283950634 0.5279487596159981 0.38642294272107675 0.07791567050155711
0.045501446898878695 0.5411751310163518 0.3648931977336491 0.05149112882407392
0.03823241524602598 0.5115213598275055 0.40166502442158875 0.060025651550610154
0.04013496553788487 0.5018877539532367 0.38198336968917496 0.02379496964558843
0.04113063884038465 0.5294734667374951 0.40986965331861436 0.08534554451038276
0.03334841703352559 0.44232186802366347 0.4198771550816602 0.04967706719626831
0.015751770235179558 0.4204231789210392 0.4041672463187298 0.004505542268954266
0.031728185342872854 0.47296713962648185 0.4098967406378284 0.044699329678541705
0.03126967915996243 0.4832982009482839 0.3880872999391046 0.019610194432462303
0.009200192277506463 0.35161204202024615 0.4033778003087217 0.016397090181297813
0.01340042196385038 0.3599157154228607 0.3774061888268996 0.0084465898190912
0.006131305609617426 0.31147778415964417 0.41504459504731883 0.017840983335335094
0.0072691808380190735 0.3187273517166932 0.3843208075860263 0.004821009781845704
0.009155662185309745 0.3102069187615127 0.37581539910896067 0.0053140200728300745
0.01122032901330948 0.36829990630865705 0.41461696054720387 0.052111293345880376
0.005068732402870441 0.2474474976020675 0.39690702688771706 0.005532067045613868
-0.005875653023701094 0.20737847717733482 0.4074096723250151 0.0010794579845682013
-0.0023360765227241034 0.20484619973125107 0.3733167382556448 0.01604725605261344
0.0023205276174301857 0.2240775886657417 0.3734172487479685 0.005734701855607073
-0.00022452635787860225 0.1793819138145174 0.415505239869588 0.00022666710392189618
0.07024362515572852 0.26225975005195684 0.028178787084743404 0.00802931740571273
0.08040566055916637 0.26478729679011337 -0.0016722519826399469 4.636049785029302e-15
0.118180666908591 0.18149630582601592 0.0006993942563617447 -1.2834873020380457e-14
0.11549860348268257 0.17760196167679893 0.017871848563538767 3.725494665700041e-15
0.1326794218352999 0.17047870013122182 0.0007762946391548951 -2.5253193092791384e-15
0.0045060260164432216 0.17166617892924257 0.3870421481380014 0.002748789084470415
0.0059270805291910195 0.16657396281952158 0.3894713110933727 0.003818130360141339
0.008087465406497858 0.16601406726973642 0.4158416160399438 0.10792688612500834
0.010768134574733317 0.15550162294098904 0.41138751646092736 0.10063626003176458
0.022447028513803556 0.10798330834331792 0.40641684283891355 0.05738360932332668
0.01665731012226705 0.135523529951402 0.37058912109114306 0.00178219531210655
0.019224171485509586 0.11899040710750489 0.36693342868247886 0.001890774735205861
0.010508764897296682 0.14598683810279303 0.38698092239003784 0.002420693080922572
0.010516563914658182 0.1438034957286585 0.39125264280360733 0.03111892999665391
0.016124541377267723 0.13107113712270238 0.41323538566829504 0.10172591835680894
0.0191695906518414 0.12139944723310551 0.394991901095323 0.05370240419442665
0.019861610632760374 0.10940085231006598 0.413450242494489 0.0621523944663375
0.027743819804244212 0.09244562428329951 0.40722624287831977 0.022253164025723745
0.035624718942648854 0.08243660048999445 0.4012137827720269 0.03598632909143662
0.05831313150227803 0.05872321131479198 0.39832904424224724 0.03610019565349148
0.06334464312547777 0.04836819145547522 0.3983968627120741 0.009285346964042101
0.06086763543319181 0.05251287475045848 0.37352723717052827 0.005105606536167931
0.06823749806590573 0.04802387619161273 0.3728485295363002 0.0017963365947618374
0.08386288044289877 0.02964426212112166 0.4009309628577931 0.010904404980439236
0.1283617755665568 0.009153636047719085 0.38031427278272384 0.0007328879278110017
0.10566764970694952 0.017837272938453143 0.3782043030876005 0.0007248474565301802
0.10099836076187754 0.020411178862335604 0.40240888343969744 0.06896351692275594
0.1353656231627558 0.006290558433955934 0.399087774514624 0.00017519166400528524
0.17559888762803916 -0.0020321968385222885 0.3978269377008481 
0.08902732883408375 0.5528024400319178 0.01878441908667211 0.04980328778961043
0.08349558837691733 0.5536772252499316 0.18556003088142548 0.014764297178200068
0.08332068999163322 0.5454127568390161 0.10546533196242605 0.03794089076856011
0.06790746203627897 0.5552237720008099 0.05781607779401247 0.055363445096825226
0.08219727673715643 0.5523660789919002 0.04418944135720865 0.007420852453804521
0.09798225593397819 0.553149928585671 0.05125722968358927 0.006135239657570592
0.10655118309697464 0.5572296264780074 0.01921264079779761 0.006755490064038143
0.11445677200389955 0.5549990820884829 0.04850521967795612 0.0020286812008659064
0.10237418070576458 0.5477472211723207 0.09740371781034081 0.00873064871459201
0.11259001896423618 0.5506880368036968 0.12280918766835826 0.02833779240672681
0.10589535316701512 0.5527271342338334 0.13684334694843822 0.009828562505101631
0.09838538531828693 0.5590224349866734 0.15721488001922995 0.004504607634283801
0.10076752645536678 0.5531433043301044 0.1386847526487676 0.008361407976766867
0.1157106825575178 0.5602721698394563 0.18291469174457464 0.0024613933655668633
0.11122526943884034 0.5492264674550374 0.21647318207907415 0.0017909588795287734
0.12855563746037255 0.5528631123930131 0.19449143058838575 0.010004504095732492
0.11266871080156554 0.556096143373036 0.2859063660079003 0.002168861060833688
0.128612957659174 0.5479140980886694 0.24351363975841814 0.000989774724525387
0.11975431651932672 0.5491265937255334 0.24675663130668715 0.005540015504180334
0.09138562699257242 0.5505791286168991 0.2917086876218293 0.0034476194865823494
0.08923136159174393 0.5533955984815493 0.24843756778408005 0.0178557519030534
0.12481394567107068 0.5467098211239723 0.3339792913110053 0.00932667875231493
0.1285848440773293 0.5497867842587312 0.3104291216412933 0.0036695044508840108
0.12164304997272395 0.5505061334816125 0.3554146300621779 0.0017709145250197956
0.10469057592372329 0.5525812968768793 0.3154360181233866 0.010719939313936522
0.09866138334005067 0.558790196694632 0.3616295290052043 0.013782487250479673
0.1364728734939733 0.5625975716362063 0.09889219801786306 0.0011440055589450277
0.12754662228743888 0.5531096402726506 0.11842293841237325 0.018518642152675485
0.15495715032771157 0.5533403522063406 0.12709469198453865 0.007965218442981677
0.1643739163084176 0.5519378444670224 0.15904986785285866 0.0009525213552080136
0.163835556900527 0.551142435178537 0.18424344138116688 0.003270034614007704
0.12502989532230638 0.5540569855714167 0.1722249383654812 0.0031612922137609013
0.13822971790740085 0.5487092302048298 0.14291389995538056 0.0008691065090741261
0.14856098744154903 0.5494440479178061 0.18873298170426786 0.01271611113459688
0.13796340235947682 0.5507164033051558 0.21976465441634954 0.005728235276092618
0.1321779996596073 0.5534511166269913 0.19456705535297655 0.009802986413874016
0.16836721916266595 0.5578386968126767 0.2630498468088212 0.006973855814880772
0.1488614078046245 0.552073195277719 0.2578083643153003 0.007608005697672344
0.13333263822083025 0.5495816183668295 0.2581587200616597 0.0067202160970937265
0.13376987741426016 0.5507357657116043 0.28083083504809686 0.00953893327655196
0.15547775177813997 0.5501225928952194 0.30479202357060725 0.0018023631335884287
0.15583045671159285 0.5567483021310147 0.34441738840921193 9.352682534928357e-05
0.15862426871408158 0.5530260693921771 0.12153761946489036 0.007576683388094686
0.17438107358111635 0.5554669716404111 0.10893385945397083 0.004058044819445066
0.18499300825957296 0.5527738091634917 0.12044401996015285 0.0003982336991165898
0.19910724887778816 0.5595091274494574 0.09646286918671855 5.045845948176312e-14
0.20719787668485595 0.551772923984889 0.1752522903006064 0.003284863074143482
0.16764347066388377 0.5536748488495206 0.13875416406981272 0.0016416718406539997
0.18834405550759395 0.5535000178201188 0.1470510593587592 0.0008069664676218102
0.18961934827069998 0.5556348643293935 0.1938386468897088 0.01160118414529928
0.20380178412090283 0.5474700781080002 0.21383813816216066 0.001595562233894964
0.16443759279151982 0.560357236511673 0.22326191563115308 0.002831824861702271
0.17724118986787651 0.5537730945431807 0.1961203664091276 0.012207969212144048
0.1826334678277823 0.5535726949783049 0.24119011873269838 0.014694246629700654
0.19744754882565901 0.557276045216914 0.2653293941548153 0.010002532379213325
0.17591653139764082 0.5603907351203739 0.25890646025347097 0.007310857407568147
0.16200533324638042 0.5539783163589164 0.272965214453023 0.008740016311921213
0.18707230778511755 0.5477947907406765 0.30209211481238335 0.0022437758935532235
0.1581308740904791 0.5550613910107811 0.2512765745162444 0.007693235306905203
0.19790151052262178 0.5524831801934085 0.29776800602482967 0.002378312269955383
0.18104412829082223 0.5464068113080555 0.3237233383478727 0.01171205487961072
0.17150936358043012 0.5461797553386384 0.3087875096459738 0.004465403083186765
0.18419745689102254 0.5487281399703882 0.3432230201509344 0.010283418892716695
0.2326082111251849 0.5599288677300597 0.1135917910347104 0.0005088248675667941
0.2367953865383869 0.5516550181792185 0.15129221923472816 0.0012912220182349648
0.20666478298902471 0.5555477268772776 0.14326474196610922 0.0030012331004548947
0.21126278561548 0.5524256965412069 0.1787833616790612 0.003347534577687345
0.2422740778776435 0.5525156496732624 0.21031519908284022 0.0021615738904451876
0.22120126390475908 0.5521967582551334 0.1937493752042005 0.006297103978052982
0.21851180449615376 0.551574282148928 0.22804170377657992 0.005436640497240829
0.23934724524580603 0.5502815942210455 0.22992411358486767 0.003101951065985849
0.20799628376351031 0.5502922044422304 0.20065626788699648 0.006265837013912068
0.20216730610444242 0.5544142861284801 0.27955643779370504 0.001632377997394325
0.233565720993737 0.5550511661200828 0.28709415739134153 0.0010463891902907487
0.22221374711713374 0.5542354341027429 0.29332097940371393 0.0014703207989073435
0.2361665702134806 0.5513021944054718 0.3395376533225416 0.004721141907554046
0.22776981158503673 0.552753685771658 0.33443989204614355 0.004829490314886653
0.24274834517194907 0.5516334429155643 0.318305052192638 0.002458991613133728
0.2074120579642344 0.5505832587705248 0.3314945183318198 0.002786407683579342
0.22116307602080904 0.5527152959940701 0.34002930852603014 0.006503521548295531
0.25979048362914814 0.5499488106541678 0.09975383669516023 0.00023529107249720731
0.2763660093528228 0.5574381847990546 0.06822327252576459 0.020481401600813794
0.25833776553262167 0.5573157763265312 0.0761816141686025 -1.2756875986661256e-13
0.26672668454557424 0.5504873495256107 0.16721289546012144 0.012729008777478673
0.24143811224441128 0.5529622687042514 0.13726533528138615 0.0008153645868778374
0.2622761212047283 0.5552035616140808 0.19205287078247965 0.00034051506567601525
0.27933857729459627 0.5511027847760752 0.19597366316076253 0.0025108567299063664
0.25015556246838777 0.5519334557932177 0.19394640955047132 0.0030096698252197263
0.26368809448804015 0.551708717068364 0.22869363640830556 0.004299906491235945
0.2594490254307891 0.5587848240773646 0.2716205403616458 0.0033040631406100326
0.2593456709033835 0.5570654050517667 0.2472090056484654 0.000649471603118936
0.2848268282738215 0.5580428719929252 0.2633871612276547 0.007113167189935012
0.27181742865583886 0.5567044361172403 0.285572475218939 0.0033340036314367773
0.24376488754738188 0.5602097570853835 0.27172508199016343 0.002020770690852473
0.2769823865568379 0.553967420768827 0.3375271143405512 0.0013088110359686894
0.24386210499123848 0.5536111616710625 0.2936107208410098 0.000986074964796967
0.27352376726234917 0.5490804172852516 0.3567054485674082 0.006316282089214423
0.2830946039775327 0.5551519684225475 0.32157830028381196 0.003245306133830693
0.25217850199743663 0.5471585995425357 0.34770696507745313 0.002439845263035112
0.2543167801997644 0.5506692544122299 0.335233186136984 0.004246605083331995
0.143478347124962 0.5514124554573697 0.01086993826933309 0.0010466600932077961
0.1332020349013248 0.5562586153768662 0.02493670988805155 0.006390500291390638
0.12015991508524192 0.5578573039665589 0.0201478968297804 0.005793603142477475
0.15731422977717827 0.5574563973492777 0.05696305425769619 4.1347057604605636e-14
0.12910808688649983 0.5566816738325032 0.05163633960304529 0.0011881267410941514
0.16716817389468397 0.5562835939141496 0.03970527965822184 0.005900195214777307
0.0846277579046153 0.5544962157582434 0.22448835906465175 0.045568813929048296
0.05196438454238025 0.5516757702856059 0.40297835049742575 0.04517265408274211
0.06404274264004133 0.5498941045536365 0.3916048152540563 0.039724357025372456
0.05363275065322248 0.5467507064056406 0.3671803242784534 0.07327591951255416
0.0781314495038195 0.554449449047609 0.3770762022578139 0.007836764292620837
0.06049353216007037 0.5523609703478504 0.3446588273858764 0.056220194218124124
0.06721554606100573 0.5540678524342626 0.35483225379265915 0.0032026979425431837
0.0670970288780369 0.5516943383553938 0.28616327627777044 0.04593615161036155
0.06556244714752725 0.5523196192834376 0.2972687211067965 0.0199391278421495
0.08095665414126721 0.5584645660861447 0.33129216330703964 0.005345786405080371
0.07513450869630313 0.5556391027400475 0.31766017187671175 0.014893748429907734
0.09345387199151887 0.5566941717851531 0.3666113037947933 0.013140059172815417
0.08920899130652803 0.5480161545276634 0.41894153806382184 0.07779378568983042
0.10729429616666591 0.5437106512844746 0.415387479766367 0.035980762834942254
0.10123995777058047 0.5586055763479342 0.392832631824155 0.011221391676779055
0.11582533623886124 0.5411752281253908 0.4215402063448497 0.038444990879454924
0.08957970164325396 0.5289011638601597 0.4265697312014546 0.060336310321266795
0.06490893771051139 0.5170928688469372 0.4253237245009677 0.022636456676023885
0.06144308358136108 0.5270123801350992 0.4179200064662941 0.07258402236665283
0.04901301095163312 0.5076569284485909 0.4199025850996395 0.06514335582232567
0.12257572378350952 0.4724075936344872 0.42537199562774763 
0.08606004807414545 0.4443968525983362 0.4308068546073439 1.653425649974122e-13
0.06793235312677236 0.42590516437069387 0.43049659471346496 0.0047236815421106675
0.13742703430274314 0.4376303556009981 0.42220669464803523 0.0008580758082228325
0.16268909705304027 0.46010635066809774 0.4256174660908339 0.0007790332247189924
0.1572677785307945 0.44645094007127717 0.4258207091347739 -2.96596987921562e-14
0.14229778984231467 0.5071762376631284 0.42356783205127385 0.0019038616664427107
0.17236350450297558 0.4925905966877823 0.4321032363364415 2.9587104576005455e-05
0.19589216724973996 0.45788195105676255 0.4256311618073154 8.167881686250268e-06
0.21237106772198722 0.4471131967239282 0.4271729462525272 1.1339603395581942e-15
0.22924501718065218 0.47630239378138783 0.4274492767269093 0.0017377507517101797
0.26759652148346247 0.46236022244121616 0.4266333311471352 0.0003107296565081544
0.25547512661041005 0.44255644065423244 0.4277887334485715 
0.26172003322794396 0.4931389428763521 0.42560217806724665 0.0008718188926930875
0.24188314489422547 0.48916185478985197 0.42892960642420164 0.0001348378683594067
0.27949896673086116 0.4917849933656078 0.4251168489220841 0.0008206436116346394
0.28158726898544645 0.45197990887136985 0.4248554225417719 2.1193459427005227e-06
0.31425036596816797 0.4076266404968383 0.42502864908767674 0.010707068800551401
0.28380833007383643 0.3871986585719007 0.4251332303842161 
0.03925460239108178 0.37106061003309176 0.42569149053278377 0.020039849127124504
0.06178043168421095 0.4922047895817601 0.42733887630402995 0.020838088566547317
0.026306956310695847 0.4148250952360872 0.4219796978656673 0.013913417491625191
0.06444411329812699 0.4567229585154182 0.4250421998199043 0.008874277587964134
0.04832761786364997 0.3200570460330669 0.4334382630087464 6.55151182414981e-14
0.05127006118765524 0.27250930763572184 0.41874884047777156 0.024314846756685354
0.0788220930822006 0.09448800626250986 0.4236465196611381 0.00769166733302244
0.10559581690625229 0.07501918239772132 0.41877797670398637 0.00045619725177747824
0.05002682992183425 0.24261296148374184 0.4186963197917549 0.003831773857599988
0.054515360137267335 0.17885420929443283 0.4164323110996315 2.3311496699403914e-14
0.05335318185177716 0.2223625452359333 0.4138551121226999 0.005911038604554298
0.13568746260247655 0.38292725142115136 0.41946094420597224 
0.05411208318297074 0.25915281130139933 0.42059141677079875 0.0011174944176940307
0.06992816834621746 0.12674287251610838 0.41901656873638643 0.0001044649729032343
0.1470390793541015 0.047824318967090745 0.4175685774617449 -1.6419117290550644e-14
0.31650275446976545 0.13526060732682388 0.41908025575771946 0.010327767267825014
0.32053935345509854 0.18339179581236453 0.4271494554600109 4.451132529371657e-14
0.2950389213015059 0.3258436599842094 0.4318615579991259 0.00013354432487998284
0.25347059573827113 0.060560505248263403 0.4252385925449395 3.022599961661799e-14
0.2061151246796242 0.05057546034262934 0.43247386376351976 
0.33224470619657226 0.24060904432367797 0.4285667817859709 0.008710834879406323
0.27550699739195134 0.3567185632549238 0.42134064844608476 3.120934821394191e-14
0.19275187804398136 0.39887274715937504 0.4287169089411781 -3.640836706041386e-14
0.04050243429267185 0.0926114403216199 0.4172212320398797 0.03256317560699157
0.024111656773006772 0.11813904306747888 0.4258522710289684 0.07112975800059644
0.0689756240211802 0.08303034386861291 0.4221390087558696 0.050867000051211204
0.0597907016329948 0.06838513193550487 0.4224942003532192 0.03332000029401754
0.04683786739439561 0.14374085959192265 0.41970704534464215 0.01783038358534123
0.0007777928113193201 0.19646494261961508 0.43354176422461405 0.005177461717188886
0.042991120122082574 0.20122482552825502 0.4279475782340941 0.00012510180521034485
0.044638881692720456 0.16400584225108625 0.421428857545333 0.021810027119637407
0.03438692067543661 0.1432474262921682 0.4217975839850416 0.10170760671935987
0.03523597013928706 0.13213522499408387 0.4226116576322975 0.07563305855132381
0.1127673015007729 0.048901394762321373 0.4212692309856487 0.046501793768687634
0.09632944521667129 0.02493313779369223 0.4136165796489244 0.09054769209133258
0.09343344994003859 0.03323971791945504 0.4238955835591004 0.04069058430411628
0.1285122371416846 0.038557056184561976 0.4230175827388809 0.050572639045178905
0.15158871333481894 0.03648502697399504 0.42653799230302347 0.008798335407647347
0.17836358445995723 0.00910669118066338 0.4237675700959259 0.04507273761860912
0.007387150222692851 0.24505192519418045 0.42137080681642336 0.07289868790779759
0.037222589884413286 0.25588698360466255 0.42724621488956344 0.020932282407998753
0.022930795460219637 0.23164078700744237 0.42993547782011116 0.023753185361477615
0.04702177937367637 0.27968653268136506 0.4208570310778191 0.019095385162654147
0.016786272727404676 0.2792840605210119 0.4240183883762697 0.09743347311967386
0.014982075179930972 0.2958025186367673 0.42181787152463085 0.08481651207595058
0.012599068429579415 0.30447047544838307 0.4243495791615845 0.01797449209155131
0.030951295101293696 0.27134311580878834 0.42956724773317306 0.030535655106747352
0.0494389696452828 0.3811816428143424 0.4242533928204075 0.00787166751308826
0.02323334285486644 0.3104419555811965 0.4383775609427431 0.00972792126558469
0.016713024022122106 0.32108339261866126 0.42548473433108974 0.06289309429570134
0.061317738753161266 0.3653971424630772 0.42711104729697225 -2.954985102475979e-14
0.12861560792102084 0.4091578542244795 0.42058671999775304 0.0011607811035319986
0.10161270518413469 0.4241901643476464 0.4242106345174571 8.13809561426777e-05
0.11630436959324071 0.5281308645487005 0.42353494868209257 0.03428153406505429
0.16170139300226616 0.5103909590817441 0.42548147906608996 2.8869782371300675e-14
0.17218608519243392 0.5242730336073326 0.4258865708337265 0.006438376780055108
0.14345282628642744 0.5512698934991737 0.4181837010366383 0.023239959821315073
0.17313593143784925 0.5521905733406174 0.4204397449275095 0.0652839031157603
0.13671468767834652 0.5491678725767304 0.4180103736654328 0.01609518890448531
0.15919194770832504 0.40696379959571766 0.42225731810805095 0.00010352045958706404
0.08280669912672134 0.3452281252365654 0.42472871411422114 
0.19931124780747214 0.021034847696155348 0.426644215773255 0.0019564483345995954
0.23442377272520243 0.03278990953973442 0.4256640073483474 0.007215251718348518
0.2532395906554565 0.052841632270411276 0.43161488599990505 5.0900830406520357e-14
0.2859244865526933 0.07476479751017745 0.43200430742419066 0.004015764104302092
0.30903801475641 0.10298456891031686 0.4215657042025125 0.05218699633669638
0.32908996166117727 0.11577640928203801 0.4215450158289574 0.07428968151234455
0.3299875314569331 0.13900304421094506 0.42310860791221216 0.0418206174418993
0.3223188780519912 0.12878838506844703 0.42069240771075583 0.027407549866109545
0.35171720237071497 0.12464207189989221 0.41988552762325515 0.0663675980406482
0.32964579280896 0.08319326672179468 0.43154219181640413 0.011011354917057315
0.35223527871408905 0.14897849710907504 0.4285130602586033 0.03055782267303684
0.3242103742872615 0.15057152357959822 0.4210056963816096 0.027823713743367832
0.32859451816283347 0.20557841894028717 0.41995164281111386 -2.4998964133945396e-14
0.33545828456897536 0.16539538416110938 0.42655587258199046 0.04083173910851558
0.3518867629982251 0.22853488359300558 0.42501112179264205 0.059626824763861386
0.22276456082246893 0.4061747579520601 0.42923378422552516 
0.20071021838808686 0.4220133724445848 0.42743270417583323 3.337654614965292e-05
0.21461324512643049 0.5507892357719987 0.42915522271508233 0.009476716252150552
0.20475839977424773 0.5150510678432244 0.4240632605796649 0.020600187801855387
0.2239451223526584 0.5221370042456724 0.4238924787232069 0.015564141859424289
0.22206431398308143 0.5195794656214627 0.42386991572746746 0.015589192845356903
0.2740439127439532 0.5327670474457856 0.4237774348652194 0.005471977805983173
0.2792097245578105 0.5234891952023176 0.4279556650612941 0.006910215356088094
0.24488483214682513 0.5415481639811429 0.4242499657893627 0.04643006131307367
0.3660362038330109 0.24964052546979879 0.4175113046003176 0.07509580426519799
0.3566561844010358 0.26747155146413826 0.4228754202954947 0.07989791302206128
0.3214519224643595 0.29325898305003706 0.42437786080911183 1.4876305951553818e-05
0.3488727484129773 0.27729248298060205 0.42242976495733287 0.03094286017051758
0.3143536446593302 0.27234978601953636 0.4289044745406887 0.0013435122270617735
0.36573478078232224 0.3172389616966658 0.4225112191966419 0.0037089361784110268
0.3259878886768913 0.4411775106341766 0.42809484832958566 0.04126456578154123
0.33211125761956584 0.45802582506138667 0.42095128631126577 0.03808837258612073
0.3213474985277096 0.5140325059283088 0.42269834234565384 0.033461107064295684
0.3181784928646195 0.3084190270039646 0.4266636259953118 0.0009681941057696346
0.3119194097141456 0.3414948913923784 0.4257403158036241 0.005648738060422931
0.33885315371472274 0.39154024441238516 0.42855661960089303 0.06275866158718452
0.31121729225449574 0.477589931072257 0.4261571159319645 0.024037004680311207
0.32073353400334526 0.48020615696293667 0.425249003010955 0.017421253229964156
0.3446267509812974 0.40674294839311154 0.43534646595774174 0.04158525850127438
0.3126945445762484 0.5013108018784332 0.42507952141890243 0.03909875935728914
0.3354122779009285 0.3737849308821806 0.4299113182624455 0.029580908266097352
0.32046544570182345 0.31968080041817737 0.42608783341793305 0.001038044510092072
0.0684977106317368 0.5536983253352021 0.42289674923891 0.0486847944186979
0.06982664602334086 0.5508259978209415 0.378565264168349 0.028330238822162835
0.0778620696522597 0.5530446116368879 0.41918393975910223 0.06440942733822198
0.07264347057213248 0.5486381739980667 0.40005440029859823 0.07690975385131278
0.16473896079274317 0.5563963239040708 0.3877298614615147 0.002443911045797634
0.13330541795219142 0.5553617218505907 0.40147931305995765 0.03816717575624377
0.1273041729109253 0.5515663275227985 0.40679337209708566 0.02209006534625637
0.08170057921367008 0.5560936130663934 0.27447933629281335 0.03289030010378801
0.07710086572445454 0.5539298323675047 0.25800357171738375 0.03311550466741597
0.0895190674025177 0.5538176514012702 0.2783196325635547 0.004833554659239732
0.06541555960727442 0.5493042457389012 0.23867372561554534 0.032958780220852725
0.06264107424477311 0.5517803310060467 0.2703439443849519 0.042726480924666264
0.06362652340548257 0.5549075092505842 0.22125547837773513 0.011330525538549992
0.1815415033286785 0.550498822206425 0.0554403267617726 1.3928599695732676e-05
0.19099106451118575 0.554311731934331 0.02981376046519605 0.012177722337735147
0.18890123363468145 0.5496623903659842 0.010220544550905479 0.004766685957848374
0.219074615815612 0.5540146065006746 0.06107971036351393 
0.21292033994043702 0.553171411669808 0.038841282488063435 0.005422949782417828
0.2038343085205166 0.5546137473538201 0.022317026665363948 0.002730671871740759
0.25683883725293294 0.5546230806392314 0.03577330124113086 -8.162316617948877e-14
0.23737079938769773 0.5505284530801643 0.020029706300435976 0.0011115146063661236
0.23976414426653414 0.5526145119929019 0.009069287524867823 -4.65639759050529e-14
0.28444210701144285 0.5620039248982105 0.14156167324132585 0.016294620107078064
0.2905043475601545 0.5508839597634461 0.15834928652641198 0.031643201975051674
0.2860958716752704 0.5564716157532313 0.08079441204425546 0.0474851236321732
0.30061290227261805 0.5407499266843621 0.03179244914667152 0.030262408771689786
0.2997376029889914 0.5509548821501179 0.10774250781241235 0.013898046773181127
0.3040881690814643 0.5508716366186718 0.08762036874067033 0.010912242860125036
0.30939602411089995 0.5473760203912093 0.18032951233103556 0.06072986258396731
0.29791818227420686 0.550467273153803 0.15589365543550404 0.03345317379252037
0.30748221220227945 0.5398987569169462 0.12358683047881087 0.027162704224280392
0.2790320010447596 0.5513576522558717 0.22107718811130375 0.006660030865766942
0.2833769304078326 0.5488255298773743 0.17736171639003329 0.010678050227834425
0.3089865356489986 0.544866749756364 0.19955012289320004 0.054815442777682626
0.300579999420582 0.5557979913443643 0.2309606587999681 0.01353118262362563
0.2813883305696859 0.5421898740913256 -0.0008952693505750002 0.030415635013452427
0.2917737724731394 0.5376337430325544 -0.0012358857642814202 0.015769459457080436
0.22068590750198053 0.5495165240996198 0.417464889692765 0.13040485724192571
0.23898489688515348 0.5521617800743578 0.4191420687900949 0.05860256322780557
0.24002049579328047 0.5520267109958609 0.37733076897876255 0.0031816746018525637
0.218882753866877 0.5557491296090882 0.37651235380452736 0.00031245451765207896
0.24442969401117928 0.551462235925779 0.40186664358723484 0.02503209383837228
0.2825795206211845 0.5533479454326657 0.38975488797872393 0.004630516196026384
0.2921629138267168 0.5564087813622269 0.4029907078640437 0.06954300092833103
0.31048322102912496 0.5588844797145004 0.4256083049325665 2.1070148199098298e-13
0.2698925430461233 0.5570300551704601 0.41372590195694847 0.0568194543474023
0.26719612064581405 0.5487438187438771 0.37989854935137957 0.001541169304203573
0.2020176733720444 0.5517694072652066 0.3886700224289172 0.006500365665639603
0.20126408925399106 0.5465596333871716 0.4252029343663203 0.10236288374461817
0.28036479003740106 0.5532164475105267 0.30323299144107696 0.0032577530645852325
0.2797101808065132 0.5535745298024735 0.31175512393243454 0.0037800460817376353
0.18049173707369737 0.549708277192302 0.37644460712971173 0.00932945484486327
0.18390850984853468 0.5498782111798132 0.3780641877409786 0.010792735132065098
0.18337885321125788 0.5498300199271511 0.4171676529697908 0.060688064805258894
0.30738992516239627 0.554703647174054 0.3180836224933539 0.04525549100280286
0.31753145849786535 0.5574048894124818 0.3632558811054241 5.305075697799993e-14
0.2940889150182126 0.5497121625150397 0.36781511471716677 0.009272449602861431
0.31687444186028974 0.5501673206483485 0.3971419354291864 0.04414950682308594
0.30736501703535535 0.5543491482367899 0.2743382262574175 0.049649572396485264
0.2972506027669027 0.5578137961854813 0.2876921745583122 0.05254041578686263
0.3090150223095963 0.5523994362188377 0.2933609216800622 0.04440989653242665
0.28841865970133485 0.5574971459790822 0.25851249541735005 0.0064351993161768685
0.033993094592336334 0.47567534737160394 0.41808146150447073 0.03643890018608285
0.018323964064856403 0.3972064887328172 0.4107649524425628 0.11046481778689059
0.00011472695967208388 0.2952315387340617 0.4071535962018004 0.01906310959541392
0.021889312610512416 0.1136103140638563 0.4179322744397525 0.0760297452026188
0.12566766248328837 0.01288577824055658 0.4176939972331624 0.03663774002060995
0.16809222948980965 -0.0008769279354406607 0.4163548444906898 0.017730639961674288
0.04028201213235843 0.47025095743295736 0.4208614898922113 0.05125479259465378
0.029136246453227682 0.44277961672817134 0.41723082957389607 0.04846566516614662
0.020638771530017364 0.38856140263858685 0.42413639912582185 0.039320795342213714
0.039964240489316204 0.5373112784924913 0.4087038005211824 0.07527994946912227
0.019225191949547873 0.34040473075237365 0.4271131685116475 0.041533313910463346
0.0008266987116095133 0.25862885816496034 0.4211378988227236 0.03822047672539172
0.004221829460029984 0.22519493339583127 0.4205665647768556 0.06145491320233348
0.015015084696308564 0.13617945094435163 0.4186509341841696 0.09482142674688349
0.050744196433199225 0.07657829541243423 0.415123173276832 0.03989525292106985
0.08703813742888752 0.04542019658893173 0.4223316587352569 0.06737969469542439
0.3451508358142666 0.10113328246531496 0.41143359667097934 0.10005895131951498
0.3538247237882722 0.14267740132400628 0.41995667243545093 0.07404360769672846
0.3769246144093063 0.1851964157189294 0.42978073355863583 -2.0893682510801193e-14
0.3659713319669197 0.23893972658954032 0.424484891246341 0.03926626527125706
0.34084872700314345 0.46372777903206874 0.4146062252729726 0.04844172657317359
0.22797183069619958 0.007065771376157295 0.4183038169766302 5.122777615767754e-14
0.3058475723378809 0.04419802731861338 0.42098805265722367 0.030126300612159245
0.36912969177643856 0.21809128061137137 0.4228208138099579 0.05176474291329079
0.3605588962735822 0.3367162299983042 0.42658915762475624 0.012115750661742974
0.3447190129095602 0.43848030070167676 0.4225167113457211 0.020236888297954767
0.3702516754319128 0.32242629163751496 0.41368620110720633 0.011411492475060396
0.3728606751712194 0.28588477846195554 0.4210181496472988 0.02236455030301105
0.3191522568815545 0.54128936011375 0.41645901451988615 0.0764698698625246
0.34333017132953353 0.4249270542838247 0.4247755444819417 0.07635226514763456
0.3387816659792511 0.49975011200829195 0.421848866052136 0.014853290004837611
0.08825176549442436 0.5542616501461317 -0.005235342661522366 0.03034673813759029
0.12886479349795607 0.5500636806347357 -0.005234613781389999 0.001999368654929139
0.16653292722604 0.5472636823879101 0.011099722948906692 0.002047040059700849
0.17860539531197356 0.5428241242141228 -0.009628322729064208 
0.08354026012813268 0.2406621574199489 0.003590659404012248 0.004730913125234935
0.1162944472648566 0.19612122182670289 -0.01614182367172189 5.390461337248248e-14
0.29728866965309814 0.5048826520812776 0.0004979230435869573 0.023911090687407027
0.2986197282824218 0.4924479312418872 -0.007783869869112268 0.0023725795000586157
0.30343323893173935 0.4499566030631307 0.0006843168930250527 0.000616782330544622
0.3145616177227985 0.39939749538335223 -0.003956343058948813 0.0010221957748616887
0.27915722804031184 0.5395937630363844 -0.003320292532522039 0.016097093473025313
0.291125890332447 0.5282546164876994 -0.0030806143563491466 0.014337832505862767
0.3010922967625885 0.26614657870286823 0.000809135037046251 0.0010797104468015493
0.29511198271609407 0.29558116612423313 -0.007212170930096195 
0.29471952697927223 0.556410506472949 0.01607313069679435 0.013482755350695033
0.3107678215273134 0.5305667323514753 0.08201244739881194 0.0245669198372882
0.3059689495929373 0.46381454205706907 0.0667976696203398 0.005942219664530932
0.3035380947460779 0.49367517638256736 0.05568952744186199 0.0065678063560571775
0.30289936132509604 0.4831223098825177 0.06610492787637115 0.004659670596049546
0.3021495991519967 0.4708202359463003 0.047681332197954326 0.0025258367636548235
0.305074775158397 0.4882092330535479 0.04088218347121478 0.002206846833761451
0.301150578496707 0.4863272399698075 0.025310746236586135 0.003743542658092887
0.31351768651201317 0.4582636095614027 0.09090030221959079 0.004199887587834812
0.30976362607800745 0.4728505918966423 0.09573633316245023 0.0063897121523716445
0.3109872455466758 0.4974044839082596 0.10303475419174368 0.003752099920618134
0.31407027104686375 0.4657950885339029 0.12116927160965175 0.0037476510915256532
0.3138846387313703 0.47236354340726555 0.13289503506766726 0.004046251706666183
0.31192931179635514 0.47796053503359026 0.1266580214282319 0.006212653299878516
0.31919586843925873 0.48220242198872587 0.1637734095495714 0.0015256405583907915
0.32149917807443534 0.4541332445240303 0.15798601797515666 0.0013711008631602786
0.3233512587132422 0.5038993386138747 0.18346434677586348 0.0024446488365886896
0.32519573194934615 0.4726779126221723 0.2011466733672161 0.0015556967113954422
0.32308890139196567 0.470060780936161 0.18843790707704394 0.0012801669118369676
0.33104002236204266 0.4743690274678445 0.2248765701901569 0.0031967684755292427
0.32937163331738123 0.45181462621927343 0.20742527992637289 0.00568126665287837
0.33220493590055256 0.4973706787988053 0.25741018825688905 0.000578194194794012
0.3329466058640498 0.45984292419700956 0.2482553588265626 0.002586722054551316
0.34202920538629167 0.45652398157176954 0.28412027823136493 0.0007645430676293467
0.33024450493054247 0.48206900643255357 0.29326128191771633 0.0012761557726752167
0.33698818883993203 0.4586805275756649 0.3092321939954066 0.006363503310553898
0.34017056544439067 0.46484284463900194 0.3416788576088519 0.0016507241275051606
0.3397090236511588 0.44231795877845514 0.31031271540814864 0.004893811295608527
0.33457182808792985 0.4732867997241175 0.3189023975982148 0.0073081055207109575
0.33768851434753583 0.46318554667079137 0.33254237784925567 0.0016847670563852335
0.3413753941601752 0.43759272716443753 0.3273738434203868 0.0016795196735043792
0.3364681413978606 0.4620087949538941 0.31493952027323563 0.006767586601769022
0.3376481455215742 0.4890038362608641 0.33633910986057547 0.001155673690556914
0.3308059479747033 0.4939399780576466 0.31757003344699963 0.002193995217239573
0.3404540977997909 0.47146592905170376 0.3389194988484424 0.0013002329924197969
0.3408131347547286 0.4696293784313648 0.35853946640925083 0.0021181289553233685
0.3040720849985622 0.4211663553224545 0.030414773778985525 0.0010860511932530644
0.30460271164650593 0.4583183081917777 0.02607489519757186 0.0032077022435898087
0.30756579306375537 0.4239426982539916 0.05284328091418764 0.0012096706836003698
0.30746081869483743 0.44744334983954687 0.0563291999060921 0.003216353027442494
0.3076590827396023 0.45196106438878697 0.06635866011770164 0.0014535793663337528
0.3137835739017954 0.4308995266135238 0.08933713126385114 0.0004927211430999328
0.32066598334819546 0.4496257474589594 0.10890653614836118 0.002652571221475352
0.32217200815590297 0.4405216216365255 0.1368931402613583 0.0019845217389116124
0.32142463816170347 0.4460916070692569 0.15513341161439778 0.0012707109176512941
0.33486194242915196 0.42653255867253687 0.1888231012840489 0.01531362968246691
0.33735663168341146 0.3949853521842898 0.20487730884916835 0.003096949698838184
0.34134610183753283 0.4144180190130477 0.20187153072414116 0.0032105950883817894
0.3417360033814552 0.38891615314067174 0.22103085405338835 0.006539852733300154
0.3409247713360356 0.40824178171274145 0.22779743405186018 0.005126265032605827
0.33550878932978634 0.4359008872391486 0.21487827959598177 0.004431678977299102
0.3371660335709944 0.42420937815633625 0.24516414475722653 0.0019148039687365236
0.3330962055810439 0.43961633938028183 0.24362531256713787 0.0023784779060558323
0.33695356078313404 0.4192741836623924 0.25999440493065934 0.002865430130417683
0.35214746652253076 0.3899960930434264 0.27967493268867744 0.0013010554981423578
0.34142412846962733 0.41606684345811884 0.28013507695202733 0.004787247597600491
0.34065686278382545 0.44016460253367873 0.29352517431391917 0.005870152253654911
0.3459535128351 0.3993794049135736 0.2898208043589955 0.0062227336868241525
0.3374324975103871 0.43606168506046017 0.2740173749930749 0.004264150675142412
0.345125084918522 0.41198707301531606 0.309297012752447 0.003502154893200638
0.3478980388425463 0.4005263958199129 0.33268748515623303 0.004690476907269128
0.3519651140683607 0.39092665010252936 0.3204791225712768 0.005170773384162411
0.34981722586692676 0.4161277469833375 0.3380009616798674 0.0026442784299291677
0.3514913303165092 0.38335084810344866 0.3473248845930505 0.003524303842389502
0.34696902421863585 0.40195356251072023 0.3551781655137278 0.0047669894836618034
0.3440663620403498 0.4412443739426607 0.34174258848796674 0.0015937203842990519
0.3472896442720388 0.4265808758044185 0.35367288065727687 0.00781378462649363
0.3193113206971875 0.37262147732673284 0.07358007188156027 0.0015232237076548733
0.3138923583576715 0.38410991412840095 0.058969338128372406 0.0003228411630909055
0.3161033311142408 0.39956164342303846 0.06682267962555322 0.00252398241443233
0.3198703024752289 0.38389245373344005 0.11234064290616796 0.0011838420068031729
0.3251187822144209 0.40943770651630984 0.10421779148108493 0.0032248868504717596
0.32563461460456805 0.39374184684491675 0.1306481524183837 -2.0216329117881555e-14
0.33173578153092886 0.371260942759809 0.15505698692994874 0.0010738122134402934
0.34472116761341415 0.3461756806840421 0.17856805051387123 0.00104522700326091
0.338330234027611 0.34521782664319656 0.16083675203795056 -7.342879895259663e-14
0.33960878761742336 0.37166979134942796 0.18294566766368672 0.0007183542166557479
0.35071485935327656 0.3531878197244983 0.23962949336038855 0.000951981678858784
0.34911064305723977 0.35422411256661473 0.21926639140253285 0.0007870267953879032
0.3449022116276018 0.3885048932282231 0.2505769919272332 0.004431096828363575
0.35733173340322055 0.335469497202827 0.283106350046826 0.0008158413667820063
0.3547546519187772 0.34329699795672086 0.2841902559722753 0.0009021080955614228
0.3550018403301168 0.33944062924936086 0.27534634418214493 0.0006130188327111554
0.3506658674014345 0.35875079763818235 0.2569635485297356 0.0023208476327933793
0.3501172409065706 0.3807553448368581 0.2910339769201445 0.0060277469419109915
0.34952848141145093 0.3722396370703078 0.29693205831631636 0.004030851105452839
0.34870557935726276 0.37014107721690914 0.2735318855983558 0.003226815120155961
0.362163471752504 0.35261291689067686 0.3270285782848474 0.005484891350854801
0.3706092275241198 0.3197581851060307 0.35492854231915955 0.00548718377880465
0.35916029702833385 0.35878435212359205 0.3373202122107088 0.003972707918848954
0.35604287470147666 0.3742476137633966 0.31710546595611144 0.003970607509931999
0.30737251089043777 0.3564961864172673 0.040797381323651224 0.001273236315705268
0.30906045974926055 0.34860390639126254 0.04775312054251579 0.0010267606308043723
0.30720620967507445 0.3411704887096607 0.04053222044300761 0.0011098756602361624
0.31958490029029074 0.3290923476204402 0.06911062322069572 0.0009590111454099784
0.3163832904102405 0.3605050479156899 0.06833919358922619 0.005587595276969586
0.32198276831476513 0.3373776857071771 0.09490376085458735 0.0008593545350352662
0.3176209723779695 0.3623969628744994 0.09417519121757131 0.002352304048169739
0.32514739006893256 0.3339748932560226 0.10966610069618248 9.38254054463229e-15
0.339344472907603 0.3008906158729643 0.1331463709309764 -3.832592914332921e-14
0.320884793275647 0.3545700173955084 0.10827827526028404 0.0037100437034885765
0.3403372317940072 0.30527576559564806 0.16727269231431424 0.0027949358235568223
0.3473968948040875 0.3359335942490296 0.20381111985330183 0.0008935482175357484
0.35443752242804427 0.3225219937167848 0.22227068544697753 0.00136481033557098
0.35659456864631134 0.2947302458575435 0.21947028870404658 0.0014691277420824432
0.35378065677699294 0.3047877562325405 0.2194010850073847 0.0012642073672553464
0.36374718079527063 0.2943125294004273 0.2723160719943947 0.002068826721288222
