x y z curv
0.3370038662188235 0.24792420498551052 294.9512785567452 
0.3408233520740461 0.30767708727179893 294.9543503283677 -2.068230135497331e-08
0.3378532820943368 0.14676892504605582 294.94880872111446 0.020015332691962776
0.32790193333970413 0.14698602183364448 294.9350639972481 0.0028710640743733026
0.3423013240647967 0.2015478670791472 294.949981724318 0.000632302508940589
0.33327541228293955 0.2632407854371852 294.94932369948805 
0.3393825906976259 0.3331410320837121 294.9649945940844 0.008408043558144607
0.028913153577457353 0.4503662650633742 294.9698971887267 4.472892352230473e-09
0.08401173549450745 0.06061387129012831 294.9333943135016 -6.6352434928698555e-09
0.21046152099097773 0.059200627239510875 294.9317349253255 
0.2597957905784019 0.059411966900509545 294.941671995883 3.3560572298081265e-08
0.29832574626634095 0.07040338507525053 294.94207890202983 0.030610893016844023
0.3655999744395504 0.12183832945299783 295.1605515076683 0.002688479780064461
0.3610810284199743 0.12884186216897017 295.0789596115171 0.005660567755533936
0.36487309454160044 0.14351074051454266 295.1110167993292 0.0005002316488333942
0.3539989892015315 0.14746516445134417 295.04808462994964 0.0030258621579424654
0.3472008270437144 0.1536718148905086 295.01490077285143 0.0017468722292593847
0.36733129053976243 0.16463868088849765 295.15288171887477 0.0002889984080543961
0.3655719212919934 0.17260188183767317 295.11579556681 0.0045684148939904475
0.35261517259961134 0.16572435238463548 295.0688131678055 -8.283045630976818e-10
0.3516455456895495 0.1641806655935443 295.04424678729686 0.0016945338739234605
0.34852027402965935 0.17763712681408725 295.0290358931241 0.002724417472324436
0.34790456824607935 0.1848900990001763 295.01343898077334 0.002478122465408145
0.36012529084161826 0.18999281754058184 295.13959259237447 0.0022373937654053566
0.362371329138709 0.18675254871860095 295.12103339502966 0.0013371221305591642
0.3493939160005476 0.2004541928707894 295.0459481838152 0.001910658789491065
0.34941572640675356 0.19394767026114842 295.01058301339566 1.9563728420207262e-10
0.35769292430219535 0.1997108232674319 295.1503996943562 0.0016586505969034976
0.35849408309553865 0.18651473640935004 295.1675217294956 0.0005844018873213303
0.3541031302242491 0.20498798335922158 295.12311371820743 0.0012922479938541627
0.35776611112302564 0.20261291317928676 295.108130778972 0.006075752897739664
0.3484692153969443 0.22017544939489775 295.0716586698252 0.00361520225187683
0.3506985978209192 0.21150223034925603 295.082179916988 0.001633581206635363
0.34810781535773255 0.2161934223423219 295.04740145017234 0.0018174993614379809
0.35392922318331055 0.22160312067936327 295.1388666809369 0.006374823743786999
0.349185473544494 0.23388522071451415 295.12241017638434 0.0021638801995440987
0.35265371159353226 0.22150237338100684 295.1220339779026 0.004776727665607393
0.35528735161013303 0.225779685867594 295.0979377298625 0.011677762907905023
0.3515306246147705 0.22629267303901637 295.0351882313988 0.0009954293116145928
0.3548510827321179 0.2445032811997287 295.1553309973788 0.002388445505687824
0.35154463996267427 0.24873340974787533 295.14103282855683 0.004116780601890165
0.3523923955456402 0.2458620683319117 295.08931874062193 0.010847822972893283
0.3575925256259034 0.2550410647415685 295.07564819717277 0.0024735430461439675
0.3488251880373866 0.2544366025278503 295.0440318519902 0.0042664211542367365
0.3446185451838528 0.25071237821513354 295.0048570038355 0.0012095467898254892
0.35092257791789927 0.26910988659031804 295.1476798643152 0.0010621787121166664
0.34660768402001896 0.28391875649940657 295.10678475125536 0.0013818965998325156
0.35137679552348866 0.2623787422733558 295.11299305255284 0.006826762168963509
0.3529462499055851 0.26641191353900057 295.11066231786276 0.007342655555777423
0.3483231107895978 0.2822311616278846 295.0942482689309 0.0037200817458779727
0.34844008707080737 0.26003769679377164 295.0383261510067 0.0016225557936110683
0.3597542019376475 0.2917120198674112 295.1621518555987 
0.34559404589233106 0.3092321913904125 295.12639218062014 0.001855371120670334
0.35159166197267316 0.2995134272984622 295.0638360540695 0.0005726272982416274
0.34615077748693335 0.30740452711782945 295.04111257899575 0.0017702392601204998
0.345542183703648 0.31232690975801947 295.00669834856797 0.0011012007170623324
0.34288904801526326 0.2972454825814178 295.00952044021716 0.0006214888991063561
0.35444087110932454 0.33839778577351337 295.1518027399527 0.0023287900724143183
0.34775350866044796 0.32188623106486414 295.0909138941503 0.0027980727701073784
0.3466414999932831 0.3368719103894852 295.0855666745502 0.0023922646206573925
0.3488997810391271 0.32834482244040386 295.0715069779753 0.009265153769308854
0.3525470202186226 0.34640485197884224 295.0532723586697 0.0009292315061059371
0.3451131511486486 0.340578057963696 295.022568441809 0.0033253200112454357
0.34824604028136547 0.35025289166711926 295.15459712380755 0.0018321921958877766
0.3487581169869613 0.34767950854414087 295.1274247067932 0.008488547117287566
0.3487699850763221 0.3567118589768168 295.10327260935617 0.0018144183675375474
0.35056708989105484 0.3398365038124481 295.1167328787249 0.004171581955353342
0.3464951256494398 0.37965441672544725 295.15686799223636 0.001612565795814937
0.3470111070804352 0.37001325298519866 295.14829659731157 0.0023630102030325196
0.3436324161028256 0.39353965465718066 295.1237085877441 0.0034091478204881453
0.35025476183679544 0.3712192068079059 295.1074314920739 0.00021877108289246883
0.346917455206588 0.3741013837543469 295.0426524301123 0.001233351876338633
0.34321503671917186 0.38461440840925054 295.02399900578627 2.8380750668906195e-06
0.3469001534245688 0.3840589736038867 295.1722730368124 0.0006305047345315325
0.34696557710225867 0.3836140078234555 295.14841733099354 0.0015745519436892329
0.3455977489521803 0.4147661931174895 295.14917676416366 0.005730393699277527
0.3429473829783574 0.39556963737103684 295.13045120269686 0.0029337744829168715
0.3455721810603178 0.39725062394219307 295.10306965147 0.0033920170720224295
0.3429937694460424 0.39674951013172943 295.04426478651857 0.000750242074130387
0.3465305274922332 0.38258842448645786 295.05133925750084 0.0005844959822876705
0.34934753807461977 0.4096187933006444 295.16867994638255 0.0020111918547842094
0.3463646639821083 0.4227913633636746 295.1185040503554 0.020458802713904232
0.3487443842520513 0.4190604623987328 295.07913551386673 0.002770270526764377
0.3451927706026026 0.4098985668835279 295.05931465485986 0.0009162031925898771
0.33627111326232917 0.42644003454533264 295.02945996816896 0.08784661397430224
0.35841824855314286 0.1244130228259134 295.1970252969475 0.043267180921432766
0.36159973301097437 0.11834371552049636 295.18893861296675 0.0062060050382340085
0.36189491983688277 0.11986540956991591 295.0948407958644 0.0014362502268822944
0.3539768828160707 0.11946268516555225 295.06078188826456 0.0016743735647149268
0.359504648412662 0.1174562229647165 295.136666168215 0.0025086724895937956
0.3554549794369759 0.13952927819813632 295.20676399672226 0.03900652169134092
0.36259527154806426 0.16033526167850523 295.20190697355036 0.04436279893012698
0.3607902750848466 0.17892962200442625 295.1799455892428 0.006202993586795491
0.3646740816862187 0.17942049156669865 295.2110893640957 0.025888017366205298
0.35341797647970646 0.20427071654228654 295.18742085545455 0.014290690787357488
0.35011171313987677 0.12128266643252687 295.04201410878863 0.00942982324179613
0.34852269848052125 0.1323818329698764 295.02783384586843 0.002351510443444689
0.3436156672252533 0.1397896836462851 294.9994633120744 0.008491740018497358
0.34494877313977135 0.1357469016829002 294.98058433339605 0.005871065975576635
0.34280953134308395 0.1481267745459434 294.98399403594823 0.0020273411000443
0.3409218159505662 0.1654594460067387 294.9426053691949 0.014869433531575462
0.34819438885462806 0.17596177818160372 294.95566250976094 0.0003437848553652008
0.3417429425503506 0.19830273836271015 294.962795546468 0.008212090142484377
0.3426918986419723 0.22043624623684713 294.9808422668393 -1.9372538887270193e-12
0.35332892480863665 0.23650770804061488 295.188525565494 0.015892534592640267
0.3589454007027128 0.22470579490044795 295.2047587263123 0.027863205446406705
0.3510705240864811 0.22202435392693037 295.1774535814828 0.0035727122810046974
0.3563583742312627 0.23247059036601594 295.21218610593706 0.06734339782340167
0.35810717643434137 0.32031193806124425 295.20777676541474 0.04574622547846372
0.355143750800446 0.3120885677242666 295.19111594650417 0.07237820021975214
0.349761129751015 0.35740751085762557 295.2173335157463 0.049288516954575125
0.3510283184532823 0.35475843224013004 295.19813521007063 0.12132791994085504
0.35419874987959726 0.38054362405057324 295.21420864202275 0.036545246854330575
0.34999608689404177 0.3474567825576913 295.1940050707921 0.05177656227388014
0.3487223757573598 0.40673019950259154 295.1899741730654 0.04279955305476761
0.34830748560327046 0.4268220308967712 295.21681499128226 0.015894194871529092
0.3508182491712456 0.4324728402700871 295.1511337835464 0.031074409900203777
0.35089367547107797 0.4331956901843059 295.1792170179459 0.07336480294352402
0.34191349206879473 0.44989734451621016 295.1580424043685 0.09301821443311262
0.344676136129307 0.42732687172701145 295.1011766086855 0.016947863865378245
0.34563890825000637 0.4353502284100195 295.11512981994264 0.05114127474477183
0.3319474684307339 0.45421960807573947 295.1143272138692 0.0572555703443801
0.3441806268827475 0.27654244540900424 294.98917694253197 0.0015450866666855546
0.3382079116264013 0.25784646332857863 294.9634768541755 3.736921020760531e-09
0.34259737811927105 0.30296089204367704 294.9780973198504 0.003441136502807157
0.3466796932240151 0.3446203657899884 294.98952774233106 0.005862365260236518
0.34489728976566925 0.32040082835464423 294.9781938498201 0.0034248391258674383
0.33589260898101625 0.42491710075151135 295.01515421233796 0.016291600683339215
0.3442251263479014 0.43878214466653076 295.0602319714925 0.07054128846048335
0.3393324179960989 0.381446144208694 294.990350734614 0.01645145739814927
0.34260199088134685 0.39501300676434975 294.9821420159903 0.0017128181884195595
0.3331616788214409 0.4000224868305477 294.96683516537246 0.0026122916688472264
0.3434288005201722 0.4096369974183667 294.99069085699097 0.014239120314688374
0.32622023969897124 0.4471200123452121 295.0010050460179 0.009511701579394483
0.33460657685234896 0.44569618083062235 294.9787437784541 0.022920130090478764
0.3411915743454399 0.08921004527817321 295.03514716883245 0.004870691411305143
0.34953519258392457 0.11384470914703917 295.0119900771634 0.01045482381653138
0.3526204393576555 0.09757780688077243 295.08234840741284 0.0002493035331689841
0.3579241684212124 0.10107296691582628 295.11462518785555 0.010900627659645572
0.3612615563165893 0.07672958390744572 295.1762355507565 0.004559278403985603
0.33442834456837334 0.0919294740589552 295.0022928041481 0.0023939481205061757
0.3469689202919703 0.06434326763297248 295.1070862478883 0.008794813697220566
0.3380959137667071 0.06609470570815756 295.0730315727681 0.0005160142633335922
0.3375923305387164 0.059568900187207556 295.08691262399077 1.3523399745960696e-09
0.34760777029935935 0.06046298292576478 295.1341808304257 0.009728380596261067
0.3385917738457888 0.05103125142319448 295.1624957675877 0.004056924596666291
0.34301374647157323 0.053175758771201426 295.1799321078109 0.009114021644495872
0.3307509669748273 0.06675980190739962 295.03321832074073 -6.18012430375726e-10
0.3273196717576596 0.04507578729118188 295.1121901848696 0.0041973726725221166
0.34040019112889214 0.04813792649606099 295.1292183015744 0.000435494212257657
0.3217611473837814 0.06973801399728483 294.9998100969321 0.007993689441367439
0.3150515008375777 0.05504456285319278 295.0184687808865 0.003264385446255458
0.32417198002965625 0.029078169995695045 295.16543814649475 0.0025542698058688964
0.3035323328837536 0.029125698545277374 295.08152060722784 0.006065194422986224
0.31360300433074395 0.03622689147408028 295.06362523757326 0.002544008931906515
0.308988194769183 0.03155478768128056 295.10035746426075 0.0026306472293131113
0.3053366822960523 0.015013059877551025 295.1466004704412 0.00018313524380384507
0.3139605754229077 0.01897147663899603 295.169143538675 0.012422717228524038
0.3198489993774233 0.019294851593202007 295.1776638026715 0.0012071820465467777
0.29994692877091006 0.050322963320830735 295.0052833197349 0.0074884054619860215
0.2933395996400849 0.03736614345549714 295.0505502225761 0.0005307028779158635
0.2995131163540081 0.029517044329724924 295.0776439411453 0.006900731295114614
0.28217948420356403 0.03970567789578507 295.0236887368023 0.0013785041901263739
0.27342713823664944 0.016126765990308906 295.09435306417447 0.008667904680003446
0.27964580501733816 0.02177284836477373 295.0806472896506 0.005859573139509125
0.2863181987685007 0.021379139392846365 295.11044361125033 0.001758007807823379
0.28643708675103824 0.010329548560231798 295.1507543866824 0.002669611093662002
0.3469243983802037 0.11402887916257748 294.9801972699417 0.013700763527078351
0.3414148772134947 0.12189128999549056 294.95976128625057 0.015167237619777873
0.33621198588383194 0.12331578235827209 294.94825193012275 0.010885669830326967
0.32679840985905956 0.10501532459313448 294.95203404681445 0.003549993405901078
0.33379537768384504 0.09246743907813945 294.9729719799217 0.002593484805899012
0.319098783133611 0.07658430796817363 294.9737706745727 0.008540402479580043
0.3413314294941093 0.10379644317926705 294.9981832240406 0.02175738720627581
0.3598712445217051 0.10644781321248055 295.118082925956 0.008529762577138179
0.3619713635963246 0.08857667201383189 295.1321072248458 0.0017684242449126893
0.3578246504049043 0.0994199783379375 295.1729496827364 0.001965476306573382
0.3602865513639063 0.10651054137372125 295.2020221158547 0.011389044592385095
0.35478229567894437 0.06895300135799641 295.20094562884674 0.01945054216424118
0.34634254774086953 0.05508749648103523 295.2081646434537 0.07584413869321747
0.3067130643826509 0.0638385538379253 294.9752845852523 0.0016434049628332769
0.28917627928809025 0.05676426804105156 294.95464315099827 0.007219598666655092
0.2864232766360344 0.0456679493189155 294.97930142583925 0.003969422643952044
0.309836423246403 0.07485750354750698 294.94293411856637 0.0032425156211499974
0.2660027201692275 0.06584708695579375 294.9374016783436 0.0003000365149747495
0.26402260942421246 0.03553707186862973 295.026475380149 0.004429949404135152
0.27193669541135457 0.029588302050129033 295.05446154593943 0.0022097030433014145
0.33831343547932546 0.0358315894903137 295.18989525237885 0.01075530660354917
0.32093927844069475 0.010603788993318639 295.2021943519094 0.016017020047207182
0.2901182559511657 0.0013803833780001752 295.20164284365336 0.03269305120835652
0.2792344060862253 -0.0014238941019281415 295.1994833053493 0.049659018310906446
0.25981263473862287 0.004875555623656811 295.1396503748109 0.0022648028570999767
0.26707324780041325 0.007227391013661108 295.1232422049084 0.004420203111664771
0.2584254598108564 -0.0026445783644099092 295.16574983187394 0.0048339366223451325
0.26889211122537476 0.0007700421355537057 295.1702078386834 0.005382412655761947
0.2547616685255089 -0.0037305429767775316 295.1857451277749 0.045041804470214525
0.24871962036651366 0.015930318826462092 295.0962330453998 0.00014209153948744517
0.2364301447988717 0.04434486715582627 294.9851744305558 0.0009631556637468969
0.23371165060977311 -0.0015747098603679597 295.13816027936787 0.00028028587654335886
0.2357709767282978 0.014765611976205996 295.0975775570996 0.00021618746215394338
0.225396999076423 0.020987025491029314 295.07621365114267 0.0002910853006009589
0.23568696000764966 0.03281241552994276 295.02748297953303 -1.9162633499999777e-09
0.23400827631109178 0.04445649777434454 294.98306466411634 0.0009283114419075153
0.22067539086923438 0.045856611190054006 294.9746527979513 0.003027641535300322
0.20731579060660243 -0.0007871037325385107 295.1571165529069 -1.0702343128592627e-10
0.20630061148647041 0.005528403718987473 295.1296245399596 -1.605574280326134e-11
0.2136344844260614 0.03300198632818349 295.0318065685069 0.0006645209808611095
0.2143212099176217 0.02304558847922004 295.0631354679756 0.00356182965630373
0.2027491471538925 0.042996520877871924 294.98217465564915 0.0003627313780981247
0.19469904095006788 0.006566454892319067 295.10895266201277 -6.612803746120917e-10
0.19555959706388973 0.017246061077894552 295.0724137446544 0.0015926928426068846
0.16833801161097153 -0.002874177028501318 295.1689664906451 0.015141286645385913
0.1643849114182934 0.00942676071098014 295.13197977411 1.664940892478156e-06
0.16765051340672094 0.019580078137677495 295.0818730986525 0.005480027943788479
0.17894219614133938 0.036133023613089524 295.01417938855417 -7.493497616959941e-10
0.1747739020843546 0.022593704212144183 295.0665538425241 0.006021786660719814
0.17160707721356389 0.027946985304922622 295.05272560418933 0.011635020278769932
0.17359731022697383 0.04274634260401911 294.9891731552065 0.00043363181394578894
0.1515291331481618 0.01036286102166284 295.1138988316859 0.000735731086144273
0.15024151331831886 0.01223706295556836 295.1048846720859 0.0014350046329222423
0.14242758883190645 0.04078266853693477 294.9999121267757 -1.4428642307398745e-09
0.13358699980772193 -0.006232353948358671 295.1616999556439 0.006445985584034845
0.14428519350933283 0.016939059475697342 295.07347762300964 0.0009179453212747404
0.13210587552843964 0.016476773785484025 295.07206600916743 0.0009357404934210408
0.12357779004776204 0.04534903111235451 294.99585730606907 4.4181463893718674e-10
0.1220038990001764 -0.0005691089641175658 295.12116564520386 -2.436307834290252e-10
0.1178652603197188 0.018883000173988265 295.06133190324294 0.001941552887403612
0.10366868652046954 0.03016979948034767 295.03352560742144 0.0010406802868729286
0.10898605153360623 0.02196784987992384 295.048495375815 0.0012479141801559645
0.24745913636901004 -0.00481920359141779 295.2048976114663 0.035343209049090725
0.25197251478846355 0.01995865957144635 295.08273533944106 0.00019628520322876558
0.24872939127083618 -0.0066561491801044904 295.1908441292617 0.04956769812961365
0.20900837993561452 -0.006421287138634284 295.21043925039595 0.09318238306946032
0.23661084323663503 -0.0022902806970810053 295.1896512909158 0.032238821948408124
0.24689589225311712 0.02742212786095538 295.038132538876 0.0006848220643817026
0.2544106029470746 0.04668106344050653 294.9568056040614 0.001728631488091694
0.19394918230494138 0.05125024269925683 294.96059917973025 0.0001571180463176658
0.19375818286772745 0.0015140896915645013 295.1844962704696 0.024007066662657537
0.1308920940140322 0.002608331792433143 295.21585628534393 0.07704249802402797
0.14205455689642507 0.002300113091589731 295.19630407508225 0.0034803197545588784
0.16335498423311337 -0.0006466722990322365 295.18761629043746 0.01264524355836625
0.17862751931284504 -0.0006664132626587461 295.18633639395057 0.008035598094786161
0.11094635410213799 -0.00473786520090241 295.18564678420444 0.009228347550061113
0.10251780003120896 0.0019059813705739389 295.1416299838897 0.0008938571297855882
0.18135560742514126 0.058552196381473645 294.9353510051355 
0.12812533316005745 0.050554646062184294 294.96213861326333 -3.067693786197568e-09
0.10630739534702595 0.06047821701569919 294.9439524591496 0.00034129003324816736
-0.005015517582171548 0.2534397459199841 295.1669449505098 
0.004443377931626366 0.3976960522682079 295.1408488722977 
0.005664456052875862 0.40773987871943934 295.1714955529455 
-0.005926511638740042 0.18581727076294177 295.20334053997715 -7.666389565091808e-09
0.003076431708732001 0.3383327695620693 295.198956050159 0.002057596346481801
0.020166392961490393 0.4547733483683334 295.19802356179196 0.0002506465285118481
0.01228250873944673 0.44153045843649896 295.1925221030613 0.042785472070903864
0.008840035358724588 0.4345412343431535 295.17914199821706 1.2160864542809663e-08
0.011417098838261084 0.44310051535915884 295.0968658814084 0.0020428223115723236
0.02194011835564113 0.44640432649957484 295.0863584693493 0.007789898523910566
0.021982599090814195 0.4543150145493942 295.0609393438556 0.0064510800457621125
0.019936890965087925 0.45242494715095577 295.00023327707646 0.015397423452984286
0.013500693227067562 0.40007413709501133 294.99150773489714 
0.021035171600600186 0.06962490212105932 295.07043827713994 6.027857537979139e-05
0.002986977202663039 0.08164181847060974 295.10752313187965 
0.01666864210367968 0.05687050897501368 295.1103404506847 -3.69776496057837e-10
0.029909182469409518 0.06972762206109154 295.03545235094293 6.455097744977064e-11
0.02314588412923249 0.0733045889084921 295.0001380820285 
0.025914918250099426 0.06283467645359529 295.0758065084794 0.0012129248267595677
0.03517398165252056 0.04943113701739648 295.09854756174644 0.0003009410349221841
0.015850924051739233 0.0393602724112601 295.1659625113163 8.813884153465386e-07
0.048846062659593216 0.048004888705097934 295.06626617360644 0.00017417938415731287
0.03679382871681705 0.023386760218912825 295.17984232766025 0.002005114267960964
0.049447733507288184 0.04673495951370215 295.0147195756912 0.011889958059326978
0.056667874492262044 0.0151636696808476 295.14979153246094 0.003939562199831569
0.05318732500474717 0.0279997297927438 295.1157650197025 0.0029091782048439076
0.04596080630502424 0.01872297170347951 295.1677820957857 -1.0917201631112963e-09
0.06514062497261312 0.04775901805671331 295.0038623823614 0.0003837929020656921
0.06658488888643099 0.03317696273026653 295.06693469470025 -8.338372935370416e-11
0.07336995426917255 0.008263644651076922 295.1399825710371 0.004097295213604586
0.06477031966966898 0.01704265257258282 295.11401852982266 1.7743995481845144e-09
0.07621998492856254 0.039902396811081924 295.01648942344764 1.0926518940689762e-05
0.08760075404792068 0.042870930932810296 295.00519277478776 0.002673794236054087
0.08560200516207092 0.017617434550095505 295.07474296486396 0.0026841083605476943
0.08886400693908311 -0.0009795027582806468 295.1745354279775 0.002424378074367376
0.02181894661886214 0.11431760874332383 294.9477492413006 -1.6761195742934844e-12
0.032472417118097036 0.1040118495486654 294.93924442137336 -4.836749463293862e-09
0.012264134478861878 0.11077779332382734 294.9830274461033 
0.04161553141949811 0.0810866713291754 294.96097179422077 0.0012369056764969162
-0.012283129638371405 0.08997027225658519 295.1932328763385 
0.0070042676377456035 0.05559953926826441 295.20034276136585 0.016232409658472193
0.018640785016991013 0.0314439127117053 295.20455585185096 0.034500285930316746
0.06831258546564353 0.06320396755821149 294.9633023947898 0.006179640782798284
0.0541009051985274 0.07171464584791641 294.9602674627406 -4.338955191486897e-09
0.045575585782071874 0.07064770041568744 294.9758868739176 0.0005981534628677476
0.09644403074896174 0.05530495096363209 294.960747893296 0.008196571223635447
0.09401274354481848 0.02288052509867234 295.05171699384795 0.009123104545943667
0.08625718685497344 0.052804692937931025 294.97486285338744 0.0004613404735609958
0.03559822083236349 0.03450977887827608 295.2193029558331 0.013335578470838752
0.044162784661924595 0.00971676969689914 295.2158675813298 0.019741103061069177
0.07466185199285919 -0.0019565653523310233 295.19604126371496 0.0012493428769335877
0.07374328197059055 0.001983195886435688 295.2077493198559 0.0856101466521789
0.08589491803034073 0.003358770769563435 295.16269734854615 0.003863512423046742
0.2778717031617598 0.4532407242714779 295.0318203725997 3.392096810482249e-05
0.274340302023046 0.45287137936900224 295.01038084213087 0.003681116366630527
0.26467805829115837 0.45904349436592523 295.07735183337866 0.011151941070234145
0.29987855446701656 0.45486149315586416 295.10910219532275 0.004229917689024866
0.27754484774444454 0.4589331430738984 295.1155785518993 0.0009235811273429039
0.2828051634335602 0.45399214301054397 295.0975246798881 0.002507154136032071
0.3056836846343645 0.4516204599409034 295.1384711259469 0.005573637976415187
0.2783264503745639 0.45497163603670004 295.1327796847098 0.0031433918550163964
0.2770724613131023 0.45393176518000716 295.1384442111741 0.0017471997496401272
0.25348337659561365 0.4528325111752168 295.0041957822782 0.005426762443303123
0.23325861837530693 0.45477086914887266 295.0168605364317 0.002915737673733843
0.24088795924863468 0.46100734610802885 295.05530195332756 0.0006652062681001731
0.22642313267664846 0.45142054181320246 295.0846230362609 0.003910526638250814
0.24920951895671808 0.45750283625450855 295.1066284295305 0.0060996974383717845
0.24829135561985033 0.45662151878811447 295.1388114128402 0.001756034522382353
0.25360938074953937 0.46442805585597524 295.1792529554546 2.5567352446527215e-05
0.20551302415253053 0.45540502741851363 295.03458481342733 0.001622130004360916
0.21113752323911453 0.4529271660797604 295.0094786657883 0.0009159471224269588
0.17428191970275964 0.4568921097058617 295.0265805906371 0.001008139563278817
0.18948675795670974 0.4550138720220186 295.0126787262141 0.002588154949044708
0.19215543731417248 0.4535977715566451 295.0610579407406 0.0013706623354764623
0.19555490362641675 0.4542800643625627 295.0793447730194 0.0017737688093215594
0.21329252055445422 0.451959670962141 295.07499466742377 0.008346701888444259
0.1846962339392994 0.4538592784393772 295.07453266959106 0.003950650741883519
0.20086036524572765 0.4553881320312401 295.10056970830556 0.0025850590272357434
0.21502645120474914 0.4585724863897524 295.1277220314407 0.00323689860434117
0.20589913547754543 0.45187824280485783 295.1464056007134 0.006721001273389183
0.1888350507626178 0.45682328919269344 295.135710848586 0.005607643412463739
0.17659689665321035 0.45383450797635777 295.12325624573566 0.006146343094553588
0.16364201950611898 0.45476521806871606 295.0484496869612 0.001208323351795778
0.15351090126292638 0.4576830424872697 295.02653949936126 0.0011045761894876505
0.16269524354468826 0.45212978127776615 295.0652359441845 0.0012605907883771635
0.150020341050217 0.45029317358148513 295.0741925599661 0.004155131630798876
0.16536343946604673 0.4569712713182338 295.10576351647484 0.00027907986944696495
0.1421336980926163 0.450477452762295 295.1249663806371 0.005284742138917375
0.14079879040588908 0.4498100536770343 295.11267331486147 0.0024629791752006913
0.17606601952816858 0.4486588308710129 295.15201436005526 0.00589088744818591
0.1571585095209259 0.45382959701444037 295.1421296500518 0.0061675804077885605
0.18531042865100142 0.4485663833651426 295.15576123760104 0.008764192900987884
0.16741173541360826 0.4476606679142422 295.17270028376527 0.004022440973786726
0.13213851809359617 0.4524159691497077 295.02271532496275 5.696823000355594e-08
0.12203743966737292 0.4520741163864414 295.05483896313876 0.0008646282239338866
0.09731656203926027 0.4516559930545736 295.0407018733976 0.00014368256523404087
0.12710804666333644 0.44903103013115453 295.0833145908327 0.00319432959416578
0.1375335336796064 0.44826776438387433 295.0748897031659 0.0014491302057753675
0.11598324052590339 0.45046305504062223 295.07391418365654 0.0008912428029931753
0.1319896078411234 0.4497519988801513 295.1126618198502 0.0031778936760199134
0.11493349972654968 0.4471329767011258 295.08996055934506 0.0011551471892409099
0.12623101910910187 0.45372539470942075 295.1373808781923 0.0007579626821105207
0.13373117696361891 0.4524878843709718 295.1400478602236 0.0018780056875321196
0.11872371341959775 0.4516821249514564 295.13792466335343 0.000667329155019608
0.12059161895906598 0.4526178325604924 295.12860728739565 0.0005590177963074102
0.09741619545442046 0.4507158935175292 295.12308614663436 0.00100348498562736
0.12368246015924016 0.4569856598833203 295.1810911646044 0.0025554178111860297
0.06410168983024007 0.4533527261719762 295.0151623314352 0.0042372345040926265
0.07408725631947675 0.4610350941129001 295.0592240514058 0.00042004727288132593
0.08929539999100106 0.4502514982272145 295.11035062578816 0.001928907441842848
0.09587505599191548 0.45060306437753767 295.115342289711 0.0015347588194690235
0.07746289355713327 0.45129463358686983 295.09900722838154 0.0035941831320836365
0.0713165256500284 0.45793077601958304 295.14883872529913 -9.304277222636951e-12
0.07650230416621247 0.45379018023491524 295.18597807860857 0.008994915741710238
0.3122082858312511 0.45680268291347603 295.0062127236135 0.003176856736851329
0.3345800181657607 0.4591230177451814 295.0862947639077 0.05288769457733603
0.34062351843014965 0.4489909068738563 295.04551110146673 0.03641547928263241
0.3406173687369901 0.44962003755237656 295.0657974731197 0.0984017590321411
0.33912901688586894 0.45239486137995527 295.09518642413184 0.07444433964624163
0.2827649941622148 0.44985684249703023 294.9760133111791 0.006105978298740932
0.31330879635015835 0.4535860655925622 294.98347873179966 0.026077849935973858
0.23523523075037447 0.4494890197634218 294.9734590459434 0.004895806249021106
0.21112004100288606 0.44724099961567454 294.9642948275864 0.0008670181105955157
0.3061226287109205 0.44927060590372897 295.0418589539378 0.08765048583229965
0.32946978423707646 0.4547027703219523 295.0492851922657 0.03835965213925694
0.245203512386962 0.4519360725084607 294.9809163926504 0.0062184452508071905
0.23836565429297052 0.4558906146462216 294.9881816600577 0.0013164202920564465
0.19728621945520144 0.45831881757302134 294.9815537741768 0.0026386047273894353
0.28581344090364347 0.44888651480925934 294.972367700359 0.004161310660317044
0.2825141236133237 0.4543477300549621 294.9973507619508 0.0021818423737728037
0.31258816183066856 0.45040688151968394 295.06400041188874 0.04096307685683876
0.3033713386275295 0.45419285206111426 295.0925975998535 0.00790751225259582
0.35146982834754675 0.4567613745693405 295.185300300107 0.040509429517171736
0.32432909871059523 0.45817896331609553 295.1534164629447 0.021532905181713354
0.34465122905900736 0.449340652312891 295.2166378326845 0.07200108723319623
0.3128220580733646 0.45410592035634084 295.1280924134712 0.028304672126103374
0.2956505755995847 0.45830661218656416 295.17379659328674 0.012323219821772917
0.3140327658226313 0.4518292865095446 295.16897154099377 0.024324483484328457
0.3226158005619673 0.4495103596566106 295.1763117131602 0.054663243792129564
0.3138068530167105 0.45489783672117196 295.2141361301604 0.0070585088031211
0.2367965914256972 0.4565008120878702 295.18938359633484 0.006460869892488185
0.2389575324264806 0.45194551410342126 295.20390239748036 0.00912512140057468
0.29428869441068495 0.45323755306853564 295.2062871251376 0.011031187255885247
0.2811859797837405 0.45095803128514117 295.2131478531792 0.011519753581839523
0.22415999964494954 0.4507217513599369 295.19822184435594 0.0027223780639888235
0.18844054896496115 0.45342790491079815 295.1922993484648 0.014822325340784202
0.20757098483408346 0.4560324173213253 295.1826993101051 0.005564813727615206
0.15924542593047733 0.456439150809641 294.97350861473547 0.007369298012799523
0.1753765228161283 0.45535368000303184 294.9944194873139 0.0070227458712848355
0.10422366039698064 0.45533092861797664 294.98706248501514 0.00011110987493010944
0.11849224229339597 0.4584477172763028 294.99455028565274 -3.602462458461612e-12
0.07553479102198868 0.45094025140286526 294.9875888708731 0.0070765322571931565
0.07765714721315307 0.45067430726519764 294.98606658755835 0.007125246938659821
0.03817457828831516 0.45336283810950934 295.05428410418193 0.012699679250182064
0.05828923987970046 0.4560384453378199 294.99776123077925 0.0057798655951944965
0.038498717295190915 0.4560667927464455 295.0755027913363 0.002996783470021744
0.05434683090261541 0.45412662467409254 295.0746774578796 0.005560467440291142
0.04747480587533553 0.4466471434887 294.97258188265874 0.0033448046531039935
0.041503180947607334 0.4545501166818154 295.00203696053904 0.007279091288067079
0.038761261157028395 0.44989754138209986 295.02774646031884 0.0011128625208802413
0.05119397740778735 0.4491655669958669 295.09511654426257 0.008527492444115398
0.14954566982035503 0.45160515013709396 295.2060820590142 0.053325197795797696
0.1557815291794715 0.4529078671205279 295.19561430177146 0.04268615101122974
0.16892960535911264 0.4541216233236251 295.2064293564666 0.054302712932575714
0.11884734832051595 0.45371201629994695 295.20064335502343 0.04443171024804372
0.04863635726190289 0.4604470516239455 295.1641526723073 3.728532884679961e-10
0.12373187113136354 0.45343647113567076 295.2192898961186 0.04080772301308953
0.12966929949113384 0.45142552373881645 295.2006185149904 0.03784608926340142
0.0930279457993352 0.45739633387549894 295.2023933812276 0.031952848222856885
0.17190512401129104 0.4552248246799672 295.2223733498703 0.01928527836938048
0.026257338973778 0.459434864663771 295.1525831976422 
0.02578148515784471 0.4463031624494257 295.1089358583699 0.01442780724194495
0.039489977648337476 0.4495340366106647 295.12184595859367 0.004447675703545898
0.1732223570976291 0.4492345244263837 294.96473589258505 0.013471540853677912
0.35474498692074735 0.1343785995851546 295.2175162665619 0.030467198080538157
0.35942198607960363 0.20423438978236988 295.21836465306325 0.04788125679422673
0.35097621174274557 0.2918334096962896 295.21012515980095 0.03125901363437507
0.34872954447539256 0.40609935635110267 295.21558101018866 0.05709033418969041
0.3556083341549942 0.10486855403367133 295.2144664336863 0.026133724244760927
0.3504674401248854 0.18557560353425098 295.220763691017 0.12692328993639
0.34714245052269754 0.25442292396515603 295.2203110316347 0.08941334823109613
0.3667219447955571 0.26694761553873514 295.2166754807103 0.004524280630864811
0.3548361610664585 0.38509709203396564 295.21541407801016 0.03693812731472331
0.342304197045389 0.05524437757005896 295.21942871314707 0.11650642864683582
0.33062829546164346 0.02430288657465489 295.2196140534868 0.01583953616423591
0.30806213700156476 0.015999878191176556 295.22131536403873 0.015332378598574494
0.3005613315410149 0.01186037944515957 295.21492877729384 0.019135704986172796
0.3553241471812233 0.07881609393223882 295.2191359268161 0.018076232516061753
0.2772201990676634 -0.0017243516212529877 295.20687118636425 0.035932132247318546
0.17526172039335308 -0.006427012589125231 295.2188064086608 0.0035240757334385636
0.23558755372059392 -0.001287186888294923 295.21310238401554 0.05005566945892894
0.16353486799192962 -0.0017937294959422933 295.2099099400383 0.09213297710551158
0.10138865656949314 -0.0033686835992583894 295.2240637716759 0.03858468457838754
0.006447975606695612 0.05775738444194665 295.21837479645245 0.02040226609730841
0.022282770749465504 0.03163645098358011 295.2114940677013 0.043996459025016865
0.07651866207546089 0.003442284966735313 295.2171063800221 0.049166386201288374
0.010489531964476754 0.32469646233391014 295.21629434710843 0.0004093652418695355
0.012464566627707183 0.40270291773843436 295.21363066373675 
-0.0025356511555960815 0.1106027392657937 295.21678584816596 -2.1582149809964068e-08
0.017461841211465393 0.35044616410863877 295.22312705516146 0.025920468103170172
0.004963738495614028 0.2753214328193131 295.22030895950695 
0.017912577269104703 0.4541755661943496 295.2226058102442 -4.5908540120125594e-08
0.32993847924111724 0.3629210046806283 294.96041238150707 0.0014734147320501715
0.328951307923453 0.44833366239732486 294.9630992399729 0.030392009959839573
0.34052691063240725 0.4100010670378085 294.9765027412237 0.013553173476633864
0.3404522749047427 0.43147558392367075 294.9727713241241 0.042912096797655536
0.05959492891160649 0.18507279685147562 295.21027945342337 0.0009298501966999046
0.057650055178945635 0.15792995408884578 295.2155520521962 0.0008522070890342965
0.23159535016724697 0.04565532212002617 295.2169901280907 0.0021878083239816426
0.057567037469828754 0.19721338831604338 295.2132656623425 0.0008386618019474733
0.046973649486168154 0.1407126537661975 295.21780488210896 0.0014682969955595794
0.055195546779766166 0.22447988831309526 295.2111427810027 0.0010753552544206367
0.1323022488913747 0.3396426075930731 295.21579050672193 
0.19231854252880126 0.33494686358371495 295.21919159606915 -4.248162304308222e-09
0.3035928849953336 0.18219461817833485 295.2162490329858 -4.300828735617974e-09
0.3054816367115384 0.09883974959514993 295.22084041249195 6.923107233853119e-09
0.3061799514631954 0.1686549871721792 295.2188740210852 
0.3029929197908007 0.08887305991561743 295.220562890125 1.1231689206129182e-07
0.06006204167919356 0.25735357428855515 295.20919346845335 2.7493188150132332e-08
0.2162152269142858 0.3340993340690263 295.2152317238404 6.285011016921213e-05
0.10737599380830075 0.05067815524721812 295.2153051021246 4.6047011235267045e-09
0.1464572522526359 0.05277878896578127 295.2164996153207 0.0010461688608335525
0.16113137006782352 0.05410256864370988 295.21358115781265 1.3077189272620696e-05
0.21719583343268578 0.05683524242980298 295.2114089523717 0.0007106915193251675
0.20373761739243823 0.04550638554022957 295.216016830659 0.011959954993036937
0.10930793757836552 0.41680982139877176 295.2180330952395 0.00046885681395574213
0.14092017928331002 0.4036893489328767 295.22223822762527 0.0030775513632308803
0.13228819771919348 0.3876770728586535 295.21996046625895 0.0031940179091462777
0.16796047489458235 0.3932200747047463 295.2247169454885 0.0014367815643266198
0.19190626071778843 0.4072857633367657 295.2258401913787 -2.1121148641251053e-09
0.18267658479453902 0.3848512606079139 295.22544583297883 0.0006152852893825566
0.24182908739993692 0.397692046162943 295.2248976155958 
0.2912355469004966 0.3994018609452681 295.2298659657437 
0.015304724586655983 0.0631973991634032 295.2260920641332 0.029852963423319417
0.0412675097146538 0.1463654117163848 295.22155082446926 0.008072398996733078
0.044713839781375386 0.1401272914977719 295.21949039236205 0.012089532588506738
0.01890027395155423 0.10269306892979019 295.22434872453584 0.0008980844286822781
0.043643723728407004 0.08346640509028813 295.2222075850162 0.004590982168170937
0.05187502298255619 0.03102046348386602 295.2194399847425 0.02135460984233441
0.04651437311099598 0.1305440708283847 295.21492285407385 0.0002851099098795358
0.04874334270197661 0.08336758994000319 295.22095328930817 0.0056659884435716745
0.044686246190086806 0.09587073694845229 295.21699904231434 1.3248627029061039e-05
0.0057333775626658735 0.14043519319469672 295.2174162530124 0.004676816707202749
0.03622882038331407 0.1891924526759022 295.2258263271834 0.002303087860681826
0.016341616200056315 0.17003582927734465 295.2232879069564 0.01562386781146782
0.0025426476684448553 0.15151655466013533 295.21573948644124 0.030244861209422005
0.015870522473192893 0.24747765570690802 295.22214251238523 0.01403551164593113
0.0024632456756516763 0.21901630490085705 295.2131959822451 
0.03209061362423756 0.24620068403252696 295.22405397455327 0.002065670163158652
0.04409243937254262 0.21968008751868717 295.2161292280926 0.0007232346623317432
0.049383602880408155 0.2431761859674412 295.21506614477823 0.010749934187423814
0.1556616754596994 0.03381473452631642 295.2252455990023 0.02385189107776398
0.1057760520507694 0.027969415700952585 295.2295247183737 0.013344857404169878
0.12471767138109796 0.00607708262811379 295.22453292654365 0.03317476539459051
0.09275624558555032 0.02453043052755223 295.22609743657955 0.03112840322971395
0.04532727747974494 0.29344846377117173 295.2292762775332 
0.04979456073519315 0.02068027010872057 295.2188024134287 0.022216993979802067
0.05937182846985502 0.299819935177808 295.22404939123754 
0.020456608322338546 0.3292997826951059 295.22498221589694 0.042676972083687814
0.03265629064891496 0.3603338950281876 295.22255557928247 0.003806137571145061
0.013817967979625267 0.3599391948356039 295.216413845525 0.0257514123081794
0.033189727197208696 0.4179462977997663 295.2340966696616 
0.0644402231468968 0.44571405489672805 295.22130950630515 0.04505683399614275
0.07554431255114216 0.4535466725302083 295.2227740613746 0.05768031889885416
0.09817189220107864 0.43555839111442435 295.21817709678163 0.05615288495824138
0.07588751231763467 0.36975310032920977 295.2250432355113 
0.06951419390055934 0.34601780885690325 295.2211882616971 
0.12564737668494072 0.3485555179279462 295.2200968195721 -4.944367265525256e-08
0.14788576071082143 0.3513490210510765 295.2170306310659 0.002231207683562105
0.14583069015245428 0.43457829585889657 295.2179158904237 0.09145941925776387
0.17158051220914466 0.3520099542514733 295.21775408149244 0.0010281614252188257
0.18473211065925554 0.04769728787853158 295.21389468642525 0.0024364123585128537
0.21569284513124487 0.029103814828832748 295.21757675960987 0.02113945418620218
0.20651818799626068 0.0368618261898215 295.21736854400376 0.011626589840399526
0.21222733607081407 0.010572364644213867 295.21662798671355 0.06919262939825889
0.24630541361538622 0.017443106923039416 295.2247773856435 0.019947547106504333
0.26369855310898804 0.02209781758102718 295.221660975695 0.026746364193774727
0.29994462549921774 0.019565962403868514 295.2204503693453 0.019699130598764037
0.2894788610390127 0.03818776356954962 295.2258582435019 0.0049484741682813485
0.2599479621829421 0.016336584712773442 295.21781627740177 0.05463838584716534
0.2704882169525458 0.051018300372732334 295.22132831164544 0.0015193605494578024
0.30779284775296495 0.26873146591126995 295.22017238211134 0.0014065671278866332
0.3232798606481554 0.07694881915231014 295.22442664760166 0.023506296552825972
0.3309457064086803 0.04507280461183928 295.2259207510236 0.07877343725491738
0.3443998347691773 0.0875591966070971 295.21740291701195 0.03476107225678957
0.35555352164885967 0.11663643475021128 295.21542027376523 0.024980866777005704
0.30758081493227407 0.06618877653275178 295.22289846637625 0.004490324187876809
0.3385432031744011 0.13697432112816288 295.220387338763 0.030187566449152
0.3095313124948575 0.24774604497080385 295.220889649159 0.00023206642505102106
0.32429687005889807 0.18051927613411314 295.22115273813245 0.0017059969568092707
0.3162618853193364 0.21701814999507538 295.21997408875677 4.728045824635796e-05
0.3393176580780513 0.14478760911916114 295.22265771607084 0.031086090144144807
0.34172751021135755 0.2595664083541063 295.22015956689313 0.014750563041636626
0.344208073005817 0.22355719772948665 295.22686634376686 0.02726052866593799
0.33273260490753 0.2818308871703909 295.22102107541355 0.003921075360502385
0.21013223619845053 0.34635751288038563 295.22070653830247 0.004052676800536851
0.2600873680456278 0.3663208503279155 295.2241214342842 5.1908336259698695e-06
0.2554828936600666 0.34856252847760905 295.2241069657177 7.810732531448888e-09
0.2277940822367754 0.35582023494257775 295.2215653459316 0.004508451681239624
0.16612371675476006 0.3745137575397966 295.2201882405303 0.0006645492646916053
0.20791894603962696 0.44636079376251186 295.221446388891 0.012222856373316977
0.21278557506663112 0.4489671692055954 295.21819664424186 0.003344047620137989
0.185962632935201 0.44361675309604715 295.222021209755 0.1232640757324701
0.236049221689994 0.45076910520960356 295.2241108431042 0.005750800462201166
0.22026702750639598 0.36424711575560514 295.2209924689787 0.003350923803416069
0.3136683153472536 0.319286628389015 295.21980227724765 0.0092725703066082
0.30074918119969263 0.31339702122111096 295.21697596563047 0.0026173163027849336
0.31186286435265337 0.3431025012283621 295.22472801530444 0.002233209454521932
0.31842149536708947 0.2835134947110788 295.21890856836285 0.007141505313262958
0.3400074520956035 0.3052887954131031 295.2129001558177 0.04362630635579385
0.3276470098284033 0.30631569959681637 295.21623652910847 0.04779145187057295
0.2949054469100029 0.4447115871030833 295.21868815120564 0.00262892280555931
0.28561725722565623 0.4486478628897643 295.2177342444563 0.0105692878730251
0.27201760169496436 0.44641771310354544 295.21515576075495 0.005483396508153357
0.25431890945707547 0.4526751846001402 295.21250865312675 0.009351893676565913
0.32180148971749195 0.34571106815706293 295.2231410304087 0.03957635780990759
0.3316695419910947 0.3681623344587954 295.22605342796 0.03422997348973211
0.3494263338880611 0.3432179230353952 295.2161900384814 0.05046799080659847
0.3340299407108512 0.39227340886950507 295.2218054521313 0.047106520054827815
0.33418354819283247 0.3356485471055459 295.21701488395547 0.0528045280251398
0.3399430737659018 0.4209050907588254 295.22082052861657 0.04506798616353322
0.3398306741327262 0.41591015350637306 295.2208198460766 0.04278928210479877
0.17637733002166098 0.033531460726935365 295.22275728548277 0.017444121196977098
0.26664486632755796 0.4425605516369196 294.9618314014635 6.899559666921742e-05
0.2479233776309792 0.4470081967704324 294.96808300215287 0.0056381498145869164
0.19972090543208804 0.44904599716624516 294.9652146585039 0.008168715871793004
0.046570400582461 0.0988000927086006 294.930011132683 -1.7975826169144058e-09
0.0722616195879018 0.44753169100458834 294.9731575187289 0.0032389856304338963
0.12116588444477545 0.4547849054727628 294.9638884910115 -1.6096336274219324e-09
0.03252957169796409 0.45272565164592027 295.2195968754194 0.10790807649853926
0.34386861445444644 0.44399253036782166 295.22492614395173 0.01059360866850339
