x y z curv
1.3055588445406356 82.67637474126728 466.8688028216971 0.017025441931064395
1.306298047495057 82.63180982495858 466.86488916272725 0.07749662083128228
1.3040417448505481 82.62460521708142 466.86425039824115 0.07443474026808998
1.3520349520718338 82.61667725751192 466.86998045085426 0.00690418064128593
1.3246336983975084 82.6526785847266 466.8718105305277 0.0009002601023353572
1.2984131073624015 82.6125425647643 466.8651374322313 0.03060552487568591
1.3333909771628298 82.60953867504138 466.8682765679469 0.06004131488436342
1.3442217470339943 82.58864005001305 466.8680430308743 0.03590384146534895
1.3314100320931164 82.59207344750364 466.8678990795972 0.05199289255931928
1.4380929567699519 82.59543995478047 466.87082172582916 0.02081346721688071
1.3991566256432082 82.58924982832241 466.8752647604743 0.029491463110717257
1.3628809603383674 82.57162555362903 466.8711981464887 0.03844684491932171
1.3872943161129279 82.55785477093063 466.87212012146415 0.027743781805810164
1.2633052743974722 82.71341718705733 466.86890196431784 0.07537153900837493
1.5209056888040133 83.0703856015492 466.87637778547486 2.8274216374497858e-08
1.463105116155096 83.04659634581795 466.8776436022715 
1.5540098530011919 83.04231201881689 466.8711780184851 0.03858041295045049
1.5320235288169892 83.03166974712916 466.8793469912853 
1.4447807989396146 82.9849391637375 466.86370665781703 4.82082110720975e-07
1.5119354041475688 82.98506761135539 466.86985927372666 0.009352309389011352
1.5328341599834263 82.9662983472079 466.8692226669134 0.0032704731618384787
1.5554545345851774 82.94319810713131 466.87355661220926 2.0846709309518493e-07
1.5739286253142692 83.04096902514667 466.86647665515676 0.024849510522942014
1.5727129148074517 83.00540622704958 466.87606581706854 0.0016812017904454452
1.601397331751852 82.95569899951435 466.8682162699344 0.012662466838945778
1.5672821898917908 82.89001277033448 466.86677359278093 0.00482113749804436
1.5908639881345157 82.91072807139632 466.87062885687243 0.04352775598580208
1.5905474802237771 82.8901869173833 466.8683666632036 0.06469011276463996
1.6143171180392806 82.84832932141214 466.8714432189565 0.0483019209623155
1.5980914805076327 82.86632824110653 466.8700958257393 0.07368833044798019
1.576226385701071 82.83452682971512 466.8711913260598 0.013093359601848105
1.5738750056520163 82.84656487323493 466.8685206310507 0.011505634746871997
1.606258143307746 82.92569985583475 466.8728556609255 0.005036911640756012
1.534258364915351 82.63575924470258 466.8696994111166 0.06995721351435555
1.5488182957557823 82.61877853090851 466.8655376627432 0.061921304263413725
1.444743784820237 82.60918726133902 466.86897265138833 0.0010122228293201968
1.420969636658043 82.56849649372494 466.8699728764995 0.0859801463534706
1.43338506109943 82.57160919802732 466.8724972282193 0.01045085997814261
1.4409617702881259 82.55940419404027 466.85602554143514 0.07459962126122612
1.4695455279218006 82.56632236015413 466.86321377922826 0.03479239242067523
1.4646181136461924 82.60501786203763 466.87078009042875 0.010742285365717046
1.5042425754813593 82.61761188675177 466.8733508116828 0.0050463203848700525
1.5174807171198712 82.6038973881807 466.8685118801958 0.1112738902227833
1.4859359233964615 82.59003866075385 466.8673277080604 0.06284077452366968
1.478230833108611 82.59403314242589 466.8733552494907 0.04956579125431961
1.4747025287779267 82.57581625422313 466.8646845639518 0.05476741187459368
1.5389805185859733 82.7108453959536 466.8791286158766 
1.5667536253001484 82.8221771468222 466.86019660411574 0.00028946759917548794
1.5753411805954567 82.80206325593551 466.8725447264195 0.020695834737877474
1.595144360417279 82.78124745378247 466.87091357497326 0.04403328513851943
1.609041009526185 82.80885928047168 466.86202242176097 0.052441780670959816
1.5290932512550122 82.66872066628274 466.8710772850088 0.016722320149943726
1.5558509699330518 82.6475015070342 466.8593066980954 0.1259279122674453
1.5725900294482849 82.77019670225961 466.8739919742328 0.007417134525097943
1.5616271400178239 82.7485207448846 466.87337225548845 0.006722921774776996
1.586298784748318 82.74610270729156 466.86648503446617 0.06508706129720203
1.5808504180541372 82.686292627468 466.865832070345 0.02527913855150954
1.5805452574373475 82.72063085428704 466.8694876065418 0.03672725944097766
1.5833156590994761 82.70167555621859 466.876719201406 0.051693475039653596
1.3931524314382238 82.98300540402144 466.8669738957275 0.0005445302890257432
1.3649630406721405 82.98232193314546 466.8633554082866 0.00857368457774478
1.292882252363562 82.94624482788778 466.87236220993873 0.0022552108905684234
1.5615519053530236 82.78486742112844 466.87006523115974 0.011645469802157462
1.5428654959418946 82.9408257317275 466.8677431753512 0.003505426158703366
1.5252600560556366 82.96127476329845 466.8711479745424 0.0013914842156310034
1.4601895337691309 82.98429943997229 466.8628641702907 0.0012883060741471517
1.4338078428976553 82.97948384953166 466.8647968333026 5.2437171021277904e-08
1.272280999243161 82.88564021253916 466.87016894196137 0.004617520628798597
1.3015542262568476 82.95838953451405 466.87526935260377 1.1360775269583853e-07
1.2950434917065883 82.72339076186172 466.8588130803489 0.0031296167278495723
1.3234489759476062 82.67450366589918 466.8693666228699 0.0013207784638379883
1.3661492138249793 82.6249935490903 466.87058003661593 8.804231364983376e-08
1.381478684171954 82.61624698232889 466.8698110452683 0.00040921859273388594
1.5512062260583577 82.89193090453831 466.8609246951013 2.828963813841218e-09
1.4817734277160417 82.62769406105066 466.8679983377156 0.012149795968281859
1.553109696128395 82.76069387520677 466.8773792580753 0.01351454334839103
1.5647213223534497 82.84760799975518 466.864719625298 0.018780834287146667
1.5499608486376397 82.91149778006788 466.86702459731055 1.4280704477391394e-05
1.5684694910700223 82.86787299518187 466.86756138581853 0.0026143825937441577
1.2559076009883998 83.09542094393628 466.81809051594405 0.002839577816146716
1.26267024240863 83.09647733097249 466.82595958390857 0.008469058708796566
1.245976707792379 83.06266571314542 466.817221080021 0.008797973470368701
1.2468111289529835 83.0583573919992 466.79672012177605 0.0034555075203882043
1.245306315883055 83.04445469513665 466.80636554089784 0.00214031041576391
1.2555139784051403 83.08562800763093 466.8105777931444 0.01117996423463554
1.2591020449453914 83.08181679946023 466.8485129115762 0.005311566995660014
1.2474793403077395 83.0642507931172 466.7749522668426 0.006037538525113927
1.2476508462356757 83.06618761025206 466.77543704911153 0.005063422603214065
1.2442973108211979 83.05695333753141 466.7594025421347 0.0009709990091467006
1.2470057165313129 83.07451765328229 466.79417929532076 0.004102617680958946
1.2491369857864285 83.0769600871788 466.7623177814702 0.004656191308545822
1.244292819177738 83.06382054463985 466.7309034038481 0.0034046335579550543
1.2472017163856088 83.07851174381767 466.7190140816429 0.007969010253127946
1.2473772850189806 83.07004673616186 466.6871661239973 0.001552259937263346
1.2469084723009454 83.07619061078945 466.7016519264838 0.0009896233824221198
1.2496252697019083 83.07764847863032 466.67413790029957 0.004209486279442581
1.245739621193208 83.07269898177036 466.6610678576842 0.0013581038250351477
1.2516664989052346 83.07173224612553 466.6239365229674 0.013691136493738331
1.2626918154608302 83.07178491257798 466.57869832884785 0.001386138719986278
1.2628552464627794 83.08307431689907 466.5862056252622 0.0009671342116861037
1.2657269540563743 83.07268782863272 466.553236342852 0.0006913532289157131
1.2806650530647001 83.08140484821425 466.4891826290895 -6.087203237486231e-10
1.2398401238528234 83.01496497779418 466.8579435827395 0.016360844078838203
1.2467171234949859 83.0419680476228 466.85083637867285 0.027980693285081945
1.2363562868438107 83.03948946609125 466.83518955264054 0.019775058725522283
1.2301741351460571 83.02125881399013 466.8357380092164 0.022357474158354727
1.2433128737017847 83.04072075661915 466.7880019463926 0.004008901981277274
1.2411891812112839 83.03190256064438 466.76855418109125 0.002519814846387541
1.2374037338331592 83.0266659848342 466.79906032181924 0.005163078697547886
1.2301897291169837 83.02671221511818 466.7325826028538 0.0030585982031314865
1.2421106927032608 83.04310473930111 466.75429092158396 0.004433209479367564
1.242337914227134 83.04970276680476 466.74695841514824 0.0049599451982805486
1.2409741243207821 83.04475872867481 466.7310715834378 0.005812850216528622
1.2414755509212974 83.04874172280398 466.7114313157736 0.0032930488844939505
1.2419044496939065 83.04160328170065 466.6780011915513 0.00413252112397427
1.2384565755186583 83.02878757000354 466.6663225916942 0.010920636161925085
1.2447742659801906 83.05426456716121 466.6668335498094 0.0043924340779357635
1.2458677899946191 83.04578845239686 466.6447265040846 0.005394930053192076
1.2399681052603797 83.02627406288298 466.6236793794256 0.019001590220493213
1.2441239230992747 83.06057807794765 466.6197433249393 0.0021674017731768635
1.2546263243963853 83.03245469760061 466.5644868822851 0.0031787642231721294
1.2505440012813276 83.04610946393025 466.5884435686164 0.0007270223940469037
1.259206975509352 83.05884244470191 466.57743303949326 0.002075262421301825
1.263256373457221 83.06247251607988 466.540149684916 9.010970993639495e-05
1.2674725831525548 83.04723103501983 466.4996595069954 1.5377115320974929e-09
1.2270971681692826 83.0067852089813 466.84148244226776 0.010784664557153342
1.2251224802782414 82.98957079659276 466.8389546373732 0.01143619618288914
1.2324034764221907 83.0085629410583 466.8002351807361 0.005118531988482767
1.2210783512531167 82.99622468588339 466.82690840100054 0.006179437227020915
1.2272245869212728 82.98830145551538 466.7673291727539 0.006189071625246849
1.2309334389079898 83.01699219491792 466.7655478545228 0.007892567270067355
1.2260770309992082 82.98145758809933 466.7617186975091 0.004640886706818582
1.2237963169938484 82.99979574029828 466.7813823072914 0.004751772871129367
1.2292268023786623 82.98894139966042 466.74392733288704 0.00792254511973796
1.2304186509468362 82.98758316724269 466.7232859667833 0.005773868676809146
1.229945477917924 82.98721079434046 466.67282060563804 0.006717341832073822
1.2355303785398892 83.00365279458494 466.68397050983134 0.006427609599494051
1.2338466620437551 83.02597702290183 466.68035469208735 0.005029016930280966
1.2327992548984248 83.01791244222224 466.6999627219483 0.0052252501152075794
1.2314024038474458 83.01684152130146 466.64349634502435 0.004371309749846433
1.2450521940102346 83.00302470807587 466.6013802911886 0.007758722860451159
1.2461093186598202 82.99850946933965 466.58708118516154 0.011583692956404601
1.2417136084338751 83.0061033982825 466.5690340704209 0.0006987962871553375
1.2495260016870355 83.0239824058737 466.5797047643843 0.010622491028278272
1.2678757927097735 83.02755272007826 466.5070960334941 6.341354741475416e-09
1.276832121886079 83.02558243086784 466.4892554542694 0.0012282972487291468
1.2223169382049233 82.95157431702677 466.84225025402844 0.01893149299717924
1.2193729334042027 82.9522480116939 466.8149448093991 0.00900994424442567
1.2255015383639756 82.97561412890242 466.84862142673643 0.018256835273225885
1.2215932277853854 82.97724348878639 466.822949726715 0.001723727511187041
1.2249738295053845 82.96665410506245 466.84071070110065 0.023619962188872953
1.2144052570516888 82.96643346033397 466.7990503634403 0.001229395859611578
1.2175860393468814 82.95076468040607 466.77345909001116 0.007591231673005831
1.2201347880684088 82.9621869522202 466.7783987667129 0.007454071468241187
1.2180095642569015 82.9592765376138 466.7354610261413 0.006689767751969495
1.2185298340807769 82.95151095942565 466.7282753206495 0.008501815737413931
1.218953321828574 82.95470860323468 466.70196366907726 0.002417919686089475
1.2207612934727723 82.95333157389183 466.6888017166693 0.006543454470551481
1.2314591910569888 82.98045815525668 466.693537402139 0.006775704242546532
1.2342603589028542 82.98110010543658 466.6439251625279 0.0038911539619013434
1.2415388901622713 82.97455791676899 466.6253823419867 0.002152645702713448
1.2452735880164953 82.97361339880675 466.5869040527459 0.0024354309789212784
1.2600130675279837 82.99189241492037 466.5310830597052 -6.334124524195681e-10
1.2714959633393694 82.99009422722999 466.5021135032934 0.0005309206509502511
1.2149387133235636 82.89776120407929 466.84107259641314 0.0081827670188803
1.2191195255713672 82.9355110798046 466.8560538921052 0.01232499975812182
1.2148058080252149 82.90565722685932 466.8307418042424 0.009955046056049872
1.209975276201022 82.92188852985852 466.8323717159352 0.005141698164221142
1.2169242337283217 82.9385518527763 466.80210027217794 0.007129119956063727
1.2119831269865542 82.92319781227788 466.7998608802112 0.0055753089786493015
1.212493494303619 82.90139904374992 466.7814742520667 0.007049468785184759
1.2156674333012798 82.93275975839414 466.7829806245848 0.0063607821246432555
1.2137455526463012 82.94275965336197 466.7687882466252 0.003838064885965084
1.2120775687648702 82.91028849444538 466.72286311542774 
1.220008879446057 82.92826667937764 466.7438732338468 0.007279877996377622
1.2187107472637693 82.94223588262882 466.74698859480867 0.006517035706363452
1.2218051767668408 82.94326630314575 466.6799198709152 0.00030409503870030755
1.2272855795182422 82.95184384633843 466.67026373381333 0.012121908386612187
1.236935957414144 82.95333515267386 466.64564973913957 0.0020614224085452417
1.2356974963557978 82.93519312244823 466.61138306458275 0.0021318690058195755
1.2425630559116716 82.95854834888442 466.5911476425232 0.0043062583847286616
1.2410590699648372 82.93613290848421 466.59448242153854 0.002420075110130397
1.2550734731403024 82.95052221503819 466.55462534372816 0.002726666430735055
1.2616716546423015 82.94786091331298 466.5330183679125 0.0005521576972382908
1.2589061178866927 82.97256676669416 466.54391631657643 0.0009534591237974665
1.2624118878662827 82.95542022483245 466.5197142570753 0.0016473038451970015
1.2160057122378722 82.8637831594629 466.8318443978459 0.017250523352941922
1.2160360367962777 82.88811372097942 466.81614307464775 0.004311680380797463
1.2175759962542232 82.87107339848598 466.8119607754541 0.0022972069633482076
1.2145422676828472 82.87686254044036 466.78982855170756 0.0028595569366590464
1.2116388435608294 82.88622824647112 466.77204039998844 0.010839436334003057
1.2202566241938602 82.89035396158025 466.7466915332991 0.002569924691723774
1.22525428598326 82.87937541099527 466.68780112627854 0.010939367614248073
1.2291426699913248 82.89470479105935 466.6743605545264 8.383733471956827e-09
1.2308877537060625 82.9068008469402 466.6523179655407 0.0008186648744154864
1.236037973901024 82.91158821064207 466.61917430140954 0.0016406323900355498
1.2418019399200457 82.90231595708372 466.59997563812465 0.002137399640123457
1.253485611168862 82.89991839463266 466.55295541417144 0.0003708714528073985
1.2473309865242477 82.90008118197272 466.58495363471576 0.0031443418407759035
1.2396298795800555 82.91837039536782 466.5942674595624 0.00047054896793358316
1.2610536522634845 82.92350718897055 466.5225374699519 0.0021179441047891614
1.2570007898499036 82.94022775871606 466.5510714956575 0.0015760362491190917
1.2727835770634774 82.93958449177397 466.4915616648875 0.0002494184473244509
1.2170221973415944 82.82987585805921 466.8432976760027 0.057117471179704525
1.2110542730421552 82.84391553637305 466.83213392967787 0.023220214638672965
1.2114098400604723 82.84824295676924 466.816578487802 0.004960446711474756
1.2073219811293778 82.85107486062012 466.77461556415204 0.00022517976834741032
1.216334077003209 82.84469819474815 466.7593311005856 2.2358604929233776e-06
1.2274071463201672 82.84456394864986 466.7257664439473 0.00483899703424343
1.2284209116376024 82.86809255373477 466.70567045163193 0.0009145797409269664
1.2311014505900522 82.85297959731335 466.65314585870175 0.011471017380038157
1.2364500190875363 82.88358873116044 466.65677575215335 0.0037135934445078475
1.2395309989336805 82.87724089736375 466.6369435104402 0.007485279389040478
1.2407961520798614 82.85668189973141 466.63141984580517 0.0154442219365637
1.240307676271368 82.89754642852503 466.6113868808014 0.0016129988523527886
1.2541275628790254 82.8899340494989 466.5704580575276 0.0020968468596043255
1.2520023083007947 82.87665430399649 466.58755160866536 0.0009302537513550903
1.260726795325864 82.89245092158606 466.5427250978005 0.002331038714250142
1.2677629960566414 82.91090764910177 466.5046447117773 
1.2195037403049385 82.7837463079704 466.8463542522966 0.03239527666528994
1.213042599569708 82.81754591953842 466.8419896526224 0.013506106920131737
1.2191397333048049 82.78965287277624 466.8239506801558 0.0012881951919779863
1.2161022232175447 82.81813584851658 466.79945060039944 0.0028449285153928413
1.2180953155188146 82.80919109820508 466.81917949760634 0.0039034106177166005
1.2214569832990905 82.8031649218316 466.8050019215264 0.001874422691603878
1.222083776799372 82.80012774238278 466.784628674253 0.0009413686384590032
1.2260673454117437 82.79030058200944 466.75838453691597 0.003311096533976027
1.219752066460824 82.82678203278056 466.75215883953797 0.0014063286431037782
1.2171483400348748 82.8126158810834 466.76468077853553 0.0002097783741418161
1.2299633135070245 82.83625576530706 466.71644210810905 0.004571211301462889
1.2303014640941303 82.821170841666 466.71141557965257 0.00262098784830115
1.22785071512667 82.82166283462503 466.6981627444312 0.0010388757230610246
1.226470225474267 82.84991209866104 466.6749423646115 0.010714815150859413
1.2410122333302585 82.82443898446539 466.6594523107653 0.0003027368786830622
1.2547325027331968 82.82848391563329 466.6178328173297 0.0019639422971885192
1.2477384737009793 82.85700667155501 466.6102309120327 0.003657972134953628
1.2544573070211835 82.84166175226258 466.594110592661 0.0030533505240620006
1.2642910502031985 82.85263421030056 466.5565828810017 0.0005093591100371807
1.2537390421371186 82.85917900471283 466.57658067103364 0.0007811823276338084
1.2604343125627602 82.86560453008009 466.5543479122791 0.005060420439221927
1.2591684997357342 82.87932217435879 466.55252554101554 0.0050535837216439386
1.2292811219080872 82.75193702743654 466.85549991041296 0.05748662979178097
1.2320176912157077 82.75485374519663 466.83757254364355 0.0227448772512599
1.227849018821989 82.77104789292986 466.81581091046104 0.00246198072969544
1.2341928070149393 82.75136687878343 466.7938219706454 0.004653003805303096
1.2283768528336294 82.76795721100682 466.81744512313634 0.0026935988518490515
1.2318914744441862 82.76019326196565 466.7765479052532 0.0008566769026969605
1.2283716737966521 82.77450732662594 466.78205839946787 0.0030254092807801636
1.2406335165266034 82.77487625133884 466.7371513819955 0.0019866418989648122
1.244999506583285 82.76646819629293 466.72660979018787 0.004673310343438494
1.2364264343486155 82.78673032094805 466.7112549655395 0.0011179568013419427
1.2369440178545332 82.79733208931319 466.70867714692906 0.005912258534642106
1.248892117316667 82.79585925967503 466.6716100639801 0.0014910308236896104
1.2501999001178046 82.80040136514776 466.6518720968646 0.004680769555015641
1.263870031606536 82.79977684815645 466.5944700285137 0.004234319915923774
1.2607651397965454 82.81224216256923 466.6104503279299 0.002665140678687351
1.2792685975169538 82.8113684849842 466.5575235114421 0.0032940770051741414
1.2591671462456768 82.83244042437876 466.5847850746879 0.0044744807588087115
1.279162672901025 82.83244252558843 466.53234154142024 0.002621090278896752
1.2743049594692593 82.85808891694943 466.50000676257935 
1.2521346486398344 82.71064205703671 466.79879900786693 0.004490340176372615
1.2341936511276033 82.74473744742895 466.8110085845725 0.0059340383696925144
1.2492332242506612 82.72018077579902 466.74999025120405 1.6363151475571172e-08
1.2421792138310273 82.74064972168102 466.78963935219224 0.0016245217925374663
1.237559718812291 82.759053224005 466.76382347821357 0.006588703603068774
1.2468317932997601 82.73485789957489 466.7353156508532 0.001225280651629039
1.247637938779583 82.7582329577127 466.71830690725994 0.007129210453223385
1.2476558840461096 82.7502571138371 466.7387333808577 0.0009527550903375523
1.2556105267596886 82.7386830955213 466.70347442526236 0.006125057465507299
1.2558400684361544 82.75631437635533 466.6758958626068 0.0006750604091302121
1.2517995974328835 82.76069082539142 466.6872774335419 0.006725060066135747
1.2486637883761802 82.77351037756632 466.67254212436933 0.0022424375491981994
1.2689671250386565 82.7496453046088 466.64822723303234 0.00020844655708312848
1.2557252389130584 82.78658160311483 466.6307198907803 4.151163017812283e-09
1.2721493809953957 82.78918925648911 466.5799313203735 0.0039980069721874635
1.2805489444919846 82.7952582289392 466.5603587687122 0.0017740919330141499
1.2920650297095606 82.81240280503478 466.5162142844812 0.0070766804139154255
1.2825380196549983 82.81889950226173 466.52677139303233 0.0005024719943167518
1.2874250807249055 82.83046537880325 466.5048101175618 0.0031244675916060633
1.2507198575934901 82.69252205166413 466.81471641701404 0.01439595385936193
1.2574420021296242 82.69035973086152 466.7947340631637 0.016751409601294367
1.244692816875248 82.70894290178047 466.8177405107048 0.005225677248999029
1.2644546253947546 82.69764616248868 466.7510493527386 
1.2800455116711158 82.69253720996811 466.68487850026077 -4.6507991953420015e-09
1.267328846578286 82.71896862484844 466.69315232871503 -3.6347525140841965e-10
1.269940199598445 82.73217979797651 466.67544628833593 0.00028289921717306895
1.282318120918933 82.73352365674265 466.6290538366126 1.8439977871528775e-10
1.2812415208138643 82.76299459735023 466.59439551144436 -1.1039794760325489e-08
1.2981499567378814 82.76369173182339 466.5544794236652 0.0011663073926371022
1.2891388819922867 82.76360633722337 466.57137111391205 0.0011719700835540283
1.2885511158143128 82.75950152196283 466.5790735165615 0.000779188078929243
1.3006800391455564 82.77543967245632 466.5340354854368 1.3311444794949003e-05
1.2969630428715622 82.79793335379145 466.52429347401727 0.0032449929375596995
1.2759598360507258 82.65284910717371 466.84012469140146 0.03458261278616206
1.2647768544153613 82.656061834031 466.824649088255 0.006067313146562882
1.2893389608109065 82.63321166541655 466.81244771973485 0.005782610618083569
1.278071365622563 82.65450314841107 466.78923649018736 5.8925940280584645e-05
1.2542860319349154 82.68257112821186 466.8001704531462 0.004026946067197807
1.2724009287081668 82.68230337509823 466.71998507499103 -8.533306291543191e-10
1.2866461528203803 82.67449194457426 466.6963913051474 3.985446752087734e-09
1.280938240829516 82.72481397225721 466.64687350510104 6.221353547689763e-05
1.3070536473675887 82.71859719198486 466.5953613553105 1.5964510047789013e-09
1.2884122844227506 82.72783333983851 466.6201413121848 -8.086628239099255e-09
1.3170376338087169 82.77343756686881 466.50543986083505 -6.525973892238012e-09
1.2924355839925374 82.64270206055616 466.78665801612 0.002988345894606043
1.3013958511825683 82.63375774247002 466.7850880297745 0.0008057800764970466
1.313501735283176 82.62000737928582 466.7830004541311 0.0010260032799465158
1.2903826459265768 82.64823251419085 466.74750908349813 0.000411112154547359
1.3085831245552588 82.63337057304196 466.7305114022329 0.000685693011759423
1.2994653260732407 82.64816193023681 466.7230413295143 -1.9264722330234358e-09
1.3124468720789246 82.67404643299815 466.6454744873959 
1.312524801779409 82.66637816566231 466.6590200355794 -5.475851867201777e-09
1.315844093062007 82.6864453381759 466.6034932217101 2.28293696518517e-08
1.3120263776367682 82.69382038884926 466.6008745718476 -1.300836967036842e-07
1.3194449149035123 82.7333670377792 466.54665423721457 1.2275748928245068e-09
1.337365204702311 82.70694337493137 466.5505493946908 
1.3170732649992358 82.73813148515593 466.52709171865774 
1.3338548948312305 82.77082518506138 466.48045768553004 0.0005196214807077353
1.3347961267610866 82.58844636718305 466.8235869625072 0.006896490895274403
1.3235220476259326 82.6040187806453 466.8195163049589 0.00034281618975682827
1.3115985950785245 82.61900147179 466.79464128229756 0.0046006266906356225
1.3375274599624718 82.5988369651931 466.76170329478697 0.006089631097982346
1.328971729949675 82.60464197224806 466.77925521377847 0.0033339656133580245
1.3257925825630068 82.60805519216595 466.75961722216687 0.0026114255740588865
1.3183400912582064 82.62032313616227 466.7474739501071 0.0027619702964194214
1.3234639237984789 82.6134172457543 466.74343313468967 0.0015439673517947173
1.3323485800841401 82.61752145836228 466.7149042922538 0.002156999526950519
1.3142767393105448 82.64732345329966 466.68209122961014 
1.328167138089973 82.63636647924535 466.66927686272567 0.00034201132545116946
1.3509288690194485 82.6241379571803 466.65632409315 0.00022987473670192486
1.3354751138206005 82.66448857386844 466.6107008532124 1.619188248053692e-09
1.355093541999513 82.73766630825517 466.48150536720846 -1.2439030604723902e-08
1.351320532349267 82.57536192513544 466.81264982325206 0.004307995178451399
1.3476628963915693 82.58344989377757 466.80523287177 0.009789404570582387
1.352208004628446 82.58974710025329 466.77443071805243 0.0043232733090812535
1.3576246866915453 82.59011115239629 466.7407947874187 0.0020639311269556072
1.3454918775141917 82.59881979635074 466.7433520845916 0.006958954143539428
1.3561905191919015 82.59390550500557 466.70542213637316 0.000803044798887339
1.363932353102772 82.62522077813874 466.6433249944599 0.002773705003596457
1.3477164502435528 82.63844923213398 466.63763712908 0.001053045406365954
1.3785397060755837 82.70480602947785 466.50192729970036 
1.374887010531288 82.56804040329938 466.8069838583519 0.0038738020700987094
1.3702542262530437 82.57980111457077 466.7863980751355 0.0036956731036673135
1.3717883239988757 82.58515896092034 466.7547620287108 0.0009863465065346898
1.3716172416739842 82.62438041500113 466.63704797346054 0.0023884399907615037
1.38064778549821 82.62890953506735 466.6093341854486 2.4669989649317162e-08
1.3888620825798699 82.67298223071893 466.5387904794338 
1.3922721917258862 82.56663204542878 466.803958706221 0.00690281217919207
1.3878859803889503 82.5749355823806 466.76644566032655 0.022652270818705484
1.3845628667366774 82.59274914512447 466.6997502290954 0.0028364538539609584
1.3781662744185668 82.60049351627971 466.68357426195155 0.0019870254044802487
1.3854694126839944 82.6059238338521 466.6627253336315 0.0025693398727482265
1.2871348246425922 83.10752438944172 466.865696104345 0.009908270351623234
1.2804996570714098 83.11331147366296 466.84051403693485 0.004909921345850343
1.2755703843039408 83.07928402829295 466.87694310443953 0.003281294687763631
1.2543945897517133 83.08729199582496 466.79883955794406 0.007698408126430495
1.2605237485839014 83.09396254616485 466.76596218906894 0.009172898932903057
1.2679714631067986 83.11849970956604 466.7747957713731 0.003970781988154465
1.2583794804505544 83.0970683651937 466.79835055853147 0.009642546221813956
1.2714540605197062 83.10840670176172 466.8203998583245 0.014753800998436442
1.2514642901920634 83.08681114665595 466.6759196223456 0.008838205411404912
1.2697132029345988 83.1130804458191 466.68331551693365 0.006885222646779694
1.2595544046592357 83.10013688120758 466.64272196979715 0.005750149702636536
1.2717293801513687 83.11297580783784 466.60552798112286 0.0051341294346133725
1.2752590948545568 83.10926787400422 466.5553556172505 0.002612939251767906
1.2488692877221683 83.10455625081204 466.7242753274667 0.0035603065994814203
1.25971613475048 83.10123339687654 466.66394040965645 0.00793957390267027
1.2724799740307107 83.10551858235155 466.5870379842426 0.0029108466841259012
1.2676661054836635 83.09164588942633 466.5776979656846 0.001979318700628051
1.2750496758196208 83.10075765140087 466.51834719638384 0.0025497473133448165
1.2761122513782432 83.12291882300165 466.5470658909 0.00038910773560592424
1.2729823115660033 83.09694224841205 466.53249209669207 0.001366750374917804
1.2509566957126925 83.08795155236328 466.69535421703046 0.01426352131828205
1.2544255722332236 83.1001340963549 466.7410521260628 0.02572224070974022
1.2601998038541578 83.10283618587236 466.74668671919574 0.02028925579712547
1.2616395509028218 83.04706350648539 466.8688940582883 0.04239917481991484
1.2488445608276793 82.99310427137829 466.86715579101696 0.040125159226081536
1.2263987273720998 82.84647408246948 466.86793068748676 0.023930989872849796
1.2262633959960465 82.92225631864544 466.8683290903745 0.04099027609831103
1.225663962394159 82.90951855836079 466.86607918044217 0.05533862516850551
1.2456495844116173 83.01611533045661 466.86490284901583 0.01680638022499674
1.221426722255402 82.9524622211787 466.860517699246 0.051269853008893154
1.2209858973133239 82.8958438944034 466.8529348024808 0.016938680090052196
1.2264062028394656 82.87667433649659 466.8635387952921 0.06676975059722143
1.2108831327683454 82.85867309786781 466.853175751777 0.010402667917604004
1.290359782297125 83.10100733857652 466.47268456329954 0.002728149501314789
1.2958442259095349 83.11743284015895 466.47811940191013 6.010355607701658e-09
1.2856769988647427 83.04431023304265 466.4577761311151 
1.2764759743822194 82.96732089906153 466.47808701202587 0.0006835604745603993
1.2884719439013057 82.93491495941102 466.4470841857966 1.9110639487713457e-08
1.2829840124477236 82.93793813543277 466.46546826087956 0.0041677127050291805
1.2814205238193128 82.99264444401088 466.4681318411372 0.001500560326877233
1.2420583431232763 82.7548309955155 466.8641507767856 0.07523588607672564
1.236232193868721 82.7385997882547 466.86110700829084 0.05776939964629697
1.3141170034876466 82.60205352714075 466.8429916588396 0.05819116258967546
1.3379500418284405 82.58246761401621 466.8606773001587 0.10642834668999786
1.2749991091927166 82.66646440990556 466.8625841922112 0.08133165823281223
1.2781733687696781 82.635055137378 466.8555480467686 0.03528293769764828
1.293256390018593 82.61808789576995 466.8598068397992 0.07374320934100823
1.230108645963231 82.73528044240601 466.8435691340058 0.01733692536505729
1.2420808278802093 82.71349420280036 466.8360614721683 0.04132587086218288
1.2537013519509292 82.68694653704806 466.83068930494255 0.009968493704225744
1.2646219121015099 82.67203884242252 466.84210262310364 0.019278596608513644
1.2485017492435972 82.69259241127443 466.85806643354607 0.02796875737662813
1.2951079126280987 82.62355415788153 466.8407040225327 0.06022502220202356
1.2820078910114328 82.64318713103998 466.86201411284986 0.02890727112353376
1.3301213300430308 82.80716425068933 466.4471978608568 
1.347117159322158 82.76981835880443 466.4654507408651 0.0017603902910942272
1.3217070527404027 82.59176494794914 466.84686521062787 0.050975856770471985
1.3541230238447346 82.56321333229303 466.86039212787034 0.01013610483528534
1.2865101582437541 82.89548913043464 466.47246158040724 
1.3679752231679196 82.56889441083005 466.83815899747736 0.014745586996883648
1.389720043587469 82.56188429645812 466.8529209701735 0.12539480728229088
1.3992692800705704 82.56022200354214 466.83262063725533 0.009339813360070268
1.4104297342437861 82.55930874011078 466.78583848780715 0.0058369919230191886
1.3936465624773646 82.57401932623746 466.73300390959827 0.004319963459700164
1.407759990905695 82.54696598787402 466.86204246709696 0.021463498695899516
1.42073659497565 82.59732777715237 466.67977836882477 0.0008693664022932972
1.4057906306534271 82.60321867590437 466.6747784670766 0.002830325454772388
1.4013902843781647 82.61622691051703 466.6217429002454 7.110562932911164e-09
1.4023299041517177 82.60914334815638 466.66079470549397 0.00142694567503928
1.4108749346712925 82.64277731840718 466.58141610608 
1.4159401785775152 82.63827995595813 466.5863562949833 
1.405323914489131 82.70691316328669 466.48490716359703 0.0017384306954254612
1.4008240934830096 82.73273572459817 466.4568907552143 0.01012706206296342
1.4176423254112784 82.68596597091668 466.51304382119093 -3.0319313797729706e-08
1.4105913896637527 82.67520668021741 466.53091164417503 0.0005252886472338147
1.3030180673433638 82.88195262935102 466.4559907077573 
1.3334057331314235 82.78990474290103 466.463126923033 2.0541493368767324e-05
1.371670206819462 82.74741254503797 466.46057062601517 0.0026624098673260826
1.566861208009805 83.0864955466111 466.85376129817826 0.020820051416971647
1.5750401872242676 83.06473167789056 466.851440031947 0.02121482706922655
1.5954044906977989 83.055025149154 466.8006470886039 0.005689508587898906
1.5871075791431632 83.07784852882659 466.81445179122323 0.0034335967872167485
1.5810143735611653 83.06369968295695 466.84384672693267 0.0036419723899447773
1.591134461473556 83.05444596750131 466.81909336726534 0.00182845769361469
1.5841927473256974 83.05688352159056 466.83565523514716 0.002360096726580543
1.5875382068792092 83.072447502702 466.7650154040656 0.010021541141074461
1.5890136720844146 83.0699965065117 466.7719675502223 0.0037542165766428575
1.5977366073197667 83.05217585309738 466.75958879043475 0.004765215188211634
1.6055549302132537 83.05321852143493 466.73559389517493 0.00041565536368741684
1.5846567759951538 83.08344396428649 466.6919831529651 0.004245717163837891
1.5852584899856548 83.06364116854948 466.64119030567304 0.00039845165637041117
1.58396104562492 83.08316583017624 466.6765552349736 0.004509970908346605
1.57908487947006 83.07935398018412 466.61651772505377 0.001908021937162946
1.5710014258718734 83.07639519740819 466.5700783087187 0.0005259790621433268
1.5792629990272857 83.0622559210581 466.58265079364287 0.005467240362875017
1.5696091721952314 83.07179035378881 466.5619265248398 0.00048389959361411265
1.5702001066103461 83.05457248286898 466.5442805757302 0.0027093229465672344
1.557013033476266 83.08432370814302 466.52369417540734 0.0024629848130808436
1.5865017561821657 83.02829773055103 466.845841127743 0.0070909302125835355
1.600052019642878 83.02958039737253 466.80685389005174 0.005493179336898786
1.6072134430218536 83.01386461079443 466.8257022489449 0.012556120076901564
1.6070041311936045 83.0180588519656 466.81077254505516 0.003232713598927811
1.5919155969616527 83.04985751943406 466.8211289476411 0.006745406160859947
1.592464908576868 83.0468413668432 466.8234372356544 0.006686703276469958
1.5937145404703277 83.02977614809411 466.82817686830197 0.008953993909309167
1.610307278294745 83.01744065760288 466.7718615051395 0.005636400647317651
1.607737746354338 83.0260689352089 466.7846227458509 0.00579020835023624
1.6019091351615065 83.04214668480239 466.7606780518004 0.003200204897194637
1.6038843314696716 83.04287002817632 466.7472790124125 0.019585650951825084
1.598447677766819 83.05352013393663 466.69721775903514 0.0009018648427558259
1.6007142535721604 83.0327719263991 466.69906843524006 0.00462489068995261
1.59882595553768 83.02736643030312 466.68670463923297 0.01032949994142529
1.5915546685242912 83.05388715891549 466.64454026422897 0.009338386606534651
1.5945354863558234 83.04374190486267 466.65546123824015 0.01980434977949827
1.5808350042771542 83.05842362890287 466.57961950596666 0.0005009733094129276
1.5845321629900404 83.0491786621653 466.5805573446386 0.0004529346094543424
1.5720376518360868 83.0460509070336 466.5288209533562 0.0004619314101181764
1.5541313237686378 83.03944726962072 466.48039220597536 0.003875514703279681
1.5643954843341104 83.06261140003228 466.4990792984579 0.008822890278932629
1.6122266804068333 82.99597929278595 466.84548888940174 0.010295222789502437
1.6100014717104523 82.97879753479243 466.83946617891183 0.01278215586548268
1.6062795327828663 83.00375590378486 466.8454997440547 0.013917718040744025
1.6203592813485053 82.98528078229606 466.80842069406225 0.0036916924130300974
1.6097197043626197 82.9888445644834 466.7713244307428 0.005051314253986341
1.611207057514754 82.97176962136959 466.7614096996102 0.0015379371040851863
1.6049833976811925 83.01053022061144 466.7248318682759 0.004067187006132104
1.6090739461311085 82.98521678225868 466.7219582545828 0.0035845908812231816
1.6041775861430076 83.00238623011242 466.7476279037638 0.0040656001013098545
1.6071851415375105 82.99144570287514 466.75523113178787 0.005619660538962823
1.6067783462249732 83.00843349603603 466.7011096795152 0.0029365672497099603
1.6128613878859008 82.98266453487848 466.7039879107274 0.0001630960308824416
1.6076624161294295 83.02496429058324 466.65378159523993 0.0003650046299056074
1.5987470467220215 82.99045212738156 466.6521133838769 0.0011684824395907412
1.5920495665740106 83.0119925574189 466.60971255163065 3.506070658746973e-09
1.594479120232943 83.02178713428037 466.62254068623844 0.004969045383061298
1.5943350545877666 82.99412766201061 466.6069929147872 0.0015296982297801779
1.5793196441802968 83.00501293011635 466.55368199899846 2.6610231656591806e-10
1.570620867388289 83.03289055076324 466.53145200021385 0.0018902451526030548
1.5753357773231316 83.00168134981901 466.53363288534786 0.005096525104786602
1.572293414578178 83.02395293912 466.5233880784011 0.004927055065654086
1.6166514555156406 82.95297782416186 466.83888760757884 0.012427105705596174
1.617863875740273 82.95848890673217 466.8522154741441 0.006162966684401579
1.6233919788877123 82.94717035458335 466.8201787146932 0.0068003330766718
1.6176694592149463 82.96869315748215 466.8161155503923 0.010579400547579675
1.6175300875956355 82.94207282121768 466.76156102336336 0.0011099751292582712
1.612100793741475 82.97617519359414 466.77349663242927 0.003526137791862076
1.6198472340065342 82.94125817387193 466.7826564282755 0.0007448545137278973
1.6131154236158995 82.97695256138019 466.74885747048216 0.0009020942549422164
1.614476807393303 82.95503761740095 466.73534432198693 0.0015527852043754453
1.6121870110063086 82.95568735485578 466.70820645577095 0.007425790506368093
1.6136178099693241 82.96045037885533 466.6777943507545 0.0004557863448131705
1.599067374422036 82.97460769850494 466.6158044744083 0.009966892749420864
1.5993097402000045 82.96847946679593 466.59339370553414 0.0077812318908969625
1.603825397819576 82.97285787987356 466.63895275198126 0.001943507752005598
1.597446989974475 82.98008238197804 466.5859956572523 0.01874312376045583
1.5577797745901043 83.01432597083655 466.4815389150591 0.005522638682671878
1.5620302054521351 82.99666754726574 466.5025206232203 0.00021256369877440873
1.6158810212159467 82.91087022665394 466.84579987553866 0.08987864811421871
1.6206800603416314 82.92754736251818 466.8363090294332 0.007887521891593237
1.6134106686231402 82.92785356032665 466.85412276694706 0.02001495530173737
1.620497313043746 82.8995936634446 466.811080751451 0.019178846468183765
1.6195406247710475 82.90244860478575 466.8382002536898 0.007756441821134066
1.6170790132211739 82.91488396217694 466.8148617062311 0.018629260491713855
1.6240027618170398 82.91114791329231 466.79941172321315 0.016637964335309303
1.619468415872895 82.92264267944343 466.7513811439604 0.001724990240521535
1.6204500060319642 82.91808133085968 466.76220018749285 0.0011140747190833684
1.621365287671666 82.90874168156755 466.7643227601864 0.00015375696139498907
1.62149918057292 82.9286728634258 466.79429654375554 0.00595905779004481
1.620690539006357 82.92555525487647 466.72335979031527 7.251464833503063e-05
1.6115999399082914 82.9415198361223 466.6932690249944 0.008062034819661218
1.6108606162197805 82.9349664178905 466.68701413258367 0.005807583935700561
1.5994519414629578 82.95632237707946 466.63606327378403 0.005426308484203767
1.606360703715631 82.93543682904317 466.65860529184687 0.0031732168886912933
1.594599788231164 82.95292364552353 466.602052798161 0.007420389615773283
1.5937575594584128 82.94642512411569 466.60977628234593 0.006122149767671248
1.5988272922685536 82.92719787838465 466.62858623473284 0.0007574443367613368
1.586488904718256 82.95172820687725 466.55702212790715 5.7348504274414734e-05
1.5903332893429432 82.93289396929934 466.5888861650381 0.008417345175624908
1.5885971496212816 82.95025606873013 466.5790566517391 0.0021904447934401974
1.5798490119108104 82.96753634945712 466.53346479133756 2.1962653263926686e-09
1.625522909370554 82.88481874559481 466.8418894499044 0.02918860628431254
1.6257635063099058 82.86725245756939 466.84464787266717 0.039242953563610586
1.6357804223303076 82.88383352037313 466.80327694422624 0.010735191016962624
1.6277768743307106 82.87898931104615 466.8186108578574 0.022663405346273036
1.6228978365772346 82.88188291993225 466.7578848629095 0.00113122750831607
1.6251369295820401 82.86616897319199 466.7840304279832 0.010208986302656025
1.6164418675174015 82.89567138316751 466.70871867796126 0.0005234642181124636
1.6220336075900317 82.8733425539461 466.72836768946286 1.0845072851726334e-05
1.6185902388667426 82.86633199215338 466.72065030645854 0.004201350818585948
1.6020356447522879 82.92401398066013 466.63806219579976 0.0008760711249755166
1.60769951173461 82.91107425822938 466.66282861176757 0.00041544470418875825
1.6071210355533754 82.88557265091048 466.66226915465677 3.526133225845238e-09
1.5980093113480784 82.92303822180618 466.6132601519111 0.00247917258037945
1.5985832734855911 82.8985499663139 466.6027928975419 0.001387264547364717
1.577074882070449 82.94436924561164 466.5173407571533 4.611935423879998e-09
1.5824891952630495 82.92908359705528 466.5562255232117 0.00026803130424113013
1.5628460995707103 82.94329541240084 466.48661167546413 0.004391137384745828
1.617281039051855 82.84406563275243 466.841154473224 0.012211528236475519
1.615489612935266 82.8267509183406 466.84582190424396 0.009257289122596912
1.620774313525197 82.8557014779699 466.8424385467334 0.03340167472186914
1.6277094369444813 82.83816257177286 466.82942906848086 0.0027341688785601824
1.6227854380315208 82.86140112283051 466.8172565345036 0.02016465026569759
1.6214636158278133 82.83707295377025 466.80374041000744 0.012818203273836122
1.6204845671050374 82.83118858467083 466.81060733606716 0.014149901204095669
1.6218164583405095 82.85812700219496 466.7670275175292 0.002142618964968822
1.616687710111149 82.83307948351306 466.7430442448657 0.00018363275843008128
1.6192488553698698 82.84107057994346 466.7894905013745 0.0032540105092872416
1.6162860301008 82.86709441746292 466.70440594183754 0.0020713019521223655
1.6075144615915333 82.85490854687636 466.6779799876597 0.0014917615652095446
1.5955401425044056 82.87431604179446 466.61555876485454 0.00029144068217512245
1.587473477145899 82.8652232189329 466.5971845408913 0.00030693024978878673
1.5937173434733063 82.8673868841542 466.6225186895095 7.911028233315423e-05
1.5844178120858674 82.89517815885186 466.56974458621676 0.0013528019942533234
1.5746110970928884 82.89320737496152 466.5341326042978 0.0007552183047794127
1.579041874901134 82.90253052976662 466.53599484537153 0.0018061567804208097
1.5706615506923713 82.92582267763142 466.50396031743924 0.0009058849302906963
1.565073577010379 82.89642653968959 466.4995789001035 0.0003033107362448295
1.6135738650992104 82.77866922566268 466.83997839040757 0.01304699217143686
1.6121833045618141 82.80836221057311 466.84784240530126 0.019855924968312382
1.6133771631272487 82.78294838642792 466.814344900787 0.007300935590206147
1.6090741851495243 82.7910895146676 466.7922532946467 0.007870271875217818
1.6110261292980466 82.80547729212758 466.80125132042383 0.006714413558109345
1.6107943935057556 82.80654269454952 466.81026750102137 0.010324962064526518
1.6155511021145832 82.82603214342329 466.78745952069426 0.004602573364122092
1.6166217394201594 82.82064491463892 466.7665012466968 0.0020734761432449765
1.6151170406336477 82.80042233911277 466.763290190229 0.0012286534008935695
1.6107201059251548 82.83575016832299 466.7089768591843 0.0011622948599817203
1.6078265762684596 82.82036328586017 466.6913916049792 6.881817015395791e-10
1.5963323749757026 82.8519497013661 466.64499812688564 0.008075034807422578
1.6065405723938222 82.82906317690997 466.63179839281895 
1.584961028384863 82.86134806188639 466.5636050925863 0.0023564156218605545
1.5662331365125564 82.86542263866114 466.5293598468324 0.00021959251278556264
1.5600694244285052 82.88846907280316 466.4965591738641 0.00022178344269369407
1.6168544201516282 82.78953580521924 466.8339749267452 0.006371619742074024
1.6093342127835506 82.76370268110324 466.8311499815436 0.006135981340066048
1.6059948061730644 82.7721871642898 466.84926600077426 0.021796422718876492
1.6024831077666017 82.7556062477296 466.80497206928413 0.0024166876786905415
1.6044742212776368 82.7650204577648 466.79302853285907 0.0009710916821048764
1.608151124713421 82.76683401518913 466.82474600320916 0.006165602931010943
1.5994302852669826 82.76360926796013 466.7664139690456 0.008243869620683101
1.6026801040597245 82.77535048676329 466.7732192358712 0.006296590557025397
1.5984952653196989 82.79191416503376 466.7091145015413 0.0020453786510298035
1.6009534480874423 82.77603518385659 466.74187183574253 0.00854887715714283
1.590115188246944 82.80287830284826 466.63128771730595 6.276007234971748e-11
1.5963676724812326 82.78842416193844 466.66461317971186 
1.5819213266167278 82.83358125884679 466.575055341092 5.6721504445650264e-11
1.5713388107272972 82.80887996091711 466.58361871486494 
1.5595093092256387 82.85569474510247 466.52106671663734 
1.551250940573519 82.87869723237631 466.48042519442845 0.00042372305441717707
1.6021372722343348 82.74893975468822 466.8002397157407 0.0021970171838378294
1.5932479750901383 82.72090528579467 466.81234972793396 0.010580055690212512
1.5948122396662845 82.72737573420548 466.8302007713543 0.008461537595875408
1.6025656043011158 82.75669461755137 466.75116034042327 0.004462522294012513
1.5958607850512567 82.74498978801789 466.7765735202434 0.009389583865405431
1.5867036238175571 82.72831883922791 466.7708814184474 0.006993688462775403
1.594889127110242 82.72696443934643 466.7917353170383 0.010133395661312359
1.593219440611022 82.7468046522934 466.7243970791339 0.010252318078404625
1.5906937278485846 82.76291263933844 466.7074666584298 0.005025842709889251
1.5794950907694063 82.72886253163966 466.7330637295479 0.003689790883870682
1.5813595430566962 82.75263921378209 466.6774759226603 3.5040749496227177e-10
1.592151470683595 82.75835055396387 466.6930111795832 0.00038406094243930003
1.5923761105415846 82.77485442646051 466.65648579378416 1.5930692784028597e-09
1.566924198181138 82.78911512138635 466.5827023662031 1.3598542339418332e-10
1.5435339510434634 82.81665703540232 466.5190510237039 2.6208663515043795e-05
1.550832408997421 82.79637237408694 466.54678560761005 9.648823125336027e-09
1.5417863193453962 82.8418456261092 466.48130509830514 0.005613249649948001
1.5492052533126655 82.83960502369754 466.51232178780475 9.698324319592426e-06
1.5965977908514133 82.70390745483604 466.8134485695414 0.0004322155809938271
1.5880730483812417 82.71405204701887 466.7824492617597 0.007372401217465722
1.5778052572324208 82.70461627280775 466.7685673289878 0.001539980545416183
1.5815972842122374 82.72675578352691 466.7451520438198 0.006366035985416992
1.5674934719484084 82.71989189354152 466.7059873599134 
1.5689187166406384 82.7065120660746 466.73128042076445 0.005539986345746097
1.5551366872786174 82.74541065505765 466.6120818420014 
1.5572098771352458 82.77660011342533 466.56097387307256 -1.4682375435273245e-08
1.5477587057533273 82.7589741289926 466.5801968922483 -1.1654013654817195e-09
1.5412984594512646 82.79528017713616 466.5243971415109 
1.5314655158242956 82.81736142597136 466.48255938763845 0.0013973314570967215
1.572062727580717 82.67788416103795 466.80569026352305 0.0009401767315370785
1.5507013689051217 82.63924196859355 466.82134952921365 0.0048142061895520265
1.554398883431358 82.64115108094524 466.7960081151128 0.00037313541160827223
1.5538032613133095 82.65481899396326 466.7695230438586 0.006283499413809629
1.5628103637684942 82.66131287210638 466.7831604236004 2.8410644726924267e-05
