x y z curv
0.028437139323305764 0.08057067906282604 0.31137777839932024 0.24660116808690094
0.03250835221915396 0.08349970513833815 0.24194362015314938 0.2723224425104662
0.029323685522663248 0.08099915152927642 0.17929879750588384 0.25982526637774667
0.015750160025204164 0.08112559443952662 0.21352063206154512 0.11597643537252253
0.011012505645021193 0.08604386048387189 0.20269393817898218 0.11551728412815612
0.011902311036865969 0.08436776086326817 0.1364762691415708 0.10236613727749691
0.011562201541214833 0.08487182436280298 0.2984848118751992 0.1141606512018263
0.012409366831654925 0.08369245796419296 0.1225647479199232 0.10252584489279501
0.01431444861359146 0.08190473193069413 0.36422943771950284 0.1205864993556567
0.01118960776678245 0.01946111651070281 0.2971424375899872 0.10165773396602373
0.010969029714392488 0.01894822904434872 0.16478212537853798 0.10314673765222117
0.010471805681513322 0.017317208843522808 0.28277374504773806 0.10102898658860501
0.029026874378964323 0.03260897504095149 0.4303995825097941 0.29539980896771945
0.03368436549718385 0.04381174889763241 0.42709145460894504 0.244472496964597
0.01587454213472161 0.02401119267313977 0.35159974634674185 0.1042893347378584
0.014316813141503532 0.023015507839485527 0.2624706511639185 0.11115269930762538
0.015450068588289336 0.023804996933887636 0.37748598294735886 0.11444769129143069
0.015248208009544479 0.023704149692556936 0.39210028835371824 0.10867245009352114
0.014698185345699019 0.023366348005109377 0.4194092048609144 0.15071639225176892
0.012796003761303772 0.021695281762415544 0.31895218917624135 0.09692793310617873
0.01063106627895263 0.02668691978594508 0.4355628784108613 0.17622919416277857
0.025928894588708236 0.024933275776370112 0.42105615942246627 0.2856422697501711
0.025651948203817724 0.02495596733719945 0.10964513633298724 0.2693756112780432
0.024545722275686847 0.024999998509883884 0.3252267436003901 0.21162983723392448
0.021086023536554723 0.02499999850988388 0.36157383364083495 0.13943846090257053
0.02060868640641064 0.02499999850988388 0.272742792741611 0.16234051783528666
0.023213709644705947 0.024999998509883884 0.19564311555220806 0.22212107963963862
0.02016372206495396 0.02499999850988388 0.13563170568584867 0.16940407131063567
0.02156079343739472 0.02499999850988388 0.17286897088189718 0.15508727225523264
0.02234635073654618 0.02499999850988388 0.1534525804130405 0.1818696850977697
0.025908658308252428 0.0249068023204754 0.30072125682656975 0.276253200739888
0.027811851600062023 0.024570246445731816 0.2842811306306434 0.2640531540225606
0.02750520979589871 0.02467200996375531 0.09374714303737994 0.29500085613856436
0.02802337426531095 0.024539822419468088 0.1268351791476117 0.25093395220275067
0.0320677904990166 0.022129698221032383 0.16194838888184554 0.27318956560913815
0.03186588620099935 0.02233450369086664 0.20812150798577805 0.27567648613150986
0.032342554955818434 0.021782318485132516 0.3107982742220385 0.2851474995399771
0.033349596104642575 0.02058622584177549 0.33195073858682034 0.27771755687708427
0.032915868390995695 0.021162358558824042 0.36169483232175237 0.31075208977250407
0.03038266391060874 0.023423751230446543 0.34639776891666907 0.24971855078400115
0.03342703586561373 0.020483683112299006 0.17385735631703725 0.2937602469652065
0.011160615059786891 0.037954739341171995 0.4339718626338611 0.16111165095469562
0.010317472786834234 0.04812402390045814 0.21823608884064147 0.10087181988460003
0.010378311315073201 0.04786925035457118 0.37797138058994284 0.09083679963005648
0.010471563947634365 0.04747873624207356 0.17599825977116068 0.08799104671873983
0.011803110878499702 0.04451396626508288 0.33928410949381527 0.09663775921974689
0.011676317300738532 0.04470541870312975 0.2302825425178949 0.10343398820351515
0.012299536264067414 0.043764386893213464 0.1076004007121843 0.09169445577625715
0.012144380940471608 0.043998664255701966 0.2776637687288649 0.11122303172128678
0.010899212658227329 0.04621410670102897 0.15041078040571104 0.08865092284245644
0.01467580048295776 0.041649551777558046 0.41017931904629784 0.11781508395895056
0.018001049673309965 0.0402564286897856 0.3078524972201081 0.13394256797577767
0.0186140697000913 0.04012608233317205 0.24520017597533578 0.14553774675924924
0.018807469938097173 0.040109831126503626 0.12882695681999434 0.12448223904740544
0.01965939499220099 0.04003824480679267 0.0880465349235843 0.20387856129967635
0.019155727269951843 0.040080567453524084 0.2047679550536695 0.16222626929262168
0.015112996092097548 0.04134211029578229 0.167901787547227 0.0956047268710837
0.015439828244721353 0.04119048209865053 0.3678201416973617 0.10454348934806611
0.013396203040754517 0.04262322447928565 0.2657072325181605 0.10683262275335081
0.013285360789952558 0.04273793339228804 0.3261356304399095 0.09537046896639392
0.024828579289640516 0.039999998174607754 0.419134335866391 0.27297509099044487
0.020273942578539837 0.039999998174607754 0.18767968647063893 0.16896450131545096
0.023238619383182266 0.03999999817460775 0.3330421119679971 0.19960755269277242
0.02132719624506499 0.039999998174607754 0.25633933115101615 0.18354547984716305
0.020619506032449775 0.039999998174607754 0.15774162314775458 0.17245847348654061
0.02078795590493425 0.039999998174607754 0.3524200010986366 0.1788459764451021
0.02427468510486356 0.039999998174607754 0.11446346737896944 0.20890057469113432
0.022336282760018065 0.039999998174607754 0.14307391252282825 0.14548153193756505
0.027528012758371155 0.040333804416297955 0.3610970744485643 0.2591753190320457
0.027814020061623163 0.04040676681075679 0.39900859530260163 0.29142939087334013
0.02750252554207627 0.04032730245530668 0.21635774551357842 0.2694762852396071
0.027741644170774238 0.04038830323224889 0.19675193993616558 0.25843395295607674
0.028488115776541787 0.04059380300191187 0.2987940397212583 0.27165798621983117
0.032052436608331396 0.04285472323954574 0.3400297662772053 0.28250658476085083
0.03213473373440123 0.042938202778825194 0.25463267002360956 0.2607877062780244
0.0316877060318977 0.042484752355556724 0.2771836028991326 0.2638357165022343
0.033919240526310505 0.045275405624932506 0.1382953673564123 0.31220478909863625
0.034533454243803774 0.04668063845632854 0.4151325804439277 0.2995846841404579
0.03419645099110693 0.04590962338211368 0.22556489178308453 0.30756717357243607
0.034982844309402884 0.048422931591236805 0.09270787988270927 0.2719804583468562
0.0348488517448353 0.04786704462998433 0.16142087386995863 0.2871645520281931
0.03291512036199028 0.04375762199291634 0.181192687005625 0.2928640553427201
0.03095219502368871 0.041930836474143765 0.24190523939659586 0.3025365945259479
0.031325153888336774 0.04219023688507183 0.10552105636865036 0.2860042180034348
0.03136878006323933 0.042220579769420806 0.31618035466696365 0.27971599643199824
0.030674617880659276 0.041737775973935465 0.38154137708052493 0.3041517763209467
0.0302376749841838 0.04143387337865918 0.15039520089887215 0.2846580619135531
0.01250579400936371 0.04230825778327456 0.07455367102177873 0.18664433858337523
0.018910955747237855 0.033068363670261704 0.07234336972882384 0.23977649674145385
0.03238157715205009 0.04317998108633068 0.07990613565184201 0.3074427561958408
0.01262153311636215 0.02158579343661074 0.07875242219024672 0.13482131100751688
0.0257392896999061 0.025022553225847573 0.07878589565060362 0.29115745043938596
0.010986440028277328 0.018865181993100968 0.21663787802085868 0.10504448087547794
0.011822832900065777 0.020515809056083942 0.10479964981957088 0.10296016603327932
0.011671662734369526 0.02028754916794622 0.3353312592503517 0.10059964842265234
0.029479487178533444 0.023956485285588507 0.3934100688685689 0.2700937540146838
0.028432440582494067 0.024431449113172004 0.37963316409985726 0.2724322751840011
0.027943072736251146 0.024530375410252218 0.23881790077728904 0.24818418652442065
0.01772745393281379 0.02462550543415197 0.20565294942140278 0.15916329443623461
0.012667768481600328 0.021586812354166658 0.15044434659649936 0.11123372818874103
0.01418774255635188 0.02292794491524202 0.2505509456322398 0.11328448868971476
0.015282744961906718 0.023589832227855056 0.22849692743475572 0.1013332526492481
0.03461066866908985 0.018061431191276393 0.1062135569804301 0.2623626720348993
0.03497005247131614 0.01663013612103224 0.37357610031524197 0.25093863302707564
0.03181461153097967 0.02233613410189195 0.24895483572297117 0.2516304245556558
0.03464062267551009 0.007433066597759516 0.4218407666780775 0.18810140439252493
0.03474126102043064 0.00773064468556131 0.4421115567894048 0.20058891834544396
0.033895138556596316 0.005228740416043239 0.22213713892835288 0.1356413246096297
0.03456948152131549 0.007222708919024305 0.1500049442780032 0.19273147759432965
0.03481881476239425 0.007959963781117005 0.08388515487396428 0.17946152133945276
0.03414089138883527 0.005955408347111395 0.1161311660154524 0.1566678657204777
0.0296070894570754 0.0028802194738820385 0.48564779965388305 0.11560924320856836
0.013772171619144827 0.004484444459551169 0.48650837067504704 0.1398172159874029
0.024369688308853638 0.010958275069587402 0.4976312519950129 0.09254324362396549
0.014944689320779919 0.02051227286272945 0.4999162154035312 0.11925862582661242
0.026341847649214146 0.0002081791020982285 0.2298401136444369 0.10259329632020625
0.026845870577864656 0.00029367389650069133 0.3526022698117891 0.10553130845078161
0.02702117964792504 0.00032341066451207774 0.25287355563455216 0.1032200065109208
0.026949835420977793 0.00031130891344494126 0.0991311961093498 0.09817146026000874
0.026613052849137436 0.0002541822330875301 0.08605236223680257 0.12685542535406955
0.02792063777137226 0.00047598107940101375 0.33415561833987834 0.1254330250424678
0.02528492169364209 2.8898235824550666e-05 0.037532112817552726 0.11901210987887174
0.028375972595838572 0.0005532171632955673 0.29540670792582846 0.09305464333953066
0.030587780757616666 0.0017989689803574297 0.3772420206917075 0.10214314379527314
0.029106518102568896 0.0009549761062131683 0.3974886897341717 0.13055173454929545
0.02979319573135804 0.0013462308398401528 0.43172894872950796 0.12720348512082502
0.029190160951941636 0.0010026340746383798 0.1644946864585027 0.09454140744995697
0.029320277487912196 0.0010767717900484455 0.3128706837644658 0.09304183016345559
0.029196247520902302 0.0010061020759501555 0.05300668799008103 0.14826350841262134
0.02362490359416504 0.0 0.11956286726969564 0.09904682292992324
0.021828449183168813 0.0 0.1446337108036024 0.10614697221501902
0.024825842841824784 0.0 0.4213280197518596 0.11395457450599542
0.023700362052033734 0.0 0.24132465381123744 0.12225748182559784
0.022275680681558815 0.0 0.07552950349624304 0.1432217873790171
0.021509838824452118 0.0 0.025791503132480798 0.11789748919699553
0.020398816078859124 0.0 0.06149917749455355 0.14766613068475307
0.022669572493516085 0.0 0.4427077322994794 0.16251219773131517
0.02162870432174432 0.0 0.20409482725394362 0.10152858225192055
0.022024192556431114 0.0 0.32133881360000205 0.11721572322348073
0.020120254978451366 0.0 0.37924703139685095 0.11680669382007752
0.018295793128248646 0.00030850742876222426 0.4674843570910679 0.11319276095919929
0.019322214448631483 0.00013440085631927538 0.21661966989813713 0.11674941595927875
0.01970558110023478 6.93723418349071e-05 0.3633554374005476 0.11865448735218434
0.01688114881286357 0.0005484662722571475 0.34332077155645224 0.11878184356472875
0.017691615285566984 0.00041099101054913056 0.2753489547225053 0.11060414435503083
0.018929888479352175 0.00020094909380726975 0.10776328900893341 0.11958911669341668
0.01754111851184408 0.00043651900467423746 0.1902875148046318 0.14653412944791083
0.028789451265207086 0.021988351498452748 0.500949361211837 0.10655195948240735
0.028691705217365297 0.03613091769176312 0.5012813807631618 0.12580820835180848
0.022916231344935083 0.07294036579503556 0.5019999742565436 0.10658435042009323
0.017754143362218106 0.04492727226137181 0.5015996108944563 0.1160973223909934
0.016616938888976383 0.03253183773644705 0.5013266955344421 0.10657080764959664
0.015384364745645076 0.0618240683834961 0.5006244045182797 0.12176994613351737
0.011205097161965173 0.07651458958779941 0.49648981573820283 0.11472112530172124
0.015931067977867405 0.09396358577828036 0.49633104768048564 0.08503510948136754
0.026845476892976207 0.10083737947506494 0.49021412853051294 0.12155937898818804
0.03247965078312963 0.08201105651374034 0.4983366170228592 0.10020731093300747
0.034778267813735116 0.09715992644103938 0.27329043707410255 0.18318603321742438
0.03452813224779214 0.09789955370203313 0.3222132025005297 0.14986172649079155
0.0346231486293215 0.09761859922938482 0.4379890762711486 0.2017594779006335
0.03468583793952154 0.09743323285566645 0.2446338787998038 0.1523644016446919
0.03493478276915012 0.09669712648957407 0.16249061056846195 0.16849684884632354
0.034606982765957854 0.09766640016163597 0.1103876554495248 0.14065767920426656
0.033892493549149624 0.09977907734308847 0.07701767661651426 0.16030586859886772
0.030992275599860973 0.10297055493272016 0.23301997153764958 0.13119866984309234
0.029562948050334846 0.10378495625615006 0.47187384455056497 0.12024478058622186
0.031186695258588873 0.1028597786257629 0.2620146371834518 0.09677786690441946
0.03150851974251597 0.1026764096801988 0.41024079043549555 0.15288453489360762
0.029663531300654265 0.10372764599706899 0.13940272681774596 0.09751099812758132
0.030243086987400608 0.10339742713404909 0.05135921898041117 0.1412755537551662
0.028634304868020086 0.10431407796581132 0.28594845568031874 0.11137756845313351
0.028795715852427427 0.10422210931988335 0.22209260671041878 0.1272181678633216
0.028010419041423734 0.10450878651131014 0.12313648056651433 0.12242709708475549
0.02750449747404411 0.10459460336194966 0.19513822466068886 0.09388256541689124
0.025487582777082518 0.10493672213778735 0.0356227028179689 0.10925544230999591
0.03161238031590543 0.10257978405139019 0.4524639854075957 0.14705025218932394
0.031916538099018094 0.10220850383990708 0.3722896867002141 0.13042074660999722
0.03223213055416784 0.10182326551954798 0.08968220462735196 0.10321846464587701
0.03190334346593225 0.10222461030317895 0.39233991272060686 0.1351374508102608
0.03205080131035673 0.10204461103075368 0.3030537672024072 0.139015890454627
0.03289354352546777 0.10101589000099702 0.3599792557430483 0.11534184782115345
0.032710396256120405 0.10123945474492684 0.42400014075117604 0.16151797816791977
0.02198940858944544 0.10499999672174452 0.35216946598321136 0.09752573399529184
0.02252717710039346 0.10499999672174454 0.40436287114071784 0.1143329080349737
0.02492370954832515 0.10499999672174454 0.10449856432630354 0.09300620016698342
0.024726067607953265 0.10499999672174454 0.1678561377712408 0.09960306020819788
0.02404709749342271 0.10499999672174454 0.43619048146104644 0.16336676962890037
0.021270138136204528 0.10499999672174454 0.06684325878082406 0.17604133479027145
0.019239633300617957 0.1048515880497812 0.14794342531195223 0.11382855449425396
0.020074068606952822 0.10499312902153068 0.3105951184964943 0.12156839106793964
0.0197287939328505 0.10493456185338484 0.42427944736863776 0.16039452358887174
0.020063128147815287 0.10499127324768462 0.29283724539957295 0.11082005030906547
0.018202790593163858 0.10467571375101864 0.46043352298580786 0.11818964624187364
0.01940982005025423 0.10488045595330775 0.09212409587799496 0.12940929894239894
0.018359619508388474 0.10470231583375744 0.26278790668523894 0.11457344503984808
0.017662175585766108 0.10458401200624765 0.32702834068401904 0.10264788459522182
0.012588128106383024 0.10132418373365662 0.23709782513302566 0.15197435906179896
0.012631825919854081 0.10137752488695304 0.3013831723530113 0.12892397631035227
0.011550833591639722 0.10005797654090767 0.4406600185896839 0.1353796241635932
0.01340797798739997 0.10232496008170752 0.13780661969092745 0.11005631275738985
0.011855202002694396 0.10042951371366364 0.20495481291030476 0.11924862887830018
0.012881845794274954 0.10168271975574134 0.07440133337424437 0.14004833113115395
0.012501759832009034 0.10121875549829694 0.10419670329353255 0.10902025191709268
0.010829072663133578 0.09827831019352638 0.12058359772250936 0.09596089414070517
0.010641728213441271 0.09772435033713439 0.2231661427192247 0.1305812682630341
0.010665185302132068 0.09779371073454074 0.27046410174014474 0.133377459115717
0.010975553885780483 0.09871144134416829 0.41957161480912186 0.14543682076754397
0.010733555006025314 0.09799587349630104 0.40632298382962273 0.12571909482709007
0.01124069373800166 0.09949543486359982 0.3892870190553263 0.11368522953807164
0.015513375810937558 0.10369789993864374 0.04288436624376543 0.10718434599013757
0.015174802996135816 0.10350498811140021 0.027978840714425326 0.10551756984879028
0.014447194237044901 0.10309041160348771 0.4729097638224318 0.12555914175694508
0.015720774680674978 0.10381607154953552 0.19463418190405635 0.13875556489196866
0.01633490000550166 0.10416598753035108 0.24856071153863957 0.14740490002316642
0.014632250158634504 0.10319585266199971 0.37752472085635447 0.1295477946042231
0.015750251713544827 0.10383286695667998 0.2157934211558655 0.14510464458024105
0.030802429832834682 0.0997958816853525 0.013295884035227213 0.11178029757526084
0.014705846292550888 0.09729032408225949 0.009625529227781 0.11253270693619183
0.016922478739566826 0.08556825331196707 0.0012711459083273654 0.0822671381363769
0.031735582964684664 0.102346521493492 0.024096753734427847 0.12574677464548945
0.034623893300272546 0.0878739111443079 0.009340282366082848 0.15605681359568913
0.02900938694130146 0.0790225848951749 0.0008996351929347962 0.08488714403220869
0.026154715022507154 0.053705983941513526 0.00017643746595487805 0.05991410927896762
0.018827019330002887 0.03837968133412412 0.00021839908522047129 0.10123401392000915
0.01668157187182935 0.061436235182449145 0.0006364848324829705 0.11795101196395712
0.016089525884890567 0.02603397060511922 0.0009738206360756295 0.08790872740351881
0.010233217768169012 0.07381377404631509 0.008480244974890075 0.13153472753296824
0.01365534501004948 0.05018183344698475 0.002367528641988874 0.10927596649731676
0.03490082155949076 0.01964097864488446 0.00914489774912045 0.14064011938638576
0.025593009779770772 0.016548745115596192 0.001623379517845275 0.09982319358388154
0.016082297629007963 0.00952754026729714 0.006784217970111791 0.12364502574026341
0.01586595700284294 0.0028173498195161245 0.016129301851970746 0.11805774967185605
0.030547327496315904 0.0031950934316482553 0.017186694744562057 0.12183210737476972
0.03258090559524622 0.0036024749385113216 0.1943977802615101 0.1465819540619582
0.03248585924955304 0.0034864534875113677 0.12931279942006463 0.1208309469575033
0.03281966104309331 0.0038939196362673357 0.4106719839531421 0.1573325078358899
0.03200343577114752 0.0028975673861799797 0.2650032449395815 0.12643765351793815
0.031632707658000886 0.002445025909702871 0.4677394661428092 0.12308132457020927
0.032326799592706214 0.0032922920807962196 0.17718626253236533 0.10650930234731774
0.014326227986026912 0.0019785092004585988 0.4026869337622621 0.1298025015484883
0.013856447275474372 0.0022461805884568266 0.08788251309477352 0.14694993462897835
0.01384883540719626 0.0022505176744663084 0.29761191893302197 0.13114653821596955
0.015347264075164273 0.0013967438341151584 0.24902874148844065 0.11604214615530284
0.015367765520136465 0.0013850625323749875 0.17651178836926198 0.1259733303162938
0.014215362917721864 0.00204167783647779 0.04027264636239502 0.10886207084331433
0.011640238743044241 0.0048328848830326305 0.32938468713097363 0.10738147926000013
0.012773141426759992 0.003449970477898173 0.3108013145803833 0.14562574687719904
0.01178913187455313 0.004651133652897066 0.28723991699541085 0.12572260456471981
0.011640153930299312 0.004832988412460523 0.44570554757089587 0.1591650525193451
0.012861818810531733 0.0033417235532591082 0.1541664049317663 0.11251676115050593
0.013668700363785596 0.0023567774151034286 0.4164499831380295 0.13511494955542253
0.012791771609913006 0.0034272289405861663 0.13153527732231995 0.11285690412113907
0.013484984678186438 0.0025810359253145075 0.23563693959872875 0.12040519916583342
0.009609727133317134 0.0822466507342868 0.026774911372569047 0.13871815600211085
0.004273388617127501 0.061945133704868975 0.004528531269829944 0.09073574204964888
0.009778101733837608 0.023261866739809022 0.02529943068093494 0.15870140993029236
0.009517718382997066 0.026539718925792752 0.04938470034662597 0.16637610020259438
0.002402006005196601 0.03535647283565469 0.05869690723223353 0.0974204117575398
0.0074995384838016455 0.03304079920273487 0.44515231446306247 0.10727515036899964
0.005779489775085063 0.02217567683878951 0.4709507873298763 0.09651870812162965
0.0049149316080536075 0.05409241757945314 0.4989320303823309 0.08612836854048311
0.002981367181837643 0.06647296062588422 0.495608120229469 0.08822105987418687
0.0030996511196692816 0.07584489695265743 0.48810046012098174 0.08555049834847166
0.039742117318398135 0.08298033699823093 0.03306999577250992 0.20732476903079985
0.03612134450133257 0.07659318909274673 0.015012808682794903 0.1790795945405374
0.036171612937612674 0.06453276412904384 0.005536796252056043 0.1190118723802325
0.033670394520092434 0.04220012079989774 0.004863091257573452 0.10158417866460306
0.03827242015453258 0.027463758092730682 0.016319416911790275 0.23236032932581135
0.0360698729801911 0.07069077359702097 0.05783669056265513 0.25548752216265624
0.04254979612143166 0.07420019867930912 0.4470817313260485 0.2770889790948677
0.035524306815324404 0.06256363429505646 0.43979758272525415 0.2975104010994152
0.036344867379416265 0.051257460465029214 0.43809278579911654 0.2915001441697713
0.03848012231675021 0.03475855898165753 0.49328424777920854 0.1657851911331086
0.035997453812026445 0.0572230041024611 0.49862325747289193 0.13404581529396623
0.0364334233698113 0.046022935641403764 0.498236696325857 0.1097281124977523
0.036543132964544534 0.07594671466977328 0.48796396518932167 0.17050196668722853
0.044999999925494194 0.046604087921866814 0.05221981273829514 0.23718417676291087
0.044999999925494194 0.0698876666397969 0.03705029939206374 0.18712966066740738
0.044999999925494194 0.02942651572669576 0.03168347039894763 0.2838365965547738
0.044999999925494194 0.057951413281736044 0.03534527844109564 0.0605188463110994
0.044999999925494194 0.0433369850305382 0.02442296587716022 0.16697958230918994
0.044999999925494194 0.04830591208736445 0.010888499351509968 0.20399532417658933
0.0 0.0790853532414353 0.043328198655509895 0.06897684791759984
0.0 0.07240475607337855 0.053209524569139154 0.0711202920016991
0.0 0.06061932440911607 0.042885534117512364 0.02287883953498163
0.0 0.04477865779465695 0.04798925242153428 0.04382044365814135
0.0 0.06807512703314783 0.03482061748001274 0.02829982536719199
0.0 0.04873447749213791 0.03365346049465689 0.03276436607790517
0.0 0.030480289129136324 0.03142973158756823 0.05269416189459366
0.0 0.05358133623670546 0.013605861415103372 0.07229685366449046
0.0 0.03611991107602826 0.020576511302748995 0.07582147965513186
0.0 0.06556064983748654 0.015673763294070272 0.07640904809845206
0.00037879871384307044 0.06249521415716193 0.06053535927077752 0.11360468635675033
0.0011740867021842127 0.051023304828349915 0.06305786546938949 0.07063360639816683
0.00041896865005527857 0.04108010137942102 0.0070142957021385845 0.0445706811937922
0.0006068786993717202 0.07721647843487486 0.01826844216570125 0.07415317611380932
0.044999999925494194 0.05499275047702965 0.4769614061071557 0.1250850231620998
0.044999999925494194 0.04401773152591552 0.47970772131998707 0.17419180424366026
0.044999999925494194 0.07178093856220426 0.470933915594381 0.20238599924248427
0.044999999925494194 0.06215752509837519 0.4618386697594305 0.06909843005771248
0.044999999925494194 0.04677809014444051 0.4586577035890088 0.07474222667061162
0.044999999925494194 0.07430016196489288 0.45994730290696795 0.2568554401937285
0.043949573865361705 0.02321166640210904 0.4713425178905463 0.21797339743348199
0.0 0.0605941772271 0.47527042518630785 0.03226297882236889
0.0 0.050168073627616785 0.48334828276438047 0.07123423823440377
0.0 0.031032465748218576 0.4843620095177525 0.07210182387444948
0.0 0.0335346244974817 0.4725961575186044 0.06006956873105765
0.0 0.057011585829837855 0.4646172629490378 0.024324378454340614
0.0 0.07035761291093542 0.46561934627776547 0.045908123280544735
0.0 0.04195672947404154 0.4637900678367376 0.01603190748978636
0.0 0.05170200430657133 0.452189042086438 0.06911126714826858
0.0 0.031956176751190425 0.4531258536234095 0.07253948866482515
0.0 0.06304434662891863 0.44934459626952744 0.08456040295477829
0.00039337879165605126 0.04190288742138833 0.4953756309625692 0.07081582428635287
0.0015185184301478912 0.05024027714367232 0.43862500522113035 0.09299500591464561
0.0010677205914266144 0.08137903262764072 0.4623600359513309 0.0732033895221289
0.034011948465453884 0.08533651895149036 0.07835425214905613 0.2851250128792867
0.01058491653455941 0.00744363315724457 0.20182653775819182 0.11642005600091664
0.010336426641190123 0.008178394319754536 0.10084164981098093 0.10927286108460513
0.010338982822878613 0.008170835931751087 0.472610744714529 0.1094492712088184
0.011340605063346991 0.005209133498611603 0.2643168510384974 0.10827822545655534
0.01049972598610885 0.007695533568829401 0.07656514630910752 0.13430091829940122
0.05522770248353481 0.015173045454757544 0.42420729794455486 0.235808102936842
0.05522770248353481 0.009643434855853606 0.12884556382427467 0.1772853392723204
0.05522770248353481 0.012208624213548097 0.312686248829953 0.22000646853610434
0.055227702483534806 0.014995240230928719 0.41166972808518576 0.2634124371319481
0.05522770248353481 0.015986641931563992 0.4641875176038375 0.1887793663855905
0.05522770248353481 0.020100077255832186 0.4809174757987469 0.18541745841841578
0.05522770248353482 0.02912921441377203 0.48889740600973364 0.17180819894965874
0.05522770248353482 0.04859689585378288 0.42766295470501364 0.2852456813861979
0.05522770248353481 0.05061250720101312 0.23660259102655445 0.30858060106473334
0.05522770248353481 0.05380848105276456 0.364687929118347 0.3032050935744176
0.055227702483534806 0.051182580597803735 0.3978611663404975 0.2903088228709576
0.05522770248353481 0.05429095886192768 0.33264014648037415 0.2675406325975259
0.05522770248353481 0.05130618225686187 0.34498175063663117 0.2804495281058466
0.05522770248353481 0.04890246955439379 0.1060679689183463 0.2819010271095819
0.05522770248353481 0.05437638463732507 0.1967496358038189 0.2643608414088522
0.05522770248353481 0.05265176205412399 0.08565092939815225 0.2828450981600786
0.05522770248353481 0.055150307065502426 0.17137492069576815 0.27687391432282277
0.05522770248353481 0.052674710105375985 0.13842017339229995 0.2743123394166525
0.05522770248353481 0.05479333915882835 0.3078157865949239 0.30226221551087573
0.05522770248353481 0.054066816181872084 0.29346186946193215 0.28259680765526474
0.05522770248353481 0.054706836240728876 0.2577990139942922 0.26574253878448645
0.05522770248353481 0.05635825402791369 0.3189526070169344 0.30127427441423776
0.05522770248353481 0.05120927133478695 0.18285179585765632 0.29047525754006076
0.05522770248353481 0.05576451100214219 0.07434489207847714 0.2188374964661068
0.05522770248353481 0.019438000390581408 0.06771147582262416 0.26204488225313904
0.05522770248353481 0.02040034173574609 0.05110187945464512 0.23524965715017881
0.05522770248353481 0.014102906846402597 0.26003059374667764 0.21953860101716663
0.05522770248353481 0.01368075020223661 0.24119476138731294 0.22368198800677236
0.05522770248353481 0.016246715710981914 0.36943168323606956 0.2582101140044473
0.05522770248353482 0.01629030746875021 0.38206977052733276 0.2459580723025511
0.05522770248353481 0.010441161526915562 0.03848772983049865 0.1511397243133083
0.05522770248353481 0.01471478688844482 0.14155450862144187 0.2260563138623843
0.05522770248353481 0.015778441768194332 0.1022088435729761 0.2128918721483744
0.05522770248353481 0.011761943228842773 0.0832901232225094 0.20283263480944894
0.05522770248353481 0.01643110555452227 0.2155455727248526 0.21702908406696106
0.05522770248353481 0.025025964909841852 0.011197337834320222 0.1816975117065329
0.05522770248353482 0.07787586947916175 0.05123023608091629 0.2520632902428305
0.05522770248353481 0.09354206370168922 0.016954625016464293 0.15826780796857554
0.05522770248353481 0.09066176009653122 0.05775558607637761 0.24740119849602163
0.05522770248353481 0.09023156673305421 0.14708077471831166 0.25446223876814134
0.05522770248353481 0.0922711680836838 0.06934197840657838 0.23124124145597666
0.05522770248353481 0.09564736392471507 0.34946084213513257 0.15465463746053243
0.05522770248353481 0.09112618655004372 0.20294025004636174 0.2349291613309497
0.055227702483534806 0.09169331887412922 0.2523870337758376 0.2532658630649239
0.05522770248353482 0.09259761009303538 0.22743525616138927 0.20768090200867795
0.05522770248353482 0.09617659337689058 0.03711448257521387 0.17069918175259133
0.05522770248353481 0.09204068730790327 0.2671641088988427 0.22538502998213492
0.05522770248353481 0.09349715755589617 0.12705316385293747 0.1842581543440866
0.05522770248353481 0.09263127383005779 0.3311021027690578 0.21246386703494205
0.05522770248353481 0.0934920639692802 0.45264444933659753 0.18686466177450825
0.05522770248353481 0.08691379688456295 0.4418809047685634 0.24549857547936532
0.05522770248353481 0.08534189000495333 0.46399144776203083 0.18936846735198598
0.05522770248353481 0.07951587867410197 0.012136379397619043 0.1965059351179552
0.05524208213328101 0.08844028895460251 0.2883214252650755 0.2596715264985201
0.055505966354883314 0.0873455335960095 0.08412764654048296 0.27168426876328006
0.05612281410180604 0.0857033702491348 0.3878380347187389 0.25167198715503747
0.06876749629975862 0.07481706993383225 0.42910096752629784 0.25364523136705946
0.058567079399099206 0.07010725352837567 0.43164840872457866 0.2550694727882005
0.07922585093552267 0.08536480401546478 0.42662613025400975 0.26276578376288623
0.08000140823423862 0.0907941886591325 0.33673123264598853 0.25224376911272234
0.08000140823423862 0.09169324977745605 0.348809205227694 0.22069193082762473
0.08000140823423862 0.09350738164706297 0.4173582719590258 0.18309582507804054
0.08000140823423862 0.09129593050461393 0.38275204310763467 0.2151877082245586
0.08000140823423862 0.09438307520288254 0.11550834978029638 0.16876126131997665
0.08000140823423862 0.09370200488932569 0.30429682515236367 0.20315205637475428
0.08000140823423862 0.09504902046889341 0.1917555818673143 0.1948780465870393
0.08000140823423862 0.09369699696365384 0.10473628040265304 0.2143881077903894
0.08000140823423864 0.09152708649974348 0.17724985467559434 0.22900431773852334
0.08000140823423862 0.09614347437310403 0.14627896978096266 0.18179304330200224
0.08000140823423864 0.09073087601065041 0.27408176673565804 0.1908250971928609
0.08000140823423862 0.09232456622924376 0.4763475366410272 0.19178302260321234
0.08000140823423862 0.08707202662128719 0.45087587643047117 0.22445353539001575
0.08000140823423862 0.08395213195500122 0.46905020841196676 0.22823709986873486
0.08000140823423862 0.07928128102306461 0.4837704277301388 0.19819316179149105
0.08000140823423862 0.05249750612793641 0.4247470554521855 0.23847612345169028
0.08000140823423862 0.0543018541863981 0.25303652780735014 0.27772072737027936
0.08000140823423862 0.054293367940215 0.29549388211144645 0.2730689069585031
0.08000140823423862 0.050301685429938826 0.4072202271767488 0.2787303033925492
0.08000140823423862 0.054022019096302894 0.3299987651337512 0.26797788342088247
0.08000140823423862 0.05585914185109889 0.1766011258304886 0.28066789664955044
0.08000140823423862 0.05636494913156285 0.1281408519095965 0.28945981900751067
0.08000140823423862 0.05424121018460126 0.3432590650531959 0.3131090483892509
0.08000140823423862 0.05073280033888976 0.39280325355185863 0.28788245706550236
0.08000140823423862 0.04926611900460659 0.2850096656048035 0.29508882931053215
0.08000140823423862 0.05244378492384351 0.1031505740858829 0.2902543288014418
0.08000140823423862 0.05095721284854976 0.3158818879957214 0.2804079887188575
0.08000140823423864 0.054101532810982976 0.11654649316413764 0.2943480902702327
0.08000140823423862 0.0475653461090545 0.06930538182581975 0.2499353478493192
0.08000140823423862 0.07742248232128039 0.055283845565712975 0.23271027570370414
0.08000140823423862 0.08999911420608381 0.05155371701225788 0.21236539474282823
0.08000140823423862 0.09425168638790815 0.038699135843350135 0.13373788533195252
0.08000140823423862 0.0962546748707711 0.026219193497579802 0.1513060512816639
0.08000140823423862 0.0928666928079069 0.07300965889763937 0.21943730830174815
0.08000140823423862 0.03832539730232961 0.06060800102545556 0.2569222144014323
0.08000140823423862 0.023350225462115605 0.048560103499667946 0.276931819486175
0.08000140823423862 0.015338166183850465 0.020891702079829537 0.1853126090637595
0.08000140823423864 0.015079696930252243 0.18164370559143772 0.2367289031651377
0.08000140823423862 0.012983536405355184 0.060708128238944774 0.24184917307226053
0.08000140823423862 0.014725165236789944 0.07552280423381977 0.23417408581646573
0.08000140823423862 0.014181573393916886 0.11428880410853284 0.24704059508661952
0.08000140823423862 0.012597128564777328 0.20228139879347784 0.20252608096291805
0.08000140823423862 0.01279609347860103 0.1554371019289576 0.18254685957095554
0.08000140823423862 0.011241498162287493 0.3170378884162791 0.19572761707458355
0.08000140823423862 0.013833217436894201 0.3576510353088819 0.20434372000288356
0.08000140823423862 0.01028245717314025 0.2744691675472929 0.20196247322901684
0.08000140823423862 0.01480289701738621 0.41151390598148657 0.2238909621680524
0.08000140823423862 0.012484638488811761 0.45307653061267583 0.17909184022501548
0.08000140823423862 0.011934845103611414 0.47378027759798347 0.14875635415769006
0.08000140823423862 0.01857054795529616 0.43815881073133334 0.22070087513354028
0.08000140823423862 0.016425474996951735 0.4872484499365835 0.1698975811408948
0.08000140823423862 0.02132946782189444 0.45965944902387473 0.22279546623262414
0.08000140823423862 0.025631328658482732 0.44793263037165076 0.23194350824600504
0.08000140823423862 0.03274420443427418 0.4392210274550051 0.24151042589686034
0.07937451307063842 0.08631700586472116 0.09269459089582976 0.24362509415207576
0.07313874790040664 0.08048960670049013 0.37019631211527293 0.2933301452345048
0.0734034951402403 0.08055714558152145 0.26017298948445217 0.29964554839870067
0.0729160902272359 0.08043280516364146 0.40546966335386736 0.2756161971270747
0.07324386295751406 0.08051642229011079 0.16739788313726106 0.28692871258252933
0.07138876812528926 0.08010440064377705 0.41926550579919974 0.2871442240268846
0.06942360087278227 0.07999999821186066 0.3296156889052706 0.2727423194673904
0.0679011854176658 0.07999999821186066 0.19475073457933706 0.2679238181577492
0.06549493244228845 0.07999999821186066 0.2066428793978745 0.29429869508113504
0.06640024800614441 0.07999999821186066 0.15568255584803162 0.27352017057799
0.06700444508834413 0.07999999821186066 0.08629232250134326 0.2754768090012856
0.07556048000443896 0.08165839252267726 0.12038471324690439 0.26871783621068646
0.07605542834506121 0.08200504660690097 0.30542113479805977 0.2802895602887894
0.07621581985676913 0.08211708369364093 0.28681318240087333 0.2999419369409862
0.07669206819736296 0.08248917740457104 0.32016367266687157 0.29216097453064754
0.07667909970788503 0.08247602257971101 0.14456716680415044 0.2684376621453949
0.07967095091731265 0.07268507232269564 0.43700579878267704 0.2333424043966813
0.06190536250326038 0.08053680248046426 0.2327732351126067 0.27145968176223306
0.06359724207052714 0.08022910442325659 0.28486745994142293 0.2333610333183685
0.061803576479723746 0.08056541580396379 0.37714378278378835 0.317936723042787
0.06134757315544808 0.08080347636442459 0.2720076631853994 0.30137176953607525
0.05920705426605701 0.08203917558501511 0.25752958930845293 0.25037528816543825
0.058608123062136745 0.08241707747118172 0.4188693617099173 0.28144992869626373
0.057906949708054344 0.08318819072570798 0.31372616652503593 0.30912649522908914
0.05759065089330486 0.08350508654815295 0.3578224533301224 0.309672926544404
0.056968891105512044 0.08428451450375458 0.34479428283304336 0.288401539352701
0.05793175033583779 0.08318327684903098 0.2975680520234951 0.31092265710080685
0.05616440333848231 0.08165682427375767 0.4315162244632984 0.2755258657228965
0.07985728920773993 0.05709794501565664 0.23921761540435688 0.294742365467253
0.07981234282679975 0.05728441052242903 0.18976973557277166 0.3022163116071033
0.07961486460491475 0.05810367285123196 0.20600898420011782 0.309921734384166
0.07980998035674872 0.05729421151565896 0.22303006576574894 0.29949262852295433
0.07978164547146009 0.05741176222016873 0.08823244280481876 0.29445407515858285
0.07918182456304529 0.059123834557154385 0.416215041836067 0.28929651131356476
0.07899160647992715 0.05955902736176818 0.37181582554701487 0.3105045399642051
0.07906113487220785 0.059399955965710974 0.3067699820590188 0.2913084467646709
0.07872019254916833 0.06004920797392909 0.3592169231824175 0.3106674633933422
0.07846243879481092 0.060431215354445705 0.1612124690804106 0.26334129006998835
0.07548499824006592 0.0633941045204165 0.14169766888875557 0.26830021251121206
0.07599656916101502 0.0630382968488496 0.10927037067348845 0.2344878249665059
0.07092150012318743 0.06493388117153319 0.38225193282456627 0.29611568667438243
0.07131683754926113 0.06490148904588537 0.2514297737134582 0.2667338168795517
0.07410807852483023 0.06412496556457631 0.0964380776497272 0.2698259747542826
0.07482240820681593 0.06380092994673749 0.347662326690956 0.3062788179858183
0.07783565881668668 0.06135079909534243 0.31829906303497246 0.26607247676690976
0.06142576258715571 0.06426319719934898 0.19874255588500422 0.2733679194516332
0.06051622391945295 0.06385061050224003 0.13812405200380357 0.27114182163708556
0.060633164182780766 0.06390365717163271 0.08247476908119497 0.2771047836195731
0.06200672631473273 0.06448905367631738 0.2149080821831993 0.32138490478478443
0.0618174110277083 0.06444075811987067 0.2586663156022746 0.23966638827015657
0.06220088721642619 0.06453858538046481 0.1671438110375088 0.23989822046768305
0.06389267765176498 0.06489988347960515 0.3199577868148744 0.2888296278793534
0.06503478115490381 0.06499346217399767 0.124582362583116 0.20200051295809623
0.05777823575299056 0.06174110824554608 0.4068097600751647 0.28203986698076855
0.058335819365774234 0.06230670259860752 0.39117425447885973 0.2830911455466013
0.058527160393493656 0.06250079260108589 0.35363756998369517 0.2832725338808336
0.05785006303920445 0.06181396746620267 0.37652456873105294 0.2725844464480226
0.0575421841657117 0.06150166533198987 0.22947229876529646 0.286135691831052
0.056243563412156444 0.059572883486236725 0.24333520406081838 0.2967615252634042
0.055691900245701975 0.05831076026040427 0.1286827657904845 0.2837064843427971
0.05548081633916653 0.05755012356243147 0.20991502563479453 0.29944055023459926
0.056915525177581965 0.060651820710840285 0.4192617652858044 0.26754582025162243
0.05734392934712506 0.06128674280932748 0.1002536336620028 0.24758154586584552
0.05695074631004375 0.0607040206587483 0.27710404546854384 0.2791074887531882
0.059786263208510645 0.06342341952586042 0.15556828651484741 0.2655201457285919
0.06652998872080686 0.06499999854713678 0.28990360748119476 0.26436186504575393
0.0651504589177167 0.06499999854713678 0.3028423698799254 0.24785011010592606
0.06752945706905758 0.06499999854713678 0.1794782498380678 0.2825192364702577
0.06828027544296411 0.06499999854713678 0.22599941440370097 0.29724129145563016
0.07010966170559695 0.06499999854713678 0.27146784249304867 0.2900348571913654
0.06959376643695532 0.06499999854713678 0.40248174148037386 0.2513620780526
0.06635530833619555 0.06499999854713678 0.3405067685433957 0.2861043610745137
0.06755144520522816 0.06499999854713678 0.4190086464386885 0.3142051027799267
0.06845760512321107 0.07757034005534118 0.07450745496537703 0.2458974722397081
0.07978238447772149 0.06151062468420037 0.06930881968920793 0.258192310848037
0.07941417633865519 0.0808007021687919 0.06846406625294296 0.26289816811094235
0.055439683730429665 0.08040781893443148 0.06687139771631431 0.27032012278490875
0.07977232976666652 0.08754958514566948 0.13040451230337233 0.25973882434676276
0.07973572399700378 0.08763759781887484 0.2236364827709608 0.2630106119828634
0.07931756414820357 0.08643664132343093 0.23630920446552156 0.2886071728450033
0.07844001590964392 0.08453555033692478 0.1580914498148061 0.22412998599677827
0.06466003588324991 0.0800372392244203 0.1258418515763276 0.2984101780804016
0.0728305775132438 0.08043150186585957 0.21601210909345953 0.3023328083140845
0.07356150634562256 0.08062709423108483 0.35126213571466397 0.27529136026927165
0.07409772154139835 0.08087033382115211 0.3899270471141364 0.26154877374002833
0.07798298493677928 0.08399404959859873 0.1877619370804734 0.2649686988252447
0.07813285463482988 0.0841948449638127 0.19913503167239163 0.28573759225574913
0.07347846235938969 0.0805913072857 0.2457615110623626 0.30259913864225424
0.05587721160152201 0.0864126772497054 0.1915511668634257 0.273745734877444
0.05682311042758756 0.08448514173867583 0.4008314409762831 0.2684522683795351
0.0577715607533176 0.08340124052519528 0.21871720218171625 0.30104691736717687
0.057972495658621614 0.0830780884555026 0.16910177334433518 0.2811611476395883
0.05777702523643898 0.08326367752548185 0.13531965444425353 0.27248467031222656
0.05951633240151057 0.08176431850527019 0.10026574055910048 0.29759437818620676
0.05623414379655508 0.019564669569465825 0.2732229709397757 0.27235097818777626
0.056035685963814884 0.01910321597555936 0.338291197643744 0.2728333875985455
0.05630556964669367 0.01973074875510034 0.11703003694894348 0.2508892165291435
0.06105679285481441 0.02486600054232803 0.42561698192595043 0.2973309377988627
0.06984201511166292 0.031682255218811746 0.4294249766261815 0.2733162263625814
0.06299576013105795 0.024742185153872862 0.3920575477363704 0.2710280838512295
0.06339652757071133 0.0248391345896622 0.40814140234478213 0.29221352416598373
0.06468064620071681 0.024935468456673143 0.26330176594663973 0.289786000090839
0.06257430068842752 0.02462061977692298 0.3211880639528817 0.2529591459710331
0.06123741324469887 0.02417954059494938 0.3538396428488396 0.2415169449789721
0.06106732100987827 0.024084556084694394 0.3073738485293942 0.2605869389668293
0.05881704451687804 0.02274037156151665 0.2956065705523942 0.28400638296600084
0.05923418095391498 0.023036711563147218 0.08876168639300253 0.3117933292927445
0.05528847317675637 0.025757150561853966 0.43623060117595347 0.258474585794153
0.07139371147726052 0.02489519104533089 0.08385112674581398 0.27043030923771516
0.0704699036098596 0.02497088307341814 0.15028177266082618 0.22201832745012773
0.06712647630931522 0.02499999850988388 0.2803871140048817 0.2917738722713556
0.06930093823274017 0.02499999850988388 0.36116158754752664 0.29257032987282233
0.06700187765048679 0.02499999850988388 0.3784369817625879 0.26066699838871665
0.0691354328673976 0.024999998509883877 0.1388619458232328 0.1996596109625603
0.0660806818776178 0.02499999850988388 0.16434344875159584 0.25038122727827117
0.0657878936613984 0.02499999850988388 0.1824235920786313 0.258095625733575
0.07201331436161852 0.02474712674025567 0.33390923884267787 0.2774348296817093
0.0714980427309717 0.024808037920196396 0.30217201618990536 0.2876979500052391
0.07130450816138278 0.024876743141182815 0.3451509488497092 0.2631999039148579
0.07337619267152627 0.024449816191822852 0.22256141546064076 0.30259880000052053
0.07766967110816735 0.021332812279417943 0.27881529904512453 0.26585765451978105
0.07608419643629219 0.022977349731358232 0.3220269689210812 0.30385174594830744
0.07621875703170557 0.022883760347722756 0.40370122606494035 0.29108759107571236
0.07620610255513803 0.022892561770297817 0.18839850277372375 0.2946654809285616
0.07617164951027625 0.022883619026121987 0.26476895403089956 0.2917020781603185
0.0785700904616735 0.020271667841576753 0.3696391008321348 0.26101639237791685
0.07864634856552377 0.020158648608057633 0.2101751249317114 0.2764426936690573
0.07876424359252773 0.01998392087533212 0.1302175933499407 0.2608760372022411
0.07940914198528969 0.01860376477694886 0.3917748715517566 0.26502809235294295
0.0789814234584482 0.019582324532521646 0.08970976482156115 0.29650812539714044
0.07927540294630461 0.018776425770012903 0.2972185685768719 0.26974798823639096
0.0758716486138833 0.023156717804985252 0.4223437333470849 0.2771176651865622
0.056072927432751024 0.03833248812717599 0.43407035789859366 0.28101893835109126
0.07556462846396768 0.04161728245099969 0.4224795156879835 0.2672156643233969
0.05540834544726868 0.04774347372043471 0.2756127206420931 0.26572597418371124
0.05561084671736899 0.046895465105866896 0.15897046052087455 0.29877706479337973
0.0569754847832303 0.04425369000210135 0.32552901774165965 0.2777460785846618
0.05606366590959251 0.045831722014769725 0.21482702658274533 0.2928614311460428
0.05610213175019173 0.04574228124724776 0.3565951195630514 0.2958343420336773
0.05627204550503351 0.04534719780674987 0.4163730716535541 0.25980994020955
0.056207453796867764 0.04549738643811479 0.3807480419355036 0.29449826146326386
0.058815406122030664 0.04226079065362305 0.3118056286645999 0.27780745192580153
0.05938789148371625 0.041854087729744575 0.1946421524639076 0.31377045674287846
0.05992622204659497 0.041471648931150164 0.11294003435836629 0.28120227237646067
0.06211829359518431 0.04048709154356455 0.3897511835761636 0.2884302781009668
0.06269669514090821 0.04033595608200641 0.10117271046449511 0.2717071873782992
0.06222292277603201 0.04045975209460081 0.1345822917523819 0.2568125100280008
0.06476179545306296 0.04002964024205263 0.08774976759856885 0.292376419178497
0.06172120445953888 0.04059600903441282 0.22442613982135642 0.2700648521180729
0.06095286621995148 0.04095246704755751 0.1820269971276747 0.2749478853279514
0.06118241600533041 0.04084597116306542 0.34753816692672324 0.27180665257638953
0.06138434062303166 0.0407522915252155 0.4018679476420767 0.26991804171323097
0.05778322493187003 0.04325758551326476 0.17027608787839782 0.2722870089521476
0.05787727817770231 0.04316025120843954 0.29960464312462703 0.29349263152079813
0.05761979447280371 0.04342671726389943 0.3682843463814649 0.2973726702292178
0.05785702536970269 0.04318121053812515 0.2547798186304939 0.2609909869005188
0.06908860805397134 0.039999998174607754 0.4136044840407659 0.2953979999150853
0.0700968570954201 0.039999998174607754 0.3283151015734045 0.26571254859561116
0.0686679235378052 0.039999998174607754 0.24401906159865333 0.3008447866708357
0.06959114170292265 0.039999998174607754 0.26322249189061225 0.2365247362143976
0.06937795457302794 0.039999998174607754 0.2892179544874139 0.2811341543547929
0.07246554048349119 0.040317867249107735 0.36586159595345596 0.2939475517821963
0.073197967812121 0.040504714198286156 0.09472217314298548 0.26606846052629113
0.0728295950623369 0.040410739927027886 0.2783978775313826 0.2624432759487461
0.07203611909458688 0.04020831907512188 0.12046240986778789 0.2464654641483587
0.0743782826065394 0.040997601657550946 0.35095150271930614 0.3083461840360646
0.0734852809602886 0.040592516516234134 0.10893088690443203 0.2589997091551512
0.07474543494918777 0.041164150016370804 0.1667962084549687 0.2759973188621376
0.0717422335051609 0.0401333626588301 0.1888662619673684 0.31075714590288533
0.07047404365581204 0.04002945303065915 0.14641186441664683 0.25038878464722486
0.07172554939632675 0.04013199563988873 0.20582943305597579 0.2984541466665225
