x y z curv
0.8019999999999925 165.2854645450335 341.9467421738525 0.07672222238177996
0.8019999999999925 165.23044780237532 341.94451296225424 0.07050521827369623
0.8019999999999925 165.2319363877035 341.80152696554234 0.07733100845843693
0.8019999999999925 165.230432856515 341.7628347358394 0.11238237760573543
0.8019999999999925 165.30049866571676 341.9129679399636 0.01829161504534465
0.8019999999999925 165.24597900277433 341.94015707794176 0.08179558785830854
0.8019999999999926 165.30362679961357 341.9261156384148 0.059679250520924994
0.8019999999999925 165.25495159956984 341.89914006993683 0.02406095300353209
0.8019999999999925 165.25814422863922 341.9385173767924 0.07861267033122765
0.8019999999999925 165.32001742383517 341.94434608098027 0.10901354021590964
0.8019999999999925 165.2678260529328 341.8667538883518 0.002756742745461012
0.8019999999999925 165.24393283160197 341.8240126675126 0.07131671900035862
0.8019999999999925 165.30543085496475 341.9414944453742 0.07687254117583048
0.8019999999999926 165.2334178754893 341.9294048660388 0.10008609753131814
0.8019999999999925 165.2651112214091 341.8943674770487 0.000176861369021162
0.8019999999999924 165.23576856359372 341.915977219017 0.0793050969484239
0.8019999999999925 165.2843726207248 341.8991193214452 0.00019520109970173994
0.8019999999999925 165.24155460807032 341.85048656720033 0.06712557846825833
0.8019999999999925 165.24018959671093 341.8681091350188 0.0771376987968333
0.8019999999999925 165.28207868031416 341.875755639654 1.3507331564353727e-13
0.8019999999999925 165.2663231018129 341.82766748363883 2.7126736479144797e-06
0.8019999999999925 165.2825979136581 341.862211784633 2.7676100354378977e-13
0.8019999999999925 165.29843613664644 341.889537919558 0.0023017830444775
0.8019999999999926 165.27098738475135 341.93620058803697 0.08187413952468234
0.8019999999999926 165.2651652909031 341.9213314674404 0.03929115322223167
0.8019999999999925 165.23822666584311 341.90113954530227 0.07461015283222631
0.8019999999999925 165.22915657986596 341.8229704917916 0.07965981631092535
0.8019999999999924 165.32284661097003 341.92909602820646 0.11623897379450897
0.8019999999999925 165.24172917934885 341.77771659000257 0.07032287627613887
0.8019999999999925 165.27343960098534 341.8481338412778 2.632434401517169e-13
0.8019999999999926 165.2445025234802 341.8891792023072 0.07279230554170964
0.01949931638071745 165.33475606453936 341.9163112955342 0.07024290392439937
0.1656978935700585 165.33475606453936 341.90414179977074 -4.194453089929394e-09
0.09279375820140284 165.33475606453936 341.8409347749838 -1.3342907148575129e-17
0.24780087081046345 165.33475606453936 341.8306374203809 -1.6961399350250527e-16
0.5434027931285597 165.33475606453936 341.7980511545506 -3.84754785419855e-09
0.1325473224794348 165.33475606453936 341.7834988732915 0.013070852865450318
0.08894618857424078 165.33475606453936 341.74804298369105 0.08233997866177213
0.17833479857209006 165.3347560645394 341.75720705015476 0.08838177395123072
0.12739681766888886 165.33475606453936 341.86179580732016 -1.6046559719265967e-16
0.5810912835567321 165.33475606453936 341.7944823183751 -4.3226522415964654e-09
0.2126386307088825 165.33475606453936 341.8684901897671 -1.4392190518338432e-15
0.4258408149670667 165.33475606453936 341.7958689423982 -1.2997701295634751e-15
0.460294932011082 165.33475606453936 341.8181557659849 4.781386966329267e-09
0.4773936494735562 165.33475606453936 341.78008668895353 0.011437144054978246
0.1855713942810525 165.33475606453936 341.8563063613648 -1.1647895235173987e-15
0.38664533437354565 165.33475606453936 341.8246200187249 -5.738906808207279e-16
0.1946021078380575 165.33475606453936 341.8476097202385 -5.835033706953178e-16
0.1962223609982738 165.33475606453936 341.77658521017565 0.02521703135865866
0.6261843699737705 165.33475606453936 341.7532833387885 0.08207479165169328
0.21975706718453725 165.33475606453936 341.79535867144926 -7.970910409183892e-18
0.06956983423693244 165.33475606453936 341.9113642103699 0.010881874844247921
0.4193131216735057 165.33475606453936 341.76913142445943 0.038251367034034235
0.5692541281641632 165.33475606453936 341.7875975564973 -7.464591018824792e-16
0.38949129248716513 165.33475606453936 341.811921758319 -5.119018402569534e-16
0.37264228990038883 165.33475606453936 341.8414131753053 -1.3110091669503992e-15
0.7529009072178203 165.33475606453936 341.7572839606288 0.07005183858873765
0.21944682422021355 165.33475606453936 341.8190668859693 -1.691926999728344e-16
0.23737028250287576 165.33475606453936 341.7653425949964 0.06408998141866518
0.17974892105477 165.33475606453936 341.83136430154775 -5.626229918679776e-16
0.15110673090827448 165.33475606453936 341.8339392947878 -1.778425814719744e-16
0.48836837314141684 165.3347560645394 341.789877169457 4.215202870101771e-17
0.34142762325304266 165.33475606453936 341.81129579135904 -1.602409394305214e-15
0.6630492289086442 165.33475606453936 341.75258369524204 0.0818014925831442
0.41293307755428915 165.33475606453936 341.78569210399667 4.899371126426511e-05
0.3879565961581069 165.33475606453936 341.8410117219798 -5.493063924759466e-16
0.002833698935443515 165.33475606453936 341.8001369632839 0.07537524682450848
0.48494030793983406 165.33475606453936 341.806713166465 5.012884906137541e-09
0.4631675359958524 165.33475606453936 341.7611541639884 0.0609565131439062
0.030828856058491626 165.33475606453933 341.92963205014456 0.07399963691951297
0.18477192705545897 165.33475606453936 341.877227511148 -3.1200452846655493e-15
0.08147610136653033 165.33475606453936 341.8435799382952 -1.437287790272544e-16
0.3507839124890642 165.33475606453936 341.8044570506978 -4.321427811332295e-09
0.13366831089501613 165.33475606453936 341.85161915054016 -1.5330495371953413e-16
0.5663277449548235 165.33475606453936 341.8052285600768 -6.328840077620212e-16
0.3640154240603248 165.33475606453936 341.80400824276285 -6.295139214154036e-16
0.11726266179540795 165.33475606453936 341.7938703483828 -2.385372466908563e-15
0.49123808093321736 165.3347560645394 341.7721433252442 0.0307692201218148
0.310388863322748 165.33475606453936 341.83312964657625 -7.894140957420047e-16
0.006794497947413696 165.33475606453936 341.89530355796103 0.07383768049479622
0.4488399098979075 165.33475606453936 341.82839154871544 -4.4026842304750353e-16
0.283204575238513 165.33475606453936 341.8711472446454 -1.0405503449632665e-16
0.15438645576861845 165.33475606453936 341.79862460541005 4.183106783030987e-09
0.12086464105753444 165.33475606453936 341.84476897285566 -1.3710553333406691e-16
0.379485868834115 165.33475606453936 341.77707176607066 0.02684616748972561
0.24466234743494628 165.33475606453936 341.81772779109235 -6.426945839711938e-16
0.32810608494452975 165.33475606453936 341.75538554621795 0.06470419958956067
0.4198040740573826 165.33475606453936 341.75647048884457 0.09861978573190702
0.10865964514349791 165.33475606453936 341.77053810310156 0.05079595116273007
0.02273516113050641 165.33475606453936 341.8831574760443 0.07408096278487421
0.3422874887158005 165.33475606453936 341.77571414884835 0.028645264011045092
0.3006959329850987 165.33475606453936 341.80043701942986 -7.316809323261077e-16
0.5341412327310177 165.3347560645394 341.7802805765108 0.01789872281822056
0.10654004175788108 165.33475606453936 341.90996100069106 0.00021750752206759188
0.6355611230542108 165.3347560645394 341.7836716852151 5.364193321945176e-06
0.6154592602401756 165.33475606453936 341.75698524196775 0.09285732873853553
0.2656842251158032 165.33475606453936 341.808770304277 8.695355347483336e-19
0.038230137250055085 165.33475606453936 341.794795574108 0.012901506285807465
0.7381002076068354 165.33475606453933 341.7551508825865 0.07662201810793923
0.09797132912638357 165.33475606453936 341.75618290711105 0.10467958799734729
0.08625598792723525 165.33475606453936 341.91143086366964 0.006411261616782552
0.03687285644508634 165.33475606453936 341.88838271693993 0.005839325375314694
0.10727220714373169 165.33475606453936 341.8935141059962 -5.476167039022561e-16
0.09381536417484304 165.33475606453936 341.8976154987391 -1.686215456121857e-16
0.06344359673505999 165.33475606453936 341.7944789062239 4.483913667155923e-09
0.28781381065437545 165.33475606453936 341.8453837203676 -1.3312053040965654e-16
0.002133999944022946 165.33475606453936 341.7616143338645 0.11887933782985537
0.3082874677108653 165.3347560645394 341.7842912332304 0.003859951311748567
0.15576562481983014 165.33475606453936 341.7630965178749 0.06482188465610028
0.5528789108076377 165.33475606453933 341.75997554649905 0.05247460811168199
0.5387583699433041 165.33475606453936 341.8123789840828 1.6236003520771051e-18
0.29239982520789976 165.33475606453936 341.81828626485145 -1.6931454389416125e-15
0.3660262847201229 165.33475606453936 341.78027055664427 0.015368007447699276
0.2604317468878247 165.33475606453936 341.75795779749274 0.06858208815650914
0.24993889179858844 165.33475606453936 341.7681311793012 0.056990588953697185
0.4576386340675219 165.33475606453936 341.773417417583 0.03793871604902662
0.28118636175466266 165.33475606453936 341.79363054041846 -5.774167177837045e-16
0.2506864543432379 165.33475606453936 341.87387808253135 1.1847721923852575e-17
0.3525463535194843 165.33475606453936 341.7592456709843 0.07895119733525406
0.30528575756321 165.33475606453936 341.8173999613899 -1.8632851612014027e-16
0.6958495778919135 165.33475606453936 341.76330509454743 0.05950800442798971
0.24489286284035805 165.33475606453936 341.8023662173856 -5.667414995348218e-20
0.2734759955982585 165.33475606453936 341.7844279605164 0.00225847296787868
0.17116830342151082 165.33475606453936 341.82326730168995 4.59348196337664e-09
0.1296281834198856 165.33475606453936 341.89388738299397 1.3279029057496872e-17
0.5727977778521126 165.33475606453933 341.7580770189737 0.06748756332812092
0.44944028757394283 165.33475606453936 341.7949295462944 -6.840464426278821e-16
0.275242118105451 165.33475606453936 341.85884764266257 -1.0411569158609779e-16
0.05748448613475474 165.33475606453936 341.8594893744179 -3.936371493382444e-09
0.2839654605015739 165.33475606453936 341.7661289362901 0.07577627326949145
0.0644413484881039 165.3347560645394 341.81691794270944 -1.2858193228627883e-16
0.06934552689163129 165.33475606453936 341.85557516194035 1.1414429898716992e-17
0.21232025846490613 165.33475606453936 341.77331455229285 0.038740969983359984
0.0886596460738161 165.33475606453936 341.8876224173621 -1.3149419338492682e-15
0.38711582558161095 165.33475606453936 341.78936021452387 -3.939842967838186e-09
0.09411052478855882 165.33475606453936 341.8542303033021 -1.8570202992537397e-16
0.28778543386042676 165.33475606453936 341.75503179972355 0.09444186681228312
0.40860684462763674 165.33475606453936 341.8001407685987 -1.8243909137359737e-15
0.14243842310790514 165.33475606453936 341.86639102039794 -2.473770077135272e-16
0.37776267905508504 165.33475606453936 341.8034533998741 -6.849343120672705e-16
0.17202718353369564 165.33475606453936 341.8836499497784 -1.3336916492243088e-15
0.2704358070331699 165.33475606453936 341.74947692664006 0.06569093051844752
0.34192742627033706 165.33475606453936 341.791537967719 -4.473681547443611e-09
0.4251697335614515 165.33475606453936 341.83762360733584 4.261277056487771e-09
0.05500292120407407 165.33475606453936 341.8707808460408 -4.055258850981489e-09
0.04647803304430449 165.33475606453936 341.93426202343545 0.05815174054579733
0.6209871970165086 165.33475606453936 341.7723645254827 0.040786006648504104
0.3236154757931171 165.33475606453936 341.80815024516465 4.905362701238269e-09
0.026287771076002466 165.33475606453936 341.87008808796134 0.04549329264229117
0.4433827827777563 165.33475606453936 341.80720351696016 -1.7842414094349832e-16
0.18482685362309068 165.33475606453936 341.7832600552239 0.009046490114351774
0.568311858782119 165.3347560645394 341.7744237364648 0.029742028020650683
0.09305648741669865 165.33475606453936 341.76778569932856 0.06571391759723193
0.029495184635773424 165.33475606453936 341.8558462953066 0.0306659257332564
0.3754148259768836 165.33475606453936 341.7882205488821 -3.962709850327766e-09
0.6482805590543584 165.3347560645394 341.75248157988074 0.1031474809847792
0.3515643892509676 165.33475606453936 341.78632346116547 0.0007902401046373329
0.7167152395262739 165.33475606453936 341.7656738020321 0.06988760400283207
0.15337386469190298 165.33475606453936 341.90643827328074 1.522979128653286e-08
0.011373698935568177 165.33475606453936 341.80818354710476 0.06268772360782235
0.22773850932260437 165.33475606453936 341.7851634255778 0.0004106418430632653
0.055597512710809205 165.3347560645394 341.7740064136554 0.026373075832639523
0.3920030949768942 165.33475606453936 341.7720178918738 0.05471252263555239
0.047872652850756585 165.33475606453936 341.7851880121259 0.0002515979970438223
0.039338422727489546 165.33475606453936 341.8631527779112 -1.3452810789692104e-17
0.04633945329137241 165.33475606453936 341.84541944630234 -1.705872666563076e-16
0.018362100680865398 165.33475606453936 341.86004067877104 0.04755525688055443
0.11222332527940995 165.33475606453936 341.7496667320132 0.09147407915797316
0.01544582867295081 165.33475606453936 341.9370803172891 0.08602487633455595
0.06342358777058324 165.3347560645394 341.93127266454627 0.04929933510347463
0.23003790965965587 165.33475606453936 341.8687872063236 -1.7463647511178562e-16
0.02649816533940275 165.33475606453936 341.7997432278525 0.02756864602009763
0.5554675672542463 165.33475606453936 341.80094952341386 -1.7705107400037796e-16
0.010438336273470275 165.33475606453936 341.7843052658502 0.0866146205641996
0.30781741575072447 165.33475606453936 341.84420907353524 -5.898045972618393e-16
0.21026021821731722 165.33475606453936 341.8546925830299 -1.7780135443300258e-16
0.35629783724446795 165.33475606453936 341.8386693734948 -1.4790859327827457e-16
0.6485368296700045 165.33475606453933 341.77311149337584 0.049176696734031564
0.684762643888275 165.33475606453936 341.7610840086246 0.04963795054090968
0.018091935525782993 165.33475606453936 341.84051336375967 0.062458586503467216
0.09769855324279428 165.33475606453936 341.82660361619605 2.5502669245609987e-19
0.13585195169364378 165.33475606453936 341.84046928234136 0.0
0.2469341183658659 165.33475606453936 341.7799444600569 0.015388559337332587
0.4873611653729359 165.33475606453936 341.7497271605687 0.07820542578858122
0.08506973960463628 165.33475606453936 341.78018039643916 0.005115688834689534
0.023941472899392933 165.33475606453936 341.829507443834 0.06074060002940995
0.6045682718471783 165.33475606453936 341.76508761908616 0.0720409130451336
0.005185733505340362 165.33475606453936 341.9202371318213 0.08435394841944324
0.72873665871661 165.33475606453936 341.7610103436997 0.07044541279019578
0.16612034728438352 165.33475606453936 341.8567417671285 6.014088062866776e-18
0.25940426352052165 165.33475606453936 341.86116101136486 -1.0000640567326494e-17
0.2715272831687763 165.33475606453936 341.7643492441845 0.08197387238013021
0.687014154700347 165.33475606453936 341.7762146294585 0.025994446951306344
0.17029273226367103 165.33475606453936 341.8456688382732 0.0
0.09399497734210932 165.33475606453936 341.8704298948715 -2.300861424024968e-16
0.6606015346280492 165.33475606453933 341.76749678449244 0.06394438723046285
0.042109410269637895 165.33475606453936 341.8772017610182 -1.6174459909008e-16
0.5982755200055089 165.33475606453936 341.7751920295246 0.033569500713905964
0.4094996496536717 165.33475606453933 341.7743675834389 0.02628170670685656
0.7075119425156178 165.33475606453936 341.7559304308918 0.08428944160960826
0.3278402049467305 165.33475606453936 341.7968638089731 4.834585579853639e-09
0.18270334172648892 165.33475606453936 341.8093632590122 4.4413513073774735e-09
0.16220148676045826 165.33475606453936 341.8737198357934 -5.51741372988864e-18
0.014258447438190602 165.33475606453933 341.7681125184305 0.1061688388860854
0.23228767443851583 165.33475606453936 341.8862565342326 -1.513452343629785e-16
0.3661452598683183 165.33475606453936 341.8203147442002 -7.423098945742557e-18
0.2168665434417154 165.33475606453936 341.7617284907394 0.05233020835239043
0.689121140192812 165.33475606453933 341.7504372002736 0.09472573685155697
0.2582661151635297 165.33475606453936 341.778170596758 0.019572748179096173
0.4313161163849206 165.33475606453936 341.80694039087655 -1.3512709039638925e-15
0.31638442332970834 165.33475606453936 341.7997777204937 -4.074309212821254e-09
0.20093902353243448 165.33475606453936 341.81450395499724 4.2460367744058485e-18
0.1731440257222098 165.33475606453936 341.86828604536834 -5.969029522891437e-16
0.27655168796677515 165.33475606453936 341.81896478208387 -1.8534364962049374e-16
0.4893415778718948 165.33475606453936 341.82109775176207 -5.984341568677138e-16
0.19550670872070058 165.33475606453936 341.88193462053226 -4.088418399311757e-09
0.06582555111017929 165.33475606453936 341.8847060636368 -6.028397550101676e-16
0.142891108924738 165.33475606453936 341.88821455373784 0.0
0.17756240487622962 165.33475606453936 341.7932421912934 1.0021787501773289e-08
0.38200869452450764 165.33475606453936 341.75473577641975 0.0756210655321605
0.1226345115236808 165.33475606453936 341.87564452833726 -6.930370512223538e-16
0.03409612560210966 165.33475606453936 341.8230487559045 0.036936709118460885
0.5158737727435782 165.33475606453936 341.7671564403241 0.04584263651897639
0.22580497652649206 165.33475606453936 341.84942778849756 8.419287108474566e-18
0.014256855091973053 165.33475606453936 341.8216840554059 0.07328785527288961
0.3350060002869965 165.33475606453936 341.82213711761835 -2.8597390297266566e-16
0.3801891072749271 165.33475606453936 341.85116750061263 5.084903330271521e-09
0.42665609592875986 165.33475606453936 341.7837213392829 0.01184421663644726
0.42878087933836656 165.33475606453936 341.8253875031178 4.476839782008486e-09
0.3310331744676374 165.33475606453936 341.78431675404727 0.006439840890835305
0.3471643195955187 165.33475606453936 341.84596123230017 -2.37046463378193e-15
0.5076552908695091 165.33475606453936 341.79221109069255 -6.45611126966342e-16
0.28486302726098733 165.33475606453936 341.7777395110862 0.0239965361230915
0.10454832240896987 165.33475606453936 341.88114245094107 -8.657091158155649e-16
0.2544402720852239 165.33475606453936 341.80980893614833 -4.212755811974382e-09
0.03438728946922918 165.33475606453933 341.78370000974263 0.016062110350104502
0.2457170676544177 165.33475606453933 341.7559370764772 0.06348083972528053
0.05704546876521224 165.33475606453936 341.89746501335503 -1.3778131925284893e-16
0.2956233906984026 165.33475606453936 341.77351578180446 0.03838580386320655
0.09296288929476576 165.33475606453936 341.8155718165138 -1.3175568963782408e-16
0.46062188367046814 165.33475606453936 341.7930721463711 -5.73905445875092e-16
0.03202202246316606 165.3347560645394 341.74846179562877 0.09413392995755965
0.20168490750434998 165.33475606453936 341.86273949410656 -1.540477228745655e-16
0.07288299911606828 165.33475606453936 341.784263626124 0.0031657513007402644
0.6373751496770275 165.33475606453936 341.7675445137295 0.07240386953878777
0.037631287675567164 165.33475606453936 341.9053694773571 0.0032332176712279183
0.4070142200363618 165.33475606453936 341.84401862391496 -5.638778960741809e-16
0.08810993331340833 165.33475606453936 341.79491631906916 4.347636989253444e-09
0.20355013463442323 165.33475606453933 341.79115404218146 9.210403854775249e-09
0.19903391084931848 165.33475606453936 341.8343969223271 0.0
0.18380236754415297 165.33475606453936 341.89456874145657 -4.336630911742514e-09
0.07865355256756813 165.33475606453936 341.82947878075237 7.558697154296264e-18
0.5038648650957412 165.33475606453936 341.7816474941336 0.015407548482706401
0.3382532081036447 165.33475606453936 341.76242801489707 0.06604702950421584
0.23178478894675125 165.33475606453936 341.81841666002606 -4.152138789276424e-09
0.16417731572748157 165.3347560645394 341.7919159585575 4.25759201872936e-09
0.04470990688362895 165.3347560645394 341.76548982881036 0.06055226793317219
0.1504844485330078 165.33475606453936 341.81524773280023 4.210563895789374e-09
0.10389725911378081 165.33475606453936 341.791317412613 -1.9203900247137455e-16
0.0708940664230439 165.3347560645394 341.7655618692388 0.06507365499376247
0.030708594644899088 165.33475606453936 341.8409114382632 0.03979373780286746
0.15578791762126515 165.33475606453936 341.8845735390211 -3.983805968624988e-09
0.0022779571687951963 165.33475606453936 341.74808885406776 0.11272163806550152
0.16802149478194672 165.33475606453936 341.7801289582134 0.014073043756492517
0.35189490812558955 165.33475606453936 341.8168490146193 -4.320615244009458e-09
0.1863210191396816 165.33475606453936 341.8214426364156 4.1474741622403685e-09
0.3270543378787013 165.33475606453936 341.8345504830414 -8.055715240312767e-16
0.05209360252027055 165.33475606453936 341.79726265065705 1.0239460987062726e-08
0.529560354431051 165.33475606453936 341.7902479663976 -1.592373561009822e-16
0.1470561394530195 165.3347560645394 341.78701952232257 9.011824874513724e-09
0.3288088890413605 165.3347560645394 341.771033975274 0.06513410039816378
0.23793616616601487 165.33475606453936 341.78998445425054 -6.60323257143396e-16
0.13383413645901265 165.33475606453936 341.88173776513116 3.931957244249466e-18
0.21858333434079216 165.33475606453936 341.8073690297971 -1.6948806762204632e-16
0.2184528873656062 165.33475606453936 341.878900470802 -1.3395662623565305e-15
0.36384291529691626 165.33475606453936 341.8551275077077 -6.014302190613702e-16
0.1153127104054604 165.33475606453936 341.863223021775 -1.672061797382351e-16
0.3410403380734137 165.33475606453936 341.8351460667758 -1.3876776692562443e-15
0.1724174041340084 165.33475606453936 341.80453694193534 4.689075786117113e-09
0.4434847387117424 165.33475606453936 341.75897098406205 0.050070245286670874
0.6181980937548289 165.33475606453936 341.78694734139606 -4.193935418613823e-09
0.5554590143862271 165.33475606453933 341.77287539941693 0.047106777774207825
0.0069169654176664255 165.33475606453936 341.84267157798143 0.05162104722172121
0.02428524378334381 165.33475606453936 341.77636574140945 0.07160567156431227
0.2619520259668684 165.33475606453936 341.83064791986817 -1.449467695082647e-16
0.41379088778298634 165.33475606453936 341.81387717966186 0.0
0.43960758591572924 165.33475606453936 341.7825823553995 0.015282239582731
0.2979278594752226 165.33475606453936 341.76050209430554 0.08726294034985219
0.13392770849908117 165.33475606453933 341.76309228142543 0.06609175945123809
0.43321021046567915 165.33475606453936 341.7545014603055 0.07574059490539424
0.1047791386371368 165.33475606453936 341.8593160057525 -4.176160973133902e-09
0.01754958344920391 165.33475606453936 341.8995782280888 0.07353951362510248
0.5874464284570333 165.33475606453936 341.7783669425867 0.013274593857526395
0.3118394006396775 165.33475606453936 341.85694476610695 -1.404952707163677e-16
0.010463240370841089 165.33475606453936 341.87090248939353 0.07797260249156633
0.08047219516369902 165.33475606453936 341.8641103451073 -1.8578208559985055e-16
0.40198777279033104 165.33475606453936 341.8132946845127 0.0
0.07089885807383915 165.33475606453936 341.8968038150538 -3.922818508757843e-09
0.41158633714293796 165.33475606453936 341.83022218809595 -2.0080624668929225e-18
0.07652402624654293 165.33475606453936 341.7962233302618 4.535676132531526e-09
0.04716213537624478 165.33475606453936 341.91771603481976 0.023546848370208324
0.5280601322559558 165.33475606453936 341.8025189096739 -1.5422409225241354e-16
0.5057981703452039 165.33475606453936 341.80575354642 -3.863464873977751e-09
0.36733947671416156 165.3347560645394 341.75982608369895 0.06890422756916972
0.05282397962384797 165.33475606453933 341.7556843180495 0.07154331034129148
0.25850370837542413 165.33475606453936 341.7946618773373 -4.351069292225499e-09
0.29809053510814215 165.33475606453936 341.866727837433 7.238580194468562e-18
0.19964648652959296 165.33475606453936 341.80228534191883 4.417639697981685e-09
0.05601828414620228 165.33475606453936 341.9091299803262 0.0028858447375492216
0.2338511485608407 165.33475606453936 341.8381159199704 -1.524570809488456e-16
0.23710370468885988 165.33475606453936 341.8573094292296 -6.729385121479898e-16
0.47008746976763294 165.33475606453933 341.8011828542739 -1.827306267703899e-15
0.3979375512714948 165.33475606453936 341.75863615609546 0.06742894443872244
0.6068460618618957 165.33475606453936 341.7479156693405 0.07363324581358861
0.016487099869451287 165.33475606453933 341.75621903248583 0.12597294908494053
0.5326841646599112 165.33475606453936 341.76605285288645 0.06066108569508348
0.6058139924482017 165.33475606453936 341.7901292106313 -1.8657025718048187e-16
0.21750703323540913 165.33475606453936 341.8344004536525 -3.942717927690082e-09
0.10890166819650175 165.33475606453936 341.81084316860927 -1.7817746769499316e-16
0.12433237997492466 165.33475606453936 341.83044978088276 -5.968058960061402e-16
0.13504919632634446 165.33475606453936 341.8167105106503 4.0257455397429735e-09
0.47420618338957143 165.33475606453936 341.8145693772493 0.0
0.05815426364504528 165.33475606453936 341.846372688854 -1.422795648586309e-16
0.08450684486318776 165.33475606453936 341.87609491602063 -1.6080761405572226e-16
0.2059471318238721 165.33475606453936 341.75079969686743 0.06622047352740326
0.12783794678304564 165.33475606453936 341.75266390706787 0.06939230228530452
0.05473943964159326 165.33475606453936 341.82444747041063 -1.2051022186269776e-16
0.2073055016183481 165.33475606453936 341.8886228883 -2.2125205724591404e-15
0.31651701500864354 165.33475606453936 341.8195505532601 -4.0805111215687195e-09
0.26890100101227615 165.33475606453936 341.84142980135687 -1.4330528135350478e-16
0.1304762837918342 165.33475606453936 341.7971921489821 4.955336879675475e-09
0.590694745553005 165.33475606453936 341.76477281828693 0.05560416155850535
0.2491736979428005 165.33475606453936 341.85223362177646 -5.650424526149914e-16
0.32630616680992097 165.33475606453936 341.84984043347407 -5.8144948516427e-16
0.15576203704478075 165.33475606453936 341.84529985635504 -2.631009876140492e-15
0.16305721175128327 165.33475606453936 341.8314719712223 4.31090468527885e-09
0.2816402719493054 165.33475606453936 341.80872656567664 -3.972405926538546e-09
0.5092049640557846 165.33475606453936 341.7572473240399 0.050472155589524836
0.08076794572170236 165.33475606453936 341.8081514487747 -6.786342757731654e-16
0.12330896383930777 165.33475606453936 341.81206159782846 9.27099132827929e-09
0.5444416929311485 165.33475606453936 341.7723244590263 0.04795454779624391
0.28473374010691704 165.33475606453936 341.8325665781572 5.706362732717898e-18
0.12652880946406492 165.33475606453936 341.90623526280376 8.29562248987e-09
0.14652229936084843 165.3347560645394 341.7544271532008 0.10280299303226835
0.09881562158564822 165.33475606453936 341.77882593706477 0.005153871773257455
0.5167761368724616 165.33475606453936 341.80896915187265 -1.5222264401986407e-17
0.31834287899362723 165.33475606453936 341.7626676476423 0.06710688140416109
0.7782900299587288 165.33475606453933 341.7487608006429 0.09266440937356203
0.00929977584894483 165.33475606453936 341.88261174366613 0.07893097106089927
0.044013297021814 165.33475606453936 341.8148763264956 -1.2224968115084649e-17
0.1701178696849127 165.33475606453936 341.76784592937867 0.08190926559652273
0.11098555609522733 165.33475606453936 341.8300160048136 -1.2373051956507842e-16
0.1839599494973327 165.33475606453936 341.77127642815225 0.05034525254451283
0.12030750038471495 165.33475606453936 341.78190860273196 0.008935073137344622
0.2550182774054102 165.33475606453936 341.8415401541727 -2.0103629482602122e-16
0.7860002189324934 165.33475606453936 341.75910833466617 0.11024717625070432
0.7005111473009028 165.33475606453936 341.7895882441439 -4.350415392696126e-09
0.6647319274788184 165.33475606453933 341.92941450895717 0.06260674648360011
0.1777037791425078 165.33475606453936 341.9089631177595 0.0012042023141162904
0.6957710240382589 165.33475606453936 341.8251015306477 -4.403547518747394e-09
0.7586438505722539 165.33475606453936 341.78676239537424 -8.476907344905216e-09
0.3127726204842556 165.33475606453936 341.92086712125183 0.02822466822221487
0.4124220097134723 165.33475606453933 341.94718702681195 0.05360893242955893
0.5999816300706478 165.33475606453936 341.882190712725 9.4448719795748e-09
0.7440168439955579 165.33475606453936 341.91178741669296 0.013826536821410345
0.49606735856994455 165.33475606453936 341.83184462528146 -1.9585131964124724e-16
0.39647068051509626 165.33475606453936 341.8945576680428 -6.021291494861837e-16
0.7938130955563875 165.33475606453936 341.795016925771 0.07518277434309173
0.7448550112969636 165.33475606453936 341.9284145313633 0.05850505444190262
0.437507836599648 165.33475606453936 341.8629182585312 -3.9402739279027506e-09
0.6147848723257184 165.33475606453936 341.8025520999181 -8.673398142874346e-16
0.7706589433859613 165.33475606453936 341.772294041297 0.05417708409239099
0.6946979629777463 165.33475606453936 341.8863466296734 -1.549644390659215e-16
0.2016298350574178 165.33475606453936 341.9336248556207 0.06440512200459875
0.7630448366952114 165.33475606453936 341.8395106135432 0.0035506060587815447
0.7027411783884258 165.33475606453936 341.9372611420826 0.059479879570926854
0.7616675911974544 165.33475606453936 341.82722930795734 0.0
0.6790821859171979 165.33475606453936 341.81634913226935 -1.732527970001389e-16
0.35485745646353284 165.33475606453936 341.8878284105882 4.300539728304072e-09
0.7699317489126976 165.33475606453936 341.87015943779807 0.03188059295967935
0.6071604863739849 165.33475606453936 341.8176425358348 -4.168728095827692e-09
0.4329320590690289 165.33475606453936 341.9351082357311 0.09337301403061163
0.7499060552886188 165.33475606453936 341.8354173629276 -1.692451990637452e-16
0.6006994590142704 165.33475606453936 341.8507692550852 -1.470049700687148e-16
0.4453016309320053 165.33475606453936 341.88077546489603 -1.834272958439581e-15
0.2706879603732804 165.33475606453936 341.9287862039157 0.05631909894916409
0.7396362219952188 165.33475606453936 341.84541148483703 -3.984810519432567e-09
0.5727741005769423 165.33475606453936 341.8497613743361 -6.996467850436701e-16
0.1842223591260495 165.33475606453936 341.9183666555368 0.02148758206853647
0.590171228231618 165.33475606453936 341.8661606331667 4.2488845716591785e-09
0.64464333526578 165.33475606453936 341.84964519645024 4.674284832334591e-09
0.7483406268929592 165.33475606453936 341.7785971156102 0.030059203191030844
0.48574856846922077 165.33475606453936 341.83966653949926 -4.000944048562916e-09
0.33800041806668124 165.33475606453936 341.9379319877933 0.08378610016575264
0.11511635532907666 165.33475606453936 341.93336223062266 0.09071343044079008
0.5473206159714359 165.33475606453936 341.8311652236534 -4.0956338510375705e-09
0.3927030931067585 165.33475606453936 341.8560339858349 -7.146324499337805e-16
0.5632779584460293 165.33475606453936 341.84080576401567 -4.2130148003150756e-09
0.6054573094982143 165.33475606453936 341.8329999983628 -5.716381460556958e-16
0.617052922783831 165.33475606453936 341.8852891730129 9.376714237768688e-09
0.09538975811964347 165.33475606453933 341.9268042840553 0.06569919102835248
0.5725943517982135 165.33475606453936 341.9468787982328 0.0705750892412774
0.35926738975961564 165.33475606453936 341.8716575136849 1.7040109617309092e-18
0.38651484777039197 165.33475606453936 341.8672385604452 -3.0516011609459144e-15
0.4069753026828247 165.33475606453936 341.88457380054035 5.13115300775692e-09
0.5605044820388747 165.33475606453936 341.92624991064 0.051418374253388535
0.03737637000068662 165.33475606453936 341.94133471586645 0.06507406891231327
0.5168084841431095 165.33475606453936 341.91696809215557 0.033545337362482115
0.1723461965720969 165.33475606453933 341.91937913304474 0.03877713195758121
0.4805405400358772 165.33475606453936 341.93143043492995 0.047512145636865094
0.6724973826701881 165.33475606453936 341.9132854833064 0.019478839352224355
0.5268856685921899 165.33475606453936 341.9352598987443 0.07674465231964084
0.675296670205296 165.33475606453936 341.857606222993 -5.760691593251895e-16
0.6212340506287063 165.33475606453936 341.82489150821914 -1.7679173170366843e-16
0.694877653518407 165.33475606453936 341.8106560668974 -7.020349031548143e-16
0.3649920456725441 165.3347560645394 341.93528078213694 0.07378289123087806
0.3440468443011595 165.33475606453936 341.8735270218875 7.270467160124599e-18
0.6901135021617275 165.33475606453936 341.8376860212662 -4.179995069102858e-09
0.5464435398862277 165.33475606453936 341.9069079208633 1.224754544739767e-08
0.3582175751805136 165.33475606453936 341.9212570495528 0.05391028272715134
0.7664729575721556 165.33475606453936 341.8893620209942 0.008951800705773675
0.46117052824189086 165.33475606453936 341.8755556133109 -6.134331249181954e-16
0.6808425264830771 165.33475606453936 341.8697407774901 -7.474776622705094e-16
0.6717607597035888 165.33475606453936 341.887228237138 9.47375162690483e-09
0.719832159142789 165.33475606453936 341.92000243131105 0.03860659798349236
0.6468539757678828 165.33475606453936 341.8629209199726 3.9151277123887775e-09
0.6814579471340934 165.33475606453936 341.893471060197 -7.956888914073653e-09
0.26541291353400864 165.33475606453936 341.8832127387713 -2.0544391269225919e-16
0.5828227314836967 165.33475606453936 341.8570824118698 4.395308029851685e-09
0.334588689837355 165.33475606453936 341.8820746696897 -1.2043279817368872e-16
0.2526403969380372 165.33475606453936 341.90963312030146 0.0005222456340756974
0.36602341312280634 165.33475606453936 341.89334550898633 4.559164279831954e-09
0.27764350933824344 165.33475606453936 341.9138553458424 0.016591196406920885
0.24071146314382533 165.33475606453936 341.9026949590171 1.4386291326651044e-17
0.7182839322418357 165.33475606453936 341.8786223663386 -9.983320657763843e-17
0.5327856296539424 165.33475606453936 341.90949176534787 9.686490419180319e-09
0.6153799889492465 165.33475606453936 341.929742245158 0.07453534847411841
0.6506161337798415 165.33475606453936 341.791464857599 -4.31596802970877e-09
0.6672723324525189 165.33475606453936 341.83255567668766 -4.016347407639266e-09
0.15685615578116452 165.33475606453936 341.92274487964335 0.04643265212180646
0.5126786804391095 165.33475606453936 341.82031695415924 -3.8655216353200706e-09
0.3056400311535754 165.33475606453936 341.89186458145343 -2.204869545826116e-16
0.5257772848187461 165.33475606453936 341.8550863368629 -1.5128511601915502e-16
0.6560618924079245 165.33475606453936 341.8012748584964 -9.774759325235817e-09
0.6040337677962266 165.33475606453936 341.93209366605544 0.09328415198588719
0.19026041662004298 165.33475606453936 341.92957403014435 0.07241086707396784
0.2059557406491657 165.33475606453936 341.90077893990775 -1.2779198177617546e-16
0.21718079054663 165.33475606453936 341.9103820708646 0.0054645334822561705
0.5844724746538836 165.33475606453936 341.88730166519906 4.3133305385173135e-09
0.6120919705227799 165.33475606453936 341.856506018373 -1.6935586394329203e-16
0.5712884591853326 165.33475606453936 341.81785966800766 -6.701996675832009e-18
0.44791030728956355 165.33475606453936 341.8402470235395 -1.5169759923927113e-16
0.37777625155615774 165.33475606453936 341.9190770111495 0.02761045068019107
0.7318896315735572 165.33475606453936 341.883724399127 -4.2419224588535414e-17
0.42251706675204737 165.33475606453936 341.86291862617423 -2.103514644891044e-15
0.48381928467726504 165.33475606453936 341.85675252123747 -8.044984367461746e-16
0.5335789903046905 165.33475606453936 341.845409707735 -1.6655979221412904e-16
0.7654364811586554 165.33475606453936 341.8121636816938 0.004652813311133811
0.4597295561854709 165.3347560645394 341.9046350465265 8.689911778356869e-18
0.5767099173627983 165.33475606453936 341.87212219006256 4.164014858040588e-09
0.7176641137297644 165.33475606453936 341.834458831697 -1.1124025500945924e-17
0.4812838023061484 165.33475606453936 341.89840484797253 -8.606802802768431e-16
0.5160452868723642 165.33475606453933 341.905579313434 -2.469233139630255e-16
0.6284966496922179 165.3347560645394 341.89814710993545 4.477181123589495e-09
0.27827492740656457 165.33475606453933 341.88754810033856 4.916764290204401e-09
0.4949680088791935 165.33475606453936 341.93758853168526 0.04920270535814212
0.45244546712029926 165.33475606453936 341.85931802707864 -1.448939545651076e-15
0.5016390574184947 165.33475606453936 341.85862104960455 -3.945881860989254e-09
0.5380555958779911 165.33475606453936 341.9216896211311 0.027097411536232994
0.5784248694158751 165.33475606453936 341.93439609569174 0.06867824155069141
0.430286039353079 165.33475606453936 341.9224594267541 0.052603045336733205
0.737264820526467 165.33475606453936 341.7856683465784 0.0007117788772293673
0.7868604286211434 165.33475606453936 341.8452062295904 0.06487240028958839
0.6303645325496647 165.33475606453936 341.9306645408133 0.03471194365012864
0.5044713018784768 165.33475606453936 341.91536914101084 0.014007679815140686
0.6517412363754859 165.33475606453936 341.82608363651525 -1.3923646842904622e-15
0.6148923433003048 165.33475606453936 341.8438103212683 2.548625461884338e-17
0.6448505083126234 165.33475606453936 341.90230418380776 -2.4973077827231073e-16
0.7284885936804057 165.33475606453936 341.9128984985924 0.008326014669083363
0.772992234766858 165.33475606453936 341.7852701646986 0.022943012447741974
0.5054292661373304 165.33475606453936 341.9412576139406 0.0966632630258977
0.607712200804963 165.33475606453936 341.8927682959001 8.188171376882785e-09
0.7537216670182172 165.33475606453936 341.8774792796198 3.0301439667985264e-17
0.6676570973387553 165.33475606453936 341.9014238131834 -1.1096495094894434e-16
0.6019539235810537 165.33475606453936 341.8047858600472 -4.306416356289377e-09
0.7250620219351114 165.33475606453936 341.85582390795525 -1.8131528350590333e-16
0.7770273851257523 165.33475606453936 341.82863226671 0.04164148206173885
0.46300714089569156 165.33475606453936 341.8442087076477 -1.4914189039813048e-15
0.7525150403037064 165.33475606453936 341.81276945648676 -7.70610834375344e-16
0.7020476441237502 165.33475606453936 341.8705958835692 -1.9034352110939492e-16
0.3933677640163846 165.33475606453936 341.87735930826193 -1.436935167883921e-15
0.4829826268637242 165.33475606453936 341.8721047918009 -1.3886090292215391e-15
0.7952411296992603 165.33475606453936 341.88378249481866 0.07133690497631086
0.7122917784320012 165.33475606453936 341.85190317810975 -1.5677958139929358e-16
0.08618591582284776 165.33475606453936 341.9462001207417 0.08519875898950183
0.42877254810083576 165.33475606453936 341.89991103032 8.78072746764061e-09
0.322662773276072 165.33475606453936 341.87634466355496 -1.1581199115737912e-16
0.7590456457635293 165.33475606453936 341.90286305423115 -1.4410356627279643e-15
0.6876188589435945 165.33475606453936 341.9278406128483 0.05460516356529126
0.752578056867449 165.33475606453936 341.8899564771647 -5.566427838710273e-16
0.7061839452210223 165.33475606453936 341.8822043849409 -2.599670008474482e-17
0.6890082933867058 165.33475606453936 341.80111568821815 -4.202098604052207e-09
0.6554575048380338 165.33475606453936 341.81412805337476 -2.0070713440488445e-16
0.5173369028431519 165.33475606453936 341.8469409615574 -2.934981448738595e-15
0.24272085853170927 165.33475606453936 341.9313443323975 0.05865583213251339
0.7136373590617944 165.33475606453936 341.7903295300299 -4.1008835000729795e-09
0.7937376961467265 165.33475606453936 341.78273551238254 0.0713660538273413
0.6296741893317526 165.33475606453936 341.85060151532036 -1.3380239527853358e-16
0.7516999510641885 165.33475606453936 341.9392424978711 0.07766248496808757
0.4901042217239426 165.33475606453936 341.91286852812266 0.012959864929892479
0.7547820711226969 165.33475606453936 341.9229314448962 0.036314863111449804
0.4050862004496502 165.33475606453936 341.8680381288663 -2.18538892132338e-15
0.29498782163816245 165.33475606453936 341.92123913014655 0.03232642700545845
0.7814501386697565 165.33475606453936 341.7951599797799 0.06375089620718698
0.6382811889000167 165.33475606453936 341.799486410761 -8.504146332497516e-09
0.6593533454866545 165.33475606453936 341.84378658647995 -6.111112065525589e-16
0.3258183806374382 165.33475606453936 341.90600588187675 1.424388808776247e-17
0.7837036729416156 165.33475606453933 341.77238391426044 0.07149362176115978
0.734594980037522 165.33475606453936 341.79770172500395 -6.333836435443437e-16
0.37058527108274786 165.33475606453936 341.9465989629755 0.06912527877725935
0.19354731048299792 165.33475606453933 341.9054752178028 -9.239699311133568e-16
0.3407651854771919 165.33475606453936 341.892807235791 -7.027591441119077e-16
0.1273068501211772 165.33475606453936 341.94575232208297 0.08874594127395802
0.5114944646588712 165.33475606453936 341.87807044672644 -3.888793594571312e-09
0.5593376285674614 165.33475606453936 341.90642986091177 8.949050370365418e-09
0.21626714644503447 165.33475606453933 341.9219664713502 0.028060316439651668
0.36865222269970443 165.3347560645394 341.9110390393779 0.01794316192344412
0.5453626283142486 165.33475606453936 341.85381138634955 -4.758851566941767e-09
0.619907858468531 165.33475606453936 341.8650140748482 9.242545887549987e-09
0.2901723861041898 165.33475606453936 341.9340044263246 0.08968347501320703
0.6362544988197045 165.33475606453936 341.81986935231777 -1.3126670180490642e-16
0.6263829543033297 165.33475606453936 341.8080067130502 -2.0249774041797282e-16
0.28942427254121506 165.33475606453936 341.88466695655177 4.716585259734578e-09
0.7504655905732338 165.33475606453936 341.8632671308146 -1.3341954608963883e-15
0.7851179359734571 165.33475606453933 341.9423648826357 0.09577642994241525
0.7012519186988184 165.33475606453936 341.84353576550234 -7.943307310729588e-17
0.59232860380181 165.33475606453936 341.83738850584945 -4.083946194540715e-09
0.7672721267302649 165.33475606453936 341.7993432320579 0.016688973417296072
0.7520524221351181 165.33475606453936 341.79693193599155 -4.219074450134384e-09
0.4040336239965257 165.33475606453936 341.93794502804246 0.07699162224232718
0.7400466661950558 165.33475606453936 341.81407906626225 -4.733980542406773e-09
0.5628009153086817 165.33475606453936 341.877855691033 4.932439289427684e-09
0.6680301194768722 165.33475606453936 341.8668833017963 9.628426352878029e-09
0.36901351147443856 165.33475606453936 341.866584941224 -6.0834929073554825e-16
0.49885037261581233 165.33475606453936 341.8739454040008 -3.8787474757668375e-09
0.6849613381019629 165.33475606453936 341.91513149389476 0.019092001413365183
0.3486917679721809 165.33475606453936 341.86271863231997 -1.8138901980320975e-16
0.514152083992594 165.33475606453936 341.8638819442514 -4.136410210322169e-09
0.5983137303719845 165.33475606453936 341.9034501434704 4.356287820498911e-09
0.6530575707624411 165.33475606453933 341.9462180211676 0.0637655590850918
0.5839427117153202 165.33475606453936 341.90961796889525 0.00022061020126060398
0.6193818858491826 165.33475606453936 341.9413520101989 0.07702931770188215
0.5806677947233789 165.33475606453936 341.92200875600366 0.05228238087794277
0.5477303874132795 165.33475606453936 341.86698457008123 -3.8920692658194995e-18
0.5592515148602285 165.33475606453936 341.88837156723275 4.0702179882019744e-09
0.4834467214994291 165.33475606453936 341.8858488370832 -4.135275810548345e-09
0.5197146022053306 165.33475606453936 341.8300735697215 -1.1872147067330246e-15
0.35192059942622816 165.33475606453936 341.9318392219213 0.07090855720250165
0.5904926970549136 165.33475606453936 341.8030328069039 -4.427553867007163e-09
0.7096361458007284 165.33475606453936 341.80126191716903 -1.766065385930056e-16
0.47713504684147 165.33475606453936 341.829080432472 -1.321596885173764e-15
0.43539902069289504 165.33475606453936 341.8908567971415 -3.0271009387738554e-15
0.4717524142730909 165.33475606453936 341.88172150616356 -4.14540487870005e-09
0.7874474772475779 165.33475606453936 341.808750530541 0.06608052833597852
0.3196209899712487 165.33475606453936 341.8966827618748 -7.524104027187158e-16
0.5336931955289563 165.33475606453936 341.87375027341136 -4.556199671001688e-09
0.5002873662749784 165.33475606453936 341.89541629627513 -8.848912093246843e-09
0.7747106419717769 165.33475606453936 341.8993127025294 0.037830061615907434
0.46348022939688593 165.33475606453936 341.86285667535606 -5.778499163162901e-16
0.17987867318861867 165.33475606453936 341.93754360308225 0.07967251953753916
0.5782069157328856 165.33475606453936 341.8077518124924 -4.214518175750295e-09
0.44574828759363794 165.33475606453936 341.8982835718441 -1.1909307752940985e-15
0.7739119839771214 165.33475606453936 341.8505835764645 0.0349119799980308
0.5360538491631506 165.33475606453936 341.8616583880712 -4.229054224861131e-09
0.6771578297877892 165.33475606453936 341.8033561561772 -8.159895741113383e-09
0.5706149888775737 165.3347560645394 341.8927154908704 -5.807365009571724e-16
0.35257454501000546 165.33475606453936 341.9104936131976 0.0005242730940576282
0.526759220766741 165.33475606453936 341.8993935628128 -5.694213530144375e-16
0.5358722285918307 165.33475606453936 341.8864741374305 4.431701638908025e-09
0.7659436066193465 165.33475606453936 341.76160689090904 0.06882420463573502
0.47005536099426937 165.33475606453936 341.853688422417 -4.0234676433921695e-09
0.6105095068566955 165.33475606453936 341.8762438364774 4.383513433420372e-09
0.19991182048571704 165.33475606453936 341.9181066711123 0.021695438136838732
0.6879450222791799 165.33475606453936 341.8511788231052 -2.6329499399836307e-15
0.6906473717174111 165.33475606453936 341.86366563255365 -7.879686262011583e-16
0.7201832966058777 165.33475606453936 341.77661641871845 0.03307038633319207
0.7217637407814872 165.33475606453936 341.82115316616563 -4.440097848057197e-09
0.5951856580899082 165.33475606453936 341.818525620507 -7.628681257738863e-16
0.655231148941026 165.33475606453936 341.90886519468006 8.861118463691164e-09
0.7035946014905203 165.33475606453936 341.85865500978366 -2.1091197179929778e-16
0.6989953680416712 165.33475606453936 341.7768530846735 0.03848661987295069
0.7259260484849592 165.33475606453936 341.93470991211615 0.07192928330796809
0.12636512890357143 165.33475606453933 341.9258794266893 0.06845620085581329
0.565454084756425 165.33475606453936 341.86574851670525 4.481982913762321e-09
0.24786354459838136 165.33475606453936 341.8863383446103 4.357325947175045e-09
0.38432486987953723 165.33475606453936 341.9289815891569 0.06920014501958585
0.30071766493067803 165.33475606453936 341.8779187206682 -1.8364785991653857e-16
0.7897426163701953 165.33475606453936 341.8699968662108 0.07127624412885704
0.4487621900882156 165.33475606453936 341.9095586549357 0.002160217421786412
0.743882940151207 165.33475606453936 341.8254025422809 -2.048117195417561e-16
0.41583719125606655 165.33475606453936 341.8768943804647 5.063989191089173e-09
0.5925240692344189 165.33475606453936 341.9238522209029 0.07057256735572896
0.3034594663565099 165.33475606453936 341.9364897239345 0.07285315904110815
0.7632105190530826 165.33475606453936 341.93157410307714 0.06808557385447198
0.4724863646408025 165.33475606453936 341.9067708490946 -3.3443809452517764e-18
0.6748552096969798 165.33475606453936 341.7850125450001 5.116359263499767e-05
0.37641504716089247 165.33475606453936 341.90330722200713 4.378667309554855e-09
0.7910308747537613 165.33475606453936 341.8303847815598 0.06271266634500608
0.6498185615489906 165.33475606453936 341.8750204179927 4.219227340262006e-09
0.4156741175038063 165.33475606453936 341.8922448402722 -7.284381607584264e-16
0.77876394585211 165.33475606453933 341.9180551865611 0.058857033691356926
0.3906074674574015 165.33475606453936 341.9136144983856 0.023070263575837656
0.6477458805650298 165.33475606453936 341.9262216411058 0.03921453333724588
