x y z curv
0.269496986346653 0.02027943919073616 0.8290040552665043 0.23812166293459433
0.2698896226917141 0.020116805108565193 0.7303943559405518 0.20396110340820345
0.26983701038038926 0.02013859767838418 1.020562155384886 0.13870945054840103
0.2655597932388291 0.02191026576977086 0.6281845898841281 0.19072897443356635
0.27398388095334036 0.018420920499495824 0.5178521532421712 0.2080237185647909
0.27400079785558545 0.018413913341589008 0.6128775889364989 0.22307983733424605
0.2717928739678878 0.019328458516776795 0.3345630249199003 0.21465112415609236
0.2733232298691682 0.018694569090771447 0.8437354303618753 0.20924207734681366
0.2697358516976982 0.020180498663150442 0.05048082524018906 0.16084660794607467
0.26924646589327034 0.02038320738365421 0.06322743048153458 0.16728875169712923
0.2727881841255585 0.018916190635811774 0.16418560472879426 0.2292212331368301
0.27136612491749396 0.01950522243840846 0.20696935044033976 0.22328661524209703
0.2690815001573953 0.020451537917444983 0.1379230927661446 0.2020217263588558
0.2739626770176552 0.018429703391507617 0.36061170069395904 0.2297134717881266
0.2659646011342581 0.021742590104089923 0.007677254937457098 0.17781260280996936
0.2737095794366598 0.01853453905764664 0.7821543789823582 0.20678902980950523
0.271183478525095 0.019580876485119338 0.02496022531880765 0.15238209080551887
0.2742446245557895 0.018312917771272433 0.3467869515120031 0.21372385614035164
0.27489799775251034 0.018042283757125726 0.37531199597264603 0.22831817723332856
0.2674968894910563 0.02110790023479037 0.10906590189267729 0.22616149648491024
0.27313105762906265 0.018774168843268733 0.03840843308575495 0.13216831298835657
0.26966864492710774 0.02020833641069506 0.259144329320311 0.22792797347949953
0.2824960004636441 0.02110502221733534 0.18155120341844638 0.22594027628362306
0.28079038519526217 0.020398522150710738 0.46162256416206243 0.21680852409861734
0.2817015891171827 0.020775961098097828 0.41333216255746674 0.2004151352364697
0.27996424147692966 0.02005631684634742 0.30729263696463366 0.19940111145867379
0.2825772719094005 0.02113868648084541 0.4722826091932758 0.1999253903456712
0.2839157608224827 0.0216931154448672 0.04118216977747121 0.11244889718393408
0.28005850958841216 0.0200953645895739 0.06798204029986087 0.18609661884303175
0.28260835181457955 0.021151560401175912 0.4338805104164886 0.18489815965550735
0.2819753553580574 0.02088936056807388 0.10027996541735755 0.22597027075191262
0.2830085217892565 0.02131731883393116 0.6573058572766719 0.203035396951283
0.2842296028274895 0.021823115100450298 0.34278780647722323 0.22298299013083908
0.28327717077904246 0.0214285986358307 0.6953974292741343 0.175841972543548
0.2840794525960809 0.021760919861898938 0.5150612758335802 0.20494921876753772
0.2846944939154397 0.02201568231692554 0.14909314050540953 0.24761021406315395
0.2815486369308041 0.020712605233577847 0.013574815026147545 0.11009350212445113
0.2852684323021295 0.02225341911252743 0.7784549342162852 0.1982170925149063
0.27815284824958164 0.019306001426728336 0.24192982801290153 0.23800459746376082
0.2773052765048778 0.018954920203897562 0.21702705925508095 0.2538903445385754
0.28371333370538426 0.02160926607134915 0.5743122819369987 0.22580818643783682
0.2755092043449657 0.018210951077821308 0.9412670131742554 0.23309982027158815
0.27759421100716014 0.019074602672093505 0.27659926961006065 0.24152261193281457
0.27537551780900577 0.01815557543226197 0.07787554444426367 0.20382975895565034
0.2787088783832747 0.019536320264617317 0.6470806418288853 0.2319687209184118
0.2768156238117558 0.018752096233728855 0.547799560815008 0.20779872425402024
0.277495217243237 0.019033597468807846 0.8620823210452784 0.19429684416822338
0.27530791507973545 0.01812757302537758 0.8725385283879977 0.20409347357020177
0.275603856630805 0.01825015795377467 0.6841090319296678 0.19000867516178405
0.28096802122453585 0.02047210255822895 0.8224180534673977 0.2212241798630094
0.27736055295845585 0.01897781682006865 0.6253540744817689 0.21313740455046473
0.2767550072854777 0.018726987652299083 0.19663386813663525 0.21633880162750235
0.28375525618709296 0.021626631204430043 0.9829541546034171 0.21203826610472815
0.28051566175171155 0.020284726188180474 0.5866105250982521 0.21476937112553207
0.2757387925268312 0.01830605110934136 0.3875772112298511 0.2105302944421614
0.27558670737506596 0.018243054387954878 0.8006800226108681 0.23006400113303171
0.27945171548621356 0.019844018297372028 0.7077899123390066 0.19022866765074573
0.2768170342269123 0.01875268045598607 0.7590853639994322 0.20453576591298808
0.2783421168888959 0.019384400294728824 0.9024898317793789 0.20522479257814938
0.2821319872518002 0.020954240641215927 0.7480863589119151 0.2314465330249743
0.2827128512950194 0.024494118012565902 1.0219999551773074 0.12310810518381105
0.2722632711961672 0.0296640955682798 0.0 0.2027715360043123
0.28535195411534864 0.04132130746355826 0.0 0.12670568814616862
0.20093123208879818 0.009997919090296329 0.9874150731527773 0.08147763849183393
0.12633746542883154 0.005831366397986033 0.9891409023717791 0.07199404720909819
0.18983639358378818 0.007071620473364925 0.9886271763060497 0.07087399696005303
0.32084956751523125 0.010660906416432674 0.9871404569451423 0.18499594959636326
0.2927226649190468 0.01091401363522626 0.9870356173172792 0.17422602644311314
0.21330056828364913 0.0081354510339438 0.9881865266848645 0.07603565949804664
0.1471237642965041 0.009626403867062941 0.9875689586007506 0.07720250276864299
0.24613382452816765 0.008446658038044933 0.9880576215250123 0.1295563615066285
0.1005436698671912 0.006221977084157609 0.988979107385556 0.07359868939253764
0.07276027569478186 0.003819996642563922 0.9899740325276822 0.08351212330714378
0.1716619371495315 0.005964353506162465 0.9890858177361125 0.07202938383026526
0.35219806453259817 0.007458954997023597 0.9884667383402244 0.10944021119924607
0.23165580366571595 0.006634684664239079 0.9888081596373319 0.07889435029576526
0.27615173857425623 0.007772445919136743 0.9883368871579092 0.18664186477580771
0.1583807519484996 0.004342556915031943 0.9897575826580864 0.07023625562513533
0.3451006949411623 0.017276296269790076 0.9895997023647889 0.1651025091972941
0.36370665657525264 0.016929327973345457 0.9894559834408682 0.10301935774993923
0.08761804920114898 0.011075728632888538 0.9870313440519257 0.08437847634393962
0.2589625209308706 0.01411254195609248 0.988289232877595 0.18558514194230596
0.30447519141299106 0.014395430518884618 0.988406409116031 0.1854877300008664
0.07392732401676984 0.017240232002449854 0.9895847640613552 0.07395986687150333
0.061791913888603604 0.012910609810537899 0.9877913764556827 0.07445641525038617
0.18065355964607221 0.017640469912532666 0.9897505479740033 0.06255893730438931
0.11267404759094345 0.01431054753662258 0.9883712494458395 0.07549725344065852
0.1553245679140538 0.016192386134770344 0.9891507322432298 0.06879360025482326
0.389571319323694 0.02073558290848302 0.9949474344039881 0.11609167627093984
0.14175390553306016 0.019596765917669227 0.9921980741494207 0.07951216523000795
0.35379608198279666 0.021043975889151568 0.9956919643949149 0.1508466721655613
0.2430173899019654 0.019616120263111554 0.9922447998907309 0.1369007688426704
0.08570169879808748 0.020743138862929607 0.9949656761768177 0.07765518903191165
0.05761817551186601 0.02070329256156541 0.9948694782467324 0.08230461155726476
0.25411009564542614 0.021134936112490142 0.9959115628245229 0.182519270769945
0.03470930032187722 0.021138476053050546 0.995920109036916 0.08642269643202583
0.10416757838279497 0.021910468747491422 0.9977838729674098 0.07153905622013607
0.2332621867123018 0.021874594318297004 0.997697264029733 0.10867356739959054
0.11845064549357498 0.021347507136172474 0.9964247570677589 0.07665219609369624
0.2028399587862476 0.020659361421281247 0.9947634185971053 0.08148608732508054
0.2944432245972923 0.02163876056746239 0.9971279083330229 0.2177400921016565
0.16840731336353745 0.021277791179237567 0.99625644707357 0.0738006737489144
0.012946711445739419 0.019604832092235517 0.9922175477083313 0.10674018562611405
0.39992719554598183 0.021033159579743194 1.000334182219422 0.1491312167168335
0.2195490541984718 0.021939735634437622 0.9981455205709422 0.07499515166578695
0.3237155261845014 0.021346711281868824 0.9995772037158488 0.22483012600840574
0.15393180331200731 0.02110828980139749 1.0001528023628452 0.07838131041912764
0.26915980269881373 0.021765825301324725 0.9985653759977291 0.2601830751145368
0.19102333709699965 0.020864948771817854 1.000740277816432 0.07264265315944565
0.38019981739822395 0.01886440013680426 1.0055700149914877 0.1045970157212602
0.13500338304322076 0.020015520246902382 1.0027909735368632 0.09364758770876906
0.04726179751719994 0.01933249867339252 1.0044399285421104 0.0821115754506637
0.07665009088859831 0.019276833282326152 1.0045743162814995 0.08566551127420417
0.3527321848574675 0.01682693900048696 1.0065864043868178 0.14495592029077276
0.3044194007208468 0.017625759127940403 1.0062555284930952 0.18063729483742272
0.39247135106484354 0.016433009331095913 1.0067495723228073 0.1275760977834949
0.1238182399326195 0.018506767429454882 1.0058906097847127 0.081357603106563
0.28361520480978913 0.013996706581912497 1.0077587029415913 0.20591527669953974
0.01606877037291467 0.01584576265596335 1.006992813275047 0.1438322712341933
0.10412182478124832 0.012151735883924524 1.0085229004218603 0.0951588810843481
0.16076981067008464 0.01305366312389833 1.0081493169687867 0.07883901528719961
0.028504887626010555 0.01357284613868766 1.007934268376344 0.10779453468550894
0.1990583951619316 0.014360386006710173 1.007608064830992 0.08776372045696686
0.21405862300690368 0.011569324547213974 1.0087641385491 0.09590210209841926
0.3929306768613524 0.004633124114851709 1.0063627543603402 0.14021561093213308
0.06901845500660685 0.010522816442308016 1.0088022807053658 0.10168927569629199
0.24618300790981879 0.010718910398676132 1.0088835033475794 0.13556109538125674
0.13248575428725134 0.008656442285514739 1.0080292235281774 0.09649417235473469
0.2251345185644154 0.007528559648158462 1.0075620515173236 0.0834390860569687
0.3673483548833783 0.010957789073967555 1.008982447535024 0.10253387821242797
0.37889812323078464 0.0037223929344889456 1.005985527064888 0.10703897467117297
0.2576059298960651 0.008736907148361783 1.0080625522899955 0.17466961124697225
0.32121015093552013 0.01040744760971062 1.0087544946257427 0.14784559395064634
0.18611464001416078 0.009607875993764175 1.0084233099197535 0.08464909813316868
0.1745321797876233 0.00391842464493567 1.0060667239246741 0.09338277309857443
0.08420104046422286 0.008544610610724628 1.0079829025487967 0.09099131381317561
0.29238200737495473 0.004599501100875303 1.0063488276178492 0.12342715752106503
0.34322522565702845 0.003649860685223617 1.0059554840128728 0.1207485308973379
0.2696663072495979 0.003503202115701788 1.0058947376403664 0.1524224108886167
0.3559887521204975 0.0024079543542232106 1.0038133243898317 0.09406129866140348
0.3172739255428043 0.0009302847855914443 1.000245925165858 0.11189395116730064
0.15967703623406249 0.00252164688102043 1.0040878016075252 0.08545033026142833
0.12300403346507595 0.002981324684883122 1.0051975586706663 0.07636640429775245
0.09375128902039732 0.0027716764572925123 1.004691424592865 0.07878010864580025
0.3306810568108649 0.001431927158615269 1.0014569933574393 0.12499265405321829
0.2075323419619146 0.0030734895320150696 1.0054200636278745 0.08921641293173838
0.3681389131770081 0.0014466938810979574 1.0014926432723077 0.08835429150948929
0.24507112005384252 0.0016831221012032643 1.0020634297775142 0.10510134125909315
0.04804221409918565 0.0029775239534604496 1.0051883829208128 0.09486650193745864
0.10479913973083947 0.0009700724064133178 1.0003419806918408 0.0795137020991308
0.18765058880953503 0.00037026262493515733 0.9988939161215198 0.0737635445088657
0.23325667376749107 0.000927825170298055 1.000239987147051 0.08267543872956365
0.015111511667748672 0.0024479545604733388 1.0039098931409007 0.1351237361630569
0.029879277813512607 0.00033561011831388144 0.9988102578207375 0.10602777969961721
0.21754814611423134 1.2008735205931997e-06 0.9980029249056597 0.08833455240848455
0.06044546308926214 0.002668453429175813 1.0044422229051422 0.08635036603901097
0.13825653651117062 0.00036710120922505866 0.9988862838117055 0.0814016275027596
0.07661965551770193 0.0015592212071590438 1.0017643074550098 0.08669049869009281
0.060531009289835395 0.0024687708549164683 0.9920398578548977 0.0831877750953915
0.03848999331743914 0.0026185986306382094 0.9916781399187216 0.0775221374221738
0.308432157335813 0.002841927705065154 0.9911389733222695 0.15835911090528776
0.08792524823272803 0.0016148127938865808 0.994101504608504 0.08616096201995797
0.008188918022600586 0.0016529712185806243 0.9940093815921838 0.11906594583212814
0.11553454541220565 0.0009346455367732711 0.9957435812882954 0.07383241038293738
0.28544950368538063 0.0030102329163143424 0.9907326467024722 0.12221998036331358
0.2644893945585594 0.0005294662654964538 0.9967217751450863 0.13679155562243756
0.14965259926886068 7.456394848619164e-05 0.9978200116134454 0.08632807434148598
0.3980322828941169 0.0031855830793061706 0.9903093119852608 0.11184340211500171
0.20036907540575288 0.001085198079210503 0.9953801136023196 0.0926270462243557
0.3862638585429637 0.0005627375598001669 0.9966414507602953 0.11392438958639706
0.3380289101010929 0.0024938338000017597 0.9919793502705926 0.11946586573950686
0.298111471801246 0.0007830232221035496 0.9961096316449558 0.12974602650288294
0.40000000409781933 0.015203724381187764 0.9898402509679372 0.13017598969826086
0.0 0.003502632693428695 1.0043868081677285 0.17088115309805904
0.0 0.01557260351892005 1.006332722305284 0.20811425597085914
0.0 0.02038812599271743 0.9968011297388919 0.14277578939441193
0.0 0.011699298443863521 0.9894971694871713 0.13329137249507586
0.3747823139542641 0.01267358667255794 0.9723327950083772 0.08330633759516494
0.3888829660741749 0.0056340594208008745 0.9822819694426532 0.09816062830188975
0.383467984131861 0.01086892010472398 0.990735041465957 0.0957566053246444
0.36988968987825355 0.0012483518187849057 0.9889766225710278 0.08141684086110533
0.3778333896950148 0.0 0.9727263847236931 0.08583199285766376
0.3746433690156845 0.02200000174343586 0.9781658597420451 0.08426991208552588
0.021506309390228115 0.010092324329947538 0.9712045167493766 0.09886999900524689
0.029384469706356765 0.009466791548069418 0.9899412064283852 0.08404607506673614
0.02729922065619269 0.0 0.9839647428970897 0.078136551152703
0.016976368824470303 0.0 0.9797311424444641 0.09876047537200129
0.02353294864672137 0.02200000174343586 0.9902130069696548 0.08800662420789297
0.025764826090250673 0.02200000174343586 0.9777345916161584 0.08096062162584168
0.29274621588540084 0.010637519343822156 0.9551501416452286 0.15070879724471714
0.033679449672506606 0.00643474067211426 0.9568910082456394 0.07163766965446958
0.14606741327099734 0.0071807011444379315 0.956582017986353 0.05462167515292347
0.06967038777180555 0.005492752423986674 0.9572811967393102 0.06693654798552809
0.15896538317127248 0.010995016493455839 0.9550020598888115 0.05131501377559989
0.04767751128987039 0.008668102162212771 0.9559659097028756 0.06896004548346553
0.09191085870866503 0.003946429733395266 0.9579217114406027 0.0691736928390172
0.32447321483548985 0.0053475694096968346 0.9573413341579721 0.1304126089543894
0.19202071503304782 0.003292695432650556 0.9581924999590108 0.052140457247339025
0.1277119918496597 0.004892411675466873 0.9575298686869906 0.05475014995327826
0.23616483886286688 0.006809431645136898 0.9567358044979852 0.07451379807498541
0.21796220444146355 0.005075070947507126 0.9574542079275767 0.062090324292959236
0.24931273459355127 0.0041402465763668945 0.9578414290144075 0.09985564246105658
0.16791128438795364 0.005666912899241489 0.9572090563345528 0.05591715799255119
0.37836910368591375 0.0061716358320526 0.9569999910078184 0.07000392574436254
0.3544717702255806 0.0075768683389938404 0.956417918401042 0.09607650899342926
0.39255423509855525 0.010333100085792366 0.9552762375832312 0.05796216022457859
0.17698486750232842 0.013951250417517597 0.9562224411284314 0.05038714820117882
0.34264056383899666 0.015179868170185084 0.9567313605018882 0.16146029686077815
0.2613700931275603 0.011801902598013283 0.9553321359515214 0.18890452864090126
0.28038256547487345 0.011884748948727868 0.9553664526564586 0.19305831547481964
0.373292841736294 0.017366171151116865 0.9576369732857075 0.06520806804059276
0.3062325143840162 0.014813940379212036 0.9565797854967997 0.17266474648869456
0.20109686999538334 0.013618226740389865 0.956084495700944 0.056994695410149496
0.23783315163836655 0.01779065843849762 0.957812804868692 0.09526290300432678
0.010364992506031893 0.012342325379567434 0.9555559904602107 0.0765530411713044
0.2512330254637923 0.018290712450929242 0.958019937782203 0.1423416378066872
0.025842671398359763 0.015061350466939422 0.9566822679707505 0.07778312677637193
0.0808096442947732 0.014998519431561512 0.9566562420313656 0.06615640720612001
0.11913992853744176 0.01907573245149727 0.958940231073258 0.06286223954016003
0.19252611897178748 0.01914836273500392 0.959115575563338 0.06406882423381428
0.3627010197114167 0.02056393551806933 0.9625330603346203 0.12477200496257936
0.05244408964133754 0.01909464170164802 0.9589858819046386 0.07381762239040716
0.3842001526261283 0.018932800088606958 0.9585951628582254 0.07656503986466785
0.2976803422192845 0.0200125212134368 0.9612018324307692 0.1817945454778254
0.22199760147123304 0.019493996001797718 0.9599500055833603 0.05759801059740916
0.08913739426203171 0.020079635993586985 0.9613638613577413 0.08023997131763769
0.20750625925400706 0.020595846752178185 0.962610100637955 0.06830193822911412
0.1800052833162742 0.021632374006392313 0.9651124912947073 0.06693321120623848
0.1292286506101554 0.021068605872378774 0.9637514386977838 0.0587991695945856
0.07513400945014649 0.021736505874199126 0.9653638871089616 0.08398428191726402
0.164278044917746 0.020253613670124633 0.9617838793654505 0.05082847993954843
0.10127194806855015 0.020596115786637084 0.9626107501426482 0.07357296859139045
0.013923865193326371 0.021393404232325296 0.9645355689538423 0.09013696715267981
0.0634452785628535 0.02135606241007404 0.9644454180902469 0.07652592860654255
0.2533751683000318 0.020808788850412895 0.9688758542088853 0.1780261261327725
0.3517826247781615 0.021820867058420693 0.9664324885942094 0.16805487657732288
0.284124760214847 0.020456875876166195 0.9697254447383814 0.20613871574013054
0.14017979312289755 0.021976937289707246 0.9660557028541521 0.06854936500669838
0.2319876224813528 0.0218716151692827 0.9663099721838087 0.09943387067201205
0.21087216332906686 0.018952883308936023 0.9733563931121558 0.07302768244085128
0.08519060627441614 0.019577385489040127 0.9718487159968069 0.08589788331530024
0.03415454356478035 0.02073364770251039 0.9690572604436798 0.09375291792883848
0.16379813256989248 0.0189671768472204 0.9733218855615734 0.07612412655649337
0.04418034003978773 0.01911375938064058 0.9729680050817476 0.08646714794382807
0.26142571314663376 0.015739181545322715 0.9750369778272643 0.18402013675454368
0.2228330501231468 0.018370202701744033 0.9739471735618939 0.07106150874761509
0.29355070557830154 0.017672552257137597 0.974236149736948 0.204761209445739
0.18706592016816664 0.01819034424996862 0.9740216733459146 0.06997256526364305
0.05598624651139453 0.018504599999636273 0.9738915043977976 0.0808109934496959
0.19908378119413403 0.015761089497391863 0.9750279032595619 0.07930056188601449
0.38681454463789655 0.017891198702247695 0.9741455834456404 0.10141320096341905
0.30601451524569695 0.014636946157285897 0.9754935385145066 0.19366398774112278
0.36487472659766584 0.017044601997306088 0.9744962551602492 0.09667928014677742
0.2406383768565235 0.016186453374780408 0.9748517118341218 0.12144511073664133
0.39991873040709514 0.011725754553951244 0.9766993931382453 0.12284775659893701
0.09645151699392293 0.012455544828229569 0.9763971042144965 0.08181394197325376
0.0753864910262856 0.011665927434199034 0.976724174333992 0.08188224140969276
0.14442058363670832 0.013378980583840185 0.9760146047340937 0.07174351197730826
0.2780812220596641 0.012687534153503079 0.9763010111231939 0.21151909843886813
0.011411132776852184 0.012909396639262138 0.9762091127046975 0.11382186459584712
0.1108358242201333 0.016209982867373282 0.9748419656025771 0.07691825663423474
0.1270764563576041 0.01441735207763124 0.9755844973287577 0.08133895401364498
0.3619500058126011 0.005259161322282319 0.9746220710162179 0.09677098196662895
0.17302133372329126 0.008231805287281131 0.9758533708920006 0.06863775108588206
0.34597717113159177 0.009640311007403948 0.9764367885291771 0.17826305695392944
0.3281328488546299 0.007110766028885579 0.9753890248364815 0.1585314485310595
0.15763179418845716 0.008757006531734552 0.9760709146795079 0.07788814021397883
0.04830195853929312 0.004962311365698137 0.9744991126939392 0.08338506389375877
0.03479075600681384 0.007543676065165641 0.9755683406510134 0.0797088951690785
0.2417591909380462 0.005718442464603459 0.9748123100156232 0.09146814396670878
0.31739858382513575 0.004780243395780509 0.9744236982577056 0.1500363742858991
0.21134142816893658 0.0036808319176829143 0.9739683106524778 0.0766811031190968
0.10543032000458474 0.0026329654925329946 0.9723565424587062 0.08534985585603877
0.2524792053027682 0.0013764230480096922 0.9693229897371506 0.09905298236395442
0.22233224991638836 0.002985180532050306 0.9732068622360901 0.07583522525697854
0.3965099266181398 0.0012323294868623325 0.9689751181499373 0.11870755525704624
0.18627678518387233 0.00207993138657152 0.9710214040202358 0.07322825651969055
0.30270912033717184 0.0029442099970985024 0.9731079509113287 0.1447648058606839
0.2652254528591359 0.0024498879969588484 0.9719145556102913 0.09667448434456288
0.1359747251015353 0.0016427162585894728 0.96996587649136 0.07715597742179
0.32956938193188734 0.0004167787288655947 0.9670062103487955 0.11440918244767781
0.05923579391648771 0.001856439148715334 0.9704818476452401 0.06756613134353197
0.14746502098691733 0.001845304864966614 0.9704549671869511 0.08219429558388625
0.07086543772540899 0.0018099942639844355 0.9703697201105981 0.07723219059049599
0.20412587851742336 0.00018162423377017164 0.9664384988785687 0.06651328225906988
0.08990355786464045 0.0015427636240516163 0.969724570208512 0.07751891654430106
0.03639591840495453 4.688821569039576e-05 0.9661132183310481 0.09274850235412627
0.012970178508687081 0.0020544266092028082 0.9610402107826893 0.08273787665747674
0.11693090133410297 0.0012749525861815657 0.962922021901943 0.06662476385528841
0.05709390907852848 0.0031261945501697723 0.9584527418369588 0.07112899121203244
0.10394207047137707 0.0026563765830469504 0.9595869793464142 0.0703470147392841
0.2790238858943516 3.173465059957952e-05 0.9659234065096887 0.12271030678129974
0.3093921634735799 0.00045540646871566664 0.9649005753251996 0.09454386153739298
0.3445214126975783 0.0022101461512836146 0.9606642716787319 0.11820655302466157
0.3637422285656212 0.0012631085691835442 0.9629506158027339 0.0887805702599671
0.2919329997110311 0.0018007736467347856 0.961652581369914 0.11753855392891785
0.0 0.0009225813797457766 0.9639700481451651 0.1401034050985968
0.0 0.01044216090320569 0.9737521162899438 0.12550192916885458
0.0 0.018393697217079435 0.9603010807827315 0.08232049668616388
0.048547718740276836 0.009257160106221808 0.9077219198748082 0.07657028985491962
0.14771259491305405 0.008667102001822486 0.9079663280445069 0.07747439162733501
0.09933592670464206 0.0035698485199136564 0.9100776631566182 0.07918880663591639
0.22222811369294893 0.004142997380150603 0.9098402589707404 0.06428199309326203
0.17022421316440914 0.004227584591885433 0.9098052220727707 0.06874627976977786
0.2830811026827855 0.003732316319936536 0.9100103673134757 0.12149721660349676
0.5310448687923797 0.003276361015319771 0.9101992287165053 0.07807976533607976
0.12109578093922099 0.007215223611290299 0.908567711090362 0.07830525170580192
0.07991492183596492 0.007827805284429466 0.9083139734255343 0.07576191530253266
0.2072794772529297 0.007481676045341246 0.9084573437363124 0.06437808191883876
0.23430384355416675 0.0035211439683798923 0.9100978370856052 0.08366600335282037
0.1834125807100566 0.005399048809758687 0.9093199894775004 0.06777300956341387
0.5117655687941028 0.010338767920059251 0.9072739067314567 0.07091384571311682
0.554444265631116 0.008963932044599426 0.9078433779707331 0.08358393146357436
0.39080761272972514 0.010661395430667867 0.9071402710796889 0.06972198331103144
0.45599496394779515 0.006782694321305563 0.9087468691958402 0.06383600262837115
0.4116747432207595 0.008046821618906014 0.9082232545945506 0.06482991554883734
0.4714334995991646 0.006628141803896966 0.9088108864470578 0.0670949445988091
0.3131670813497889 0.009498667608793898 0.9076218849693775 0.1924927937745826
0.2527099646981643 0.009069460273150844 0.9077996670870092 0.15927803309315777
0.2940187903775882 0.007717380984517859 0.9083597123126548 0.1906613882294413
0.06327040961056983 0.010410964091710202 0.907244002330448 0.0831161435043267
0.33001244138012015 0.01029615074046099 0.9072915592080275 0.2103378188300163
0.49917111688198146 0.007538007035431112 0.9084340108575966 0.07988120492523423
0.37631038839101794 0.013883250801231014 0.9081942740939808 0.07504669104866754
0.19362196139543678 0.014010206282593673 0.9082468607578178 0.07217745454654201
0.24041321674610755 0.01488544848876136 0.9086093978233926 0.12311382173740909
0.0938680761463989 0.014204297718749457 0.9083272560349436 0.07934255915865683
0.3536201645676451 0.011908279643697835 0.9073762145408637 0.13659661878527443
0.0025339528355240977 0.011654903668960409 0.9072712628123922 0.11931524303783556
0.26707249810638 0.012608724846669622 0.9076663483423324 0.195834959637993
0.43800037959606336 0.012598176650134425 0.9076619791377943 0.061142678844586705
0.4665786927753679 0.018685121646121804 0.9101832734282309 0.06526674229861176
0.13914181036845066 0.01833602578742145 0.9100386732394767 0.07726305612960274
0.1677872532882801 0.017325454425685543 0.909620081021853 0.07101909830125162
0.3406197599511572 0.018562675487724428 0.910132554586471 0.18340340756430398
0.5415422861953318 0.012943199897762516 0.9078048923963972 0.07697610999760487
0.5959755054741427 0.013248845984052179 0.9079314951064208 0.1187523999617756
0.2929067487734577 0.018747538895326606 0.9102091274903505 0.2233444356323743
0.4212730058819626 0.014711044375337741 0.9085371572995018 0.0634651367297072
0.561266693339113 0.017595841955131402 0.9097320791645414 0.07468265310152783
0.485906704973886 0.013404992798484651 0.9079961732120974 0.07609936616806495
0.5242089879255438 0.012569092578369613 0.9076499321250266 0.07140140028261074
0.04525396660298601 0.019412104575180604 0.9117522651128387 0.07857960585455445
0.3046819146449593 0.01903622503447943 0.9108448143469365 0.18881972442788952
0.22251482483685386 0.020289721865748803 0.9138710143297004 0.0709421081963222
0.07285583958093965 0.01885977743798233 0.9104188334428305 0.0792903773454816
0.02488527091830027 0.02035035723552625 0.9140174006231461 0.08646539087186678
0.11395909243251101 0.018835656953157556 0.9103606016157209 0.0705026016661123
0.057716329238821355 0.02160056014559387 0.9170356484004992 0.0845876329345263
0.18224082553548776 0.019452630992378046 0.9118501042457067 0.07556014934965144
0.39703419348845403 0.019223832838722588 0.9112977382952101 0.07655242233458477
0.4110141531581819 0.020535300934600216 0.9144638928718606 0.06409935775110495
0.15042987055131182 0.021395967085105126 0.9165417185391069 0.0741793825311916
0.26662292517123787 0.021805394687003602 0.9175301612466591 0.20438738826737002
0.36166494507879854 0.020692612937898765 0.9148436765057677 0.12369151044256418
0.5130488460849658 0.019685771148366022 0.9124129526857128 0.07801930465709946
0.5480541344454941 0.021792354503144512 0.9174986795522622 0.06506513127544442
0.4577666005248924 0.02170274820249439 0.9172823514541621 0.05839379816591405
0.3845400502033201 0.021950031475168535 0.9181206213717485 0.06890133044722732
0.12211239711080582 0.02114637282079377 0.9200608191810673 0.07850800428879814
0.0893792672023778 0.020869399598612982 0.9207294896868721 0.08380196495341388
0.4995181176542439 0.021681416688828344 0.9187691128888508 0.07115384462740502
0.1718855667962714 0.020289598527892985 0.9221292491010562 0.06320983953267298
0.2423476789911935 0.021700484258833173 0.9187230798406767 0.12761815096572918
0.21357947010642397 0.021373922250013673 0.9195114679090056 0.06346750806233681
0.3732053554720308 0.021154761591438455 0.9200405669578888 0.09737505351193532
0.00086103779623871 0.020798594196955622 0.9209004285356428 0.07865337396034627
0.13425924162856265 0.02164421058413948 0.9188589361022483 0.07685471792419173
0.11013737155126044 0.020830078268663572 0.9208244194904797 0.07506585141450278
0.3562585017563977 0.019126368166828726 0.9249375272002025 0.11878274857500692
0.39489673860491925 0.018898770446642007 0.925486995056622 0.06541287477433137
0.4246097565246345 0.01924938319378986 0.9246405435436165 0.07716882756960827
0.4466622360599993 0.020023460000500048 0.9227717624181372 0.060266237158881894
0.47689575544055973 0.01891206125564946 0.9254549083014056 0.06196335228366233
0.5695797003365675 0.01991497345223104 0.9230336713295216 0.0860889955292836
0.19150880531871156 0.01936264216036638 0.9243671130297517 0.0653117375004666
0.339128307252183 0.020234648753012754 0.9222619091953199 0.20550125087589627
0.5285244592569022 0.02158940544528721 0.9189912470152979 0.08484737802250178
0.3062481204417833 0.019144115156928036 0.9248946823043935 0.21392184199703176
0.5399556783924713 0.01929629299887599 0.9245272935953103 0.09192370197451497
0.3161448044184471 0.01565103445216344 0.9270734758293924 0.19941622603418363
0.2330034612168835 0.015826563908779026 0.9270007678281527 0.07787329600621548
0.0608312444181632 0.017193859553981755 0.9264344051481601 0.05849718420800278
0.29254504464555325 0.01562910967557119 0.9270825575340498 0.19581195358910675
0.09954737490059119 0.018457502080053045 0.9259109777752075 0.06072410868979225
0.008670242091516747 0.014843397451823271 0.9274080161006049 0.06213894256812161
0.0794413806421921 0.01867277403515393 0.9258218075932897 0.06481706375659387
0.1433292518925268 0.01608220171268937 0.9268948772607117 0.059833192464424846
0.1294751658403381 0.013228510910172664 0.9280769361493315 0.06229709783934739
0.2717674672913814 0.016795558769120707 0.9265993897297673 0.22734646529931396
0.2520533510530668 0.01639493934631163 0.9267653347400913 0.17343236943692258
0.04738087649917894 0.012621224455626025 0.9283284870009174 0.05976834382618216
0.01967985144774474 0.018754740123652806 0.9257878555115189 0.06394770095581273
0.5300752606176024 0.014063610751291526 0.9277310201905287 0.0892287617080417
0.5160655018375907 0.017125848305266603 0.9264625768411128 0.0874087177708342
0.34690915944931877 0.012159404676677655 0.9285197824889095 0.1523083423645422
0.5582422636537688 0.017076326852249385 0.9264830896709066 0.09577122159220715
0.46475096308537006 0.011128826506682628 0.9289466696923816 0.07489688520598814
0.5890742713471353 0.015540833730530808 0.9271191232914171 0.1338364404404132
0.2621355357980196 0.011039182389340589 0.9289838021755584 0.13885174535682493
0.44992330323937896 0.011568785793623982 0.9287644292810162 0.07182157054954452
0.3349272315776788 0.010693654862178704 0.9288731140351021 0.22926376868910306
0.20157182807748028 0.007970830796712819 0.927745271280433 0.05772140136668068
0.15703180676373235 0.009605159046976756 0.9284222394691566 0.06581349815820435
0.5004214613933277 0.009882063920991477 0.9285369384538802 0.08264200275618426
0.48496671296415783 0.010160759102005376 0.928652379015999 0.07641593113721352
0.4017809249332016 0.01018072846356978 0.928660650685124 0.07260269129616409
0.21365840379530537 0.006388207528534688 0.9270897202262813 0.055853433638188
0.026995003948452768 0.006947193944149631 0.9273212624646529 0.06576112848421047
0.17871483497379606 0.007499338567554727 0.9275499707094987 0.05547197790518624
0.1682793488877946 0.009884349314641456 0.9285378851050805 0.055819982396292794
0.11068343677775529 0.00798801909428736 0.9277523909827781 0.07007854816155337
0.4392991081400183 0.007520000626664359 0.9275585293064198 0.06741902693209895
0.22570380537193221 0.006118391390916989 0.926977957523812 0.054286961750282955
0.4184214020439904 0.00660728734614603 0.9271804670314536 0.07224937481057585
0.38125288657262796 0.006724534708438494 0.9272290330000532 0.05994165558554855
0.5420008494702199 0.008605960961701362 0.9280083536308278 0.10564493004471763
0.2737502194699223 0.0033563959719121795 0.9258338892891934 0.13309571519208016
0.5997102946959638 0.007467390061132405 0.9275367370628786 0.17399450695758842
0.23783271041064016 0.004178544065633651 0.9261744378330857 0.0662319307670759
0.5681413666088949 0.006160641739954974 0.9269954583791368 0.08479247429800266
0.24863891612346967 0.004929946404280069 0.9264856822113886 0.10892804651204983
0.3049133779178102 0.006202776871044721 0.9270129115091129 0.15170597317953385
0.05875953880706762 0.0003724447519808174 0.9188991413110987 0.07167599083296723
0.09836123838415939 0.0026094226231850926 0.9242996674444008 0.06793066275440737
0.035909304788404976 0.0018804197608763005 0.9225397041207442 0.06036132169134378
0.08030642841224178 0.0026226678435494134 0.9243316441392262 0.0698644142001304
0.13926202735762747 0.003032955124164935 0.9253221622885778 0.06262124922148732
0.18873884587643305 0.001824162475405456 0.9224038874261382 0.06452996922997839
0.32996301916193177 0.00015762182895898437 0.9183805144508397 0.13126926323096802
0.532702021080562 0.0021902735642300194 0.9232877551337004 0.08689619183939748
0.5597921896896421 0.00041468697389444577 0.9190011227505711 0.08288765636583999
0.5199338472322191 3.65797464145921e-05 0.9180882938891501 0.07807092256505006
0.5794735657230092 0.001665146139806573 0.9220199891824058 0.09944429043869331
0.5930376063073104 0.0007570355624352412 0.9198276228795681 0.1365490429585348
0.477251614767327 0.0023806159876064554 0.9237472810167915 0.07463342647906258
0.1706890467059425 0.0009044782473564383 0.920183579942591 0.06395465893784137
0.40874481314861727 0.0015500240688543913 0.9217420607501667 0.06945927652519035
0.5507127504905721 0.002724982172703375 0.9245786520401625 0.09620160832103875
0.4292843747469518 0.0018417617509308174 0.922446375708488 0.07187024384567693
0.1995420848057815 0.0005231861409662187 0.9192630621263492 0.06524491327238276
0.49587559893289135 0.000936832164553889 0.9202616889742397 0.06449022877670735
0.286673167258295 0.0009165759635354765 0.9202127863255504 0.11263617759906824
0.147673326843005 0.00023499794381540975 0.9185673163569982 0.06477507206716794
0.44254024727443114 5.622236895375734e-05 0.918135715232792 0.07083722330079886
0.5066192573891065 0.0013863203719313153 0.9213468462490616 0.06793314873328882
0.07139527762820908 0.0024002481235081605 0.9122052886241979 0.08589534337239714
0.3488228762617215 0.0012286013492071271 0.9150338856814434 0.11652116407959599
0.3637898131251019 0.0001503838661807663 0.9176369251524292 0.06682847422349454
0.3008601807409661 0.0005033150426207995 0.9167848764727544 0.12087465469573086
0.21431052951926982 0.0002611404331573285 0.9173695359475152 0.0706953123829718
0.3746710918875538 0.0011934313427597568 0.9151187933335807 0.08486959127146321
0.31750975744314175 0.00023607909473897184 0.9174300391893246 0.12853625942538613
0.019324789327208654 0.0003378497684580988 0.9171843437847795 0.08777240103396011
0.11375341754708267 0.0017573994016536064 0.913757258076746 0.07789411316137458
0.2597362463907078 0.0013941239814539304 0.9146342798951685 0.11801467840045005
0.08577609929993842 0.0011511144165441119 0.915220955124652 0.08010408341108012
0.047337594247928945 0.000622734982393155 0.916496572098411 0.0812220253322735
0.38908234199786684 0.000335430645581285 0.9171901840465382 0.07342957206515698
0.13401503893345978 0.0025049072772170304 0.9119526198329819 0.07309658492029864
0.4237153813245621 0.0030728574198881538 0.9105814710042914 0.06605413891522714
0.4846888000505365 0.002965276869338291 0.910841192650249 0.07656188566648221
0.15822090744023237 0.002906681096038404 0.9109826549369711 0.07279863754186945
0.5417988167151089 0.0020197142996776695 0.9131239757898852 0.07890257735696168
0.40036714379366484 0.0027220736589408327 0.911428335379894 0.07648607081237961
0.0 0.005400213418668251 0.9204301399167688 0.08634275490917953
0.6000000089406967 0.020984537669620756 0.9170005879006109 0.10099779831511654
0.02108501524037189 0.009386345194715399 0.8913789879145624 0.0860243986468604
0.012221264100880116 0.007694425797214139 0.9049486444368319 0.0987127013536331
0.013921774230520451 0.019714184280231126 0.9090535995761712 0.09057945253635331
0.03127067311403144 0.00924013041800535 0.9061748566166548 0.0728882740884759
0.031381458899467266 0.0 0.8993203579178216 0.06918646729209393
0.029362312208879148 0.02200000174343586 0.8965679611997451 0.07080832064368534
0.5851383732774238 0.013696584044750049 0.8939568627937 0.09990938397744398
0.5834825768654837 0.009279989884550519 0.9107290121562286 0.09977216623625189
0.5793863967721777 0.0 0.9031988862028353 0.0811420380015943
0.5756502693196243 0.02200000174343586 0.8935941267222711 0.0815229083193837
0.5776427560436379 0.02200000174343586 0.9068508320058998 0.08359090389320059
0.20737388787698355 0.0036794938210881656 0.8780322416936228 0.0601371258946549
0.35878809594771954 0.005645898882220826 0.8772177363791553 0.07462211844408538
0.276036657085976 0.005556901434730798 0.8772546000423891 0.1587040500504882
0.09234196936290548 0.0037299387644926917 0.8780113468763223 0.0696972228783266
0.18759762820094034 0.007828933679368877 0.876313500787471 0.062127841636526675
0.016996037929618964 0.004030934946610484 0.8778866711445439 0.12099249742400947
0.1757549312804073 0.004631191392806643 0.8776380387161935 0.0980730968139137
0.25358680106941933 0.003958333316333976 0.877916743490709 0.09056250856753317
0.1528350139746438 0.0033761995521508067 0.8781578693167305 0.07255035703712612
0.1295546280356412 0.008991167733685359 0.8758320914214115 0.08420496752273851
0.03731852968736495 0.0099634175811331 0.875429375478807 0.08519277620229869
0.2920959597164437 0.0032631457381132782 0.8782046973757984 0.1370174580086824
0.0045720429847459845 0.007927775343965555 0.8762725595476948 0.17250832281373688
0.43488088618769377 0.009289890728434823 0.8757083572673523 0.04722587557067369
0.5458271657146572 0.005826470695745404 0.8771429416663742 0.05550422689981147
0.08018259293775015 0.010696769790278967 0.875125613408859 0.08739882596231713
0.44895061183806034 0.007702614365159747 0.8763658235539125 0.054386698452125376
0.4865492506574953 0.008355405321383791 0.8760954307881541 0.06275063135135378
0.5229347088253239 0.0050076746478286485 0.8774820954580701 0.058260532165574926
0.4069867763049441 0.006039098679731381 0.8770548689562372 0.050206188315194404
0.1638838680262488 0.009470386829907255 0.8756335939152863 0.08182425786685933
0.5880043802538034 0.0066877939227349015 0.8767861726772559 0.08169900620947401
0.23452895451023484 0.009581530675419538 0.8755875569849358 0.07003396834546353
0.42401090687510345 0.00980255341196697 0.8754960070814625 0.049488505341162364
0.3959209687292955 0.009819551452928855 0.8754889663170886 0.04904700997033669
0.26328311891876344 0.009599784218669393 0.8755799961785288 0.14836438094375956
0.3709499901016444 0.010111337041041581 0.8753681057086106 0.056286322085153113
0.5603517286142294 0.008412002867163948 0.8760719874993146 0.06103315165194033
0.1739302546603396 0.015390383132109279 0.8768185432825446 0.10050189574461227
0.05540909887155521 0.015398717991449177 0.8768219956931183 0.07872909739848957
0.015696135205121284 0.015152688479698828 0.8767200869681891 0.1064986799050326
0.21644135671139808 0.011024023571145857 0.875009938565678 0.06282666106339879
0.3817258069703748 0.013590238007293764 0.876072899017951 0.055526017102937246
0.11640902116921154 0.016086893548475197 0.8771070472426051 0.0774683794891489
0.4706823472466771 0.015508616224215309 0.876867517015717 0.05904701883926891
0.2925907820115703 0.015941291166589506 0.8770467367823719 0.1806195552446782
0.5990613229835152 0.017140270530542238 0.877543370122525 0.09440717203511843
0.34140371980926326 0.016536187520250503 0.8772931508342281 0.20720077922641525
0.5049134240474631 0.017544817241902134 0.8777109387984764 0.059435651422585514
0.5155532696404745 0.014256448849100736 0.8763488524876772 0.07016239293476685
0.5342496412577725 0.012967266182626194 0.8758148557292943 0.05845406129404628
0.226664632928976 0.018683271701141885 0.8781825019109895 0.08211621173166601
0.20257829986047454 0.016657058700727805 0.877343217299001 0.05881804585569336
0.5765843876449506 0.01169909175557528 0.8752895608655641 0.06825550969337467
0.3061952268902582 0.017629508671376394 0.8777460191249329 0.20345097174315593
0.026953212457446918 0.020474853653748976 0.8823179554186821 0.0775455338590281
0.45390910159932635 0.018800938063323353 0.878276777806957 0.05424976707959468
0.402581931226231 0.018942386112224856 0.8786182625817643 0.04634524192239652
0.15093770266715395 0.020975080574820486 0.8835256064172025 0.07908831107292728
0.1890112971888409 0.018884360643952602 0.8784781771290493 0.06974170286801687
0.4301684977848075 0.019105829373922727 0.8790128483385007 0.05150802397476395
0.26417162430229973 0.020030943604713157 0.8812462649690298 0.20302344458792038
0.13935129756942996 0.019092720356543896 0.8789812004657847 0.08051914977065922
0.06581640965781695 0.020497328700836724 0.882372214819594 0.07774801801918532
0.5561331344235102 0.018910036074027612 0.8785401629148224 0.0643238311481929
0.1062840898092295 0.019348390011894263 0.8795984397657285 0.08654848327731983
0.5875624866427396 0.019298147089348978 0.879477142984159 0.07955946665268168
0.3511454228170854 0.02122417710757992 0.8841269768429896 0.1676850807639201
0.23581466151723715 0.02144178934978436 0.8846523376952714 0.12648995555355885
0.4946015856816275 0.02163245848643893 0.8851126523316262 0.08259701236284403
0.12200574245325616 0.02195584712102893 0.8858933792198077 0.08042462561167638
0.2793818706506111 0.02106023671931929 0.8837311909201593 0.2168027109363232
0.24724664146757633 0.02181263596020252 0.8855476379290335 0.16589481836412787
0.37387362061853013 0.020768019162655763 0.8830257174455732 0.06808979202420046
0.5429443842983642 0.019836472308321855 0.8807767711345768 0.06464463181426186
0.4440372906198097 0.0204385582368447 0.8822303307934974 0.057077975980294245
0.5683791211107989 0.021304970282450517 0.8843220282370591 0.06071274467115845
0.08892714628185115 0.021540259221090124 0.884890064281741 0.0800140465108761
0.3630157596108489 0.02094215039884171 0.883446106177957 0.10738614164279851
0.04954267536013848 0.021324952688677096 0.8876296852886777 0.07952813436798199
0.1735464620061507 0.021184210923249194 0.8879694649494535 0.0816072577220774
0.016680532306584363 0.0212456727283753 0.8878210834705591 0.09126747199155265
0.07658661538227364 0.02002403843450512 0.8907703607138927 0.07983643941369858
0.18517329868538132 0.020067632805494513 0.8906651149075646 0.07631976778993678
0.13621051994275624 0.020571525672124065 0.8894486135600781 0.07922430939858247
0.11105410676012045 0.019833612787757825 0.8912300875153725 0.0742877205984191
0.31130697456117856 0.021450265194812964 0.8873271550433287 0.19114153422643182
0.3337986984582296 0.021560862510908326 0.8870601503028996 0.22645330233009925
0.16076600193973617 0.02136388097474428 0.8875357043740981 0.07962223520842754
0.5096455428985736 0.021737712751935586 0.8866331973318209 0.08231442824378382
0.39238491624170885 0.020663816123406106 0.8892258053685358 0.06778323683753677
0.271097034212185 0.019887619608565374 0.8910997039067985 0.2316795729476789
0.5566043763562891 0.020092643834301486 0.8906047331235374 0.07813288225292925
0.5926785471179844 0.020902088668462455 0.888650566282361 0.11076907289553588
0.4642505160925068 0.020636955031741067 0.8892906535860232 0.06562586498981846
0.19873567191783764 0.019469742923373154 0.8921085444447083 0.07009711192965781
0.4767404355653741 0.02098577757912778 0.8884485239846103 0.08385359957910186
0.4537320601354251 0.01910043554758335 0.8930001286484897 0.058547828454198064
0.5234428545006233 0.02058540533903128 0.8894151051803936 0.08126870009133466
0.28641523183309114 0.018781639883883577 0.8937697671572815 0.2203073637688066
0.03794499628656579 0.01467564778384937 0.8954774963041757 0.07157856451393949
0.08738786780366521 0.0164077158394379 0.8947600372020905 0.07320668822247323
0.22093928942724878 0.01563542259190337 0.8950799373458147 0.06560796642535204
0.25667279973447865 0.01856406182175882 0.8938668332386147 0.17125975334503882
0.06298994482728919 0.01223531558277753 0.8964883333461281 0.07864791127600153
0.15025493436725557 0.014776116586897769 0.8954358800079858 0.067931195013825
0.4174900535937131 0.01869273331804451 0.893813534792349 0.06201681648980468
0.05111141715064328 0.01404782059851585 0.8957375555594693 0.08062947480597724
0.12002218680484115 0.015262229894894402 0.8952345216281336 0.07473844624510802
0.09874840173286407 0.017540271078044838 0.8942909089470363 0.07053171215495285
0.35997699575629344 0.01567036711829392 0.8950654625863234 0.12561773245468683
0.40394287061785245 0.016896887939927725 0.8945574118059056 0.06015014474675299
0.009613436636863409 0.014612780331319809 0.8955035373283128 0.10625819511536656
0.5446228324166023 0.01251100795411048 0.8963741357540935 0.07615672397227341
0.29821757258166703 0.013466787759957815 0.8959782316098642 0.19450778021984982
0.4428087790446942 0.011360679819111695 0.8968506259175006 0.06277972047647527
0.5330496428953007 0.015184702076076624 0.89526663528504 0.07292057273375957
0.13659585154516052 0.011940901415474268 0.896610285900725 0.07487615581827314
0.566617255132455 0.015164387968267834 0.895275049816733 0.07381186541468335
0.26544548844747556 0.011135772041178372 0.896943787460367 0.20604134572590335
0.2457965897548142 0.01271665054321465 0.8962889542585666 0.13700215908441984
0.38395115627422605 0.013493256311219597 0.8959672677779522 0.07822596095684278
0.31757711996712007 0.012098941569116109 0.8965448223374662 0.20153346460225985
0.4319390698716157 0.014201413124443386 0.8956739342973699 0.06696532272745377
0.4899781097991117 0.017348095001145154 0.8943705123293226 0.07102421836252591
0.33266275143044166 0.008351444140838285 0.8959029229356266 0.19284655351464303
0.1080752796239159 0.007597188775848606 0.8955904967824413 0.07299168614795436
0.3719701461312523 0.01021996576087123 0.8966768982349584 0.08501949273099045
0.1912899874595248 0.010182748554081134 0.8966614821977785 0.07105252882920683
0.27750788838606577 0.010223000071630635 0.8966781551011104 0.2111418340207164
0.16272673560324033 0.010274992136230983 0.8966996911504289 0.07188393146546787
0.47496493192771827 0.008545222472595785 0.8959831894097834 0.07106548178536848
0.4033080933126602 0.004874319279479992 0.894462635209474 0.06118022022815277
0.5998694136307694 0.00826923800359298 0.8958688716733884 0.13411948978752605
0.08322512296048071 0.0037275486925257744 0.893987622183782 0.0731134598764349
0.5736970912180839 0.006779406354559038 0.895251756578678 0.08366670666889357
0.42617169502774777 0.0036704808096455926 0.8939639836391374 0.06521043684622839
0.3104313229722377 0.004079848941191844 0.894133551290244 0.14813296901204426
0.3450154891369421 0.0034167124013686104 0.8938588681951141 0.10723377770305095
0.3219372919993362 0.002189362682066543 0.891285550831008 0.12847821494970596
