x y z curv
0.1318869548459396 0.08235609162739253 0.38600000739097595 0.11686622126556469
0.9408461711514375 0.08514606027803259 0.38600000739097595 0.12118833681058078
0.07951080071205616 0.08246407070241873 0.38600000739097595 0.12568190472431878
0.9039339587278092 0.08253232691245507 0.38600000739097595 0.11287575649600683
0.7700816725713172 0.08839763557005956 0.38600000739097595 0.12327272712962116
0.183857368649314 0.0837739086015362 0.38600000739097595 0.13399573024318404
0.7600395932423493 0.0822178892927722 0.38600000739097595 0.09976174917814326
0.7810403915046514 0.09046913742224386 0.38600000739097595 0.11388013724749006
0.9581386637744652 0.08263376236255897 0.38600000739097595 0.10277341084928107
0.7169844781525464 0.08658328675073762 0.38600000739097595 0.11249178646759729
0.14462074820227563 0.09195494521878843 0.38600000739097595 0.1150596027351744
0.696648880751761 0.09243919123303199 0.38600000739097595 0.10627251976384858
0.42201734497377424 0.0922572252802009 0.38600000739097595 0.11599632750894807
0.8439867541351205 0.09160723456363026 0.3860000073909759 0.12149338307780577
0.7491130547361529 0.09046412847255095 0.38600000739097595 0.1198319951576504
0.3940085136896334 0.08997505858223495 0.38600000739097595 0.11298630879077615
0.3560544859160089 0.091606787507899 0.38600000739097595 0.11165951153962327
0.6430955314655972 0.09015461472953494 0.38600000739097595 0.1230996283275106
0.09809800473919862 0.09271413925321575 0.38600000739097595 0.12139816807197118
0.15965177412656986 0.08582355410054467 0.38600000739097595 0.11838411924367766
0.25595401492529785 0.09102729465020268 0.38600000739097595 0.11502462012780044
0.5786898336891743 0.08905903101504552 0.3860000073909759 0.09905753669374581
0.023353965426677142 0.0915740835065229 0.38600000739097595 0.11734824411575012
0.6657845024595138 0.09037042629658229 0.38600000739097595 0.12706445457609072
0.11042266002566657 0.09194137200358797 0.38600000739097595 0.11196080880233203
0.8965109392646069 0.09291633238216296 0.386000007390976 0.10747309839578478
0.0011736801320563041 0.08973217794355104 0.38600000739097595 0.13165864404631555
0.5972478025577841 0.09111355460825407 0.38600000739097595 0.10449034568582755
0.12548555238075867 0.09160566253426833 0.38600000739097595 0.12769329100255888
0.27199038245674656 0.09171892891665451 0.38600000739097595 0.11647759241827517
0.5057234103574031 0.09189054463806386 0.38600000739097595 0.11687938201272557
0.9898240917283023 0.09297961733946146 0.38600000739097595 0.14403366252080674
0.7386881550603047 0.09071335132261753 0.38600000739097595 0.11887430494160059
0.32109507009679633 0.08793778740531627 0.38600000739097595 0.11661931216364654
0.22964892417887892 0.09274505852591597 0.38600000739097595 0.10814158752294104
0.21909571309320475 0.08998893210438379 0.38600000739097595 0.1113059362709499
0.04065623853603763 0.09123923516865098 0.38600000739097595 0.10489433987675457
0.33206373036269227 0.09266561879586924 0.38600000739097595 0.11574198130289406
0.05307820384972973 0.0909186949609824 0.38600000739097595 0.11339743766800282
0.4849379813345269 0.08905826908539954 0.38600000739097595 0.1199881412844968
0.9092383672224593 0.09221432296803095 0.38600000739097595 0.10668237629766043
0.8792917419463622 0.09275297324094366 0.38600000739097595 0.12389393958946775
0.2594650454024132 0.08832936853510823 0.3160000145435333 0.04008200168440762
0.46018072209608485 0.08214751638351202 0.3160000145435333 0.041913259227767945
0.12590496695072712 0.09041643265614452 0.3160000145435334 0.040495404276890266
0.5186819433109764 0.08416582191158058 0.3160000145435333 0.040887148329715815
0.08942566738397745 0.090859021444811 0.3160000145435333 0.03856193986667517
0.24547708414741745 0.08407057886417844 0.3160000145435333 0.0386963481917864
0.4199228837995569 0.0830455454659979 0.3160000145435333 0.036518295618562256
0.43968529833052267 0.08301965231936434 0.3160000145435333 0.03922475574762742
0.8402546195686035 0.09216004539651682 0.3160000145435333 0.04287573577683869
0.9829799858274839 0.08297026031626849 0.3160000145435333 0.09221413917735634
0.62782390782956 0.09115758117773183 0.3160000145435333 0.040782767850322046
0.1748494076466206 0.09272871406958456 0.3160000145435333 0.040672987383910814
0.7890244651315576 0.09144886600804643 0.3160000145435333 0.04183442838257236
0.7631170885545802 0.09196169134213344 0.3160000145435333 0.04176919537367412
0.9715532179262786 0.09158563868745535 0.3160000145435333 0.04392071477589883
0.775050326814369 0.09095223759507239 0.3160000145435333 0.04256288914163077
0.0 0.08730837852432433 0.27565787271097975 0.10585197312460483
0.0 0.08596594904470557 0.24483952632056447 0.10270078580167503
0.0 0.09060234097198039 0.31055692161586396 0.08919471989686723
0.0 0.09167615055808225 0.2999408389291044 0.10077741302105046
0.0 0.08868981164659989 0.2878252449515048 0.10499063262582492
0.1800991275179938 0.09300000220537186 0.24772393146201535 0.04067366551703743
0.2534575955036706 0.09300000220537186 0.2879657114664773 0.03816569424833842
0.3333718420126653 0.09300000220537186 0.27413399363677265 0.041768017949012366
0.3097888175132629 0.09300000220537186 0.26528136084495657 0.03729207937042051
0.1856615969280448 0.09300000220537186 0.29159314802928266 0.03916034822734016
0.6224166007309402 0.09300000220537186 0.25181210024065104 0.03992518020383263
0.0023572798102352087 0.09300000220537186 0.25536086080359693 0.09400889393161355
0.7959577106810188 0.09300000220537186 0.24898226665180245 0.03896035016718817
0.140689548975587 0.09300000220537186 0.25213784658648 0.039077590347465906
0.4898399490827644 0.09300000220537186 0.2475794623482293 0.04152468667661964
0.32607737446535145 0.09300000220537186 0.2609715349747702 0.038236799713040254
0.5162473807801456 0.09300000220537186 0.25773385028270335 0.03984596586494966
0.25180330730589534 0.09300000220537186 0.2521838955876984 0.03922493486456622
0.27571495656758466 0.09300000220537186 0.2764140008015662 0.03995248366119485
0.7182047153610949 0.09300000220537186 0.2619486195977083 0.04030994364070185
0.22526960408502464 0.09300000220537186 0.29371907937653563 0.03929247566964152
0.19825267352521003 0.09300000220537186 0.2834671205177631 0.041400973716002314
0.05378607116807009 0.09300000220537186 0.29546464169298015 0.036951750897609215
0.34690141137000147 0.09300000220537186 0.26991881214121527 0.04046950412867148
0.08873781211971621 0.09300000220537186 0.28486583060436 0.03766445681154268
0.26335973724209905 0.09300000220537186 0.25501568627247945 0.0393150292231098
0.3844612905925241 0.09300000220537186 0.25821246417154653 0.040766693057024475
0.04984172385810349 0.09300000220537186 0.3089572236466866 0.03989947578089177
0.4542917714435169 0.09300000220537186 0.28195249475257445 0.04121881603891933
0.9097664304785262 0.09300000220537186 0.2487368675475337 0.039571840707333855
0.5642475731929468 0.09300000220537186 0.2552069150212526 0.03912677591011942
0.03673077079759995 0.09300000220537186 0.24773218830059024 0.04014193716707655
0.2579582339993874 0.09300000220537186 0.2759731110003102 0.040501525287289966
0.19972266897556612 0.09300000220537186 0.2559987985078873 0.03882726465353145
0.7735516130771232 0.09300000220537186 0.2572710625795004 0.03871261361290749
0.07960749710235634 0.09300000220537187 0.2785970201203 0.03878505174572779
0.027055156408269405 0.09300000220537186 0.28133640424573597 0.044792315660190186
0.04942711819305961 0.09300000220537186 0.27331647403071085 0.03914465872503632
0.1900927413453959 0.09300000220537187 0.2506672352682991 0.03783217042446032
0.3253689721421324 0.09300000220537186 0.25059225961563064 0.039102913310122174
0.5021369623523991 0.09300000220537186 0.26285294022098404 0.03901156079374435
0.4886280702704431 0.09300000220537186 0.26498486401628984 0.03836589964399884
0.21052113559575883 0.09300000220537184 0.25193387011568336 0.03789159971867654
0.5541639693568733 0.09300000220537186 0.25431989654240794 0.03701746314022962
0.09902278216597575 0.09300000220537186 0.2507174301984285 0.039447294311357635
0.4164035872380016 0.09300000220537186 0.2826697813641599 0.04000414938144608
0.36393936996897175 0.09300000220537186 0.2756538431095975 0.04044881663979785
0.878849263488874 0.09300000220537184 0.24867665201247446 0.03907355848564824
0.44939811569751914 0.09300000220537186 0.2719466892551669 0.041655735880231026
0.4074293810915158 0.09300000220537186 0.2597512251151258 0.04097903347448283
0.23642799681874604 0.09300000220537186 0.2638811584530847 0.036267741900841415
0.3092628143387939 0.09300000220537186 0.2516892410771965 0.03796798529417755
0.02164230469916427 0.09300000220537186 0.24863170175901517 0.05757389484755386
0.2222529797412201 0.09300000220537187 0.2828548419212897 0.03983086454063926
0.39767122192774323 0.09300000220537186 0.25636614910155153 0.04121639289236331
0.25042775646038873 0.09300000220537186 0.26524621534841375 0.039474622471341814
0.5992205193116792 0.09300000220537186 0.24957339516699065 0.03895242000581834
0.174419913307935 0.09300000220537186 0.25747734234776 0.039714486441590556
0.5360559345502519 0.09300000220537186 0.2604404815118937 0.04180417026530896
0.08638297106687517 0.09300000220537184 0.2707071321990046 0.042503385236881956
0.2870019010724598 0.09300000220537186 0.28470351203508426 0.04084069904827954
0.7643379920540314 0.09300000220537186 0.253374865263801 0.03925467464680136
0.31594945349198783 0.09300000220537186 0.291216689725171 0.04342388439316255
0.010401883282612413 0.09300000220537184 0.30998142051494737 0.08552250004233125
0.42921222103468815 0.09300000220537186 0.2627270059385538 0.04129626661524865
0.0783532376871982 0.09300000220537186 0.28988250824882494 0.03859806781369976
0.12933471520560683 0.09300000220537186 0.27920534950859727 0.040034466854818034
0.051051705424710325 0.09300000220537184 0.2521883503129718 0.03933275744876051
0.6248401333456388 0.09300000220537186 0.2624163670422544 0.03915427292359199
0.46839912782083726 0.09300000220537186 0.27569226494754495 0.040553860350711
0.5050709890440829 0.09300000220537186 0.25239833908461307 0.04082767956149389
0.11271676209857387 0.09300000220537186 0.2893784556160187 0.03945821344932001
0.01635167964754553 0.09300000220537186 0.2650383174306601 0.07972046083137872
0.6977582115102697 0.09300000220537186 0.24768135860539936 0.04138700640497965
0.26664821651613246 0.09300000220537186 0.2867613326345059 0.037661353563227064
0.2222876963149354 0.09300000220537186 0.252967936058524 0.03992149519881504
0.1708620896335908 0.09300000220537186 0.30098514485740874 0.0407654765882944
0.42204581600917374 0.09300000220537186 0.27505129985118837 0.042678298570375264
0.5722519716171046 0.09300000220537186 0.2709425752987627 0.03709405498718557
0.06591095420697728 0.09300000220537186 0.2761164970856371 0.038613973559155405
0.7425851384536222 0.09300000220537186 0.25879961244856964 0.039047679548952885
0.5878777854309684 0.09300000220537186 0.24644271293837483 0.03734557803733559
0.7301835241432313 0.09300000220537186 0.24746399792577278 0.03916067107299601
0.5916740447146801 0.09300000220537186 0.2674359722621531 0.03971381969756224
0.24329759383949512 0.09300000220537184 0.294612011613736 0.03964870589269043
0.04310959883354512 0.09300000220537186 0.3003904436633895 0.039506794535467064
0.016633879125328606 0.09300000220537186 0.2758875106741013 0.07679898102716662
0.2818867824349923 0.09300000220537186 0.26602196362182146 0.03814283949003487
0.2901908984205896 0.09300000220537187 0.2581591500994562 0.038685801476831524
0.1520495621219731 0.09300000220537186 0.2565568074544197 0.04092510305264892
0.4759279973035992 0.09300000220537186 0.26930174882068286 0.04151760337880649
0.6514859694692843 0.09300000220537186 0.26212993804230944 0.04238615164566975
0.37391835795183465 0.09300000220537186 0.26316270143180587 0.04183441709126353
0.044174925021072536 0.09300000220537186 0.2903713396996581 0.038125957331261284
0.0022557239065869343 0.09300000220537186 0.2667990838306778 0.09770310946725197
0.02097621032714996 0.09300000220537186 0.2929864116565588 0.064243326749004
0.10190526704030235 0.09300000220537186 0.26982806333132625 0.04251220894109751
0.21737798749868836 0.09300000220537186 0.29817187809138834 0.04202079952126695
0.07881797571046002 0.09300000220537186 0.25283343373186484 0.04174207642202479
0.8611886682572908 0.09300000220537186 0.2452468595050008 0.04048321757928115
0.5802923574256021 0.09300000220537186 0.2590622266834194 0.037190855782933435
0.639972931776322 0.09300000220537186 0.2574863168680068 0.03971902297973241
0.40459469566572737 0.09300000220537186 0.26952288908090344 0.04347196952886213
0.15370139555449702 0.09300000220537187 0.28629179957781054 0.039051082624421515
0.4511364584469436 0.09300000220537186 0.24565565493461072 0.039300440235226296
0.4708338878191482 0.09300000220537186 0.25585399002643483 0.04240270296077646
0.4204785159918372 0.09300000220537186 0.2472632845107478 0.039104292124710914
0.011112149959468225 0.09300000220537186 0.2465160415836713 0.07592353186415549
0.2754048008924001 0.09300000220537186 0.2527279878836485 0.04055344835329546
0.11201493037356858 0.09300000220537184 0.2523893442696721 0.040550394078873064
0.8144059572291159 0.09300000220537187 0.24433671772015308 0.03720953856613284
0.6088293230534066 0.09300000220537186 0.26801186317753684 0.038232772637574894
0.8072122267854583 0.09300000220537186 0.25165816529275487 0.03693466374635674
0.7096635434860737 0.09300000220537186 0.2574211709757436 0.04166701100101263
0.558575196207661 0.09300000220537186 0.2679149873593021 0.040240038738553294
0.5423817810836268 0.09300000220537186 0.25208530994393036 0.043464556534259895
0.2964032096258963 0.09300000220537186 0.2751854845301033 0.0394117308806495
0.007865465913494827 0.09300000220537187 0.29388603234577454 0.08853183707783782
0.3997297062867298 0.09300000220537186 0.2804934529757751 0.03932164974647559
0.49599608166447784 0.09300000220537186 0.2730491214979329 0.04006387329444756
0.15487958931082518 0.09300000220537186 0.2670109411911338 0.038549137641700384
0.3430559435681447 0.09300000220537186 0.28464928794217903 0.04018959452368113
0.945765780408622 0.09300000220537186 0.24411405608785622 0.04016036589041153
0.24297128843637603 0.09300000220537184 0.27275968755988644 0.038544181852615704
0.23925352927989305 0.09300000220537186 0.2509802862146832 0.037623601977165175
0.06917585873060327 0.09300000220537186 0.29284428883849284 0.039395999723772716
0.07463539573775478 0.09300000220537186 0.2665096711182953 0.0403449140313418
0.11115141153953985 0.09300000220537184 0.27644426624414126 0.03774977163999226
0.20631034734655798 0.09300000220537187 0.2901767936794249 0.039089829993654346
0.16049000837381744 0.09300000220537186 0.2484124493548296 0.03973297013124496
0.02987827563266127 0.09300000220537186 0.30247951542135115 0.04640445411842803
0.6463161365879664 0.09300000220537186 0.24995585714854998 0.037850585145562846
0.13253247298698018 0.09300000220537184 0.26313872617949957 0.03984905851566045
0.7847522065191902 0.09300000220537186 0.25329618245835744 0.03733661317117492
0.10171614726717731 0.09300000220537187 0.28237964040706975 0.03956772290899258
0.6656744721808149 0.09300000220537186 0.25889980296594667 0.04122873197144197
0.38614252499771906 0.09300000220537186 0.280572376692418 0.04227014317596172
0.06074225535552518 0.09300000220537187 0.2456070631174746 0.04204480552793094
0.03262037734575558 0.09300000220537186 0.2899801476192445 0.04077770148172521
0.3186102692173511 0.09300000220537186 0.27915343319509567 0.040658574777747224
0.41711582033502725 0.09300000220537186 0.26560360448092246 0.041345091979276036
0.5699083091555901 0.09300000220537186 0.24523092904146573 0.03931205834922131
0.6102184626518734 0.09300000220537186 0.25357645736885037 0.04003962291696471
0.15443925072564302 0.09300000220537186 0.29976772577048877 0.04037460419592866
0.3063175579700845 0.09300000220537186 0.28409242661684997 0.04034122415121588
0.8965636017581952 0.09300000220537186 0.2508668588626444 0.04021879952085768
0.12516536739690612 0.09300000220537186 0.30011048076785224 0.03692064709249168
0.3458024941449353 0.09300000220537186 0.2579331744668825 0.04024039624861354
0.062113428814079163 0.09300000220537186 0.26442245320308605 0.0383469551986566
0.23412804294149456 0.09300000220537186 0.28369085945245553 0.0408667548697154
0.0151775973212376 0.09300000220537184 0.3010703757113689 0.07360154200999175
0.1808860782113439 0.09300000220537186 0.27977268882853135 0.039169624535364295
0.6837130782409635 0.09300000220537186 0.25921095946676653 0.04208543730828674
0.14227395725576683 0.09300000220537187 0.27699958077374487 0.04122052438181876
0.10310425726909678 0.09300000220537184 0.2595770304235558 0.041495545194050625
0.2656362065764338 0.09300000220537186 0.26932526784826405 0.03997150195985819
0.183666539234785 0.09300000220537186 0.267303450867175 0.04274078167719772
0.4474938082845358 0.09300000220537186 0.26226707787072634 0.043423113514565646
0.04583239187827987 0.09300000220537186 0.2608972659505179 0.03782210043127074
0.17312159178400424 0.09300000220537186 0.28753014776780345 0.042226550768980256
0.8508366505283737 0.09300000220537186 0.24542919557499174 0.038441889090130445
0.4358032052530894 0.09300000220537186 0.2700123884264755 0.040713613534485646
0.36238302021981533 0.09300000220537186 0.26063474253924523 0.04017923464337445
0.2764413366552078 0.09300000220537186 0.28852098447842434 0.040104334981940326
0.3569487220184791 0.09300000220537186 0.285126460607235 0.039427953106669765
0.026340590995517933 0.09300000220537184 0.26932254757245483 0.053441237347143976
0.20210280956611554 0.09300000220537186 0.2680022344840643 0.03973191980674809
0.40639385790143623 0.09300000220537186 0.2494803356435628 0.03846632381390043
0.1216046762076407 0.09300000220537186 0.26700657944692974 0.04010639603934772
0.39519850034174336 0.09300000220537186 0.27083660912390656 0.03997906462406718
0.2108930260080032 0.09300000220537186 0.28188358110730893 0.04119035450502573
0.12468412038055952 0.09300000220537186 0.2885466458326708 0.038631634314502165
0.5170316195664365 0.09300000220537186 0.27256222345620984 0.04045170258954473
0.4584949078519925 0.09300000220537186 0.2576445740323146 0.04123747269984588
0.35725451412688647 0.09300000220537186 0.24948496917913043 0.04091417929350838
0.3204983928076893 0.09300000220537186 0.2698108274810699 0.03780738740628176
0.34135479021736925 0.09300000220537186 0.2471350982617056 0.04110237778665056
0.7784012576372855 0.09300000220537186 0.2451854584921967 0.03950680305967942
0.6774226544945992 0.09300000220537186 0.24881437612520152 0.039852970706437355
0.0633024482659224 0.09300000220537186 0.303590775935465 0.03851460768303267
0.06857113818908957 0.09300000220537186 0.25606681960143607 0.04108240899956708
0.21283568976304165 0.09300000220537186 0.27211671830681966 0.0383182174315976
0.5254581102311392 0.09300000220537186 0.2540604930338467 0.038173829416538324
0.1006719710055978 0.09300000220537184 0.29312809140138935 0.036937069875504755
0.48281224525217703 0.09300000220537186 0.2548836890844325 0.03836094099079047
0.522876688478604 0.09300000220537186 0.2646941674551992 0.03904087410073115
0.03528015297893038 0.09300000220537184 0.2585682418866717 0.03857325322660517
0.13987563911496934 0.09300000220537186 0.28899762724920797 0.040026867906329366
0.013130702891535362 0.09300000220537186 0.28534769159024675 0.07332465844126397
0.1432589999169997 0.09300000220537184 0.2997976692204866 0.03918267016292997
0.43089879868135084 0.09300000220537186 0.24777833191042706 0.040854569424272735
0.9801842307408196 0.09300000220537187 0.24469716801566205 0.07267590823788425
0.4308012209758385 0.09300000220537186 0.28064864698351977 0.04057147790351922
0.3748452423878501 0.09300000220537186 0.27304412062739125 0.04390416731373785
0.8160501849338324 0.09300000220537186 0.25584475411163865 0.038170004569346445
0.37388633828094187 0.09300000220537186 0.2528654891698044 0.039406337517798255
0.5392999687183941 0.09300000220537186 0.27108874789313353 0.04151079920113003
0.05864056149814364 0.09300000220537186 0.28604330095731656 0.03950314023825467
0.19332395383505016 0.09300000220537187 0.2631177314581419 0.03828741803904361
0.7079187387819059 0.09300000220537186 0.24710300922897654 0.04173702909300292
0.38430935549993506 0.09300000220537186 0.26838231281634495 0.040978769741491713
0.08929847347911422 0.09300000220537186 0.25365328036825957 0.04163332924016415
0.46312182883048614 0.09300000220537186 0.2676572186578576 0.03980015103291381
0.6958494322294165 0.09300000220537186 0.2569940286295016 0.04178863379710595
0.22802967648277433 0.09300000220537186 0.27331878646326485 0.039127681654720074
0.16704964915618928 0.09300000220537186 0.26985912341162516 0.03783860119349881
0.03601240667747329 0.09300000220537186 0.2717930676831826 0.03722658148941455
0.16361802700198141 0.09300000220537184 0.28104859726889875 0.039391373384589354
0.4400402905396691 0.09300000220537186 0.25232807575948785 0.039086263476535425
0.7464533186890293 0.09300000220537186 0.3035591938560002 0.04203732747834779
0.8999913469734357 0.09300000220537186 0.2836166911848259 0.0433522531350154
0.44969790926407943 0.09300000220537187 0.29163992572938613 0.0431536253929243
0.6668232585787616 0.09300000220537186 0.3133316573326437 0.0390148314205608
0.5389772580753229 0.09300000220537186 0.2824770826983075 0.03894053948690271
0.972727176856945 0.09300000220537186 0.28961675444237805 0.05225761105803307
0.6712400407526165 0.09300000220537186 0.2930433359422397 0.04103488001496509
0.455916871495109 0.09300000220537186 0.2996437478837595 0.04308413766896683
0.7143081318523502 0.09300000220537186 0.27605729532222095 0.04298368682838496
0.5944339635740464 0.09300000220537186 0.3030916208557398 0.038723334461579266
0.7896955412089537 0.09300000220537186 0.2904062208239154 0.03862334554013875
0.5585002105171208 0.09300000220537186 0.2805238724015503 0.039626964858149746
0.9893625698737932 0.09300000220537186 0.30928628587975143 0.07658998097018484
0.9414063885748671 0.09300000220537186 0.25599214393447123 0.039376750736738596
0.7559900095097343 0.09300000220537186 0.30250067086871274 0.04115574678863663
0.8651329383754834 0.09300000220537186 0.30820995375111115 0.03907815800846797
0.620858826460208 0.09300000220537186 0.2743545073387717 0.03822931308936178
0.9219774197276228 0.09300000220537186 0.2904830255624474 0.041208042954377515
0.6225608314342482 0.09300000220537186 0.29366621566313855 0.040475347845738294
0.5041267840619454 0.09300000220537186 0.2795356545551183 0.03928569714398274
0.610734261798695 0.09300000220537186 0.29810142524988603 0.04111140036847031
0.5484084504762263 0.09300000220537186 0.2830607646336406 0.039702835579832355
0.6521601495698404 0.09300000220537186 0.287199906526798 0.03765831607942858
0.9034977007453302 0.09300000220537186 0.26460874764607856 0.04025727798853239
0.8831741195080594 0.09300000220537186 0.29379032242940095 0.041638290761773694
0.8899132004389851 0.09300000220537186 0.31048992576680984 0.03848745464199138
0.3753401805054417 0.09300000220537186 0.30393081042671705 0.03873983826304702
0.29571235877841495 0.09300000220537184 0.29579194165608025 0.04361375015125775
0.434459613281979 0.09300000220537184 0.30646144952375765 0.04002466321963513
0.2026436753935963 0.09300000220537186 0.3065302172016186 0.040233331265629634
0.9870980148966256 0.09300000220537186 0.25223157045243355 0.08635194358753773
0.6739788516615071 0.09300000220537186 0.30351635086494244 0.03933322278712171
0.935954748777804 0.09300000220537186 0.2984407953472098 0.0386712645214889
0.6453053516553628 0.09300000220537184 0.29540705568206715 0.03745267143390587
0.40447448446525663 0.09300000220537186 0.30287903333687444 0.037603038811080194
0.6314936765423548 0.09300000220537186 0.3011405616460232 0.041584195343771016
0.5787390483359443 0.09300000220537186 0.3086185065481008 0.03918381202884644
0.919168617438265 0.09300000220537186 0.26676849315359774 0.041616925252394896
0.927933059781122 0.09300000220537186 0.28206630404247324 0.04211396247755089
0.9258603069791046 0.09300000220537187 0.2994682537154909 0.04105476694845471
0.696086791894793 0.09300000220537186 0.29827697311218143 0.03958904323891292
0.8502858878984372 0.09300000220537186 0.29113783004980553 0.04118636019310948
0.7160062710991578 0.09300000220537186 0.29576736627390166 0.04234622355820104
0.512052577500066 0.09300000220537186 0.3080475112528342 0.040204108546104136
0.182831514720877 0.09300000220537186 0.31117930467056965 0.04046209227732004
0.68500543989986 0.09300000220537186 0.28574452435415043 0.042504476763065964
0.826985864266348 0.09300000220537186 0.2779643332087096 0.04069251599157953
0.9556280655115378 0.09300000220537186 0.29284423796524167 0.040415873934832994
0.8475185411978222 0.09300000220537186 0.2730874748556876 0.04441397630505589
0.6050739137405831 0.09300000220537186 0.291026219446325 0.04253130751816971
0.2688167252407288 0.09300000220537186 0.3086919496952129 0.04081917738733895
0.9600001705202259 0.09300000220537186 0.25867980582187367 0.04137431038419418
0.4450118216625343 0.09300000220537186 0.30221296151831 0.04277604207659489
0.5482572648415285 0.09300000220537186 0.2962905072230006 0.040878533263865945
0.7271825909092482 0.09300000220537186 0.29799191572247097 0.04285396417060843
0.9146230697424512 0.09300000220537186 0.2580014034482464 0.0410049203922325
0.5003564131173563 0.09300000220537186 0.3117130662066152 0.039252156997523664
0.7947870110300316 0.09300000220537186 0.2707230042512423 0.03797638038902746
0.7453224084692778 0.09300000220537186 0.27614477765837175 0.040079717857505144
0.6308560804643932 0.09300000220537186 0.2705366805291288 0.03806738082308137
0.8763012038881166 0.09300000220537186 0.30828656887351724 0.03864301492823548
0.9340197178433436 0.09300000220537186 0.30799195438853527 0.03947176956995741
0.37642602873597597 0.09300000220537186 0.29008549183162785 0.041422375981835534
0.7539066177579189 0.09300000220537186 0.26196349259385293 0.039632253379462294
0.424582734563721 0.09300000220537186 0.2897080884831783 0.03853467423369951
0.285558713049624 0.09300000220537184 0.2987146830024191 0.040930207753893846
0.9817048738350954 0.09300000220537186 0.3024055348901799 0.06642838207304888
0.9757721196880459 0.09300000220537186 0.25570335261460586 0.05986056702273921
0.8689283195367249 0.09300000220537186 0.2794257885247005 0.04035485833524697
0.5986627779756912 0.09300000220537186 0.2753547906341212 0.04041342991306902
0.7030204843354164 0.09300000220537186 0.2811963554258329 0.04368658581505973
0.8318811452434187 0.09300000220537187 0.2939484170165006 0.04259837882417721
0.6623819284471838 0.09300000220537184 0.30097162962365975 0.04139262599038282
0.7638504168403968 0.09300000220537184 0.26468282633225876 0.038535371540185256
0.8730975681861003 0.09300000220537186 0.2626424066519687 0.0406063776337542
0.19301621952268283 0.09300000220537186 0.3131765869392077 0.041735593417819454
0.559522039295914 0.09300000220537186 0.293454773623969 0.0432061935120684
0.8142478229956083 0.09300000220537186 0.2760219592612665 0.04099458085069881
0.36426538436586076 0.09300000220537186 0.29323365922170125 0.038372879666600135
0.8950923371464965 0.09300000220537186 0.27609483617233843 0.04091312437436583
0.7348804041025322 0.09300000220537186 0.304611265677633 0.04188353116397321
0.8285334173841 0.09300000220537186 0.2566671742478918 0.038963142785388656
0.9463673362339714 0.09300000220537186 0.2759905570393172 0.03933617482629721
0.8199909026634495 0.09300000220537186 0.2676714681936437 0.039281864318781
0.3276745282138415 0.09300000220537186 0.2976144513398885 0.043824782545915916
0.781084985708176 0.09300000220537186 0.2713701914852684 0.03740850215906645
0.5874230539732359 0.09300000220537186 0.28039135612962507 0.0379532322907308
0.9769968236683917 0.09300000220537186 0.2738558357785337 0.06043303256613383
0.527400585262447 0.09300000220537186 0.3011403540630938 0.040506884563213684
0.7434972219311207 0.09300000220537186 0.31379276756583824 0.041880862250782254
0.6547621583317872 0.09300000220537186 0.2746939163313335 0.0396095171855341
0.10091482941682106 0.09300000220537186 0.31050872378170996 0.03635577006678401
0.6255429954755786 0.09300000220537186 0.2823241241576677 0.03813644648540779
0.5168594906986109 0.09300000220537186 0.28610368357992016 0.041524484500480886
0.7803345696143467 0.09300000220537187 0.306047389102724 0.041213781550793124
0.7297453557974101 0.09300000220537184 0.2662640088923837 0.04026529900931216
0.9316753677019429 0.09300000220537186 0.24944778712195778 0.0438614659892084
0.33817781267273445 0.09300000220537186 0.3090757951563769 0.039768063244252375
0.4069362214699908 0.09300000220537186 0.28914328784452403 0.038950597078952535
0.6900124919189972 0.09300000220537186 0.27755273922322843 0.04183317771250325
0.9850801220892959 0.09300000220537186 0.2800582805778451 0.07800269215984172
0.4187989412712106 0.09300000220537187 0.30930391164018195 0.038438450178380955
0.5719562646305758 0.09300000220537186 0.2959515222219364 0.04007442008427624
0.49956094598957457 0.09300000220537187 0.2880134340763019 0.039198050147056206
0.23103944045176278 0.09300000220537186 0.3065774704885632 0.042142336504613985
0.7481433669424119 0.09300000220537186 0.286690494733079 0.041142295695912004
0.8627431617014019 0.09300000220537186 0.25664829310178416 0.0413646931725465
0.8207352587105308 0.09300000220537186 0.2996355803424613 0.04207536217699428
0.7751524704517251 0.09300000220537186 0.28067874939865206 0.03814569040830677
0.6958483402753914 0.09300000220537186 0.28733242241918955 0.04138703811154332
0.6831627041509517 0.09300000220537186 0.27020034657595227 0.0404902000881408
0.21931268576678736 0.09300000220537186 0.30892917251906876 0.04121877706757582
0.1900465750155305 0.09300000220537186 0.3009766678685162 0.039182937057069336
0.25287993884166815 0.09300000220537184 0.30938393332085135 0.039511238428810685
0.4359803605925671 0.09300000220537184 0.29139373846058525 0.039978727007907576
0.3362011010653239 0.09300000220537186 0.2913988549589282 0.04302247322997723
0.07423502696334303 0.09300000220537184 0.3115416166191852 0.03822319588119149
0.9084596220892682 0.09300000220537186 0.27553229678577507 0.03851940659535843
0.7733010603150529 0.09300000220537186 0.29301359634396884 0.04074822973048746
0.5659851238911915 0.09300000220537186 0.3086305840015174 0.040654793099978145
0.7582241031199606 0.09300000220537186 0.28982785471478184 0.040519326464818727
0.8868207931894352 0.09300000220537186 0.2571809755217234 0.03961298461461885
0.13518843566740787 0.09300000220537186 0.30906637879257043 0.03893085906025884
0.804166726066997 0.09300000220537186 0.26237696931893095 0.04131801038711259
0.9979031426299939 0.09300000220537186 0.26972446249494053 0.08313419107249934
0.5842222889055713 0.09300000220537186 0.29894679101127053 0.03944481404659747
0.4994688375596844 0.09300000220537187 0.30160017543592504 0.039622568652622786
0.5374205648655426 0.09300000220537186 0.2957312110040473 0.04111725618151118
0.7278610252934173 0.09300000220537186 0.2816017199672774 0.04147643176821195
0.6856586029970922 0.09300000220537186 0.30903879680286506 0.04077520283004233
0.4668259426403972 0.09300000220537187 0.2973055828461788 0.041354289417032106
0.3064736920081085 0.09300000220537186 0.2939073022249115 0.041430234424906606
0.457172215861054 0.09300000220537186 0.3123092523971015 0.03943943030619122
0.5232926569444503 0.09300000220537184 0.31156628674060827 0.03927362452325363
0.7602699305531552 0.09300000220537186 0.27750654103336275 0.038943635209767014
0.8617653852243837 0.09300000220537186 0.26989710981213044 0.04192325820954273
0.9267530522854954 0.09300000220537186 0.2606886729408182 0.04163641266117719
0.9689805182437216 0.09300000220537186 0.2996934665842329 0.043634149155550035
0.6742773952823885 0.09300000220537186 0.27981615366083407 0.04006272473788657
0.8815432978465123 0.09300000220537186 0.2812246835195953 0.0411593702406253
0.6124965661446878 0.09300000220537186 0.3115426593510478 0.04156169952377836
0.24180545558548186 0.09300000220537186 0.3040690851394894 0.0383866095593453
0.8574262206868509 0.09300000220537186 0.2795232994476199 0.04275094345937241
0.49024726222038106 0.09300000220537186 0.2918447482472292 0.03900725466416368
0.9855414867111654 0.09300000220537186 0.2894219376463126 0.07334886222492991
0.8006769634116939 0.09300000220537186 0.2802745708500714 0.03866715165874619
0.9676066702926903 0.09300000220537186 0.2690381709795015 0.04691934777730256
0.8091319126668468 0.09300000220537186 0.29988050941172867 0.04175039870292898
0.5292397024148032 0.09300000220537186 0.2900777819094117 0.04087583594216635
0.9645270280860769 0.09300000220537186 0.2829022080867235 0.039185371772930515
0.7997603361604544 0.09300000220537186 0.2923277631882819 0.04189472444033813
0.837482505599829 0.09300000220537186 0.30146053875631634 0.03864827252036127
0.8579051304891723 0.09300000220537186 0.29968321733229497 0.04218429897659406
0.8395000346492782 0.09300000220537186 0.28229768292000545 0.04284576005456502
0.7135311710117248 0.09300000220537186 0.28623876401838216 0.041639840755455564
0.32881273492803786 0.09300000220537186 0.30776532261388356 0.0431216248946422
0.9987038373604186 0.09300000220537186 0.2547391681362735 0.10848776890868908
0.9232192265281014 0.09300000220537186 0.3114797951932697 0.04056960695325781
0.9349805987200075 0.09300000220537186 0.2712920075313152 0.040584241883369274
0.5413176676061793 0.09300000220537186 0.30743688970676764 0.04098249106113395
0.7988226870995367 0.09300000220537186 0.3048662585246528 0.03962180686439975
0.8105275071636118 0.09300000220537186 0.2885283387590833 0.04089009191160653
0.3864869954156497 0.09300000220537186 0.2975265258084027 0.038989141845748386
0.6401029342542737 0.09300000220537186 0.30888510032481536 0.03861817559662085
0.9661419127549613 0.09300000220537186 0.24815323490430963 0.041075146875064895
0.35060434912927735 0.09300000220537186 0.3110155955962747 0.03973453894728132
0.7213881623517008 0.09300000220537186 0.3070232763280146 0.042812816371374574
0.7372341864878638 0.09300000220537184 0.2921945972650918 0.04062683251829427
0.7893822218610337 0.09300000220537186 0.3025426537930029 0.04109853276086453
0.9601251624576527 0.09300000220537186 0.3024767572687664 0.03793054506269563
0.8377196362142024 0.09300000220537186 0.27098034771477786 0.04189687755222173
0.873976775339221 0.09300000220537184 0.29873870572066213 0.0400292057941633
0.7004122968291414 0.09300000220537186 0.31188233594183523 0.03942608625156823
0.6622952516237424 0.09300000220537186 0.2841485043054157 0.040412316922316165
0.6940640417790118 0.09300000220537186 0.2678300746234547 0.0420762657405273
0.2589197811875201 0.09300000220537186 0.2991850867224438 0.04241998200635991
0.30887095051681546 0.09300000220537184 0.30452781457755473 0.040877100854575105
0.6557146169736734 0.09300000220537186 0.3094103506562486 0.03812083995667036
0.4682367565036498 0.09300000220537186 0.3089201168933204 0.04067174261248689
0.4420427758382563 0.09300000220537186 0.2841929834884382 0.04150622653478682
0.9120488523204405 0.09300000220537186 0.2899384283313087 0.0437115953582622
0.5089351280718354 0.09300000220537186 0.29535585085762245 0.038651339116197565
0.9582190749464823 0.09300000220537186 0.2725729047235355 0.04291342378652676
0.6388363076954056 0.09300000220537186 0.2773097063762696 0.03899901524521322
0.5765078613930714 0.09300000220537186 0.28345039611125455 0.03754871672048741
0.7057777499352964 0.09300000220537186 0.2697004589927182 0.04369499541830779
0.8627840346820923 0.09300000220537186 0.2884843991231777 0.043131003884987286
0.025039179885136608 0.09300000220537186 0.3128276985552409 0.048814123227181455
0.7059929567495222 0.09300000220537186 0.2999057314238536 0.04286846879563754
0.9878963387294972 0.09300000220537186 0.2659877623445486 0.0905299500777908
0.6677235436019212 0.09300000220537186 0.26902088952277065 0.04262415767432237
0.383882749559619 0.09300000220537184 0.3089643720766278 0.03809931335201779
0.7690106060361308 0.09300000220537186 0.3084104708277723 0.041934298130390214
0.47953136427538345 0.09300000220537184 0.3072729574617296 0.03867107621306879
0.8942136023326828 0.09300000220537186 0.29843778018232214 0.03972212402359724
0.34736671349788384 0.09300000220537186 0.29622397622750324 0.03848662089547783
0.8219676299156997 0.09300000220537186 0.28588174428658186 0.04225063278948236
0.4723860286591028 0.09300000220537186 0.2860393572837966 0.041723715185252586
0.9954432825237305 0.09300000220537186 0.287999906719263 0.09453406006241806
0.5901544384405991 0.09300000220537186 0.2911016005942824 0.04247908248532556
0.6219921925693389 0.09300000220537186 0.3063499676627875 0.04001866043073155
0.9400886293695654 0.09300000220537186 0.2871152669177073 0.040957412392897116
0.48406179624405743 0.09300000220537186 0.28080631166136266 0.040009088551199314
0.29502097459953214 0.09300000220537186 0.3090573883827115 0.039720240448748945
0.8498112566297197 0.09300000220537186 0.30627300382328865 0.0419393222738658
0.6067113500838627 0.09300000220537186 0.27999413652362554 0.041694578056112146
0.8474541946448428 0.09300000220537186 0.2553808950011853 0.03921783661256156
0.8851141372477074 0.09300000220537186 0.2688232148228968 0.041539627524485444
0.9119145427269754 0.09300000220537186 0.30343926861223197 0.03855256816392973
0.9169593284411023 0.09300000220537186 0.2803495910694055 0.04236116191752598
0.28154420560474935 0.09300000220537184 0.3091921563417931 0.03819106003002754
1.0 0.09148590920150293 0.30083993117397234 0.0765435847699391
1.0 0.08465202044452767 0.261394606158577 0.09714898171619268
0.7640299948816305 0.0820000022649765 0.29136159935598904 0.03878816710828223
0.7342688298725035 0.0820000022649765 0.2717478751626869 0.04117304287238409
0.8144386617903697 0.0820000022649765 0.29982571250846374 0.04119080059738776
0.8431684273434383 0.0820000022649765 0.2661736975172607 0.043300419424402346
0.6176283468314857 0.08200000226497652 0.26020661717557947 0.03873744567621174
0.6723858732728545 0.0820000022649765 0.2701743653717242 0.040345461792466224
0.7998963573605931 0.0820000022649765 0.2714658016629671 0.039624130904937584
0.7861132452424203 0.0820000022649765 0.27030408583029386 0.03859531166907217
0.924182069683742 0.08200000226497649 0.29896209017564046 0.04042077417781999
0.8910242935858982 0.0820000022649765 0.28727719833157667 0.03952804648471301
0.58109605098558 0.08200000226497649 0.251933338935575 0.039566990321547195
0.6785607933825365 0.0820000022649765 0.28863733049921153 0.042177046867360096
0.9925623583046874 0.0820000022649765 0.2779656916112174 0.10130047331489954
0.5527297818366022 0.0820000022649765 0.27515324790974294 0.04100070941588394
0.9193149201796436 0.0820000022649765 0.2709181897040306 0.040223733312640425
0.30582664422143835 0.08200000226497649 0.25228082947841546 0.03766481494334087
0.7428471188706455 0.0820000022649765 0.26684850267509175 0.040071771360642265
0.28317241893293404 0.0820000022649765 0.25347699061540385 0.037423117994885666
0.3829133746769783 0.08200000226497652 0.24610429887193253 0.03876972683392712
0.8078733986361752 0.0820000022649765 0.27830379790573856 0.0404978313095416
0.6585187851414568 0.0820000022649765 0.2841921667390111 0.03921023497791681
0.6578914639074973 0.0820000022649765 0.2623398456285869 0.03923097605540979
0.7198228604118386 0.0820000022649765 0.24826371538396394 0.03961078575458876
0.5971887868630639 0.0820000022649765 0.2588988970184072 0.03807419274632489
0.6041621751496692 0.0820000022649765 0.27255910672500905 0.03915796511574069
0.9119559719151024 0.0820000022649765 0.297959466558746 0.04104837941299805
0.5768186633782313 0.0820000022649765 0.28425749501625114 0.038520102091767025
0.9677882871642702 0.0820000022649765 0.2724038778719381 0.060250609384573516
0.6594818267700755 0.0820000022649765 0.2734454270752818 0.03960808908736485
0.6258864589340029 0.0820000022649765 0.26946159054108826 0.0394913298717602
0.6237625380252012 0.0820000022649765 0.27962772216169185 0.03779177235417459
0.7001831142368017 0.0820000022649765 0.25038361181321295 0.04414420092049993
0.3866564945808803 0.0820000022649765 0.2557639778820201 0.03842707996429216
0.25741189401700665 0.0820000022649765 0.2506091110461145 0.037293382594628055
0.6358093583686466 0.08200000226497652 0.2581743634634811 0.03617511154494972
0.8679445513975372 0.0820000022649765 0.25521623619350264 0.03827483702220651
0.9081496336715037 0.0820000022649765 0.2729716368532351 0.04000989899236985
0.7664423852870474 0.0820000022649765 0.25466386282287085 0.04046835480944468
0.7945587605066384 0.08200000226497652 0.2630178924715276 0.039918636323405955
0.666891477813503 0.0820000022649765 0.25978325260807145 0.04174296440926754
0.9499820438327036 0.0820000022649765 0.27645462844742485 0.03979698335868706
0.8431973878652328 0.08200000226497652 0.2546276125544927 0.040681550348176325
0.2600971790032486 0.0820000022649765 0.2610669189329013 0.0377392593540358
0.8311595313803015 0.0820000022649765 0.29436080357603644 0.04281699421001205
0.799579913334077 0.0820000022649765 0.2856624506170646 0.04052192191721221
0.7765127925181745 0.08200000226497652 0.25321004138888287 0.03944228445913922
0.9497517142326483 0.0820000022649765 0.30431189393981234 0.037201453866651586
0.7742119389619422 0.08200000226497652 0.26441140806257213 0.03894440634781054
0.895334935793166 0.0820000022649765 0.24460171200237915 0.040733094324467534
0.5252495195514663 0.08200000226497652 0.24981792278081458 0.03945825151959452
0.9403554933125926 0.0820000022649765 0.3024864580255424 0.04010934478296878
0.7422278451605189 0.08200000226497652 0.24508369483132608 0.03929313356056596
0.5863709800479826 0.0820000022649765 0.2619659279976473 0.03907356974496227
0.6583103562813545 0.0820000022649765 0.2502039257005248 0.038440446309674664
0.8004716606227219 0.0820000022649765 0.2523291598691324 0.03699853632656471
0.4251481820767211 0.0820000022649765 0.25783157943230045 0.039924566317782545
0.9995206103561212 0.0820000022649765 0.27119565726162675 0.10070034619284313
0.9991733573911575 0.0820000022649765 0.30914225872245643 0.09255865079335988
0.42154722616129425 0.0820000022649765 0.26986239365714226 0.03922405885757951
0.5943512631390803 0.0820000022649765 0.2732108149203059 0.03997054536495568
0.23501484606498158 0.0820000022649765 0.2577671113439945 0.03594704269620849
0.7239082790164112 0.0820000022649765 0.28465675419726155 0.041957845291944636
0.6256474855497176 0.0820000022649765 0.25320934465823264 0.03893825616079213
0.9690491548365165 0.0820000022649765 0.30743012178572654 0.05417106418708231
0.7549195280664445 0.08200000226497652 0.24524656153498497 0.041334582821858847
0.9185155493304977 0.0820000022649765 0.28675377473734065 0.041015059903680325
0.6067944957364452 0.0820000022649765 0.26260514570146587 0.03954652423777611
0.40328885567670214 0.0820000022649765 0.26130245813484065 0.03935285228099174
0.741134017587526 0.0820000022649765 0.25686317108723705 0.03869072799497987
0.4619803231457206 0.0820000022649765 0.24904839983904198 0.04024802352675444
0.9078186581100058 0.0820000022649765 0.2550547599193537 0.037977580412264185
0.9845865918159372 0.0820000022649765 0.26800418613437504 0.10744551639324137
0.5753603690074499 0.0820000022649765 0.2732625032190852 0.03879350896052137
0.6489015713228024 0.0820000022649765 0.2538051443032098 0.039451858836644906
0.6118737821781627 0.0820000022649765 0.2800577956826389 0.041572870607553325
0.19692964896637538 0.0820000022649765 0.254027532716998 0.039019490622726354
0.20768625567581167 0.0820000022649765 0.25431276794974517 0.03955062417119852
0.5246068565508949 0.0820000022649765 0.2713956572159749 0.0413980722378392
0.5590228514275443 0.0820000022649765 0.25228747141835567 0.03681630573171299
0.897543945595795 0.0820000022649765 0.2786572084784503 0.041233948448726306
0.3222674942622477 0.0820000022649765 0.2468869789419502 0.03901356500893741
0.9585480185825193 0.08200000226497652 0.24742545657206816 0.039868762651742315
0.41380457096148426 0.0820000022649765 0.2628085781742082 0.04118523777519368
0.5503695105944308 0.08200000226497652 0.24779552337868377 0.03877393141218587
0.272751498967394 0.0820000022649765 0.25976909752057725 0.03801914466625861
0.9356379568460753 0.0820000022649765 0.25900521615737276 0.04449010497416242
0.6680559562311709 0.0820000022649765 0.2804049117151589 0.04096275071333856
0.9505571109868943 0.0820000022649765 0.26484116140663216 0.039573680799792316
0.09161955078671644 0.08200000226497649 0.24862050199394825 0.03992845609358912
0.18823062678721605 0.08200000226497652 0.2449742428980433 0.038428805556916065
0.8852510985174213 0.0820000022649765 0.2962071443296638 0.03943396269950894
0.41640277710549667 0.08200000226497649 0.2515301346162947 0.041062757584416694
0.9413351684642687 0.08200000226497649 0.26944504453545703 0.039462744251824736
0.7299878694016055 0.08200000226497652 0.2516248032297549 0.03947213761771106
0.9024060507813471 0.0820000022649765 0.3045026199170613 0.03936966973420887
0.29223696956521206 0.0820000022649765 0.2562119215498182 0.03754337555989271
0.8870611701133793 0.0820000022649765 0.25080307967875803 0.04069379216378664
0.5371089199727913 0.08200000226497652 0.2508931935725384 0.04176196452861506
0.4439139748220412 0.0820000022649765 0.24680184887124343 0.04100724208315305
0.15861247795324782 0.08200000226497649 0.24927919350451364 0.03998113551190319
0.7731620866868457 0.0820000022649765 0.24419896274511985 0.03930997185724631
0.4866934008754202 0.0820000022649765 0.2698602088549979 0.04106891038281907
0.919145597605996 0.08200000226497652 0.2568690657488105 0.03977550446710033
0.5849083389805626 0.0820000022649765 0.2761647517339046 0.03734910186600624
0.7538437587407608 0.0820000022649765 0.28576013017996016 0.040430856274717236
0.3924283548749737 0.0820000022649765 0.2633385453130028 0.041364710949935136
0.5697808333781025 0.0820000022649765 0.25642607347690305 0.0379483377999653
0.32858679284296116 0.0820000022649765 0.25449576348063674 0.0398511825597381
0.8582074157439646 0.0820000022649765 0.30362064844453396 0.04156870989544658
0.22029080665524542 0.0820000022649765 0.2545751789899326 0.03882418209495668
0.4965975088397381 0.0820000022649765 0.27603878467183696 0.03903630228536874
0.8107682478955393 0.0820000022649765 0.25920140580310574 0.03811636080677577
0.6200942549604563 0.0820000022649765 0.30064412511877986 0.04224113807161221
0.7697656959482578 0.0820000022649765 0.3058058720838216 0.04084149978732906
0.6779390081433256 0.0820000022649765 0.3085462513835894 0.039139107753355565
0.015991734178593106 0.0820000022649765 0.2982892142820068 0.10742219889792096
0.4492272370663884 0.0820000022649765 0.31203930799915924 0.039860819511422625
0.034989711099336115 0.08200000226497649 0.26424519200328267 0.04343497932837192
0.5681790521859441 0.0820000022649765 0.30571241272488303 0.04273900098990475
0.035762113453932265 0.08200000226497649 0.28893508342422486 0.040181835099046284
0.04694180349454753 0.08200000226497649 0.2905006325665997 0.037984893342451385
0.5179042979405682 0.0820000022649765 0.2964443749325596 0.039817975537381166
0.3774890297531832 0.0820000022649765 0.28769302851721135 0.04029537482177834
0.6994155850132165 0.0820000022649765 0.29548304224959543 0.04031798154109428
0.32640810012769284 0.0820000022649765 0.2913820072541141 0.041057149522321125
0.13308694498398171 0.08200000226497652 0.25906027941580134 0.040074926972943695
0.28524253565231883 0.0820000022649765 0.312086550336369 0.03808828609963452
0.2345956610874251 0.0820000022649765 0.2905660941887671 0.039000298833365914
0.21996842879365358 0.0820000022649765 0.29033400014555527 0.039140498640682364
0.6934265043388684 0.0820000022649765 0.30618255267203975 0.038185655988995246
