x y z curv
0.8826586270239731 0.0860000029206276 0.2098569099670894 0.2159124791843609
0.8553305949483843 0.0860000029206276 0.21152895972593708 0.23399951607521144
0.8445594180747075 0.0860000029206276 0.2133323204461601 0.20688278584894612
0.8957182099482617 0.0860000029206276 0.2122619898772723 0.2042726033407087
0.8343137081233648 0.08600000292062761 0.2272888770573997 0.14089561134088568
0.9094479670561075 0.0860000029206276 0.22871158724905602 0.17369468721512918
0.9139590801275764 0.0860000029206276 0.21076675446836213 0.21791750360138212
0.9298624720908818 0.0860000029206276 0.2200290910236041 0.17000556996885305
0.8882049637026409 0.0860000029206276 0.2208629525983468 0.2010741963777901
0.8758779034327284 0.0860000029206276 0.22113084533134644 0.19272032448435825
0.8927738037144107 0.0860000029206276 0.2302292987682653 0.17676408893233472
0.9198640494746302 0.08657236027002177 0.23100000619888306 0.1650075222665867
0.8597870540824325 0.08713058364090932 0.23100000619888306 0.1651718507635725
0.871149136289206 0.08947112402201907 0.23100000619888306 0.16463044294206924
0.8453576559306564 0.09097307567255439 0.23100000619888306 0.14094071933822652
0.9322682643967974 0.08890561534114969 0.23100000619888306 0.11021034985222038
0.0933009581894857 0.09099999815225601 0.22247789955778074 0.18082370285613408
0.09192147707624962 0.09099999815225601 0.21133442680257528 0.1798485264043692
0.07528839235445875 0.09099999815225601 0.2105409055684887 0.19010276036094012
0.10629182227021858 0.09099999815225601 0.2245397029751075 0.16508999725466644
0.0680282855796231 0.090999998152256 0.2270010106114952 0.1404512207509342
0.13705982135321343 0.09099999815225601 0.20882455208570494 0.16521396706528843
0.12327118822015683 0.09099999815225601 0.21530276199505238 0.21160967644818637
0.16448312594125206 0.09099999815225601 0.20214566437584608 0.1327627873305575
0.14123232462968 0.09099999815225601 0.22160070743623478 0.1957608343003405
0.10379250196891719 0.09099999815225601 0.20811755789250522 0.15196286672966294
0.15676951167542277 0.09099999815225601 0.21804128266708322 0.21036537369217917
0.1129077320893113 0.09099999815225601 0.20369980380622166 0.11409069163800614
0.12281211065019336 0.09099999815225601 0.20513321106625837 0.1309278846413631
0.16699999570846558 0.08883313817194126 0.21237340327064214 0.15940732683599
0.16699999570846558 0.08892107582270173 0.22360475263669427 0.1531497191655809
0.06700000166893005 0.08733527540777906 0.21053315849700543 0.18292725795435807
0.06700000166893005 0.06849277618988298 0.20008041724129175 0.1804096578201316
0.1338838892233765 0.09074714028980779 0.20000000298023227 0.1411355311565366
0.0877839642931981 0.0775900439519635 0.20000000298023224 0.1939115725875858
0.10095148828624735 0.08368250688678507 0.20000000298023224 0.1637445752911879
0.07691102994594762 0.08324567119828927 0.20000000298023224 0.1790639498070565
0.08888508476873086 0.09023145653900022 0.20000000298023224 0.11873186239818936
0.15346704957161328 0.08747001549711493 0.20000000298023224 0.1598806447325476
0.14358660692192232 0.08982842586687087 0.20000000298023224 0.13193020784714962
0.1283481620952455 0.08122601627423531 0.20000000298023224 0.167731249230679
0.06905692276721684 0.08801874141154375 0.2000000029802322 0.12676356189355875
0.11978646892347303 0.07785700952855283 0.20000000298023224 0.19645804221029411
0.16686964347255312 0.07965496375933596 0.20000000298023224 0.15650222990350227
0.15826386517645852 0.07474487902168456 0.20000000298023224 0.19021812203640046
0.13706837110419362 0.0703334431646468 0.20000000298023224 0.20621115956853922
0.14632035071830995 0.07789931983140447 0.20000000298023224 0.18206910959393224
0.11891458810528359 0.06783870651696161 0.20499999821186066 0.2183606087044748
0.07787477894758477 0.07380806235231077 0.20499999821186066 0.22044241984194493
0.0993029544402225 0.07073160692620044 0.20499999821186066 0.21189961954341718
0.06788606470723578 0.07678038889061212 0.20499999821186066 0.18521911744363542
0.08670276513868243 0.06478349216486207 0.20499999821186066 0.23860440084462473
0.11092104962776389 0.07685317049361992 0.20499999821186066 0.20145960884581865
0.15600666476346053 0.06439448235957787 0.20499999821186063 0.21321624048385626
0.13733783831136437 0.08123428744623903 0.20499999821186066 0.19443016251995496
0.14627410916840763 0.07005761837408796 0.20499999821186066 0.23907786771689954
0.07237906958787708 0.0860000029206276 0.21877949092606797 0.21729575712223734
0.08362961156984874 0.08600000292062761 0.20796203835378885 0.21694408066326878
0.08343029175739372 0.0860000029206276 0.2174693340367218 0.250260576286491
0.11306716989226848 0.0860000029206276 0.21740406134596396 0.1878308969243841
0.14912575345372817 0.0860000029206276 0.21256756210630534 0.23895434972472093
0.13529988656581163 0.0860000029206276 0.23069969577120442 0.157723553554717
0.12407196200768131 0.0860000029206276 0.22744505970022355 0.17135158016727156
0.1315938299266634 0.0860000029206276 0.2198185806653999 0.19951390603548788
0.08595998053123644 0.08664023577217725 0.23100000619888308 0.15113832679495875
0.07538665324295817 0.08897183538274675 0.23100000619888303 0.14986397412187805
0.16297085434939718 0.09082112340638088 0.23100000619888306 0.15026088127354048
0.1490945713610839 0.08819507848225672 0.23100000619888303 0.14742848114565835
0.11381454213088701 0.08882264264229477 0.23100000619888306 0.1382508388493826
0.018696991050077893 0.021998835427684722 0.28999999165534973 0.1792397098217612
0.015118244375173444 0.010538906920533518 0.28999999165534973 0.1712321467476491
0.011045888518676843 0.030748903365546688 0.28999999165534973 0.16889570409136273
0.018751051384114804 0.03779081794748719 0.28999999165534973 0.1687012617842372
0.011584706842604554 0.04384941560850583 0.28999999165534973 0.18013563946083702
0.029619199854626774 0.01716144121772315 0.28999999165534973 0.16579261391939856
0.04804308402124069 0.04727391193674413 0.28999999165534973 0.1557770494437981
0.08570574514042527 0.045308199520825154 0.2899999916553498 0.15077583744495257
0.01408425404456281 0.0578174665557348 0.28999999165534973 0.14953890253793126
0.11233179956304028 0.018198183652876475 0.2899999916553498 0.13799330395832862
0.11803159891680781 0.045160957612661666 0.2899999916553497 0.15020006456292284
0.1217391012727807 0.02636938637974217 0.28999999165534973 0.15151094961879422
0.12773313271614528 0.037650602375294905 0.2899999916553498 0.1503847080241003
0.07638180410119014 0.009246994404652927 0.28999999165534973 0.13337826328929442
0.12827767046844812 0.018601882147883938 0.28999999165534973 0.15493591843853388
0.14196026296335212 0.028744629507295803 0.2899999916553498 0.15472781473154912
0.15155938059762603 0.03893168047799925 0.28999999165534973 0.15786254999250438
0.16114504762700982 0.04614467112722952 0.28999999165534973 0.13829180622316567
0.20095149089345365 0.03338212077996336 0.28999999165534973 0.14972514999909287
0.22801611463283575 0.019941223648844035 0.2899999916553497 0.1307576804930834
0.18696188447087728 0.047746700552497585 0.28999999165534973 0.13530013542999852
0.2328163282693057 0.04573136392952012 0.28999999165534973 0.14945337404586162
0.2618413059678563 0.033046455441986075 0.28999999165534973 0.14823688402911328
0.272470385694227 0.039970616946781494 0.28999999165534973 0.16803374775498686
0.2808089958653222 0.02954153507185782 0.28999999165534973 0.15609994238937255
0.2677803059513948 0.014042112913340387 0.28999999165534973 0.14133782155899408
0.2976238069041106 0.04467607870995795 0.28999999165534973 0.14832848858099576
0.29927119147193004 0.021370124709170928 0.28999999165534973 0.15155984758020336
0.2444183570166075 0.048084111746436786 0.2899999916553497 0.1434478605530565
0.09105624040153995 0.004445318036470656 0.28999999165534973 0.11240450469424121
0.3113114969692914 0.017110847466955015 0.28999999165534973 0.14938163202450966
0.3215031319755932 0.03274446995672305 0.28999999165534973 0.15204213376285008
0.0769201934694115 0.05653452125631061 0.28999999165534973 0.12168016781662415
0.3516493813417727 0.033628273549091446 0.28999999165534973 0.14558285217348166
0.25747356357230344 0.010889940434407698 0.28999999165534973 0.13911392471333772
0.3713434921241961 0.021043700180539884 0.28999999165534973 0.14189414652431867
0.38185404705088155 0.016035458037547756 0.28999999165534973 0.1434334137009076
0.1876731828475831 0.007352966858592409 0.28999999165534973 0.1259960735267275
0.4101086886365816 0.03147917571040741 0.28999999165534973 0.14261051591971644
0.40990785439291116 0.020946653906720646 0.28999999165534973 0.1487154593685424
0.42076473197323305 0.03162335524917392 0.28999999165534973 0.15466926877188444
0.3762164540078148 0.04672383273966825 0.28999999165534973 0.13310012399567347
0.2644113552778943 0.051324189966854936 0.28999999165534973 0.13455409899682388
0.30238873032355296 0.009587227008962963 0.28999999165534973 0.12861642136284226
0.5000299596730708 0.017114955284801406 0.28999999165534973 0.1457373583866615
0.5124084309565394 0.038340951090998936 0.28999999165534973 0.1319108659509932
0.5291466151703689 0.016409573754804486 0.28999999165534973 0.13676010219058568
0.5483846855534443 0.016938259775233774 0.28999999165534973 0.13962224650657729
0.5711382608122195 0.024758349380936295 0.28999999165534973 0.15399388941234296
0.39201780295787486 0.010224239778869541 0.28999999165534973 0.1385375847457839
0.5995218600551264 0.017316089841299953 0.28999999165534973 0.15466502360633722
0.6078257767734091 0.03500388388208122 0.28999999165534973 0.15129548532836934
0.6213173477985741 0.03473518453228786 0.28999999165534973 0.14546584478338537
0.6280667009177477 0.015391947883881965 0.28999999165534973 0.14478796655050194
0.3857794010212454 0.05087148868161725 0.28999999165534973 0.12310823256792353
0.6479963912730815 0.03266989676934951 0.2899999916553498 0.15603130977821011
0.6385981259731919 0.014899530784994968 0.2899999916553497 0.13751129280541152
0.6580405018380011 0.027754065894991464 0.28999999165534973 0.16139827176801314
0.6606235663321441 0.016585147500415044 0.28999999165534973 0.13934103925163308
0.6617115339075061 0.03696007037368306 0.28999999165534973 0.14220666501563592
0.43317532836873573 0.05023364441616199 0.28999999165534973 0.13478361136325637
0.6715777089077478 0.03526228228071735 0.28999999165534973 0.14714525232175532
0.6704756793890887 0.02187102078211158 0.28999999165534973 0.1376515473850789
0.6564166700358532 0.04547567714098162 0.28999999165534973 0.14380249762659644
0.6813357317532025 0.03721579308016078 0.28999999165534973 0.14729014285714606
0.6920542170975585 0.030365796780383345 0.28999999165534973 0.15136994187631195
0.7024206543229626 0.01878995673213458 0.28999999165534973 0.16651171649427662
0.7119805438675696 0.02772096447589506 0.28999999165534973 0.14122038679593574
0.7120675100652871 0.039233981314925746 0.28999999165534973 0.1484865614486548
0.08710149202036456 0.05817935236912174 0.28999999165534973 0.10858186977635884
0.42094605078888875 0.00858193633626496 0.28999999165534973 0.12074381329772803
0.7401102215348756 0.018563604435293108 0.28999999165534973 0.13760874739697507
0.757694451545348 0.017621662721305355 0.28999999165534973 0.14769364901290205
0.6111995651639968 0.012144638043683053 0.28999999165534973 0.12704222784967345
0.7611074414747707 0.03420372841858279 0.28999999165534973 0.14896208136709221
0.7710850468043019 0.03614597597139126 0.28999999165534973 0.15649716237255504
0.7790417803301407 0.019857018616670028 0.28999999165534973 0.16034969106040248
0.789715735023744 0.021110756530415206 0.28999999165534973 0.14853440856490616
0.7921008996948549 0.03277647715050712 0.28999999165534973 0.15796918692642153
0.45417697968618564 0.008587704996456046 0.28999999165534973 0.1211250718583491
0.5857323923246592 0.04915248843102281 0.28999999165534973 0.13594709387371987
0.8385717393462904 0.01940248743766327 0.28999999165534973 0.17208748250980344
0.529324675691553 0.05070635976308919 0.28999999165534973 0.11743570161949464
0.8615911483416554 0.015770315041905958 0.28999999165534973 0.1565009530396205
0.694966990100355 0.012043420188257825 0.28999999165534973 0.135634063787744
0.8712042368482591 0.024977717654234465 0.28999999165534973 0.13904159778803798
0.8795036061726867 0.01673975145277426 0.28999999165534973 0.1634382165364799
0.5188074484247861 0.05128157090444947 0.2899999916553497 0.13081148163739809
0.901481408941544 0.029870174253007236 0.28999999165534973 0.15060320620756815
0.7819653660067435 0.04705264851883375 0.28999999165534973 0.1480050183353252
0.830627154797186 0.04639390130772305 0.28999999165534973 0.13841275559920901
0.9202224989688402 0.024021950854582558 0.28999999165534973 0.14982330344562556
0.9216726353316907 0.038018862212773154 0.28999999165534973 0.14228094072096137
0.9510000145338181 0.035955302482072564 0.28999999165534973 0.14629621097021683
0.6579884486557823 0.05783323328039381 0.28999999165534973 0.1170845428431537
0.8455844255528 0.05998095646611708 0.28999999165534973 0.10376960142658648
0.7790307810480667 0.05861603012970957 0.28999999165534973 0.12163953556242552
0.7452706945768164 0.05955255897146294 0.28999999165534973 0.09949550766951248
0.7282087346013435 0.05649795782756818 0.28999999165534973 0.11296351746465653
0.06139288247053863 0.05954543646617355 0.28999999165534973 0.1074000621575984
0.1907127711211029 0.05847728740121198 0.28999999165534973 0.10816324541101538
0.9820225204419211 0.05832157696195717 0.28999999165534973 0.14022655448785942
0.45083728166550263 0.059305158986559664 0.28999999165534973 0.10936775431060416
0.9118793319032721 0.05516885365916824 0.28999999165534973 0.13053731839715496
0.8950562359005533 0.052497045228816444 0.28999999165534973 0.13510661229636498
0.966296388176484 0.0469415423816702 0.2899999916553498 0.14840286867589111
0.2827640433137377 0.055903240156300125 0.28999999165534973 0.13391377188745748
0.9236640112538648 0.04813580087191348 0.28999999165534973 0.15446209764772056
0.16257959418132953 0.059561972174911874 0.2899999916553497 0.1202697110704581
0.22106329061549523 0.057438047556117824 0.28999999165534973 0.12157650808545103
0.5041903236583563 0.056678411576558715 0.28999999165534973 0.1204432809105842
0.9256157984388844 0.05958939119005953 0.28999999165534973 0.1185259430047763
0.541727681499766 0.057538575046204715 0.28999999165534973 0.1128956887967158
0.770602534254573 0.05194978542247152 0.2899999916553497 0.12225604433768184
0.3973883018773552 0.05445663014535765 0.28999999165534973 0.11571944534615708
0.8833386734433727 0.059633192592399395 0.28999999165534973 0.12376310010991888
0.5712354184433056 0.05211506206814286 0.28999999165534973 0.13047628846435766
0.9619025348643065 0.028238222062107174 0.28999999165534973 0.14675999074841004
0.6689057336136046 0.010387100641878734 0.28999999165534973 0.12310209666021775
0.8532111665827786 0.00800953403303231 0.28999999165534973 0.11694565735022594
0.5236239361426424 0.00019407079952319284 0.28999999165534973 0.10957012025613562
0.15498819627970034 4.472037719373144e-05 0.28999999165534973 0.11778532623751627
0.6023697399518215 0.008243591701904734 0.28999999165534973 0.12549107702430473
0.8965356964214594 0.01231357313467964 0.28999999165534973 0.13863795338331455
0.40275547704643005 0.0015034403067980052 0.28999999165534973 0.11511823289390442
0.7881299624175936 0.010018138850119885 0.2899999916553497 0.12964595090396616
0.28368645761958144 0.002446815892030939 0.28999999165534973 0.11831592502806364
0.6613108499119796 0.0004445106832756241 0.28999999165534973 0.11469960712886758
0.9063664134268659 0.008426811569927126 0.28999999165534973 0.11689941596321375
0.5336265100155168 0.0003682429923812182 0.28999999165534973 0.09246182014885386
0.4327947747721668 0.001875849949340763 0.28999999165534973 0.10967017093673465
0.799528251778505 0.008212006908076048 0.28999999165534973 0.14797932343227224
0.58100340744223 0.0038286190459161707 0.28999999165534973 0.1165541675437636
0.5142095445431155 0.006230033011494461 0.28999999165534973 0.12379297075684688
0.006689517149845725 2.8238218492299628e-05 0.28999999165534973 0.13529316502535185
0.7242139536617127 0.010804793814347019 0.28999999165534973 0.12902603347062608
0.8871179012295578 0.008509704361183278 0.28999999165534973 0.12984777035794196
0.4129378789451871 0.0009981487430811599 0.28999999165534973 0.11254976158250975
0.9981751100661631 0.0013116576476501674 0.2899999916553497 0.14122248507478852
0.9595725737875338 0.03141340127737494 0.30000001192092896 0.09239465578113958
0.35111072575601854 0.005517044260096169 0.30000001192092896 0.12136955801275778
0.6551851248544273 0.01032637971783578 0.30000001192092896 0.10506301255458421
0.938525041462491 0.04311644309412438 0.30000001192092896 0.11131769732354227
0.9405391747189794 0.021361003876965344 0.30000001192092896 0.09926442236857978
0.9383022213063839 0.033431274269367955 0.30000001192092896 0.09855973935598693
0.6712570461413867 0.010763065650626097 0.30000001192092896 0.11101469596963509
0.9284073130875276 0.029703073247397863 0.30000001192092896 0.0878726008258357
0.1900762205254446 0.056892657819509716 0.30000001192092896 0.11974885322314859
0.921356659816857 0.03986996464040684 0.30000001192092896 0.10409348561254168
0.9202912176214793 0.015816638213480862 0.3000000119209289 0.09946718145475442
0.9103838824362814 0.034020961747412266 0.30000001192092896 0.09175624176604252
0.9098993333980171 0.01928318484913056 0.3000000119209289 0.10577598465944599
0.6019029006484663 0.05010505590177643 0.30000001192092896 0.1113016347874001
0.20300280717132113 0.05661108535587126 0.30000001192092896 0.11777272973288742
0.8991970731605723 0.027598722276991488 0.30000001192092896 0.08890977583070891
0.8879983978568207 0.020763280094738344 0.30000001192092896 0.09361604241593495
0.4859146024659441 0.05181726214271867 0.30000001192092896 0.10911126019236708
0.8260134477472848 0.04595931140240314 0.30000001192092896 0.10698163887692662
0.8794443440261319 0.030786799501846547 0.30000001192092896 0.08501789847911138
0.8315132409323882 0.014205423156470413 0.30000001192092896 0.09726439548673614
0.8715225716187099 0.041184269501320654 0.30000001192092896 0.09938082759880736
0.8683120161719443 0.027870020009867963 0.30000001192092896 0.09111212340438295
0.7611523019362084 0.013090103144397658 0.30000001192092896 0.10166291031716934
0.7853652794136593 0.04644978150244481 0.30000001192092896 0.10649699263279022
0.8621740442515056 0.0375561254743382 0.30000001192092896 0.09862566484752087
0.8582323787169279 0.020559968895879476 0.30000001192092896 0.0992491585503203
0.849188865621432 0.044405103731375316 0.30000001192092896 0.09245369084238896
0.5600937798102923 0.0500976864090671 0.30000001192092896 0.11647302410430366
0.8384561606526915 0.042189924984268705 0.30000001192092896 0.09444550079576419
0.8380938617566386 0.026382832593707238 0.3000000119209289 0.10185441357919603
0.6199151971426421 0.011080305180913345 0.30000001192092896 0.10526363953637706
0.8308213859834488 0.03661560091576183 0.30000001192092896 0.09550675358453875
0.8286440699338399 0.02403551537398264 0.30000001192092896 0.09929439008072274
0.7620896741115124 0.04625699642396802 0.30000001192092896 0.10554898998029462
0.346926647462092 0.0536443137457291 0.30000001192092896 0.11030635650604512
0.8204796819353308 0.03098154236490956 0.30000001192092896 0.0883029082627575
0.8191482779101948 0.01986091464988268 0.30000001192092896 0.09431898455052087
0.8105502243444307 0.03685243725650902 0.30000001192092896 0.09533276381765365
0.8078540306849143 0.022448867274440308 0.30000001192092896 0.08956358978124894
0.7979290100113475 0.025740832918554543 0.30000001192092896 0.08640280788981564
0.79034605178057 0.03840478720253429 0.30000001192092896 0.10132285957130642
0.6905911041235699 0.046850248957486684 0.30000001192092896 0.10051045669738512
0.7798806093335403 0.03301153238880178 0.30000001192092896 0.09020115015587707
0.6302595146620927 0.04776093000137289 0.30000001192092896 0.09940738807888351
0.7583559986833692 0.03441264098497218 0.30000001192092896 0.08524647550735814
0.7606097728216875 0.025003222875174123 0.300000011920929 0.09299663015540298
0.5973751932995127 0.01198208347607054 0.30000001192092896 0.10645708248537254
0.73545973384761 0.0452551865596697 0.30000001192092896 0.09455536963966227
0.3298529528790555 0.053323143577770564 0.30000001192092896 0.10375997869236749
0.7388496443062392 0.026610066453142976 0.30000001192092896 0.08130652598994335
0.7313549830850384 0.016579666726676108 0.30000001192092896 0.09401911750233412
0.7219625678494651 0.042440767775956345 0.30000001192092896 0.10797655197560989
0.7197824251190142 0.01582297339773443 0.3000000119209289 0.09507385310085956
0.7110121464097128 0.03700651492868509 0.30000001192092896 0.10477474882603126
0.7111163851118544 0.0231807555571297 0.30000001192092896 0.09340415422214703
0.5500860953422178 0.011589725553023853 0.30000001192092896 0.10571002025057107
0.6631850063510593 0.04580505575385994 0.300000011920929 0.10471935725435276
0.6978498905219632 0.019623832739644253 0.30000001192092896 0.10292364064987956
0.33501307149704646 0.007179664777024772 0.30000001192092896 0.11090411735981462
0.5757330718626945 0.012455022374044996 0.30000001192092896 0.10887966498849563
0.6892769014100899 0.030438380603408068 0.30000001192092896 0.08999221939190578
0.5282341057794556 0.04850226567719524 0.30000001192092896 0.08639470548386609
0.6786954750680034 0.04320176806999818 0.3000000119209289 0.09508928145540065
0.6813602915889995 0.017616901745825878 0.30000001192092896 0.09703361042731903
0.6783858534782254 0.02910684736647981 0.30000001192092896 0.08994662807470206
0.47144082794317504 0.010372336427729821 0.30000001192092896 0.12008978646838485
0.4868324980586731 0.010817031544969082 0.30000001192092896 0.110187318625596
0.6695794926531115 0.0384805204458806 0.30000001192092896 0.0843001081546155
0.6620598458924811 0.02414366785097473 0.30000001192092896 0.08768243968698608
0.6524346594276421 0.039030552174677234 0.30000001192092896 0.09967880720152439
0.6497469317777914 0.025245643471697672 0.30000001192092896 0.10275973864022367
0.23917229966786846 0.054482752592511965 0.30000001192092896 0.11779159760557643
0.6404293558806329 0.04117226216416211 0.30000001192092896 0.0990803713964938
0.6385060619927964 0.019277206609588524 0.30000001192092896 0.08632375351855795
0.6279988995110529 0.035958700640299185 0.30000001192092896 0.09729344471841729
0.6123138793773608 0.019582136189649733 0.30000001192092896 0.0978068576482458
0.6122539553486087 0.03097982937017176 0.30000001192092896 0.10386063945784056
0.6008162425682905 0.02293996300280856 0.30000001192092896 0.0870681121996937
0.5987724235470626 0.03551950437953192 0.30000001192092896 0.09086296631725377
0.5879913865668582 0.03408908432490512 0.30000001192092896 0.08941615303659453
0.579485487476071 0.04214867968849269 0.30000001192092896 0.10778587776267459
0.5783651232140444 0.02420252640357174 0.30000001192092896 0.10172472059520724
0.5683531313831178 0.038369578332669615 0.30000001192092896 0.09738707340150139
0.5114978977931917 0.013429499073048688 0.30000001192092896 0.11092550852622396
0.06239886346627299 0.05835312268286407 0.30000001192092896 0.10582555589405651
0.5602095698070004 0.029623072179269856 0.30000001192092896 0.09309063333145942
0.5598597616895591 0.018249901272150846 0.30000001192092896 0.11558037124949613
0.11139871314174689 0.0029873844655491505 0.30000001192092896 0.10338355987583775
0.5485514945525016 0.03937325611417977 0.30000001192092896 0.09341038361604445
0.5384276138608355 0.041157130998162 0.30000001192092896 0.0958404127125373
0.4529551509536445 0.012536617267480041 0.30000001192092896 0.10657983941559644
0.5296425206069686 0.03220477289470415 0.300000011920929 0.09035037676049036
0.3835908447886236 0.010876067484022308 0.30000001192092896 0.11684583403088813
0.4983214848869227 0.04594614541402517 0.30000001192092896 0.08557015061701367
0.5210972589977324 0.03905099229997132 0.30000001192092896 0.07729496782375898
0.518364187398332 0.028418792016086214 0.30000001192092896 0.08499553759036838
0.4964978641749036 0.01429384141314587 0.30000001192092896 0.0995339898922943
0.5084023933228227 0.04107233728563737 0.30000001192092896 0.08885085432963989
0.3218963452543084 0.009444264951940076 0.30000001192092896 0.11347644669333841
0.4525613469717991 0.04648762172550749 0.30000001192092896 0.10670198622860844
0.29410364245292464 0.008905111463392117 0.30000001192092896 0.10577359486269722
0.4812020631920948 0.02864811836873457 0.30000001192092896 0.08933076496900502
0.4704840100331994 0.03450882579788354 0.30000001192092896 0.09980435244375337
0.41543794466035877 0.01330584741686331 0.30000001192092896 0.105579959490101
0.46224205082438485 0.029631409277783533 0.30000001192092896 0.08696611563662493
0.27256540002633456 0.008858623113580807 0.30000001192092896 0.10726787327551467
0.4273283575058844 0.014155500133938218 0.30000001192092896 0.09079659449084664
0.451244585026471 0.02853921230825432 0.30000001192092896 0.09251355994367569
0.13063591096411337 0.055653863358894176 0.30000001192092896 0.12088169615882485
0.4402812114773638 0.04222514601713384 0.30000001192092896 0.09612689848926143
0.44026626453263673 0.022220693980811536 0.30000001192092896 0.09457922855367794
0.25577767298772247 0.008679451833603401 0.30000001192092896 0.11588929598680513
0.42926623538943204 0.040503629583891705 0.30000001192092896 0.0860971297810959
0.4292250687755269 0.029198754387678987 0.30000001192092896 0.08078052453684488
0.39702502197321327 0.01381429358298039 0.30000001192092896 0.10228308311116094
0.4184980064019028 0.040130053852904156 0.30000001192092896 0.1013098721325201
0.4177619023063136 0.02960842348098006 0.30000001192092896 0.08677740715113523
0.41127596422268375 0.022413545080882755 0.30000001192092896 0.10170362518565564
0.40244274039588335 0.04495229380501011 0.30000001192092896 0.09459553234216996
0.401899055780338 0.027225715538854993 0.30000001192092896 0.08801392882184303
0.37180968820884913 0.014011817610029377 0.30000001192092896 0.127888775665231
0.3917640575799287 0.023896675350937695 0.30000001192092896 0.10438827756186837
0.16242436072701424 0.05362795231126859 0.30000001192092896 0.1120170951932446
0.38137743522904477 0.03775153916505687 0.30000001192092896 0.09996590694130351
0.2462581247573131 0.009907062699267239 0.30000001192092896 0.10419319261853587
0.371908054042706 0.03201791700839299 0.30000001192092896 0.08722246615207384
0.3623939720273542 0.02976681981037154 0.30000001192092896 0.08866949291563478
0.3586366929579296 0.038805348981707004 0.30000001192092896 0.09280336670264878
0.35902142562837197 0.02019413735417796 0.30000001192092896 0.09940625537001999
0.2172656050652063 0.009183330124387436 0.30000001192092896 0.10792644263453495
0.3482185685095661 0.026355726388207153 0.30000001192092896 0.110395322522855
0.2908790794430586 0.04746898417051257 0.300000011920929 0.09917306592356076
0.34179874563211626 0.014997210614831207 0.300000011920929 0.11464685477955805
0.33097643123883547 0.03179760744438847 0.30000001192092896 0.08246202899600558
0.3307490869979285 0.019456855109506566 0.3000000119209289 0.10766568214086966
0.2835358966960591 0.012930530902509615 0.30000001192092896 0.10381863832236048
0.2809866650775317 0.04690074793319424 0.300000011920929 0.10803217675899392
0.3178700540546092 0.04261257109709814 0.30000001192092896 0.0867712304239255
0.31765278512762024 0.023862379010257888 0.30000001192092896 0.08515768641994455
0.31244757843429427 0.015948218401979197 0.30000001192092896 0.10235922100193313
0.3013713788966239 0.029270859375164965 0.30000001192092896 0.08961222810778609
0.30134490554991855 0.01820802129834132 0.30000001192092896 0.09565652505689194
0.2904291133636609 0.02221750266914909 0.30000001192092896 0.09864031650810379
0.22952225985305616 0.011792468507281325 0.30000001192092896 0.09966867653199143
0.25726096905547835 0.04667999924983516 0.30000001192092896 0.10810732653024895
0.2778698797261218 0.021343911135912736 0.30000001192092896 0.09716620189063872
0.27248590250746973 0.031046532955540582 0.30000001192092896 0.09134658052807142
0.22293663692408197 0.04770408903555874 0.30000001192092896 0.11043305126440338
0.2622763632227974 0.03177735313462413 0.30000001192092896 0.09762210435920503
0.25861105903030984 0.020997387895260407 0.30000001192092896 0.09842599274359304
0.1950702131776142 0.01158582684705679 0.3000000119209289 0.10318889002978124
0.2518673878447421 0.02833678610476536 0.30000001192092896 0.09567075374878065
0.19916175090436797 0.04812098150196276 0.30000001192092896 0.09751423204782383
0.2424715370344831 0.0370513054311513 0.30000001192092896 0.09248452600751471
0.240636388520578 0.022312548890292657 0.30000001192092896 0.0929737218936864
0.23233857769629584 0.04108531784477546 0.30000001192092896 0.10494564504105303
0.2107457933508784 0.045593901057224856 0.30000001192092896 0.10002869807888883
0.1844167262004186 0.012972324898868171 0.30000001192092896 0.1003659634361008
0.211507729897073 0.028776083845666697 0.30000001192092896 0.08932869213118856
0.20001971382168413 0.03113215573005994 0.30000001192092896 0.0990647028242743
0.20189551631886318 0.02029402277380491 0.30000001192092896 0.09244949635378782
0.17392462544382836 0.013174930906827713 0.30000001192092896 0.10454014480336041
0.1918343588653882 0.024021374369184043 0.30000001192092896 0.08327231152845212
0.18991371121738876 0.034565585831990465 0.30000001192092896 0.09931420525779298
0.18060330678555842 0.03514705195668354 0.30000001192092896 0.09468295373562405
0.1789396147409419 0.022934822651652285 0.30000001192092896 0.08324757731125922
0.1555641047388755 0.01332488423057766 0.30000001192092896 0.08682151308752899
0.17077221242229743 0.042758297846971084 0.3000000119209289 0.09937779136056783
0.17090116713100117 0.029416293753430387 0.30000001192092896 0.09641688313164545
0.1479386613918961 0.046867222182673 0.30000001192092896 0.1024785102425295
0.16136022932980523 0.04393192261712721 0.3000000119209289 0.10674494540200503
0.16003856099073513 0.02297737088555788 0.30000001192092896 0.09610338562119874
0.13646846303489485 0.013182572107457323 0.30000001192092896 0.08860155232678281
0.12312253586112043 0.04682513508283736 0.30000001192092896 0.09618054423214502
0.13034468103282001 0.03530331256161531 0.30000001192092896 0.09199454248187369
0.12973538624981962 0.025879712397721372 0.30000001192092896 0.07750603123096313
0.013774438072290804 0.0015892017593960885 0.30000001192092896 0.13593541394636538
0.08632216779981267 0.049844958137290465 0.30000001192092896 0.10389492300016691
0.0748325504797715 0.050679553914184286 0.30000001192092896 0.10608459063149316
0.12103554457999638 0.03584187868187139 0.30000001192092896 0.08848635477950632
0.0881445507308192 0.011510066577497733 0.30000001192092896 0.09888793168535576
0.11161534256966182 0.02790514834571673 0.30000001192092896 0.09158796109378574
0.11208099762695711 0.04075314740706986 0.30000001192092896 0.10354245686096054
0.10233861870082325 0.046070645447963215 0.30000001192092896 0.11193149456630101
0.10121213303052629 0.03224512448148207 0.30000001192092896 0.0946681375281929
0.05565163182412046 0.008216255252516779 0.30000001192092896 0.09931982138863957
0.0680373277471265 0.01102083935265128 0.30000001192092896 0.10070566887857862
0.09108266386960027 0.03965190739374687 0.30000001192092896 0.10222754727866953
0.06479055195476256 0.048996747529179124 0.30000001192092896 0.10663150550731325
0.07985723025387026 0.04048722819656256 0.30000001192092896 0.09460540660844582
0.0824334917372302 0.025697943067580987 0.30000001192092896 0.08089102235384162
0.07953650708408164 0.015718595688286645 0.30000001192092896 0.11553821497937941
0.05419732644494988 0.0467945616584758 0.30000001192092896 0.10326031604816441
0.05763034115119387 0.03206705349597502 0.30000001192092896 0.09930086671061424
0.051749181011047425 0.019214483117617392 0.30000001192092896 0.09518919494952882
0.027413700077900827 0.04988244557266289 0.30000001192092896 0.11451714764044038
0.040049152630151574 0.03459446589476605 0.30000001192092896 0.09559295360883388
0.037410895008328074 0.014930109181607275 0.30000001192092896 0.12083967191068572
0.025181254148360983 0.01071659080406025 0.30000001192092896 0.11802708315924836
0.02990840669695908 0.035282040881353574 0.30000001192092896 0.09633806453803974
0.013921186630406809 0.04950018923092119 0.30000001192092896 0.14782545374185393
0.004946653722408123 0.05654539737160456 0.30000001192092896 0.15388947301342598
0.014073450118248685 0.03714380269440143 0.30000001192092896 0.1451109702249802
0.010701889362470768 0.026245696210243002 0.30000001192092896 0.13422021168665055
0.01729727553749033 0.01727993230232768 0.30000001192092896 0.13397099749105337
0.0031390753100025187 0.005359246209549556 0.30000001192092896 0.13894173277444583
0.002688458253996626 0.0386629051627884 0.30000001192092896 0.13470571302243986
0.0017547341298959026 0.01674988749433844 0.30000001192092896 0.1412521437841765
0.8681301692409984 0.013444927478761654 0.30000001192092896 0.10153470012026167
0.9440134794725815 0.01043082670283061 0.30000001192092896 0.09060906903078626
0.40446108604637376 0.0057666534201428876 0.30000001192092896 0.10533075259392125
0.1506190267176671 0.00023075744353784125 0.30000001192092896 0.10953577598370189
0.4245479247701025 0.0021371776614756517 0.30000001192092896 0.10174004935505902
0.6871002078202432 0.0021135772280744453 0.30000001192092896 0.11983057390758257
0.4129545700468855 0.002469934013316662 0.30000001192092896 0.1200846251240198
0.7686156338999399 0.001031888723443913 0.30000001192092896 0.11929445864583565
0.9598146415832338 0.0039641567976515515 0.30000001192092896 0.10421854613184608
0.36271815256411477 0.002928840650091321 0.30000001192092896 0.12276640744367759
0.6589321746313034 0.0006743003807518001 0.30000001192092896 0.10817075773272895
0.9051635317664767 0.005322167629908959 0.3000000119209289 0.11305530623842969
0.8664170232817722 0.002023229038436667 0.30000001192092896 0.11014184870910985
0.8372479209697907 0.0035929241475977426 0.300000011920929 0.10602448385747854
0.9812175444552502 0.007511099586126808 0.30000001192092896 0.13357816468840755
0.721465607808985 0.0005109538023708467 0.30000001192092896 0.10820232661983152
0.7824821806610733 0.011119839275660499 0.30000001192092896 0.1136270360166628
0.374386812675862 0.0011167703076216166 0.30000001192092896 0.11401643882219135
0.49590533996892355 0.00019355601006801888 0.30000001192092896 0.11320950881181734
0.880104258171719 0.01169024883750955 0.3000000119209289 0.10277302752177354
0.9629577169318635 0.01356878388617509 0.300000011920929 0.09508689358344774
0.4603177422050024 0.0029198738250719486 0.30000001192092896 0.1162379766363764
0.6039093550023797 0.0023207433301211896 0.30000001192092896 0.10987903609144253
0.062096211054404826 0.000508109156879012 0.3000000119209289 0.11349266578216623
0.708513089760719 0.01063380785474164 0.30000001192092896 0.10350121882262574
0.23131326621103476 0.0009103725467484965 0.30000001192092896 0.11588800782583318
0.8846269224415314 0.001400220232656598 0.30000001192092896 0.10188358276659476
0.0944132132328313 0.0009638178175368384 0.30000001192092896 0.10713037473543964
0.804291004318215 0.010349415720828327 0.30000001192092896 0.11271954101581773
0.6411185286907618 0.0083463895148409 0.30000001192092896 0.11334556461370236
0.5050065766600956 0.004920010526886553 0.30000001192092896 0.11123147530575739
0.8458627460448129 0.01094888310039583 0.30000001192092896 0.09878394430313164
0.8169580087998694 0.007610186743037734 0.30000001192092896 0.10395279619871185
0.6964016703294746 0.008669123509613822 0.30000001192092896 0.11254283541451715
0.5683444685010428 0.004914961195206307 0.30000001192092896 0.11634729735906586
0.7507676726504171 0.0032067928495621272 0.30000001192092896 0.1084995272163416
0.5345946387989762 0.007239312172296682 0.30000001192092896 0.11386540341249764
0.2797814403750294 0.0018956313291650757 0.30000001192092896 0.10658326148549264
0.9314594057705989 0.008512480288053837 0.30000001192092896 0.10571270683330723
0.857258881268617 0.011872341613374367 0.30000001192092896 0.11585018468746651
0.5219178787840499 0.007480259278156812 0.30000001192092896 0.12755242408711764
0.7337396983110005 0.006108144531143545 0.30000001192092896 0.09905952667852573
0.5940266743626973 0.0006260793519484114 0.30000001192092896 0.11329775442106069
0.900003628006066 0.013519542164952377 0.300000011920929 0.09674977167666572
0.7716086392901094 0.009946531040273699 0.30000001192092896 0.11176280439268317
0.3097516610788191 0.0006059927355674522 0.30000001192092896 0.11052528999494604
0.5547998824998711 0.0025146692045072113 0.30000001192092896 0.11963345140156383
0.18744830466880022 0.0005058774198962969 0.30000001192092896 0.0988168313785445
0.9722258253450815 0.03071028912968795 0.30000001192092896 0.113419594399755
0.9920410459935607 0.05964684074405334 0.30000001192092896 0.1566644292537804
0.7156432952879144 0.05134756251966116 0.30000001192092896 0.10632055508482374
0.7643645167796791 0.05765001204499383 0.30000001192092896 0.10960664505526305
0.6380230869395425 0.05763434038035041 0.30000001192092896 0.10522565221531029
0.897837203612371 0.04955966067188455 0.3000000119209289 0.1114462610709252
0.9751906679387572 0.0479386793596318 0.3000000119209289 0.1358222876958977
0.7811798151823706 0.0592198033722145 0.30000001192092896 0.1019995434183394
0.9478144068493917 0.048275579220354636 0.3000000119209289 0.11444262944208643
0.4429143147503122 0.0542809689413103 0.30000001192092896 0.1204202402800977
0.10795359327589082 0.058813771880886045 0.30000001192092896 0.11550411589234906
0.4590562130136135 0.05627485072893758 0.30000001192092896 0.10917500503279917
0.8693480661448065 0.05186258439176174 0.30000001192092896 0.11352118034721655
0.9166411796138499 0.048105562287461656 0.3000000119209289 0.11754387221788075
0.6124806640944488 0.058997244347856595 0.30000001192092896 0.11134794511609743
0.8367532548009344 0.05977527725134306 0.30000001192092896 0.10758991232075296
0.24814987458609306 0.0582969238797315 0.30000001192092896 0.1040132789296827
0.2799867893613635 0.05904758355306578 0.30000001192092896 0.11351371378823294
0.42216025369744364 0.055096240985115286 0.30000001192092896 0.11064919287045707
0.5916961353249555 0.05274094041015827 0.30000001192092896 0.11871767643380701
0.798250564484316 0.059595685025202946 0.30000001192092896 0.10875266751820341
0.1543708148806562 0.05972905044592624 0.30000001192092896 0.1194071823332641
0.7387626994497316 0.05476132269447371 0.30000001192092896 0.115630131586177
0.8561742897570661 0.05820546905972901 0.300000011920929 0.11784936720171851
0.6235506546718905 0.0579795093208339 0.30000001192092896 0.11043568818314399
0.38091459177455594 0.05535205949202361 0.30000001192092896 0.10085325739160945
0.6497304488744086 0.05066054698876386 0.30000001192092896 0.10850219900777465
0.5076508196866885 0.0558313931984909 0.30000001192092896 0.10020587170626194
0.22436225889495118 0.05820341517191 0.30000001192092896 0.12156602869210376
0.8147173948640598 0.04765200798015639 0.30000001192092896 0.10192678837929746
0.7480203185869956 0.05023265351091298 0.30000001192092896 0.10194297500250461
0.6176359657609329 0.05106444112573971 0.30000001192092896 0.11131538401504494
0.0845124473866732 0.059676930298883164 0.30000001192092896 0.10707352437796133
0.3036218457645103 0.059928165357434816 0.30000001192092896 0.09744026983510204
0.6895443247234645 0.05633882558478868 0.30000001192092896 0.10551042553865901
0.9582312965335966 0.04649951105163684 0.30000001192092896 0.10308263369090542
0.5683553518227127 0.058916005285513565 0.30000001192092896 0.11301878257317126
0.8000035433449232 0.049759524806099194 0.30000001192092896 0.1024771376782313
0.9088834216681706 0.05794142464709242 0.30000001192092896 0.12255348732642762
0.3946962071941677 0.05568031041818099 0.30000001192092896 0.10670715154009516
0.6780085514785145 0.05476544126461676 0.30000001192092896 0.10281354784533277
0.18027990244478642 0.0577168584058536 0.30000001192092896 0.11952152087426737
0.541599038032505 0.05215121680026328 0.30000001192092896 0.11251580792357492
0.8860366100270208 0.046951734609828294 0.30000001192092896 0.1061606371460607
0.9296163878710753 0.04784872793613213 0.30000001192092896 0.11656851769577634
0.980639056637996 0.05760794063007677 0.300000011920929 0.14615838291632507
0.3385506396474898 0.059747687073115646 0.30000001192092896 0.11792956988104597
0.7741950643645659 0.049021030858212994 0.30000001192092896 0.0988572033170178
0.6670984384978189 0.05639855951004586 0.30000001192092896 0.10026409969909093
0.9846875200328188 0.04888898509805999 0.30000001192092896 0.16788657720683162
0.9945063604384063 0.04532630488351047 0.300000011920929 0.16243310395692054
0.9861133321433307 0.03671206240131318 0.30000001192092896 0.13565977811767305
0.9881170366243894 0.017662502380786475 0.30000001192092896 0.1407016465613658
0.980942714864679 0.02508337618264966 0.30000001192092896 0.12524716831593805
0.9674999713897705 0.03897547542358117 0.2993779040031761 0.1163010371534036
0.9524999856948853 0.025948820877285984 0.2913468495471205 0.1454853078631241
0.9574999809265137 0.021400915846164763 0.29945475587604437 0.09639238075696598
0.9566179790611924 0.014999998733401299 0.290647452891811 0.13798004521661084
0.906741482865465 0.045000001788139336 0.29843496324652813 0.12129718509598872
0.9075000286102295 0.01905655407900836 0.2901084160424656 0.1459176124441132
0.8924999833106995 0.03521463516705281 0.29646296961953505 0.11182002242210205
0.8756601589909825 0.04500000178813934 0.2917935704338014 0.14332683116292594
0.8475000262260437 0.030675154254030248 0.2984292749697654 0.11207273316204501
0.8475000262260437 0.020629332224153432 0.29713813084790114 0.11835240258938685
0.8125 0.01755236551898104 0.2920917672127503 0.15328784587115346
0.7975000143051146 0.04065572760907075 0.2939400882843498 0.13207083762807467
0.7932903254238964 0.014999998733401299 0.2975987633821599 0.11406877763234866
0.7825000286102295 0.03623830946551053 0.29155359419928994 0.12748278205958227
0.7875000238418579 0.02700621524611923 0.29959889972988996 0.10168516266498913
0.7724999785423279 0.021894381739751136 0.2988942937297571 0.1091668788933024
0.7674999833106994 0.0319035974296237 0.29981127639118954 0.09985990802785266
0.7674999833106995 0.023822348978053617 0.290596890739544 0.1518272915058183
0.7425000071525573 0.036670560969827806 0.29914475150770886 0.108253033037148
0.7475000023841858 0.016039795994637653 0.29887459051221316 0.10652402983593334
0.7225000262260437 0.028292694863859835 0.2915743736792877 0.127377942199771
0.7275000214576721 0.03492742538251436 0.29873910289624384 0.08864150806675876
0.7138918267107468 0.014999998733401299 0.2912023423046479 0.13730844958142194
0.7024999856948853 0.02944844885159107 0.29979157099531833 0.09225848961820013
0.6974999904632567 0.04049979639722946 0.2984647571239949 0.10693634727565751
0.6875 0.01955885814964394 0.2903608201493286 0.1451518652092681
0.6467063785944849 0.04500000178813934 0.29075869091310397 0.14909593690307354
0.637499988079071 0.02891416131471046 0.298134469469657 0.09647868366677549
0.637499988079071 0.03591277156101691 0.2902396296669981 0.1498111859348973
0.6250291167754193 0.04500000178813934 0.29306182115612195 0.122367976947463
0.6274999976158141 0.020719693135565886 0.2993738365733655 0.09340446625735134
0.5924999713897705 0.0355674324556894 0.2907107395622117 0.15457140833702002
0.5962545509117356 0.04500000178813934 0.29348740878187884 0.14435327082981841
0.5874999761581421 0.020292766009135287 0.29888749760646505 0.13562003845854909
0.5475000143051147 0.022750248228961233 0.2985117072735163 0.0934436933385661
0.5375000238418579 0.019359823726410066 0.29926613070745683 0.10651648421067395
0.5274999737739563 0.022618485930069397 0.2981935864392713 0.10756540381619156
0.5074999928474426 0.026087534338505677 0.29949972223004123 0.08697989888838606
0.4925000071525574 0.02406494220736008 0.2983267109658292 0.09588959063359437
0.4925000071525574 0.03554270036457706 0.29595959472703637 0.11471753065950153
0.49250000715255726 0.044414569544087956 0.2902454201197042 0.14790513090027327
0.48249998688697815 0.04269277290951902 0.29446857134136945 0.13874378660803197
0.47249999642372137 0.0447454145958045 0.29663085661496075 0.10829210381896316
0.4625000059604644 0.043125832447620215 0.29778714466231926 0.11555987675360481
0.4675000011920929 0.021755780427736578 0.29635664423831987 0.10662896255630415
0.44749999418854713 0.04175802895032813 0.2907849963827434 0.14939299468908038
0.43347172938799017 0.014999998733401299 0.29145573120399937 0.13613936244812752
0.4074999988079071 0.035508835693677084 0.29774990451031613 0.105721915037272
0.39250001311302185 0.0336133751432239 0.2999672756164438 0.09821164872564393
0.39250001311302185 0.04463053161261156 0.297526502049734 0.10552403547641236
0.3725000023841858 0.04437126578201042 0.29893661946585304 0.08442873816416263
0.3774999976158142 0.02475322017586274 0.29956073346771434 0.10174422654908347
0.3774999976158142 0.029720925627608107 0.2904974459659565 0.15067222031203248
0.35328361033666705 0.04500000178813934 0.2907375402480646 0.13564168900716278
0.34749999642372126 0.039320740463219137 0.29995042608907235 0.09917202269378349
0.3375000059604645 0.03930163887478677 0.2986340338508037 0.10449140116754223
0.32749998569488525 0.04069183697549887 0.29797353947363997 0.09580588671443478
0.3125 0.02812859767839701 0.29247163514718233 0.12829807723656061
0.3075000047683716 0.04487220121975753 0.29889165570934256 0.09379800912122219
0.29249998927116394 0.028869097691799257 0.2901898532066307 0.15064663151418115
0.2975000143051148 0.038999366067714744 0.29768383932167475 0.1057219456929873
0.2874999940395355 0.0382379877090136 0.29944591098599643 0.1019831965564403
0.26750001311302185 0.04381146793131402 0.2992491232175322 0.1014593056953032
0.23249998688697818 0.03037777874831022 0.2920255853286861 0.13960965002816197
0.23750001192092896 0.01571864612145768 0.2910014964616953 0.1391634360838895
0.22749999165534973 0.02399954489002737 0.2995199612050248 0.09762007111910827
0.21250000596046445 0.039489440490966365 0.2906684788438494 0.15533118169855353
0.21750000119209292 0.022630186945335758 0.2904017575523121 0.13393448315691897
0.19249999523162845 0.026989300584090308 0.2902894400412121 0.14071074146654128
0.1875 0.044395095878003714 0.2986383403633073 0.10639785984329501
0.1763090798841941 0.04500000178813934 0.2924949949476319 0.1283123214004411
0.16249999403953552 0.018454914589341127 0.2902403892056878 0.16062130624022244
0.1574999988079071 0.031616925722101084 0.2985934704607457 0.10685958692635586
0.14750000834465027 0.02114556393763079 0.29905212080243726 0.09184893021069072
0.14750000834465027 0.03117271283795192 0.29782462983560204 0.1127351696378764
0.13651243701393848 0.04500000178813934 0.2952454878508681 0.12887893962248315
0.12250000238418579 0.016667563972083754 0.2997353288548764 0.09028685310381927
0.10749998688697815 0.016931168094455672 0.29826377892336003 0.11602979323500752
0.0925000011920929 0.02284237769460877 0.2993897622112901 0.08982939357045487
0.08750000596046448 0.017000091649338488 0.2904601828374328 0.14594159174250645
0.07249999046325684 0.02896850688418772 0.2949329852565238 0.12547783772869803
0.07749998569488525 0.018788217175566065 0.2903901125925988 0.14592926251043442
0.0625 0.022759342618962817 0.2992798670095846 0.09544002100179186
0.0625 0.03440296217578169 0.2900732777998021 0.15534913354414398
0.06749999523162842 0.03749622796890451 0.29910286404495406 0.10346691905075846
0.06548690692016954 0.014999998733401299 0.29165229753588445 0.1403836232499936
