x y z curv
0.28977361137380486 0.07999999821186066 0.30009669244450615 0.03174210673425234
0.17259897711920963 0.07999999821186066 0.19772796798978776 0.031623981415820464
0.3399080943134397 0.07999999821186066 0.4851449767621966 0.029709602181628582
0.30925711803647216 0.07999999821186066 0.5417868219979896 0.1094000474718817
0.11075794267630303 0.07999999821186066 0.15356006897321806 0.029901635306149154
0.3706310506409442 0.07999999821186066 0.4080418100301978 0.0285499619320889
0.20193490290777327 0.07999999821186066 0.3748420600248098 0.03124334572816556
0.07544359871433723 0.07999999821186066 0.5207570155388338 0.04328531602442196
0.3119967098124395 0.07999999821186066 0.44074541026057057 0.030771822276499113
0.17734995595121422 0.07999999821186066 0.4633348553877351 0.1802552341807176
0.09351496233104951 0.07999999821186066 0.4379379662343051 0.09845072154544973
0.14562094044139642 0.07999999821186066 0.2984087931559041 0.030269643943167977
0.09953218083902375 0.07999999821186066 0.12871856138552185 0.09268464552107578
0.43083656145052635 0.07999999821186066 0.5367110062497065 0.09365990026177418
0.17649946117211987 0.07999999821186066 0.23792798793034226 0.03259648739673465
0.14873709647124245 0.07999999821186066 0.18822939718959575 0.030987316187735335
0.16229367982165227 0.07999999821186066 0.526701025040303 0.07505519018546605
0.35001032649295766 0.07999999821186066 0.5327720380252339 0.0837457151338143
0.27298270824926224 0.07999999821186066 0.4250494463200931 0.029370944775892957
0.16601368013726853 0.07999999821186066 0.34628592623813326 0.029969521930536144
0.040485932877878425 0.07999999821186066 0.066776671085229 0.034878002199760734
0.4191876140114715 0.07999999821186066 0.5353180951513312 0.08391201478218906
0.12378811979259438 0.07999999821186066 0.23611730384224378 0.03055967027189601
0.10152307067962602 0.07999999821186064 0.5269981174786195 0.058025795050585166
0.43052802980166804 0.07999999821186066 0.42447975940932875 0.0530347613655245
0.03209180911114421 0.07999999821186067 0.09448558176413063 0.05756580406987154
0.506132748876145 0.07999999821186066 0.4867395548997265 0.1406439339413
0.10472800206622809 0.07999999821186067 0.11146371752476962 0.1477040846548609
0.24003814877808638 0.07999999821186066 0.3706879729195584 0.030830347478277637
0.07951877240223548 0.07999999821186064 0.21029743047729077 0.030096050024084494
0.18544141679040524 0.07999999821186066 0.24403215302560083 0.031291804685968
0.14261284374832095 0.07999999821186066 0.24036406699517457 0.029796545491127455
0.10394330467912155 0.07999999821186066 0.3030628080161491 0.030332198460332523
0.08067643304278548 0.07999999821186066 0.07893162788072933 0.1266058429582279
0.2976210168025684 0.07999999821186066 0.3107796745310007 0.032701441861458035
0.3495395944770071 0.07999999821186066 0.4905912759856821 0.029930661224714213
0.036464139657335096 0.07999999821186066 0.08542245737033577 0.0490006753802385
0.3610863366279463 0.07999999821186066 0.489117937931411 0.030633450532431435
0.16461025257368245 0.07999999821186064 0.3095188719441801 0.03268895730131507
0.26857376781028236 0.07999999821186066 0.36141187443264555 0.02896213763102967
0.33153182370190964 0.07999999821186066 0.5338322774406081 0.0904583564065346
0.1322279612761878 0.07999999821186066 0.1852727200973829 0.030855165230307208
0.37452410828443095 0.07999999821186066 0.4280224332645983 0.03161089668848364
0.015282395382904785 0.07999999821186066 0.09846262524004942 0.10434195864848358
0.028613534244839093 0.07999999821186066 0.15572840526728168 0.06922216252235326
0.07055874730960951 0.07999999821186066 0.24845846788784928 0.031047186186617923
0.19892711814990174 0.07999999821186066 0.30440839599259994 0.03154472809763686
0.48557378479974345 0.07999999821186064 0.5110868572246162 0.05678748150584782
0.12952192100052376 0.07999999821186066 0.20407133283790074 0.02989719752253111
0.259103567760188 0.07999999821186066 0.45188172892899814 0.030002955665785227
0.3984747338524182 0.07999999821186066 0.4507316291556026 0.059930149525743374
0.395654356948365 0.07999999821186066 0.4945363477866632 0.03059043147980883
0.12539510871394888 0.07999999821186066 0.46834275302874934 0.2226787785440085
0.15526189981138824 0.07999999821186066 0.3587104598251101 0.030445308750440537
0.06768965581528028 0.07999999821186066 0.0762059075422493 0.08860419134879906
0.12388604410710052 0.07999999821186066 0.5192284363597424 0.046845489418984455
0.1494406071998835 0.07999999821186066 0.13919667963246804 0.028963927110624742
0.038217125052726245 0.07999999821186066 0.22924858833729514 0.041426680106227874
0.05285945105074719 0.07999999821186066 0.06023334360527848 0.030516583365469137
0.09045721259292758 0.07999999821186064 0.34193957000841885 0.02886930829797783
0.1714097079884892 0.07999999821186066 0.4017617665378025 0.03126059704210043
0.448304337342024 0.07999999821186066 0.4949069831365789 0.12042709845820374
0.09538201740059599 0.07999999821186066 0.31583406289454363 0.03068520334739908
0.15295593835529325 0.07999999821186066 0.5160696807243419 0.04591409203958689
0.03292112524830416 0.07999999821186064 0.42482265334620645 0.05365407740479265
0.38225538893951544 0.07999999821186066 0.37152517952981645 0.030956987808940482
0.319865997467481 0.07999999821186066 0.43332777440288694 0.03105756672195975
0.15881245919405046 0.07999999821186066 0.3264894470284904 0.030521221777967733
0.2529308456616651 0.07999999821186066 0.4749815021264293 0.031020242135593675
0.3466179183346688 0.07999999821186066 0.5091046417100058 0.03366314253023451
0.17577223497056993 0.07999999821186066 0.3788101535495382 0.03166311719546933
0.230358961374713 0.07999999821186066 0.4595457235309386 0.030573729212133624
0.017344068358189354 0.07999999821186066 0.1316370825558748 0.09546806590904301
0.10821138293669401 0.07999999821186064 0.42216316736696924 0.0458741515199587
0.03924297422928785 0.07999999821186066 0.49815223053354685 0.03744721822323336
0.03566901994752077 0.07999999821186066 0.05466790473028374 0.0438644122440847
0.02482857787617625 0.07999999821186066 0.3626090690122622 0.07499230709756861
0.48666843359343165 0.07999999821186066 0.5329821523153551 0.08772792043461297
0.3782727317886083 0.07999999821186066 0.5342412584921309 0.09320157326642264
0.31824801955544263 0.07999999821186066 0.41230983523373527 0.03135269745414007
0.0747924501422501 0.07999999821186066 0.17126776424959383 0.03293160317182748
0.25605158016791996 0.07999999821186066 0.4845573350243467 0.03170991708001653
0.3094243853932035 0.07999999821186066 0.30136341023897306 0.029716457482219433
0.15473909262434882 0.07999999821186066 0.22991297710249786 0.030737826981065804
0.02180681017468494 0.07999999821186066 0.06506983223466904 0.09075237120885367
0.13683598376772108 0.07999999821186066 0.32921982258923954 0.031058525153662798
0.2905856430083066 0.07999999821186066 0.5308086361068677 0.07435532294837899
0.11549487266192845 0.07999999821186064 0.5089355228339445 0.0660683191248719
0.45142929687076994 0.07999999821186066 0.4635756475216152 0.2302687828144604
0.1725464507499333 0.07999999821186066 0.277877788768307 0.0316090766285836
0.21997027283241502 0.07999999821186066 0.3565485562375382 0.030668830092637933
0.07889139045043442 0.07999999821186066 0.22976192503648696 0.03000988411250046
0.21718349775081167 0.07999999821186066 0.25527770775106795 0.031180605087813236
0.09216161037122123 0.07999999821186066 0.2905143811355679 0.029717449434907995
0.032613301547707446 0.07999999821186066 0.1098191167557436 0.054184223290501085
0.22725325445714384 0.07999999821186066 0.36512974314951685 0.030193658385109935
0.029081885845112794 0.07999999821186064 0.25886428676905493 0.06488992702648642
0.11753117743804829 0.07999999821186067 0.3989837455115586 0.03229850514515078
0.11933621874265611 0.07999999821186066 0.1909476565505571 0.03171087878427518
0.139351129674485 0.07999999821186066 0.3573220967963654 0.030897706970554235
0.2766018546920815 0.07999999821186066 0.4964222561332791 0.02930502017056563
0.2360282825833132 0.07999999821186066 0.34314340180373293 0.03210783672101336
0.16435091717942668 0.07999999821186066 0.4372454315214043 0.11896273999253637
0.060790431502337976 0.07999999821186066 0.09410681335984082 0.08166221381307924
0.5368352632363519 0.07999999821186066 0.5325999110927985 0.07759133949556332
0.1719814140528452 0.07999999821186066 0.42771639980386744 0.06418622352177744
0.5466624123161472 0.07999999821186064 0.519717820959908 0.05417402233181258
0.027456166732943557 0.07999999821186066 0.2448999872666033 0.07840266312469539
0.33555239608605353 0.07999999821186066 0.34623021931928405 0.0295719893640041
0.37664497387143403 0.07999999821186066 0.5026993635329553 0.033526776456232636
0.4128958800067131 0.07999999821186066 0.43320760331890756 0.05581299795453557
0.12591567777830423 0.07999999821186066 0.40901372759399895 0.03271796379239128
0.03007987979970684 0.07999999821186067 0.16813424154178372 0.05731878768374619
0.3750234781897904 0.07999999821186066 0.4542556616250878 0.031542724269852634
0.37464261253064557 0.07999999821186066 0.36512660860633744 0.031036718604449013
0.03918441539089258 0.07999999821186066 0.23894886666549506 0.041282552601683065
0.0579114177253722 0.07999999821186066 0.22730142982759524 0.030819009217618994
0.2315728397549219 0.07999999821186066 0.22835785378461665 0.029263383063609025
0.043414468277601086 0.07999999821186066 0.311978332251052 0.031918689848816274
0.02280871836225507 0.07999999821186066 0.21313642227301366 0.08764500615925044
0.33813393748449244 0.07999999821186066 0.40146839983395133 0.0303719799129356
0.37657166657753205 0.07999999821186066 0.46912424840165945 0.03015321189974866
0.20815798842163402 0.07999999821186066 0.24429551893028806 0.030169121032367848
0.22106653085599426 0.07999999821186066 0.31180291501280805 0.03025345948963365
0.034570076089161975 0.07999999821186067 0.46605084899575533 0.04498447913737207
0.19501943764352472 0.07999999821186066 0.5150509482541382 0.039586487029468556
0.23068651649976338 0.07999999821186064 0.4350526434063584 0.029734882145754385
0.09693513285143683 0.07999999821186066 0.5068668921610491 0.05395920120112139
0.25464197230516245 0.07999999821186066 0.28657021227298257 0.030951308515094
0.3368955322590881 0.07999999821186066 0.4227052774646251 0.030332899766740997
0.22423857551905438 0.07999999821186066 0.4422334728343964 0.030579096267979493
0.15818896679410047 0.07999999821186066 0.3891844577005207 0.02969719449170467
0.15229716805363516 0.07999999821186066 0.25029945503592754 0.031121710289108317
0.1825115888865529 0.07999999821186066 0.2860192635415881 0.030098115809212414
0.4385106154202231 0.07999999821186066 0.4380398422892902 0.11502263566995956
0.2825224816004267 0.07999999821186066 0.5373054603726279 0.11564922715148669
0.3318810014086115 0.07999999821186066 0.4600762872549162 0.0309874964764191
0.06270874635798536 0.07999999821186066 0.42090673707436893 0.029779760980958428
0.5656801150344455 0.07999999821186066 0.5367820975933373 0.11469603825882892
0.14399867745252448 0.07999999821186066 0.1619986511072315 0.030497209014837476
0.3046644348973606 0.07999999821186066 0.4339511674160683 0.029613105852897923
0.49024485075785734 0.07999999821186066 0.4891722613131178 0.13599754117003912
0.21388158833932583 0.07999999821186066 0.4042408308374851 0.030373825545078344
0.04595173408218043 0.07999999821186066 0.043393199010346765 0.03181265412075146
0.2655241898902715 0.07999999821186066 0.3342784188444704 0.030143071261667022
0.20345620097334818 0.07999999821186066 0.47593976835913454 0.0856324306030473
0.16454484998334837 0.07999999821186066 0.41003872726317675 0.031042421085896527
0.12170114982801454 0.07999999821186066 0.42024572937091464 0.044063184546379114
0.06859905245864123 0.07999999821186066 0.43042888669526813 0.04252291995096266
0.42477489898515947 0.07999999821186066 0.45724168544918153 0.16918936095522688
0.24797214118074562 0.07999999821186066 0.30737751007714287 0.032925205911752756
0.391603577838188 0.07999999821186066 0.3750320519178337 0.032095653033753765
0.13725597491892394 0.07999999821186066 0.3407115594713751 0.031126179516309214
0.03449134559065286 0.07999999821186066 0.4401992534945907 0.05003447024783892
0.1080770961440147 0.07999999821186066 0.11985719832499167 0.11468756112337228
0.15732625272771714 0.07999999821186066 0.31639621958189623 0.032865508883535975
0.05704848736041492 0.07999999821186066 0.20723553269032413 0.03169675144861296
0.25294055370916907 0.07999999821186066 0.2467369664550267 0.03150984809737931
0.03127322272799666 0.07999999821186066 0.18975389571317247 0.06407143494290851
0.26356283724410023 0.07999999821186066 0.3517578835992542 0.03044977743411312
0.12436857831050799 0.07999999821186066 0.3107764898749767 0.032048241630033204
0.43006994792777953 0.07999999821186066 0.4750011286842673 0.1971927982187971
0.10637948550164313 0.07999999821186066 0.2891574376535458 0.030659777585624312
0.1140731036991704 0.07999999821186066 0.306209926557622 0.031146228786957095
0.22304355595918235 0.07999999821186066 0.27286405802174185 0.03017171959228725
0.16289410287282377 0.07999999821186066 0.2836374959934428 0.03138227570404163
0.19002943231042801 0.07999999821186066 0.3744504510659883 0.029696565734259953
0.5000869542213899 0.07999999821186066 0.47469544046088685 0.20352582627396082
0.2794915516743041 0.07999999821186066 0.35273454742444377 0.030490834355204294
0.051705288995544635 0.07999999821186066 0.3960661549559181 0.029938817016304832
0.25460883188198047 0.07999999821186066 0.34036890582347523 0.029406890461265236
0.20426817447382975 0.07999999821186066 0.282881053654139 0.029888708326948083
0.01345666679530219 0.07999999821186066 0.32975341705023664 0.09225855017997873
0.17386665815299893 0.07999999821186066 0.2912119284301591 0.029904211471145633
0.2300426575632061 0.07999999821186066 0.29449585779471826 0.030612751958048228
0.13910888021458812 0.07999999821186066 0.4709343597150367 0.21649649707895868
0.35352342326895997 0.07999999821186066 0.4315567441278897 0.031672277995423305
0.29977279194164413 0.07999999821186066 0.3005944311585628 0.032472687760768136
0.16794625423120244 0.07999999821186064 0.222531608873921 0.03133525749978829
0.38109658939697794 0.07999999821186066 0.5243020213678531 0.056163432061980385
0.5255648881568834 0.07992277500820263 0.5419999957084656 0.08973321616889733
0.5511422880413925 0.07255895752156746 0.5419999957084656 0.1264851963779155
0.11640309501331716 0.07881897328625935 0.5419999957084656 0.10406789984043727
0.5359457947169212 0.07923916494743602 0.5419999957084657 0.101734679206103
0.34082054257543903 0.07403335659915108 0.5419999957084656 0.1367644394909306
0.04400690533616574 0.07173799981889516 0.5419999957084656 0.13699447193669087
0.01337015559272714 0.0785828518870073 0.5419999957084656 0.1589393774155712
0.03498139119104989 0.07807659084448851 0.5419999957084656 0.12575009319797714
0.5118600783344046 0.07008389523063134 0.5419999957084657 0.13716505716460434
0.2125609443888903 0.07051216513673872 0.5419999957084657 0.13501671314701547
0.012000024318695068 0.07808910040722625 0.18735163451812167 0.11599129618717476
0.012000024318695068 0.07975604579374278 0.4551614480503984 0.10771796442172635
0.012000024318695068 0.07782842577906683 0.2665263528105707 0.10335148114976551
0.012000024318695068 0.07951735082653331 0.0800081211508709 0.10510264867653854
0.012000024318695068 0.07909835391791517 0.4437406735594845 0.10953599835003217
0.012000024318695068 0.07079160041677302 0.3847844919857852 0.12873927541779032
0.012000024318695068 0.07006986464865861 0.24819848310378162 0.1290559356702774
0.19462819639693546 0.07000000029802322 0.2995292455300131 0.031547275494173216
0.24537648185239957 0.07000000029802322 0.2686754500483739 0.02886021699167923
0.33770579644057674 0.07000000029802322 0.04791792959476908 0.0322249581589456
0.1106570710517987 0.07000000029802322 0.11086717634927261 0.10497294780097012
0.11017124648793154 0.07000000029802322 0.14237949836057232 0.031260796514089875
0.37071171079194504 0.07000000029802322 0.08573927313473652 0.0295416344081029
0.45930933996211887 0.07000000029802322 0.09589958265445458 0.1322731467775626
0.025886908917001395 0.07000000029802321 0.14970076515941066 0.09950510703123158
0.021906190473581257 0.07000000029802322 0.2314533798347012 0.11743625084041132
0.018284246365830037 0.07000000029802324 0.20754258880263926 0.1303675139666674
0.26893948829956865 0.07000000029802322 0.1793799688902295 0.03072234580222584
0.12024286263824943 0.07000000029802322 0.38223606776413943 0.03191386200296204
0.2702350554900801 0.07000000029802322 0.24908932133196157 0.030264184000919882
0.18230858727548102 0.07000000029802322 0.019026618493094206 0.14487513681093242
0.21161465876588512 0.07000000029802322 0.250719378965668 0.02996569266157653
0.04443417652411437 0.07000000029802322 0.3066800395385769 0.04657847947336738
0.07133112693466612 0.07000000029802322 0.02645840594448346 0.11065675269524317
0.14983501697205287 0.07000000029802324 0.0568569214909425 0.057734559198417384
0.48090814226848155 0.07000000029802322 0.08601089289547731 0.1118678737998914
0.33042024574723083 0.07000000029802322 0.17522643086909603 0.029808674322690836
0.16071051972647743 0.07000000029802322 0.052048656854158354 0.03720171237034927
0.4470051495433062 0.07000000029802322 0.09662039608650586 0.1241326247127712
0.5512300471354777 0.07000000029802322 0.029075168032815443 0.09026034325002948
0.17962569609962842 0.07000000029802324 0.12015551375281715 0.05049946937638967
0.3684083728699601 0.07000000029802322 0.027781957545754164 0.08964800063833661
0.3115455781475706 0.07000000029802322 0.06754785322425363 0.028697031947363442
0.1267905945304903 0.07000000029802322 0.1259044994373452 0.046953579249700804
0.2235501785197757 0.07000000029802322 0.06964557350277062 0.029584287231141558
0.29683075652398455 0.07000000029802322 0.2407093166350572 0.029552432908496004
0.08488288452895189 0.07000000029802321 0.28691296683881845 0.030936931301291236
0.03461259955111877 0.07000000029802322 0.40354258876332183 0.07731293986983462
0.2055078207746312 0.07000000029802322 0.022658682555315002 0.11090567129568031
0.22402358918529958 0.07000000029802322 0.11441328188937921 0.03184243340840287
0.19110790778803893 0.07000000029802322 0.24019190190334444 0.029375232028608533
0.25215022840299234 0.07000000029802322 0.2579193979737418 0.029409054415317267
0.07761792739517462 0.07000000029802322 0.3772405458909009 0.029588960650749882
0.07540869999948825 0.07000000029802322 0.2477955940650511 0.031070379575604372
0.05469219413390877 0.07000000029802322 0.08732330060650345 0.036563334687870576
0.169349918416623 0.07000000029802322 0.08077362209503293 0.08135568385705959
0.18209800032997947 0.07000000029802322 0.15003907089718924 0.028999832811706098
0.061505574630605096 0.07000000029802322 0.35174647547368054 0.030448726660721764
0.17300295086668285 0.07000000029802322 0.24007739038607184 0.031831721233597565
0.2863618244119295 0.07000000029802322 0.09853477192262007 0.029488649915277103
0.3185237365520953 0.07000000029802322 0.14351983837962268 0.031203094062365648
0.2571481793449053 0.07000000029802322 0.297224627612334 0.029863888216859587
0.46379488161733395 0.07000000029802322 0.04324779393971649 0.0459165326921175
0.3810099900933375 0.07000000029802322 0.0888687574938829 0.02990676362407395
0.04767285552055097 0.07000000029802322 0.07881252965383284 0.030377963693611613
0.37145991308982806 0.07000000029802322 0.06612218116336528 0.02947181986930297
0.18931874321631492 0.07000000029802322 0.13739146942356312 0.02883093570846183
0.017776980755641075 0.07000000029802321 0.11745943380224484 0.12019503652036069
0.1544867788241725 0.07000000029802322 0.2430507857462308 0.029538062330995516
0.06343283976587885 0.07000000029802322 0.11088250015884529 0.036884274460681814
0.04837649567312555 0.07000000029802322 0.43474522797365844 0.0315496262023875
0.13755489017883776 0.07000000029802322 0.23044666536885428 0.031233347973277103
0.18886847395428547 0.07000000029802322 0.0677824839714557 0.04940812653172408
0.46828876065324265 0.07000000029802322 0.08947967615166001 0.11881311586236493
0.0698874396223227 0.07000000029802322 0.3155474925311058 0.029525148549289452
0.2659341864868654 0.07000000029802322 0.21367911150647467 0.031004431205310608
0.39694306296492154 0.07000000029802322 0.10920061000652122 0.037384311329490875
0.2612961908577211 0.07000000029802322 0.2563851850143593 0.030573872505993964
0.33991630873900014 0.07000000029802322 0.15724867418380356 0.030385761646419287
0.25709198176185144 0.07000000029802322 0.3095723313575304 0.030777752304462388
0.09894833704011549 0.07000000029802322 0.14748194000112833 0.029371031672473406
0.3475539246966873 0.07000000029802322 0.21439527252995297 0.031229186431205855
0.051564681571533426 0.07000000029802322 0.19555264810454284 0.030969149035995246
0.11582089744589051 0.07000000029802322 0.21181957456231773 0.03036394528702979
0.23017490433588092 0.07000000029802322 0.25943200744401596 0.030678977055347074
0.25040708355070934 0.07000000029802322 0.055495774034263465 0.031149027103631648
0.07407030805300863 0.07000000029802322 0.2151764813385247 0.03185587086359462
0.34474681583928257 0.07000000029802322 0.1038157934630999 0.030195467902979455
0.04948352126607601 0.07000000029802322 0.28737823212237723 0.03008858556682792
0.41549107604511726 0.07000000029802322 0.0623639752976562 0.0511480302934926
0.264200033286973 0.07000000029802322 0.20182798298360782 0.03166618589978074
0.1578739650177708 0.07000000029802322 0.01694563235148929 0.133135284130795
0.07998465533168003 0.07000000029802322 0.25787282588383276 0.030103136301952257
0.5074439212008715 0.07000000029802322 0.06689466493671908 0.07069396663034994
0.10185952448991534 0.07000000029802322 0.32721672296595194 0.029529605830935474
0.4844792366188232 0.07000000029802322 0.06533539842200106 0.07854848938688137
0.2446285825414038 0.07000000029802322 0.11538737134626122 0.029658088721353067
0.0814254500832318 0.07000000029802321 0.36467981963286 0.030162074160123575
0.2001849206561987 0.07000000029802322 0.3210216967841925 0.030711598805939655
0.05060580198982435 0.07000000029802321 0.2762165822081013 0.02926457938180155
0.08017358579865344 0.07000000029802322 0.04565960018598274 0.03454307296738942
0.28442261740495317 0.07000000029802322 0.24030342798632096 0.03000101069529722
0.3826295118918558 0.07000000029802322 0.12959202903299183 0.029550586039468526
0.11634453627413952 0.07000000029802322 0.255216982439223 0.03169150349113047
0.18037810745410907 0.07000000029802322 0.2197024525723512 0.02983238079453714
0.30386901559033674 0.07000000029802322 0.26120346367039904 0.030574277234139767
0.2154362890949968 0.07000000029802322 0.17552635854223048 0.030046476810522516
0.03235679745102111 0.07000000029802324 0.1732608691537368 0.08946932766934519
0.16413141853731467 0.07000000029802322 0.04018589998000472 0.04971498612468381
0.43736323692130596 0.07000000029802322 0.04054787408609147 0.05617729711024238
0.5148324076816556 0.07000000029802322 0.060471092780990776 0.05118779890115155
0.12848255708228185 0.07000000029802322 0.14670084508700929 0.0300132522143445
0.21782415236769653 0.07000000029802322 0.15018441534163332 0.03234110973352858
0.13877151732920967 0.07000000029802322 0.15182795162425444 0.02918184023097787
0.04079956746201733 0.07000000029802322 0.21772150864910164 0.05136003290223465
0.024406621465549585 0.07000000029802324 0.4293454639234519 0.10280907001501273
0.5263303007675358 0.07000000029802322 0.026420951988358726 0.10513894944425574
0.03814582534322197 0.07000000029802322 0.2719047655038726 0.06266731341145697
0.2552763341642006 0.07000000029802322 0.1339677769691772 0.030370542982254573
0.19818329906650034 0.07000000029802322 0.1422544111927415 0.028699424312589157
0.1994974651214618 0.07000000029802322 0.26306815891354535 0.030647941274895504
0.058286378100626555 0.07000000029802321 0.048473058559517355 0.03268207869430489
0.22896867449424782 0.07000000029802322 0.04624836631152018 0.03836898547827846
0.07818373640780299 0.07000000029802322 0.35413982069981714 0.02874158772465317
0.09453160213551459 0.07000000029802322 0.32070891312019917 0.03058949622060044
0.09490574477850965 0.07000000029802322 0.19172943973519235 0.030376745271718426
0.15618410732073973 0.07000000029802322 0.07306806072912567 0.08175149597263563
0.311214242107769 0.07000000029802322 0.1607531592445843 0.030196248811715704
0.3839601153422486 0.07000000029802322 0.07780789688844418 0.03041535947475503
0.34465958451502604 0.07000000029802322 0.1796220642184179 0.03052853324052739
0.07648619465613843 0.07000000029802322 0.45320410879655837 0.07356893985212404
0.03724739717510678 0.07000000029802322 0.3387056996292037 0.06196480311149464
0.40739991742823134 0.07000000029802322 0.10349080503699953 0.07235274517287207
0.36666320787616835 0.07000000029802322 0.21291796300129998 0.029035541726397048
0.03305115752671517 0.07000000029802322 0.4455326950552303 0.07717976851616619
0.26474932910378063 0.07000000029802322 0.2673885660248079 0.030456996794624405
0.3767373304643623 0.07000000029802322 0.14002292924548632 0.029518824699210324
0.17645606097480335 0.07000000029802322 0.11067201014623801 0.09338006708663554
0.410644442072182 0.07000000029802322 0.04479590584361256 0.04319443236107869
0.3003100306876464 0.07000000029802322 0.03749304542232691 0.05086262598033446
0.24256346323825057 0.07000000029802322 0.22010954470000776 0.030819893894592137
0.04011356162063774 0.07000000029802322 0.2593355918778822 0.050754466149017394
0.32096024365494685 0.07000000029802322 0.2565052901819253 0.029946619347917577
0.3071406810069338 0.07000000029802322 0.09015007424215793 0.03109869363716941
0.11611159757887499 0.07000000029802321 0.08874923758778185 0.1355849864494406
0.25317270161405564 0.07000000029802322 0.319566088145265 0.030773289615773032
0.08331237447757471 0.07000000029802322 0.07536514966643382 0.09259538860807563
0.13813269380013726 0.07000000029802322 0.19833269221581032 0.030831956084406312
0.04321115876762147 0.07000000029802322 0.15403487032130028 0.036692486250472764
0.19192806883759167 0.07000000029802322 0.05344821338578966 0.04137270335646065
0.11804793807491218 0.07000000029802322 0.02710453357852538 0.11005474590610291
0.0826208166413614 0.07000000029802322 0.29895051866137756 0.0310980671185242
0.0904077113052083 0.07000000029802322 0.354154694185035 0.029079355651563932
0.06898841587723396 0.07000000029802322 0.1748798322956368 0.030811240089461515
0.31658623926288276 0.07000000029802322 0.2321228301471107 0.031032192664416047
0.4373311276928256 0.07000000029802322 0.14911680345019354 0.03064468964303044
0.0385583461871215 0.07000000029802321 0.24408975903775312 0.06637258433907714
0.0309889111309346 0.07000000029802322 0.03740361035866071 0.10155471513069396
0.3357062818116749 0.07000000029802322 0.08148889851188831 0.029836790559341013
0.1018208429027957 0.07000000029802322 0.2299139849931557 0.030916468645438046
0.028566036972015704 0.07000000029802322 0.09468747000656524 0.10999209740716312
0.1906170540197589 0.07000000029802322 0.256340814983346 0.029583025359779084
0.3928953544877359 0.07000000029802322 0.0868430606876588 0.036028018410889276
0.10337648545393852 0.07000000029802322 0.40116658524916116 0.030396905557236637
0.02048558073340547 0.07000000029802324 0.17303399788283821 0.11620674633653279
0.20999330324146961 0.07000000029802322 0.03964659407993041 0.05766860236716057
0.3591524379440491 0.07000000029802322 0.06279361158836587 0.03103489426378793
0.14990091699476188 0.07000000029802322 0.31447190208458287 0.030117012751058127
0.5300508461254717 0.07000000029802321 0.03753928465655847 0.06877968879625268
0.020809281809088205 0.07000000029802322 0.3079295679167742 0.11129062810014492
0.15294840044465657 0.07000000029802322 0.3645963414920979 0.02927912580455989
0.21536509066147427 0.07000000029802322 0.3024890554484122 0.030713150767444675
0.0756319004404104 0.07000000029802322 0.30658840008150395 0.029796301266244857
0.5546922659580921 0.07000000029802322 0.03997925758235399 0.0656427617713097
0.13279743377192949 0.07000000029802322 0.2830497786780002 0.031189160771668598
0.21987237926606115 0.07000000029802322 0.2235269405771028 0.02895980039228917
0.09874398850564303 0.07000000029802322 0.44872252672258295 0.09424970854343932
0.28043573508857145 0.07000000029802322 0.2657763358170013 0.0289786208471286
0.5731194141092871 0.07000000029802322 0.014614638501192942 0.13046871542202337
0.07385357265752356 0.07000000029802322 0.19479331193503077 0.032320916025164445
0.42010955893532265 0.07000000029802322 0.1634360350351554 0.03055021474073426
0.09481058465006015 0.07000000029802322 0.2976247888468231 0.02894670675376886
0.047016759769777906 0.07000000029802322 0.23154301440685263 0.03607551814433434
0.22757442428431457 0.07000000029802322 0.018763090519964127 0.13263920745937868
0.11527693120968882 0.07000000029802322 0.22647792738027353 0.03063035270249198
0.5365766741928908 0.07000000029802322 0.022830382362513807 0.11687171643196735
0.4420234864016383 0.07000000029802322 0.013539992064580036 0.12991756376641447
0.1069141984120377 0.07000000029802322 0.41258659082483884 0.031086470647370863
0.37656124704409094 0.07000000029802322 0.10699494103514344 0.03208052037877921
0.22962702715932928 0.07000000029802322 0.07998027125752268 0.03075756797931315
0.012545998795201624 0.07000000029802321 0.018450461906982425 0.1649130074277807
0.1161952929989299 0.07000000029802322 0.4074741472668971 0.03171740049164476
0.1266755213836027 0.07000000029802322 0.42747596568352886 0.0504493889824794
0.13816451717382694 0.07000000029802322 0.21911673992905203 0.029737536361442347
0.15343826487442122 0.07000000029802322 0.3970629741938046 0.029803811080077975
0.032460839056754634 0.07000000029802322 0.3252657446586055 0.07509644177832854
0.26062455390540007 0.07000000029802322 0.22391750011351225 0.03174365155529007
0.13201131432291108 0.07000000029802322 0.273264860984527 0.030393770765051804
0.15575068775288667 0.07000000029802322 0.2863997449510666 0.02883240683569386
0.26966713941995585 0.07000000029802322 0.12222003255976882 0.030044414389834732
0.322280333225412 0.07000000029802322 0.0742372572978706 0.029575816208044014
0.3280334874884529 0.07000000029802322 0.13724913816386017 0.029665546223069175
0.5403417090617033 0.07000000029802322 0.03190006904728925 0.0746799766139952
0.03164390903218592 0.07000000029802322 0.3869879565220863 0.0935177654757639
0.256346382915166 0.07000000029802322 0.04821342210078255 0.031089191148456655
0.21311731773631348 0.07000000029802322 0.12051941218737933 0.030157066788733256
0.3598460191968741 0.07000000029802322 0.17630978897951993 0.03092976160089883
0.2851569173559928 0.07000000029802322 0.14519182445273485 0.030106576175182025
0.4038212608657364 0.07000000029802322 0.15107362568678112 0.03021211772460799
0.12206406343856077 0.07000000029802322 0.27110583368933916 0.03064022370379113
0.32140338936405477 0.07000000029802322 0.21290198962888218 0.03183704381489356
0.1692753205502166 0.07000000029802322 0.3819526292963775 0.031959939957957026
0.031068191777502415 0.07000000029802322 0.4955765928223477 0.09025249976270265
0.3971249106358473 0.07000000029802322 0.0574558906146814 0.028030774266658627
0.1977385465015247 0.07000000029802322 0.2253450493585641 0.02796613075156925
0.04276946251102591 0.07000000029802321 0.3275058420103335 0.04976072062694187
0.10542533137180073 0.07000000029802322 0.0481770604409794 0.034384388458080235
0.22017032995864624 0.07000000029802322 0.2652324346278007 0.030327582176675874
0.0851008217391827 0.07000000029802322 0.018644348218193673 0.12621659675198627
0.2321922578753461 0.07000000029802322 0.17648524878009006 0.03179896744970723
0.03408411853746905 0.07000000029802322 0.04804370629297035 0.07344205241079613
0.09402124288796206 0.07000000029802322 0.2495542334797755 0.0307980426611851
0.149719085838303 0.07000000029802322 0.1773634139072488 0.029929222990672643
0.0832245567320743 0.07000000029802322 0.03267906665892464 0.08521832580263758
0.05908378499125587 0.07000000029802322 0.3700144390012666 0.02975790096757146
0.3753050809814182 0.07000000029802322 0.09665119248894252 0.029115300281779374
0.04735620259713179 0.07000000029802322 0.3176692362340809 0.03369448811374317
0.02057824376178827 0.07000000029802322 0.3634306739856478 0.13276433289099934
0.13678316396290338 0.07000000029802322 0.03445594637416997 0.07600633946579854
0.4268285046349468 0.07000000029802322 0.06697531841593236 0.07380847539767688
0.058790658734503384 0.07000000029802322 0.290645169673358 0.03030309287008631
0.467288303962944 0.07000000029802322 0.05826179865364474 0.05977975071707048
0.12464952139868156 0.07000000029802322 0.39173288186221344 0.030989972663664093
0.12040567509441219 0.07000000029802322 0.43621863284327056 0.061130459365806675
0.03781977434386898 0.07000000029802322 0.0906506497172521 0.06566967911335411
0.11005953043289428 0.07000000029802322 0.3586395166034136 0.031967892308696885
0.15393752719806292 0.07000000029802322 0.10524278467369377 0.11801460704489504
0.2117571239103939 0.07000000029802322 0.06096164305347816 0.029727778343709516
0.2893633901601257 0.07000000029802322 0.20100327070422594 0.03167068494246782
0.016928184548871635 0.07000000029802322 0.069025382358817 0.12514894813748503
0.033480622160956326 0.07000000029802322 0.4660895463996271 0.08356036688965636
0.24981483176726166 0.07000000029802322 0.2885653230828352 0.030294986990065047
0.050205632744877174 0.07000000029802321 0.02800281979704001 0.10389214788675694
0.0658502180072904 0.07000000029802321 0.30387828768062985 0.030685162731658985
0.14288435842880867 0.07000000029802322 0.4173713462113102 0.030235307211922156
0.3005418481237022 0.07000000029802322 0.025415605187344818 0.11145875783186728
0.21705205618748408 0.07000000029802322 0.23557298017537318 0.030687617661474823
0.07705504092389408 0.07000000029802322 0.4421345892118168 0.05489724893451089
0.4502224414549692 0.07000000029802322 0.12153381175698086 0.04941745389544942
0.18093285680484603 0.07000000029802322 0.029111564258021663 0.09409471013142762
0.02123681695020769 0.07000000029802322 0.3789349907120642 0.13220881233308351
0.0854496793046014 0.07000000029802322 0.09868073273533039 0.1055855742251202
0.33393841579227285 0.07000000029802322 0.1843398880262428 0.02925498647472198
0.17849062269996765 0.07000000029802322 0.1380406403815572 0.030333948631123944
0.1881813971409389 0.07000000029802322 0.09178530279113101 0.07916087585967994
0.15075660524376858 0.07000000029802322 0.21499611356270448 0.02882613683139575
0.285351091281264 0.07000000029802322 0.04861413846608658 0.029796458395733787
0.33799768461222046 0.07000000029802322 0.14335966923623733 0.03162847849437579
0.06626697169897214 0.07000000029802322 0.20550138302603424 0.030860383427270478
0.14455901018333106 0.07000000029802322 0.09939489888226474 0.13029284873419297
0.12621473671934008 0.07000000029802322 0.18231274760488408 0.030823177523755865
0.41877723557397567 0.07000000029802322 0.11327084122936036 0.07209494477182558
0.35351751404332604 0.07000000029802322 0.09524167997952002 0.030464020339623196
0.5249356672474189 0.07000000029802322 0.04806841924086651 0.03154732473118474
0.1585598328124948 0.07000000029802322 0.12947849340751572 0.028896444393759237
0.11134792329911718 0.07000000029802322 0.15509387135727767 0.029432477705463315
0.07901274256036436 0.07000000029802322 0.27527843644279004 0.030090149608834254
0.25490041064218966 0.07000000029802322 0.18115389255198652 0.029015238028207446
0.3124467309999022 0.07000000029802322 0.19175100299194262 0.030492157195713784
0.25743098991043656 0.07000000029802322 0.2340252726361431 0.030710488887734463
0.244716772031174 0.07000000029802322 0.03939401006345584 0.05870208001790597
0.2406063339768283 0.07000000029802322 0.3286119043385969 0.029540322699200827
0.1763964372650492 0.07000000029802322 0.06413119760991208 0.05493081940367304
0.18429633943865725 0.07000000029802322 0.19148344763667813 0.030673874804137583
0.019191477752075185 0.07000000029802322 0.5159946482435656 0.1386941197930849
0.12628224411228503 0.07000000029802322 0.23150453510627533 0.031282700809972
0.37026723201142614 0.07000000029802322 0.11790518267514571 0.029923156009616356
0.05546207072308331 0.07000000029802324 0.42393631877925514 0.028500155887184114
0.1260988420644144 0.07000000029802322 0.4041825919968071 0.03016774569779753
0.2188775915663366 0.07000000029802324 0.08655114697822419 0.029033065816271346
0.05511782231620108 0.07000000029802321 0.16285000687060988 0.030236605625259615
0.3003976219371042 0.07000000029802322 0.271695166166642 0.03191556859663472
0.026256421550339297 0.07000000029802322 0.355789270133536 0.11721516521828342
0.4255824978881987 0.07000000029802322 0.0929416952100407 0.13306963464210814
0.15808644339006833 0.07000000029802322 0.11712292009255128 0.08521940293634594
0.19363160092183226 0.07000000029802322 0.27519621526007587 0.029856947664433395
0.3283315966139957 0.07000000029802322 0.15061019333099082 0.03185065100261074
0.16499030155171082 0.07000000029802322 0.16568394639493192 0.030312414135937944
0.12408063913899399 0.07000000029802322 0.1098741513537619 0.0709527356221203
0.5159376848791608 0.07000000029802322 0.050372338565793276 0.03364499904837176
0.10809362582877644 0.07000000029802322 0.3155247738159222 0.03131942352508387
0.3599095404635631 0.07000000029802322 0.15704632222569273 0.029661210318004234
0.05538790234608304 0.07000000029802321 0.10522930928573178 0.03093424176322214
0.27223368457962455 0.07000000029802322 0.14531085505345323 0.029579062848509703
0.027693003234297103 0.07000000029802322 0.45544425534616373 0.10013028900534843
0.19437420271639072 0.07000000029802322 0.041711246344119726 0.04534506269142364
0.4101056038647209 0.07000000029802322 0.05487885216013552 0.037138434763627416
0.04012923375067044 0.07000000029802321 0.4533632793351032 0.05725981463470909
0.18131292967695023 0.07000000029802322 0.10086575006021617 0.10607473364163067
0.08935705164271786 0.07000000029802322 0.37143925818438517 0.03000477619091346
0.16607335757446848 0.07000000029802322 0.24752557813402373 0.02999466191937293
0.06125938630993959 0.07000000029802322 0.030368402343305883 0.08933433903941917
0.08943382873808019 0.07000000029802322 0.34102469677016034 0.029385660554073736
0.0790770572917175 0.07000000029802322 0.17174095686910643 0.029683377663374304
0.12824624648219285 0.07000000029802322 0.020695662463525437 0.12713388098785408
0.24228133783949946 0.07000000029802322 0.2550356631973976 0.02931187295122363
0.14675104586189813 0.07000000029802322 0.2922036271216724 0.03042458863560198
0.2266114851783222 0.07000000029802322 0.156966829079883 0.030722088413071814
0.08138989280042334 0.07000000029802322 0.22417704029544597 0.031407106215549936
0.10001167374335046 0.07000000029802322 0.4398124701919558 0.06960246026402118
0.14969855638829413 0.07000000029802322 0.34332220650488826 0.029618036650807405
0.06734539675886403 0.07000000029802322 0.24262219454650547 0.030407752106992033
0.45360900192939235 0.07000000029802322 0.104080028092108 0.11169149920396444
0.12504605613892036 0.07000000029802322 0.15839813611372663 0.030209571500737425
0.18228506871134628 0.07000000029802322 0.03924610303640098 0.0663045043930508
0.34729007527831446 0.07000000029802322 0.13790261030780412 0.03174478196113182
0.13197770534199743 0.07000000029802322 0.23887471448439992 0.031080474641204434
0.03550691187627895 0.07000000029802322 0.14224466664115515 0.07101288873833747
0.3232734687494576 0.07000000029802322 0.03850328369977206 0.04901022188159911
0.07436921329438573 0.07000000029802322 0.16156854665262285 0.029975743731919944
0.23383842427856516 0.07000000029802322 0.13646017115636433 0.03060545347101316
0.03139172565154791 0.07000000029802321 0.06223043538526457 0.08789960815147975
0.06935925993634268 0.07000000029802322 0.2952850270649487 0.029952240022345655
0.19249453974942665 0.07000000029802322 0.12251495043430363 0.031174650128222587
0.04144213075347941 0.07000000029802322 0.4245461542043064 0.05060735463718747
0.2908494641138434 0.07000000029802322 0.03915322892612752 0.047831412645207114
0.36036420593447016 0.07000000029802322 0.1187842914839206 0.03145817229982077
0.25931514622747787 0.07000000029802322 0.1917668245648668 0.03163023963564055
0.3098883819266323 0.07000000029802322 0.1122195612049719 0.029566700474927966
0.021669272775501045 0.07000000029802324 0.10346202553405265 0.12337281436750286
0.15417210197403972 0.07000000029802322 0.30218228241489903 0.03243643128713072
0.278145411836239 0.07000000029802322 0.2133250788622427 0.03213767148738547
0.024534124310537093 0.07000000029802321 0.2936157618776338 0.12209261717700176
0.12247065141245539 0.07000000029802322 0.4149425212395441 0.03133721256743449
0.08648902406725043 0.07000000029802321 0.3991396722775611 0.02868978800551738
0.03950492301673261 0.07000000029802322 0.3544845951196306 0.06513410738192213
0.04766148425796988 0.07000000029802322 0.3656171718345372 0.03445032847729192
0.06454728460251356 0.07000000029802322 0.4893901720676707 0.03015735051077453
0.4533135471224514 0.07000000029802322 0.08641550847273732 0.14271451745626862
0.18911937707140164 0.07000000029802322 0.2880467047019964 0.030900155041279465
0.2545395852566376 0.07000000029802322 0.09310689795906268 0.028033954111280675
0.23130093792340237 0.07000000029802322 0.10497611872216915 0.03080611662220614
0.5067005305761276 0.07000000029802322 0.013795618113057672 0.1414387150136806
0.1736978001162131 0.07000000029802322 0.22890974975176498 0.03040098540525962
0.32482455930473625 0.07000000029802322 0.22292531599920837 0.030515607266313784
0.2737007882370413 0.07000000029802322 0.0662657571468075 0.0297671209545905
0.021511012618916397 0.07000000029802322 0.4442159925430417 0.10242293325115853
0.18200256196513348 0.07000000029802322 0.3806967093145962 0.030719349820965948
0.28102208667647327 0.07000000029802322 0.08674988058689849 0.029765784017280097
0.45987909028298485 0.07000000029802322 0.11190678364175534 0.07067466423886903
0.3448785953647948 0.07000000029802322 0.02211624196315107 0.11916613585986141
0.26084203482708745 0.07000000029802322 0.24442732120456012 0.03263333175863928
0.10042915815563795 0.07000000029802322 0.17981699957957992 0.029411610314189502
0.17354716577166293 0.07000000029802322 0.04620519924821454 0.04094105661145983
0.19155109187074432 0.07000000029802322 0.37624350424359065 0.030794091540314126
0.31773367668903535 0.07000000029802322 0.047922969583626476 0.033111489969924184
0.05149003972522862 0.07000000029802322 0.4865803899394376 0.03052053248586984
0.4913699915388629 0.07000000029802322 0.025794099127946696 0.11531691621656145
0.12146239956557403 0.07000000029802322 0.3382328049390727 0.03172260470728477
0.4001162689499107 0.07000000029802322 0.04818352933856678 0.032869002646535354
0.5179198870732444 0.07000000029802322 0.03470524529532907 0.07995233236556387
0.3265889161511334 0.07000000029802322 0.2343243330858198 0.030822456347409634
0.3716543681836387 0.07000000029802322 0.16916964947615715 0.03191568603076211
0.34846099550822585 0.07000000029802322 0.04271539336525566 0.03810805600423578
0.16808116693521868 0.07000000029802321 0.3942368555386159 0.030462408791336666
0.30242612954318443 0.07000000029802322 0.21457977432920367 0.030566744164613704
0.38874754751170226 0.07000000029802322 0.06755329125719534 0.030385740006886527
0.09441403747454367 0.07000000029802322 0.2394935166534607 0.029770593895553137
0.3989571795206271 0.07000000029802322 0.16433543314053942 0.031200333109666835
0.16031679931631979 0.07000000029802322 0.029404655328805963 0.09057327890700897
0.05333790014857676 0.07000000029802322 0.057297580471604395 0.031082851660669753
0.06628419524287224 0.07000000029802322 0.45644875988992706 0.041385700138076874
0.041157269471434124 0.07000000029802322 0.039058132693376574 0.07115545707938851
0.03615694717472728 0.07000000029802322 0.36417035626812666 0.06943937919021735
0.07704773059968414 0.07000000029802322 0.4174948985240049 0.030728925429119574
0.28647895278702484 0.07000000029802322 0.06251473857683328 0.030191365124731948
0.1344567757023594 0.07000000029802322 0.3785478022091711 0.02849254191434032
0.052986592783541814 0.07000000029802322 0.35552214127201875 0.03020076305878075
0.31643009006375133 0.07000000029802322 0.10427538657515502 0.02930374878686807
0.3195227958569405 0.07000000029802322 0.06021849594688869 0.030792066714069696
0.02915532563975322 0.07000000029802322 0.485819068360101 0.09924396181079612
0.4107744681836801 0.07000000029802322 0.0745121052277262 0.06675520925579684
0.16331750884881205 0.07000000029802322 0.30870485965130295 0.032006106072463326
0.4104495644519393 0.07000000029802322 0.03511253750920386 0.08524027587131432
0.03864991122512002 0.07000000029802321 0.4753989820983228 0.06702924914643814
0.29796933504250855 0.07000000029802322 0.11283174910385249 0.031094256871267257
0.07545599819360085 0.07000000029802322 0.15160087118789514 0.02875714965573927
0.2560310250381384 0.07000000029802324 0.03703562240170753 0.0704211336839084
0.4028590329620295 0.07000000029802322 0.06638254941234241 0.05218656252294452
0.24034571951859268 0.07000000029802322 0.30809956606181327 0.029541004095948644
0.17837918090151542 0.07000000029802322 0.284112403773094 0.02961837348267151
0.14308259585905164 0.07000000029802322 0.2731271699102722 0.031266218531411316
0.02051347959197628 0.07000000029802322 0.24147342377396266 0.1276696036199138
0.4646483574155129 0.07000000029802322 0.02174223185356777 0.11800109027234845
0.308571270068888 0.07000000029802322 0.24382018712309228 0.029427037730496507
0.1427845885735316 0.07000000029802322 0.23917024756927383 0.030217934945792137
0.0700735442275932 0.07000000029802322 0.2701506860693449 0.029945796229156392
0.10685139563409624 0.07000000029802322 0.24528322440041755 0.03262190852154145
0.44704528311862646 0.07000000029802322 0.05643076215890631 0.04022634452486715
0.20449733090686134 0.07000000029802322 0.12882604837816222 0.03007107639178994
0.1474328524851736 0.07000000029802322 0.26155945860322705 0.030249025092199355
0.1849850072746849 0.07000000029802322 0.24889930147317357 0.02928810862077783
0.34711539795816054 0.07000000029802322 0.06864281575737907 0.029078229360128875
0.3440168491266724 0.07000000029802322 0.19650489887615297 0.030723818086312298
0.4064170619858932 0.07000000029802322 0.11484906272671315 0.05187644812905464
0.08870958245259274 0.07000000029802322 0.11979647063580003 0.06241362220829628
0.18768671901885656 0.07000000029802322 0.35493441015702554 0.02983244244195459
0.2751261204200886 0.07000000029802322 0.22393829140151264 0.030835755288584232
0.06619247200356829 0.07000000029802324 0.3402734887377505 0.028514181399492678
0.47167347632297163 0.07000000029802322 0.032476168717909586 0.08274697392062892
0.2164903462252955 0.07000000029802322 0.13391016301402814 0.029491835174712586
0.21503596962720478 0.07000000029802322 0.28740587726023054 0.030796848207603165
0.14425546869900485 0.07000000029802322 0.3733973310199879 0.029487521260102262
0.03604338103733363 0.07000000029802324 0.4337304069877321 0.07478996128588858
0.27596269304239895 0.07000000029802322 0.10181048653135001 0.03108664469072527
0.20276602749328462 0.07000000029802322 0.11537965207217621 0.03200544236170101
0.01617569914042844 0.07000000029802322 0.4051564693866031 0.12562062939200508
0.056076954869145615 0.07000000029802324 0.3435292725682064 0.030051364486767245
0.24399450900981995 0.07000000029802322 0.3188674506889684 0.03156021804890229
0.17000776211280105 0.07000000029802322 0.11795906703016691 0.06653477750468746
0.056873069926520525 0.07000000029802322 0.30893377239215436 0.03074401355841577
0.5597436702224758 0.07000000029802322 0.022020089274954614 0.11855903157471792
