x y z curv
0.012587577905150879 -1.6007599771423622 0.5368137630572389 0.009301720741078089
0.04984412272572084 -1.601913817787102 0.39233780983445127 0.013983800887051511
0.040406484204562575 -1.6021644947703522 0.4511753851803873 0.004149710394733882
0.027601150062962092 -1.6228641424967034 0.5172684019174995 0.00800937821886298
0.01713288798595354 -1.6286383848784505 0.5571642873448138 0.006409448756722432
0.03408419210812115 -1.6472614484722108 0.51971442043489 0.014126732679479724
0.047490139528861455 -1.6512298530527907 0.4714291818794489 0.004704597042151306
0.03377629733183965 -1.6514133069909773 0.5360916131989757 0.011050348032631606
0.016713760569887506 -1.6639571676170022 0.6074776568016896 0.002952594314719493
0.06320379293855262 -1.6556670268493907 0.4159845633338199 0.014264528082135594
0.0704361231675967 -1.6327601006588897 0.37375579328329706 0.02041297572223984
0.0542992764315639 -1.6679117841561792 0.4774061023683455 0.008287164227359999
0.06825690542657463 -1.6716631727623787 0.43536674642046 0.010649167488001416
0.03273338865805664 -1.6921548943667413 0.625482991072556 0.013571691122404243
0.08085113480533933 -1.68711746050912 0.41516386600165556 0.0046576735620863785
0.059449960112257214 -1.6982327772150112 0.5288243352792057 0.0021829389044738644
0.0924842765139545 -1.7011001359188025 0.43895954679276716 0.014570158535429027
0.09014165646602049 -1.744339794210328 0.6118484150912396 0.007569588096901346
0.11708625327009446 -1.698599004414779 0.3935491325233079 0.027152249297893675
0.11566468740057252 -1.7207496533666933 0.44005901360646654 0.013262097979368084
0.14294351822111923 -1.7367954041941533 0.4803257192878273 0.005990013408715046
0.15821565643571156 -1.7536120335233734 0.5388317730345181 0.007696580992256962
0.16797368863810758 -1.7349606129882007 0.4632049908590951 0.008820916784962725
0.17817454729288532 -1.7683833846741694 0.6324907659928233 0.005197057905832011
0.15600075640123168 -1.7639757766070003 0.609450798322569 0.005494890751014858
0.16461351461334525 -1.7297989433222727 0.42388819245104703 0.020760589218993274
0.19687080495978226 -1.764657654258025 0.604093252693547 0.012011860972820067
0.21155464761729684 -1.7262479446199794 0.4441450097091204 0.009710359619378568
0.22913494630448086 -1.7441654929084343 0.554778767851689 0.01047723877425445
0.23386817810634458 -1.7403334001683062 0.525299877899962 0.011529872763042466
0.2264506109468033 -1.7219358955331514 0.43587573941474816 0.011741631123148239
0.2546328087140991 -1.7320328731839012 0.532912659502577 0.01071100745235043
0.24176645686973863 -1.7384820758649002 0.5459684991849989 0.0065405904073368385
0.27497550866358306 -1.7095526376630983 0.4852345940340085 0.00902492744994085
0.28164860449299123 -1.718517189146913 0.5598229458726768 0.007219432732871538
0.30405391694316386 -1.6846339504666716 0.5241603133761926 0.0038805832453665578
0.2827971421351567 -1.6777925670317633 0.4155410239114273 0.005146076473128294
0.2962607181426426 -1.6720365601469125 0.44466147050115323 0.009636606346887308
0.316282200717154 -1.6888131864819709 0.5677636163621396 0.0014757991293188708
0.3138997678475628 -1.678254537361149 0.5441323216008519 0.0017887708754355538
0.3363372820244153 -1.6601916123274194 0.6308806064503826 
0.35037046760635254 -1.654523361164719 0.604036203836724 0.0009042246045929043
0.3026557818265569 -1.6359555369468042 0.381534831262815 0.005378180581628514
0.30732413056690355 -1.6086561416829852 0.3845544708925489 0.001468951851528306
0.3048247801091683 -1.5982738781037076 0.38169239633408286 0.0032630779576703225
0.3165005787333242 -1.501107930630229 0.5452589188522439 0.004614958249556205
0.3116532284848228 -1.4742379586782042 0.6189807956099963 5.9091199674725756e-05
0.27587081545668946 -1.489054500977403 0.4553000668349886 0.0011041990768383683
0.29009772332310657 -1.4838567154196967 0.5106999159087435 0.0022602959652839216
0.295985617875498 -1.4582473564033873 0.6043296589172573 0.010072625460184295
0.2834111724821504 -1.448994027817675 0.5699928641237136 0.021422929405791918
0.27240726696382206 -1.4470558834663536 0.6223568363767328 0.01456951158565299
0.2715757809759524 -1.433055669823366 0.5946146648387959 0.004118416356231348
0.24745718473775077 -1.4523616884801152 0.4939852907978805 0.013461706619183103
0.23526382882653166 -1.4518956758658643 0.4737982013606706 0.011320441973734394
0.23122972839995004 -1.4677507669962264 0.412441225310007 0.016905615293246704
0.24770088784188288 -1.448395165345032 0.5287121020666876 0.026460226289129626
0.2348360046110258 -1.4694924535502165 0.4085353608115194 0.011227889793498348
0.22223815960676369 -1.4241326262303402 0.5913829228171379 0.012912692131890788
0.1957264150258947 -1.4582138103764604 0.3991726740921403 0.02018425612974087
0.1863714599011936 -1.416776874430649 0.570501726360789 0.01196311298539992
0.21407830286819732 -1.4237867937763553 0.5879160164406559 0.0035907870384097656
0.19812964969464658 -1.4171221408323043 0.5826859431954446 0.00970116104598364
0.20036064839425613 -1.469425543551179 0.3781032325845713 0.026404477432430885
0.1934362664509808 -1.4592289278672983 0.4075414193810896 0.017867521896883433
0.17631072974062534 -1.4475131495267006 0.47251748583577835 0.006337533858524319
0.16799309255958492 -1.439144612302838 0.49867432694544245 0.017659857939769038
0.17098330489275954 -1.455055904856879 0.4216918392279249 0.006228124869633114
0.1611782284998205 -1.4385648020740078 0.505918797622758 0.015766495820971504
0.17140130499747863 -1.4584191885055822 0.4017754836872571 0.0178767618187486
0.15838724626240772 -1.4467634853267055 0.46836696567668956 0.009825450903321875
0.1348415186175275 -1.428496970111687 0.573356693284161 0.02176283205917314
0.12177385502001498 -1.4317986836624628 0.5763655721539265 0.010833934643558437
0.118714152527359 -1.430408960118949 0.5394599435846147 0.00640383901738515
0.14959982151958146 -1.4305754618201298 0.5406003719425135 0.011874432081123418
0.11229699661997114 -1.4545923556084335 0.49597120509232845 0.01011813620028118
0.10569598395535378 -1.4310275592458206 0.5692385779021404 0.010546443530765767
0.08670142820943379 -1.4587339137712712 0.51694192539373 0.018196445544650778
0.10836231078574148 -1.462274973800068 0.46401722329379075 0.006688482229981465
0.08351902524129376 -1.4751282350661654 0.4649209514215277 0.0164741828615991
0.08983884890938819 -1.48919717010415 0.41996746228951937 0.01752488004587722
0.08851177896512503 -1.492527106441297 0.39100660193220016 0.015883358827228262
0.10767676215609884 -1.4943577714545486 0.3748998513919415 0.0027636224633032303
0.04653923169480893 -1.4728030458693817 0.5840492592094714 0.002062325225649352
0.029916430446715873 -1.482472761070865 0.6212816472334176 0.0039575989440616445
0.042751953714840085 -1.483858790829571 0.5743035750584559 0.0038194304855283185
0.06460346370855952 -1.4771461072336034 0.4956851978047098 0.0026975495065795765
0.0684168370488648 -1.4735341186465976 0.5355341286193858 0.0045115632055129536
0.08343694733208376 -1.500340670336307 0.391460860879541 0.018475730276503687
0.07846511070073249 -1.5033922079718183 0.40290415642261573 0.019509951131189338
0.028906970304091603 -1.4951809745666473 0.6022047589199463 0.005012368864732749
0.05617140669140759 -1.5139429600793222 0.4517508771149074 0.008191335187028127
0.026594107742331397 -1.5375537671225363 0.5392141740815805 0.0077291328732671735
0.04987848574162518 -1.531899622345664 0.4543783531088804 0.0034120743846071514
0.04453549705061875 -1.5300952647017392 0.4693667046631406 0.005376518276865564
0.013418980335422739 -1.5384402261419359 0.6134691736625137 0.007944506330281351
0.02974396724738125 -1.5408128902237987 0.5026730750917958 0.00727994510267176
0.020673711515315177 -1.5540912580240067 0.5406373988899943 0.005811429271678034
0.03032960739235392 -1.5489441725087425 0.5080104772905375 0.009577338299296443
0.02013196616848483 -1.5673189495472755 0.543395042216166 0.006431800959937751
0.029109294355821075 -1.576941752011211 0.5039417145761999 0.001222083797351509
0.030638574074220836 -1.5813063902632123 0.484799663188882 0.004017969360032168
0.042033080211407954 -1.5728661893467188 0.4110477616008456 0.006107249048288697
0.048729472992270824 -1.591596953908056 0.395530659936174 0.008950800764848428
0.2933990696108659 -1.4611169115351852 0.6164825092544702 0.00021848938574305633
0.0671001349261983 -1.7261600757918227 0.6159356097479126 0.0034194677282228052
0.14312553285178412 -1.7622025196368551 0.6212223952053806 0.005246957327731171
0.2377294668339511 -1.7591683173454762 0.616622734782346 0.004168212264785881
0.2695830242410918 -1.4411752955198363 0.6125401722903061 0.013910148067732785
0.09523060918879919 -1.4327771505337785 0.6127452337379644 0.008772525872652119
0.18223476640262845 -1.5744901122695856 0.1093864438970807 0.10625045173972592
0.16553719235665032 -1.5984367743510646 0.044974758127528984 0.11235003726863436
0.16852775009429843 -1.6019172110068167 0.0012980314973984755 0.20497735015352345
0.16180680007611664 -1.60026142991101 0.022012945903784824 0.167224633986042
0.16765198020098543 -1.6028331413082928 0.05625286465424562 0.11521182343104003
0.1786326196809619 -1.6042496747374015 0.1087122656497135 0.11091024505786704
0.20201473957800484 -1.586531408120507 0.05804057313469904 0.10445675793438505
0.19132956979049656 -1.589147834994473 0.011907095888339488 0.23280767367718502
0.19144214504406518 -1.572928867644887 -0.0012409592318093632 0.11941436113076896
0.18087460175871772 -1.5651475164481519 0.06106640542770003 0.1814393532582473
0.17367268907784536 -1.577171193082396 0.020559015535015435 0.21611893952979516
0.1679137408340417 -1.5746826800538527 0.033873637668508864 0.13279440239867904
0.1626113041779094 -1.5752156803424635 0.04465102199835781 0.07046337081542416
0.16739230963093427 -1.5819205673659915 0.08485241310883777 0.10728067080331531
0.15670078352997202 -1.5904934609208394 0.024484674899094346 0.14429360921186812
0.1709514600663064 -1.5795722117991193 0.010610545654703705 0.17335586802627365
0.1683674840504505 -1.589051723904522 0.10485142282668666 0.10848712361653984
0.16217642184224806 -1.593787396461174 0.0698640360723575 0.09913049077982869
0.165031537479253 -1.5917139319157227 0.0038805902013034285 0.21401137261822384
0.1652015221373705 -1.596720710220626 0.07288645695671059 0.08485770635817093
0.17212957536473003 -1.606072999018982 0.036303286083009624 0.12908405137919002
0.16843982238308933 -1.6031628710266268 0.004311230972159457 0.21245170776759614
0.17871355431952665 -1.5971270924783738 0.08731257319125074 0.17892405027791242
0.1812512671591663 -1.5995495676217117 0.059975328084748404 0.16602525993413808
0.1785111248891278 -1.5998340742277088 0.06650571884837618 0.21650182758055647
0.19198932100422766 -1.6060422473946607 0.023085278739964424 0.16075154807480366
0.1912157545911663 -1.6039448210421587 0.04299088792912827 0.18978094439605026
0.18734801664752673 -1.5928768603529706 -0.0018101675263789267 0.2442924908537442
0.19265976025612502 -1.6020459046119835 0.08497386253477109 0.16278076346554213
0.18827758952594606 -1.5698879906869878 0.09679426225024168 0.08406468211557494
0.1832832800188183 -1.5750128054648236 0.011409937979758693 0.1862685534530251
0.18244418127957407 -1.571968954509391 0.030811191933145344 0.18814994196278817
0.1820506942711448 -1.577378960216243 0.006553880332422967 0.21997373539865583
0.1681013889416631 -1.573425697818029 0.06265093064845931 0.1620697219751043
0.16630965318229368 -1.5807837787526804 0.07727238728146446 0.10622171826553124
0.17270229909318335 -1.5801486112078247 0.005770442381002016 0.20822054910279772
0.18318833423099368 -1.5998571505396926 -0.0036489920726509896 0.22097588506106555
0.1658586930327079 -1.5824273370435256 -0.001984120234871805 0.0816693297542381
0.18775082448127334 -1.575205331702414 0.12958070518582063 0.15629186223642963
0.17224120211869082 -1.5987099576610444 0.11945566079636841 0.14449805581051597
0.17498619528360182 -1.5758559859162509 0.12814618783703124 0.1539651641731934
0.1937506016441161 -1.5784944756767356 0.13057673127385527 0.14128326346755257
0.19241103651405903 -1.6053135500004685 0.12470430000032731 0.12264806044922683
0.13233266605636593 -1.5744428357786893 0.29512389757721297 0.023420964959749362
0.12035480418836535 -1.5745284309551595 0.30857487457768235 0.017439045136881753
0.12652707780023678 -1.57065608128199 0.3233249270177932 0.022946912127661704
0.12444998545645022 -1.5644243249664063 0.3656659303144543 0.013336512326370776
0.12331603380863224 -1.5845306593360475 0.34105267831069164 0.016832217568459058
0.1275784636613969 -1.5767327211322626 0.34728985149211367 0.018518724812256106
0.13519686597470873 -1.6080032326918954 0.2973947430510174 0.02270027723949522
0.12032291628201987 -1.6012094808163502 0.3256418668276863 0.028842939049395944
0.1342511969937873 -1.617505731333853 0.3075943313424388 0.014534353203033947
0.12692750136409967 -1.6064262729796925 0.3025866491179802 0.014397998549260752
0.12409599496304548 -1.6047013857382746 0.3242968125321194 0.03250439396293249
0.1175361838346332 -1.615889174924988 0.3579344092281508 0.003684485135490385
0.12166535376733978 -1.5915802251196902 0.33858594665205366 0.010927586577031441
0.1503628994500575 -1.6298643406831597 0.29218681904560223 0.0034713067415181207
0.1486369499907114 -1.6386970926122864 0.3191385182832734 0.01734739014685725
0.1377987434596403 -1.6322171889218176 0.3390266974231952 0.021976598989489317
0.14656994682030422 -1.6374633510447727 0.3460307422953134 0.014312591624556654
0.1721296656963012 -1.644725696876709 0.30542441322858355 0.024729462603638824
0.17516284653794187 -1.6440192596340943 0.3087923736195578 0.02738324434849675
0.16779259447229264 -1.6360485674143093 0.2968720490696793 0.05276619018728987
0.18713311917337758 -1.644698477119038 0.3131738107433292 0.020389338571734642
0.18650694261665435 -1.639165403930623 0.3374870176735994 0.007895415110741953
0.16530540043832356 -1.6470347920510091 0.35620204239431186 0.014882158838370428
0.1640412174405181 -1.64249165135114 0.35008147072595636 0.02384590260811184
0.1739066240398759 -1.6424788210323484 0.33068988899255863 0.020401488311327532
0.20254374083617047 -1.626884352474533 0.2890289484367176 0.025310210988129078
0.1967201190467964 -1.6386061107099803 0.3038490852310088 0.023213157936390214
0.19701852024694902 -1.6370932658276967 0.32077799654302985 0.026722549990424237
0.2097567762209876 -1.6346428469121448 0.3094700088663213 0.013236208378163677
0.2133343251909397 -1.6309929286283924 0.33443884373239446 0.020065553654723445
0.20278298296134967 -1.637869943055705 0.3423574760817998 0.004291675124203484
0.21694148041914657 -1.625631471727735 0.33314398295244285 0.02203373699646917
0.22024207219350417 -1.5951374276007357 0.29635620409086727 0.02651236719706859
0.21688430163549366 -1.6179214039636352 0.29631017436714874 0.030007482252306022
0.22427860611504002 -1.6117265610373883 0.30631274383225854 0.021997907696143012
0.2334615112400247 -1.595251207889467 0.32648174937440555 0.027209858332825024
0.23112302488509678 -1.6012960921336457 0.3240396516647833 0.033746697984614916
0.23014825115469378 -1.6082004700538486 0.33701351329634127 0.04853259034364596
0.22420200490964887 -1.5856095436444257 0.3080774690833448 0.013456616458550187
0.21946234168504297 -1.584755147805782 0.29473535631995446 0.008408914390724644
0.21723935984524684 -1.5652782689312739 0.31309160018159277 0.0018367122092482159
0.21411197910158528 -1.5652500442256438 0.3029090209276126 0.0020201870932849476
0.22364590640485812 -1.5718226537652258 0.32791325434211116 0.010838271025038997
0.22307325890276603 -1.562545702683149 0.3374843145120942 0.0009805016261357955
0.20280344987294377 -1.5511524707226236 0.29472958134493227 0.005685933930014576
0.2064183249343556 -1.552141577498487 0.3035621404341186 0.015120407281276444
0.2012040154061861 -1.533864981301015 0.3137352976167755 0.015572958422182058
0.1812910683614704 -1.5333976906484106 0.2944650061398304 0.12110886883569842
0.18258696083497308 -1.531259125200048 0.30074859138959703 0.10303557322176204
0.17569979583265796 -1.5374138294526731 0.293043167653779 0.09034641423043774
0.16326589884916498 -1.5432661005700459 0.3229582890057506 0.010828680508082012
0.167852313116754 -1.5327409654449131 0.3456985148781871 0.002770948508186613
0.1751109687767688 -1.5304650504617163 0.3564029021389815 0.003041720973353446
0.14881885708041648 -1.5587728814302158 0.29744180224609923 0.043267417775978596
0.1427853012780186 -1.5460106264939428 0.3071734582180965 0.004768304203865094
0.15579235235701927 -1.5455618447636095 0.3347053464465216 0.008952816626511317
0.15038358152791892 -1.5393529885955244 0.35309585382115977 0.016113463091567776
0.13521903152732037 -1.548085434603458 0.35466560996385693 0.023712636662323632
0.13861677640268008 -1.5492153659012151 0.34451283242796266 0.037395053359594775
0.015621602953316181 -1.60945209615289 0.5422443049145738 0.009097295513995813
0.0036160828869771316 -1.6161543757265089 0.6179991647173795 0.002823667791759053
0.0009191604674493991 -1.5927964658875504 0.5947107533311107 0.007511447572773155
0.007972347857686685 -1.587378928083004 0.5689842657403406 0.006793375835549278
0.02776016512011611 -1.6038549338058063 0.48122960551882854 0.004657929581624449
0.010241145632463488 -1.6157472569843225 0.5887001539935836 0.0017795702749522104
0.02167195159818574 -1.6026683858442934 0.5152742982654616 0.014033219425995374
0.041019673735089225 -1.5900022927766215 0.42443654573316975 0.0073901220594372805
0.010868498390412528 -1.6011384388984562 0.5606705003105614 0.01096827695941169
0.037388289321027446 -1.5940866470355937 0.45278321855717835 0.00503159080259538
0.022197052982354117 -1.5936823404055613 0.511914940421705 0.010163287434136935
0.03215022013824709 -1.6093685066781724 0.4709111036881291 0.004768931523156934
0.03548759872820409 -1.6223864774628571 0.4609573477280286 0.014070030225799977
0.014537885170145422 -1.6198600912797383 0.5563745601108813 0.006288556260490576
0.0492826764008485 -1.6066563060659458 0.3892782574088054 0.012623919303815314
0.02668732585524482 -1.6009939368685835 0.4908157257010909 0.007011487418158317
0.010520123262944001 -1.6253252620233098 0.5809026134806381 0.0028265909710724364
0.06029262513183749 -1.6092163673091646 0.37174072827194804 0.008656193191519205
0.0474951461599434 -1.6176567267029018 0.4236178586345173 0.010225520183183514
0.04814393590738464 -1.6030325229899058 0.4147204823597105 0.006307410148836511
0.011232935251780622 -1.6356601992548347 0.5932457786774574 0.00454758174599344
0.017640428513195236 -1.644170521119724 0.5627852654828513 0.004543075688504962
0.008116990355789671 -1.6400335003636326 0.6215669188152616 0.005480719047430495
0.028072143321887708 -1.6271379870581368 0.483237013877609 0.0031241100483506987
0.014903525967483447 -1.6426967932324537 0.5725306569804968 0.006487179861363627
0.034502455225136716 -1.6099302058029976 0.4609212052841237 0.005073199040903327
0.02553082326154094 -1.633000133376196 0.5380051525989353 0.0036342040347135613
0.03622145506353867 -1.6146166835700344 0.4546229327621626 0.004738249214065545
0.030659187222081743 -1.6160277653934412 0.4751659309651527 0.016099115643059738
0.024265609230464405 -1.6176472373850161 0.5079917040636056 0.005416394555290639
0.047569098343460854 -1.6206209879637736 0.3944018120720545 0.007955981385579085
0.02116128455965566 -1.6219687829902014 0.5451759801347423 0.004135584403994441
0.03316760957127867 -1.5624294419424476 0.4532803555827597 0.016029642216542652
0.026704084844235178 -1.554612996441284 0.5268394147757289 0.007293331690073576
-0.000440718218535831 -1.5840930796055739 0.6114956211761052 0.01653873243080981
0.004437548951946046 -1.5538009174974694 0.5894458741909743 0.00595375834222287
0.007783512474519421 -1.5836559790031939 0.5779146012220215 0.007502082873212984
0.0042338195082633305 -1.5657186359998188 0.5978938478856111 0.011143993482109269
0.023575601529940024 -1.5760240422563656 0.5236882815134372 0.0050987665406897744
0.011261298140885913 -1.5741746796722718 0.5512998633464281 0.005328355183237051
0.032313023988905246 -1.5818592521910708 0.47195327940720083 0.005466361700048864
0.05538337625744898 -1.5829698791316271 0.3811564777876015 0.006510346155198764
0.03571198132348766 -1.5752177737847408 0.4525752925368851 0.010009736687240593
0.04681504109122744 -1.5803130153715024 0.4050592221484338 0.010006256571741765
0.03930037232975331 -1.5868899016575344 0.44419537144756394 0.0030442634499950826
0.031208744012680662 -1.5276428922862135 0.5236414092529399 0.013284964822716116
0.016797427196042495 -1.532551549900413 0.5580389621068775 0.008843689467926536
0.011799275821179914 -1.5398701221319775 0.559142047586021 0.006147035702993333
0.04950112505529958 -1.5412431579971704 0.3955441543594133 0.04664924865986173
0.01611376993731093 -1.5209605498742542 0.6011535235523708 0.01437202430169287
0.03279108215402496 -1.532404048008867 0.5071351048104427 0.0052934912006929
0.05027023395476335 -1.543131535674891 0.4278633087573256 0.009618680100997716
0.00950838379940403 -1.5256796893724234 0.6340230270926331 0.004770579771707136
0.012611974447412326 -1.5368704763288885 0.5682428552359108 0.01051343654128918
0.006932588109386702 -1.5546088481137335 0.6033795354910151 0.008774143801801033
0.030955072517527285 -1.5547323754184765 0.4633335413204205 0.014056923832691385
0.03583130733739619 -1.5444848242482947 0.47353663046269123 0.01452867300876826
0.04836834606428797 -1.5470377412786065 0.4372044762462335 0.006595384503836992
0.053402345507579344 -1.5466695191944746 0.3858794495901612 0.03737336152694129
0.03195231068054985 -1.5513217539730608 0.4626658770357493 0.015245827863433377
0.028646168532097692 -1.5608039642039326 0.4942937693349822 0.004073598496458399
0.014775456636466176 -1.5523299028558597 0.5560415727905219 0.007084246752355455
0.05179307753819128 -1.557255388073344 0.38564022132340586 0.04017089254593934
0.05132343054809321 -1.5565834041160391 0.4159645664559516 0.007088639184408359
0.02814800117202449 -1.4941331006811611 0.6081803827183925 0.005049255625618683
0.009969486375288833 -1.5113821847956534 0.6136776144131596 0.006046080093194182
0.038640700561833864 -1.5044030869424476 0.5221909871561664 0.011058463054592689
0.06280763259630805 -1.5039168810949781 0.453595613115738 0.013114178105245889
0.023918944223048764 -1.5145917974504226 0.5584290751789338 0.007113895840283212
0.03963769023327687 -1.4924997269551978 0.5461146158899854 0.0033069708246145314
0.04850949710341314 -1.5024213661076575 0.4827567794541521 0.00340177099980232
0.02628101562814627 -1.5017077607810936 0.5982163817649248 0.004996193022415619
0.04198877231196979 -1.523574792338681 0.47809147380543965 0.005523185721068672
0.04762603294928791 -1.5152932931034901 0.49512602740340506 0.008548839191316743
0.03491253361855071 -1.4948175786466533 0.5742668699926041 0.0015572115621799718
0.017091011413491928 -1.5212502774563352 0.5873357828989779 0.010936015853494675
0.05817960521024322 -1.529231770368409 0.41113593914031754 0.03287684740487474
0.043702008223307366 -1.5294188811659946 0.4708572343313184 0.005406395356793297
0.06469787381632083 -1.4671512402986921 0.5526310095591296 0.0054702145081821415
0.05628229570596827 -1.4884283518015655 0.5327130113628054 0.012660413321248716
0.04230801948482303 -1.4824975108596259 0.5856152413193086 0.004633333121951336
0.04726728513518916 -1.4690724777952642 0.6037091657637245 0.007941177897294385
0.06587168342955035 -1.4999556629061441 0.41572519853649637 0.004712037832187883
0.0524385593144483 -1.4704464006749896 0.5762115481210429 0.004181825586700421
0.0660777760656997 -1.5031223955919837 0.43403184385991567 0.016866019521050133
0.05685883476013581 -1.5122458738319053 0.4450423481035414 0.008225924487170938
0.06494747734121212 -1.5000655338275035 0.4549930160524592 0.0142174665821141
0.05271698915846173 -1.4945324645232199 0.5241250364742719 0.020361980668019537
0.07304380492528886 -1.5170083281063214 0.3986634725469402 0.03218334607968321
0.08120870984580392 -1.4538745252182104 0.5333698017017763 0.00417795852970205
0.0640045598227049 -1.4651590958719294 0.5687116720626992 0.003872850098135634
0.09751312417113286 -1.4658688189605857 0.4689283593857896 0.007648441648617694
0.05765593143877329 -1.4600937419851088 0.6203625491395515 0.001354937000468388
0.07469644520392593 -1.4462055279558437 0.615702487151574 0.004598384951628921
0.0672931686133595 -1.4494379722120818 0.5884999246851913 0.0007800975377428429
0.10072976919275749 -1.4834483075893543 0.3966495270184424 0.01185896412961433
0.0831541962143615 -1.4722847046680754 0.50015428787401 0.009912106583066184
0.08029816772037723 -1.4813305347243588 0.4364746409367317 0.007084560980925509
0.10574883716343153 -1.4551454597047715 0.48620890122821897 0.00799766018300064
0.11802999447167432 -1.4611661184928348 0.46965103511696715 0.00299826726682941
0.09341093048405541 -1.4357095937389748 0.5874904639679988 0.009402438307852314
0.10607869927651811 -1.4379375980226403 0.5564865452477314 0.015340883153951069
0.0904104054922241 -1.4435519301888888 0.5617229051787549 0.01371110575877985
0.09821823699525999 -1.4576064067218057 0.5130967962672557 0.011597579893101796
0.09495572143531823 -1.435033703190235 0.5811863687684283 0.009214468532944331
0.13064855992203023 -1.4799167312738652 0.38156255377062154 0.0054139338284480065
0.12114028581088652 -1.4614466436625746 0.41069388251953515 0.007043001882712435
0.10831916896728802 -1.4632395934092155 0.4508931348368582 0.003913201592725272
0.10544859982002676 -1.473869033553955 0.41632557819429294 0.012620759627577553
0.1298945701065775 -1.4455929974801662 0.5000263161241474 0.02461726792489175
0.15126369303676282 -1.4603999509618486 0.39803590110358056 0.02284568121668995
0.14195638055417234 -1.4405680352629866 0.4814024120919492 0.016358782044172963
0.13984342342194062 -1.412754917103148 0.6277660854287694 0.00249554695261145
0.14572319757988406 -1.450810934993342 0.44663206687318313 0.028056754432260647
0.1476433121835034 -1.4361532315345005 0.4914190578227936 0.010118996309098124
0.14426907736129804 -1.4448544575155402 0.4568047930739682 0.026649060271218376
0.10925906828351112 -1.421516116344544 0.6112100682830317 0.0025778704665597976
0.14349810249225592 -1.4514946936955886 0.4198102746535777 0.007488221422712224
0.1254056559606527 -1.4596718853093529 0.4295895860412926 0.013333488100824483
0.13265054706917515 -1.4562708550072898 0.443744193067781 0.01066566530048645
0.12151429723744389 -1.4364815518662994 0.5164340156702736 0.016374806726350524
0.18133021918646508 -1.4270923060081533 0.5429677613698706 0.013030080519237864
0.17577693235196606 -1.4363450507887776 0.5053924719552341 0.010665613440323442
0.16512001303816956 -1.4221564072149375 0.5277568596729642 0.002540107669314133
0.15203301674769942 -1.4134054153690911 0.5803448508533304 0.016430374105194434
0.18168173387219225 -1.4129901761708632 0.5995690334329434 0.006401891612852741
0.16979035679333088 -1.42715514341081 0.5586540898662546 0.016717603749743012
0.1750738446602123 -1.4118631571399718 0.5858971443484413 0.007635693559313437
0.15733988363638116 -1.4554232499357243 0.43022992409038824 0.012345963978114367
0.15878418402047004 -1.443097868637907 0.48987703715100445 0.016943045033846905
0.15701092739422573 -1.448238464105058 0.4453141345726523 0.014035226248919489
0.14417805779766066 -1.4088804305037819 0.5958337736023633 0.01146376510107847
0.14539558737286679 -1.4288225841859714 0.550851460692159 0.026569478092797767
0.03990622227327064 -1.6327074829664017 0.43752790127571634 0.009192297118793612
0.03808273720926788 -1.6294456600728755 0.4698079502778469 0.016846277741473435
0.06518841692770036 -1.6364781929191097 0.38581671190408234 0.02049510739341475
0.05668269592339422 -1.6465574550691804 0.43118944014929805 0.011809586254089123
0.02458803296194859 -1.6598518059051353 0.5657188893364682 0.006700164505160575
0.01896385132452209 -1.6562335727050748 0.5888158659190542 0.004477310698411037
0.030502673070881395 -1.6669063753579987 0.5109043135507169 0.0017184147574881594
0.04321246197547591 -1.654849732809302 0.4853425980173673 0.013304672316637279
0.03120930005303887 -1.672531132317981 0.5591493858697686 0.00950027073573473
0.0298680783263845 -1.674090160566461 0.5913259019500721 0.004287662490203196
0.01864813587963862 -1.655224477489005 0.6207608660819058 0.005191194103828639
0.04485725884882359 -1.6376352985651672 0.4391091339483097 0.010683431752431723
0.053293396217685675 -1.6395824113676867 0.4085329857434123 0.020424660703169683
0.060984804986971966 -1.660401703607085 0.38825990307501457 0.007457816482199845
0.06162473457548438 -1.6559026620102713 0.40287429892874876 0.019364549136697436
0.06457050647807351 -1.6609083863260117 0.4154807896257944 0.015925274160846124
0.03149963948032666 -1.6867376617147372 0.5790842226002604 0.006346000214375715
0.0639615841100123 -1.670286657616822 0.43884709715802206 0.010832467659634332
0.04432155266637368 -1.6668525730996164 0.4947508977572493 0.02044226035243128
0.053386721603714986 -1.684124833415456 0.5066661568421958 0.016819588099714174
0.04637539375366874 -1.713827824330356 0.6095847430933988 0.01025858465052518
0.05823943668565299 -1.6740382246280672 0.4544432219905401 0.010676210974782899
0.035444254268877415 -1.7035558984606989 0.602328976382216 0.00883693660743029
0.06010798591870406 -1.6849657820503396 0.4683520171754863 0.007779360369136676
0.05143888057228003 -1.706649869072611 0.5510139708429699 0.0038521350741707104
0.06517737244762478 -1.6755591358338466 0.44755913085029625 0.011782944263784276
0.05062967715669761 -1.711363402977684 0.5985872234901882 0.013386925713785006
0.060898598964360263 -1.6826701634325123 0.46351163608816776 0.010721105976874755
0.09523029162402359 -1.6743790286103826 0.3793027794353965 0.016312599268486352
0.0785616718955159 -1.6680352155653786 0.3915634765317283 0.022106969707751313
0.0749836789286158 -1.6973551672218983 0.4714182656637469 0.011250142579433674
0.06982919405451393 -1.7249253535325761 0.5864881654995795 0.0025928436006151133
0.06703000867115841 -1.7023720506985653 0.5239350608226322 0.013930366912204183
0.08610427819703241 -1.7327966710734684 0.5738130377571573 0.009053298475250014
0.08116779643467321 -1.744294009572236 0.6309585700764644 0.0001038365118699576
0.07899367741402159 -1.7142348411288482 0.4952985931352751 0.0007662983025535524
0.07421480243253922 -1.7262706229225195 0.5523536104704606 0.0028763332850979457
0.07817827965890409 -1.691461482056075 0.45332311996286495 0.006711896073227961
0.08117956534202189 -1.696076700414209 0.45636200216742023 0.005647645013398869
0.0646839017298621 -1.7081789569882357 0.5394538635939796 0.001666451609384739
0.10656337930662456 -1.6970634585704956 0.40554236570490165 0.01726343827080535
0.10289047691434967 -1.6965271058165983 0.4070268036489113 0.017726460072530124
0.10168904044318555 -1.6879282229950663 0.39062630875039644 0.015920349491779895
0.0784927378289473 -1.7144467365077687 0.5334407445504864 0.010506823337184704
0.09717678849226392 -1.7047218347597473 0.41966416668375595 0.005941680924664777
0.09010544011223172 -1.6975085407146608 0.42349838199615086 0.016159390808214755
0.08999090556176804 -1.6990314197109915 0.443556096557953 0.006280290085267159
0.09829812800046074 -1.7511970682289555 0.6015906917005504 0.005880446549939627
0.1096629081488342 -1.7430348742277617 0.5679632121787255 0.009465155720352047
0.0975337660024795 -1.7135839638182289 0.4700104253915381 0.006894681091027183
0.10757504269294398 -1.7179448564334934 0.45053040931077815 0.012938275190858323
0.1046408423616514 -1.721061572187081 0.4936698678033098 0.0008130814595265333
0.12359952745040072 -1.7270527876768365 0.45052281620149537 0.016538165940664224
0.12639615894897868 -1.708431715238516 0.41969582125754573 0.005415313178606196
0.11948544483301658 -1.7255641865462363 0.4626045826524368 0.011455351380229621
0.13559583103601258 -1.7595507064543774 0.6052617102016713 0.006008753602079782
0.10311444219209022 -1.737849198985028 0.5225209451240208 0.003252974154810149
0.12611718617683557 -1.7419166547621274 0.4902487210616047 0.00923269880720396
0.11603466127846362 -1.7428739225110845 0.5626400016838574 0.0069935320316634325
0.1180440327522851 -1.7532440776520315 0.5962865770273663 0.010384431540648659
0.11239768025905617 -1.760005533084943 0.6123773360666298 0.002586689041454039
0.13179301687004236 -1.7560428492417717 0.5721763597813389 0.009206845372048295
0.12307445981086094 -1.745415165175205 0.5400699313226357 0.009761902887505683
0.1482191146600802 -1.738746085586412 0.4886044840934963 0.005527022447378188
0.13190643861981846 -1.7182723420025174 0.4246605911109662 0.005668834388617511
0.13756027771616008 -1.7323725595660997 0.437945903531173 0.010792847831447176
0.1432546423416859 -1.7441400968601084 0.5034609249741101 0.010755450883278724
0.12926171358667232 -1.7046166860317666 0.39901250394335813 0.024641192978131974
0.16848072710000944 -1.7519543650329314 0.5335771466638232 0.008496811823863052
0.14258941357830662 -1.7495110455202187 0.5568120609491132 0.010992529975264205
0.16225420024735576 -1.7488230482525249 0.512778939066978 0.007168502616407395
0.1552046066972338 -1.745755735368482 0.515384906965559 0.007531614299244571
0.14882482629564267 -1.7609901066636615 0.5748251239935784 0.006378499898173985
0.16192379804414403 -1.7530144023037266 0.5684674264760238 0.007432401358485611
0.149161851575836 -1.7447554835815413 0.5286477582031787 0.005159276853465292
0.16628367189056042 -1.7521065849327706 0.547712549434733 0.011144402598133752
0.15927947848196294 -1.7327298105076756 0.43797147729818264 0.010857943038983377
0.15982140056435493 -1.7227664170834418 0.4083791847752315 0.020879266446519332
0.15856792730921626 -1.7453163720699512 0.4925909313897559 0.005015464947074214
0.15997605560981912 -1.7608368131068433 0.5896437429459627 0.00673026201118002
0.17530131317061404 -1.740648159880798 0.4767661054461476 0.0065519093021357685
0.1503643847753433 -1.7199414318242945 0.3843129583156136 0.02117135539113494
0.18038897034997778 -1.7322944879218367 0.46095514500453777 0.014784643269983294
0.1847618670003337 -1.7355132548345371 0.46652575639535454 0.009921635206529751
0.17223616815227819 -1.7431112220737677 0.5015474942975044 0.0063043519279715405
0.17059441274116374 -1.7634923280785368 0.6193999167823715 0.012743728131834832
0.19886579406362273 -1.7524683544464756 0.5317034802131027 0.007765884976478578
0.1919891357701987 -1.7418964606481362 0.5079320234067243 0.005379492214976968
0.18655015106361184 -1.769418071794361 0.6016103126159584 0.0069368906180970165
0.18738857092084166 -1.7576047446885912 0.5613792488062093 0.01014557281303714
0.18609114095819823 -1.7505362913563196 0.5451134802215841 0.009342210379033844
0.18186867370023385 -1.7238104803735155 0.40613956233144116 0.011367893329626132
0.18174641888575105 -1.759566912626299 0.5771534113125658 0.011110127385722986
0.19507814597552864 -1.741847724254734 0.5095755279407694 0.005433187552909234
0.20407789125927808 -1.7494187208629801 0.5562191868677054 0.015168811671770295
0.20527191592246136 -1.763976631652279 0.5760448468977434 0.004122534356174953
0.1984054558750638 -1.7186165172770522 0.41817504260267474 0.005626715338171615
0.205373374493995 -1.743311368079942 0.5127672244739223 0.01397581889503983
0.19182830238624282 -1.7198452521606387 0.3948145416045377 0.02048749889303013
0.19276796549589428 -1.7304297664582826 0.46009032798527616 0.01571761433520323
0.21129478646645938 -1.7397707963397775 0.48356603270443704 0.004660130524582715
0.1817534530562303 -1.7330506470468423 0.4316685777794891 0.0031879831275125176
0.20555346253548956 -1.7256945625256146 0.4586717345384639 0.009576845904129744
0.21696330890963764 -1.7232684371791975 0.4575824721668129 0.005546924573146871
0.22258459306721984 -1.7577813233965278 0.6142805240868584 0.005882964277402001
0.22424527054441026 -1.752734133408049 0.5750732629894733 0.010910201411933076
0.23283225478693886 -1.7553945519489969 0.5990475440404713 0.01572648694123756
0.22690161957455582 -1.7554380315411922 0.5784575381693408 0.009709682041110597
0.2260241088070524 -1.750227172506385 0.5303427902841071 0.00504568069191811
0.21901369725143668 -1.7386336594983776 0.5075877609867274 0.016457322660046382
0.21814930999492593 -1.7566902925429306 0.5864309773904415 0.009459913597413928
0.2236247611860714 -1.7551410459457746 0.6001830090531378 0.008516925641733324
0.22241972995266443 -1.7348217544998652 0.4819987077917756 0.008752421628854503
0.2046133489013887 -1.7158228468880867 0.40418792255715336 0.017813670260682504
0.2251523597308766 -1.7148686443400505 0.3918835732017249 0.017217633406352587
0.22467273510581795 -1.7146450892569969 0.39788083753824877 0.017963999975267174
0.21499798283793892 -1.718618158070957 0.42642273383476703 0.00659674032069536
0.21134166295752474 -1.7152436869960115 0.40505694384110996 0.022250728530575848
0.2495981546924632 -1.7427688818477878 0.5819960359791937 0.011046941873219017
0.24310150243796755 -1.7298976761165001 0.47960637732163286 0.010620917828465512
0.22415689783356568 -1.72216049311844 0.4559371167313491 0.007837139480758364
0.24678525901067627 -1.7327688935857275 0.5260524853573455 0.011502944582932932
0.2358474804763701 -1.7308494709624958 0.504452376622382 0.010509530284773031
0.2508302849043658 -1.7489623852326692 0.5902862368687556 0.015325748399976075
0.2508904804579431 -1.7361321575796744 0.5354237591936372 0.009188898180208769
0.23968991708808882 -1.7163417176132498 0.415086198545626 0.012939191116643921
0.27138799824111404 -1.73244896994978 0.5774487323867693 0.016470242857948646
0.2705533609022875 -1.7475928768309872 0.5899141290442427 0.010539778248887906
0.23527981535765977 -1.7220668429211605 0.4439258919022865 0.018780038916039538
0.2447608972535671 -1.7386140964889962 0.5692115752204978 0.008613405857252109
0.2496560009551546 -1.7351121569091532 0.5487678908836844 0.007171971926285703
0.24577956586348204 -1.6915595107474388 0.38120837509744376 0.019378434812698637
0.27013030116960285 -1.7177885322989304 0.5190085373724783 0.010343473473029684
0.25579157217800946 -1.717828948716892 0.4511084576158649 0.020437151201884454
0.2679514984484079 -1.7230363284354324 0.5004217258674982 0.005633349946562035
0.2545755180276272 -1.7034383175448042 0.3995658130645935 0.005973608637523008
0.2964116776306356 -1.7189136353512933 0.6188117913144885 2.276837607932043e-06
0.26215873887915636 -1.7130476584289684 0.48050497705198536 0.011286793669133413
0.2701228326361096 -1.728325728311938 0.5562060161801116 0.015741877340309848
0.28709122849576135 -1.7090896456774547 0.5521083125204488 0.0005561705864727302
0.3008382295772969 -1.7189268720951776 0.5908619328819736 0.009839832950811138
0.2599902951960506 -1.7024088781938864 0.42986635654049626 0.013915271897148673
0.2879361320272782 -1.7177268951784326 0.5767949514919627 0.0024930846003391196
0.25656572218352486 -1.6779954137939532 0.37994410755639263 0.001596782951174769
0.2874243361262806 -1.6968699059796097 0.47257086508412277 0.0017444336074609625
0.2676152241142451 -1.696759113221713 0.4176620365023508 0.001385099685604317
0.28397329915515696 -1.707157837820651 0.5238278402185845 0.004407279296412877
0.29798834162090027 -1.7014933833810018 0.5547152874023364 0.00180878967306771
0.31211038506856614 -1.7133044926019554 0.599156296369967 0.01504644345026641
0.3050970692604429 -1.6991284606432864 0.5671116275140617 0.0020247926175591758
0.28830781062991667 -1.7036898998006789 0.5280606229777977 0.002116441750369864
0.3065631866811848 -1.6912430626368953 0.5559379520129857 0.0025894840836180274
0.27496942425896087 -1.6711164792947362 0.3859664685328368 0.0074072436693206
0.30902680068865174 -1.6836594667947262 0.49756728369908426 8.579561049959872e-06
0.2896306738014709 -1.658860489266782 0.38383632245875476 0.015207450300025065
0.28300691195600003 -1.6836855795115795 0.4524906107152728 0.002608967568447149
0.27933214600360573 -1.6622147789819526 0.37934755945909054 0.01220863451224329
0.3377410779852444 -1.6670011120234924 0.589025220707928 0.0002580798770445367
0.33493656250652937 -1.6796719646828857 0.5984327212706745 0.004359299765394574
0.2972392151671719 -1.6702472436006706 0.4299133789965474 0.0066732412979508115
0.29163002075351635 -1.6612595514891266 0.41355565188512494 0.005542063829806229
0.302530162548946 -1.6747905989770948 0.4624706076280643 0.008849523121205453
0.3250541755779027 -1.667015132306331 0.5506588812544189 0.0041537266684795624
0.3171841173897729 -1.6610168610134357 0.4894970440562814 5.21313205672723e-05
0.28915586644242736 -1.6593518640346052 0.39630533311700283 0.006944715517258064
0.34260283218120097 -1.6570158097962773 0.5861511574368351 0.0003111250195946692
0.32250413205078293 -1.6482402898331607 0.4777391769650669 0.00039080334180951164
0.33617486252855894 -1.6420615193987085 0.5123347698371888 2.819276006873514e-13
0.3176111844854419 -1.6124758167539412 0.4208369083165627 3.511398146303455e-05
0.34111433613791264 -1.6322100789843506 0.5384033087627154 
0.2989439622053991 -1.6224178062097994 0.3793716790284746 0.002727875788804083
0.3164316333605789 -1.6340692328242568 0.45104967865281825 -1.4316550871109464e-14
0.30751691114962126 -1.6415298297308716 0.4200688081839392 0.005012976740878721
0.3447340141037623 -1.6101012444305256 0.5391230206879356 
0.3555438480114496 -1.6218605305941056 0.5839737242618694 
0.31672175169613925 -1.5940754783259452 0.41403926959396464 1.7041539975320218e-14
0.3332702769707824 -1.5859233269315023 0.4813910754441577 
0.3517256831339995 -1.5697787070127056 0.5555628691712134 
0.30494777319833805 -1.5688009088405528 0.38361071149779796 0.00014312036024757518
0.33600043367564447 -1.5689445850973676 0.5048404352728658 
0.3237849685348626 -1.5547293588500228 0.4492974066510164 
0.34895165231203684 -1.5543673506187947 0.5712302433487286 
0.33867199505704526 -1.5387379132821906 0.547911939597794 4.147159736241506e-06
0.3292260653501637 -1.5446304475188315 0.5012187058358686 4.32599015762985e-14
0.3032151312199432 -1.5264410130805628 0.42206963757421984 0.017842967233262376
0.33022245453959753 -1.5256267015416538 0.5353565390318812 0.005537385909376263
0.3232228562825182 -1.5101636521095434 0.5296951434713058 0.0016503690776232256
0.3397039356922307 -1.5189481961315776 0.5920324623129352 
0.30312696731308136 -1.5316984671759533 0.4159129017152411 3.8329819710780324e-13
0.31392433251213464 -1.5122996934515294 0.49960830743617834 0.006386998157812151
0.31365563661573376 -1.502135801834639 0.5276959732254131 0.0038237152927775736
0.30455492624058556 -1.5037395429151954 0.4517161695516516 0.001432384998682732
0.3068954542659466 -1.497328801006089 0.5236573075209094 0.003446589496372297
0.310809227894014 -1.4591309409381739 0.5840052968078724 0.006580103647115294
0.30533560322496894 -1.508281845552702 0.4892959528059328 0.0021209427408888275
0.32379594132577755 -1.482498354451873 0.6182746859481161 -2.119866259063239e-13
0.30912411915505417 -1.4735628986270228 0.5611993083122739 0.00397297431591274
0.31923559809705915 -1.4919893551769587 0.5655082762585059 0.007342110678859712
0.28853145163043187 -1.5058170579638812 0.4104083499599175 0.004888629218910491
0.27565306291378555 -1.4919839643968877 0.4136831941920522 0.002011137645315853
0.2812541982657661 -1.4966889827215604 0.43122824793269243 0.013619069058697883
0.2852079536160027 -1.4746468529449028 0.515306286350452 0.00575839607265631
0.28074603491569317 -1.4967020091296224 0.4001170828434731 0.036076556233673354
0.2939223516454607 -1.4683665196515792 0.5563788330001818 0.011407806845934095
0.2818678237901104 -1.476300726367179 0.49416016173579974 0.005874866929970255
0.2864919962523495 -1.4672297752494827 0.5459820545659125 0.004484274442364386
0.2663978324267682 -1.4810000398972114 0.43439308663615406 0.00428126945069412
0.25837017057326805 -1.4736746277342403 0.4448424788236979 0.010158475367243033
0.26344921389870884 -1.486473126040862 0.3994436022237161 0.02459790013905823
0.2473553127662104 -1.468670783067588 0.414294435152483 0.003575296295919598
0.2654893383498357 -1.4656873750948307 0.4977345848739757 0.016260808822564282
0.26913896404162474 -1.4671588389687698 0.47883863258215 0.012657730399547124
0.254492995923985 -1.4337100360412574 0.597361166428738 0.024026541438426117
0.25027223612079624 -1.448633295301789 0.5315245446486347 0.020946076684200135
0.2652413925264066 -1.4478029695560968 0.519205183611937 0.0010232881806633153
0.2400259748371153 -1.4634900176166108 0.4326011889039092 0.008462169185135947
0.24088988826162225 -1.4744421074145078 0.37349368017762363 0.04715242034425655
0.24629221025917009 -1.4258541512304195 0.56301625796146 0.003696422762872577
0.25304130728747115 -1.4555028630756708 0.4650415916145438 0.0024515170637005577
0.23332707518589152 -1.4639774812174764 0.4255757362641997 0.006333197077809549
0.21817615626016765 -1.4149195050843832 0.618874878720043 0.0038230759291026993
0.23176336892632504 -1.421596642651756 0.6004353971973251 0.0013108726340610188
0.22337328277477253 -1.4303726322975023 0.5648623035882145 0.014230120684679175
0.2257866077903193 -1.448292950515273 0.45811366426526084 0.005824477142626939
0.23503592912919158 -1.4420672824858336 0.5093231848646229 0.0054542489775888875
0.2451424037302502 -1.4226143731976018 0.6181058473280893 0.019327596395953283
0.23392178730398433 -1.4390795746686074 0.543213634676019 0.020961863049843536
0.22585885506361097 -1.4743805936713783 0.3763420053618037 0.07212906139316891
0.21897941973710836 -1.4420459492963866 0.49097750959636177 0.004824393948121594
0.2141253222248045 -1.4440929176965929 0.4800298835527235 0.01174149807586608
0.1972286566074693 -1.4148372574107861 0.5906587759976992 0.0035026989351550925
0.19892679833534943 -1.4297677000190476 0.5310176340212263 0.013859055832744436
0.20098209879937076 -1.4463126296296405 0.4657737624878123 0.008414345560009783
0.21455457685826548 -1.4251631719244282 0.5452161227319633 0.01344329718286506
0.20972194443969233 -1.4324738116402267 0.519962930982302 0.007809587003271164
0.211678360694259 -1.4526047592093976 0.421130370704279 0.00699253313387033
0.18040960588394145 -1.4548922786382725 0.45257131347495094 0.004021018343991837
0.18594991217505188 -1.4362087375674537 0.49165997203633427 0.003380140172961182
0.19710249227377666 -1.4525658581579186 0.444406477834074 0.0036051899649284375
0.17885211206752513 -1.428946436494225 0.5238906187934569 0.013784435526030637
0.18347644404872948 -1.4603058144437708 0.40935889193991487 0.01486385333281775
0.18020019357834371 -1.4551998349679869 0.4333007168655892 0.006202753570568738
0.18018938844362448 -1.455195932758622 0.3886509785861948 0.015637256463317654
0.18418990724253312 -1.4584110812806739 0.3889705047248862 0.02311842572221123
0.05389017631525861 -1.5853516615256735 0.3808744085076075 0.006689951056092827
0.08889898732945246 -1.6647758595020115 0.3776647249946321 0.01734916686632259
0.1093115986018799 -1.6922652280694883 0.38498154956127495 0.019925562163258227
0.1854682372981431 -1.7050596107923117 0.3807285539685626 0.033980178535800105
0.2135264196113743 -1.701322008944364 0.3813141767870951 0.021578156445867514
0.23608497855110774 -1.7001099822762418 0.3750590286028471 0.007533562552774629
0.3017545594053678 -1.544080658970735 0.3816947958133086 0.0009155490482415199
0.2689532847864743 -1.4929619303845527 0.3784931146959142 0.025964896869606426
0.22687677414283214 -1.4638575360843524 0.3813354760538741 0.005537591050933896
0.08564391468163016 -1.5193736605067074 0.37699571106184354 0.029806438424953202
0.16005667976719717 -1.4609465417821832 0.38421857207251076 0.019208135341513766
0.1648686846336458 -1.4709167343987015 0.37994958466032064 0.028292367354207953
-0.0035574043589104484 -1.5934508844293864 0.6194577971979685 0.022648870754084158
-0.005037708082140986 -1.5761762589749757 0.619134799128306 0.003627715793307261
0.004693886317686247 -1.557132958852735 0.623037004886262 0.009144147933045113
