x y z curv
0.0724634214405376 -0.08087093325786852 0.14248785098569589 0.19858163897566355
0.04705589183606999 -0.05477510251147978 0.1546127244503164 0.16131123259065416
0.06449856331926115 -0.07272416128164559 0.25161453373216747 0.027471366286666476
0.06728992210791926 -0.06910507092908408 0.33489559686116693 0.019063460584832128
0.06610721065217162 -0.05872960464350067 0.262058596647368 0.04041033087972966
0.06788009556881075 -0.058412066431418226 0.17844689508567957 0.036622605034264295
0.07340674238686984 -0.06163639418967186 0.3534063268161018 0.04570898466358005
0.07562834704043785 -0.0567855784357954 0.17624188279207942 0.006875168496088675
0.06812331104583667 -0.06289210005025987 0.24837567659168774 0.025066549204732985
0.07884574222088692 -0.05808066786252645 0.34233464742254616 0.031477961261360925
0.0636670537856644 -0.056185869160264613 0.3341740010781933 0.01981257332520015
0.06405921615558818 -0.059507198184239385 0.22237079374220955 0.03106301105671216
0.05714697974251607 -0.04920815182991209 0.3855499753897482 0.04832779797180974
0.05844577714915533 -0.07395629785433107 0.2544212249259324 0.033711479107586
0.059395652950494475 -0.06388068706802509 0.379871909335609 0.04337315771330271
0.06156208346585773 -0.06753931081094314 0.323266407625507 0.020748357132993507
0.05549496502650909 -0.07375646622085684 0.2827002106604679 0.037336796634161326
0.05871665388761459 -0.06105359441500464 0.22141137302510805 0.036456354544793436
0.05672723527214525 -0.06747859535708528 0.36398699397275563 0.04792454447740347
0.05580106157626918 -0.07557841473449202 0.20563751688535872 0.036076932774557355
0.06140959882331073 -0.07037517663406011 0.23530632327046022 0.03785312949774683
0.06213123837423315 -0.0676099156370913 0.39241806794042927 0.03809560826256588
0.053372132439278505 -0.06848147467664828 0.1954755392658732 0.019017059937031473
0.06548591979017303 -0.06729055705186619 0.3544494910712302 0.04956300000055667
0.07429867961209274 -0.06365527660008997 0.17204324153140557 0.1144650739245566
0.05617219955647724 -0.07372378665756117 0.29802389710085736 0.025391108713352345
0.05686603735899701 -0.06410881391850588 0.4153840813025855 0.0032569438396055856
0.05485825426021468 -0.06329234322508479 0.26536064713977503 0.030258288076277954
0.05563966886080104 -0.0648378658351544 0.21165561450740633 0.03172339460543326
0.05711201969774619 -0.05998766033048679 0.24007061270053 0.03128897873474034
0.06927595533305868 -0.05997146170587557 0.3044953375407022 0.024859956212826318
0.06654124936205007 -0.05639468064347327 0.36994145937375866 0.048880584185873474
0.06720536835088886 -0.06806613550831193 0.1987039014558673 0.02538549877582481
0.06988698671157373 -0.06082525051995899 0.28777370797533014 0.02500590417386216
0.06482919631751893 -0.058449788092584075 0.4021813971028112 0.05326556683750431
0.07332553372057622 -0.0800552076593514 0.4024831901468749 0.0563700592909633
0.06865831582192637 -0.07115521152012666 0.2877216360101599 0.019469728316384466
0.0750287931250042 -0.06567284128742572 0.4270114501157872 0.06817208819224019
0.10056111386624812 -0.1099957176358736 0.4967653131603897 0.002079235677625089
0.11931098278420507 -0.06300397146876607 0.4860860788100089 
0.10798659913674692 -0.017535769179452397 0.48666366551945217 0.0017755396431241896
0.0774115448294046 -0.007731776629402627 0.49693392326358005 0.0017611828311348949
0.036908921217701646 -0.018277771303581405 0.4884257073991828 0.0008566904578882381
0.024430713709703043 -0.005956124082049087 0.49710793084390303 0.014988427197848436
0.006396312672187869 -0.03787434827232778 0.5092000106893325 0.004968975486606349
0.0018497345138290522 -0.05455795920083574 0.4991080655113008 0.013638196369290354
0.0051171568051713075 -0.06613070207194455 0.5032309592660013 0.03375204384382446
0.02179478197919154 -0.08107507047695568 0.4939238719711022 0.014318669377440415
0.009597804147160677 -0.08304415379183654 0.5016593597505191 0.02800913711000048
0.05597826140940149 -0.1299950040129052 0.48837769762945676 -8.786151511257317e-16
0.07800693221763139 -0.13256322915938545 0.49533418386597294 0.002568596476405345
0.14135839595459587 -0.05637003841849384 0.5057962038153431 
0.1276513049854913 -0.03214155578427892 0.4921618459645344 0.041688800569608025
0.09734181075925842 -0.01642172853327157 0.5012442543771267 0.003685843991230454
0.08275689290010696 -0.0066187771513876465 0.5012403546519971 0.0017381921369850686
0.049363607559545185 0.006207519464569769 0.5007676919711662 0.03053377808095427
0.009821467579279437 -0.08844310083401796 0.5028174332516129 0.023268821818358584
0.024440396665215233 -0.11143169246936234 0.5019880351257063 0.017912024125498426
0.0823603436777319 -0.12893533837685164 0.5123478558203252 0.017883491061735472
0.1099484235542153 -0.11051062602302138 0.4984459884298807 0.0019239331706010318
0.0150165529475314 -0.027843326904272596 0.4927564241320318 0.011965967149219282
0.022816603976819845 -0.1010250682118652 0.49875518691400195 0.04931723219679642
0.06929881189638404 -0.11583788891470934 0.5435796541025022 0.03046937029797782
0.11040062238730763 -0.10568830070480151 0.5116451425034486 0.008320790868526204
0.11510123856965065 -0.03735396331372349 0.5442185744524451 
0.10899303634190996 -0.02654739941023608 0.5454422192271715 
0.08914088570270659 -0.01675705772302379 0.5447641835040762 0.004889204821318141
0.0716991349594639 -0.003805592748142985 0.5387516860648032 0.011281387330385325
0.06692545120704803 -0.0009728611767055011 0.5052412492708912 0.0651131909594656
0.0632631393854896 -0.00792690427275461 0.5463157372398543 0.029837095468724
0.038300876709665664 -0.010701302507517772 0.5302614096316435 0.009878701894170252
0.03994021101907344 -0.013566289680975872 0.550986202085548 -1.3478257519079426e-14
0.0038045962584549297 -0.06347434306411925 0.5452944143013975 -2.3550545162686203e-15
0.016384908184747558 -0.08772736605663378 0.4972738139983884 0.03175836449993439
0.020939728041503222 -0.09685690060695257 0.5281066532180128 0.03242347597481431
0.0077733440650883286 -0.08078942606220191 0.5163407882027693 0.015455584767152376
0.032979654704441336 -0.10860057386895502 0.5403249271560897 0.0335031418091276
0.09042692920336659 -0.10516390411428861 0.5532130506224724 -1.1484894128426143e-14
0.09639709352751587 -0.10536491404297862 0.5517881901230459 -4.806261252190499e-16
0.11377269258384234 -0.09098416233985507 0.5468507490763813 2.901402026199717e-15
0.010839467312992384 -0.04632754658465219 0.5529616321205143 
0.017382053050905927 -0.09315479422977783 0.5501999615113029 0.00013557496985084754
0.04953785563645143 -0.12218083727623659 0.5482939446871761 
0.11252996684771069 -0.058487068109960655 0.02927647863123855 0.007697018336929245
0.10165497298619647 -0.029546875988871964 0.005824510453030422 0.01018861653065741
0.09339807608316815 -0.02409280092560996 0.017884740468051902 0.04397981499556156
0.08378525717969486 -0.016186646041048653 -0.00028568098707241335 0.010606109947571897
0.09703911530641102 -0.017889724342722593 0.043269958820704925 0.02451234781220782
0.10760646555727045 -0.1018611815432712 0.01934436449657293 0.007208505430654949
0.09446011746874547 -0.1055669765303559 0.01620062374978031 0.014214115421201937
0.06015186733319625 -0.12106108704827517 0.00492636010487171 0.012693316022957563
0.024413434378576054 -0.10520853866835034 -0.004641584356234897 0.03091942257717063
0.013813878087279954 -0.08569939281179963 -0.003395553255836359 0.07509878104979487
0.016530950687567887 -0.07336357998170603 0.03452167228441568 0.007010468395749569
0.013625128485595196 -0.06857471748075616 0.02406641200439411 0.010878624689097506
0.023418060792656552 -0.03209123420758288 0.01856074194334455 0.020216178621062345
0.02678946777681472 -0.031817086036767 0.0022941965064025736 0.005048801814545539
0.019828571746494706 -0.03313675725616596 0.024364267893010647 0.016757557449657887
0.04058460685183098 -0.0188665824187569 0.014404194847132306 0.04116887397650297
0.04701169980404126 -0.01867018713945782 0.06257496869892144 0.07225354299731605
0.07017300411267499 -0.03656191908241003 0.09617191454753087 0.007955105176117808
0.09530228316804534 -0.029897392354355685 0.07176241272366798 0.03200455670635177
0.1067250532167404 -0.05384347998741329 0.05944700141786718 0.006806743152412541
0.08327411943831797 -0.029017320888462886 0.08116210060377023 -2.846292971498108e-16
0.10077016575637184 -0.07562302154300113 0.0832717047958448 0.021270549173159646
0.09755030128633117 -0.08387576172540676 0.07614343430699244 0.05480154354376029
0.0831411402242204 -0.09883207300325299 0.07666867531539583 0.010484156173853315
0.06304159941188538 -0.10013801438775555 0.09247704297895999 0.0009412350452564899
0.05644572551421208 -0.10483890571236106 0.06770166235290723 0.007350203175583908
0.07894640878091483 -0.10518797171257208 0.05565541796842764 0.015358649280854744
0.07235515324486844 -0.10850330358125333 0.04975737868412808 0.00039331105020214
0.03481935991381606 -0.1046200936827727 0.06463064281988301 0.025030701880349684
0.02805431122941976 -0.09788715745221846 0.06594598790241359 0.02521842685779599
0.03916665733963072 -0.09422381522426626 0.09002007027154837 0.017914444958456163
0.020734357203510047 -0.0814403405123896 0.06909812157377793 0.00486589902701762
0.03573634935300798 -0.05499352110887006 0.09475235728171685 0.05647374500863473
0.017952793702365955 -0.05707611805180544 0.04858882159869514 0.016501857898645753
0.017612293781240483 -0.04740288701773621 0.05608468770090156 0.009197855714961647
0.03491005393222866 -0.057751221026191533 0.09798439579214624 0.01715595497054201
0.046250540869092534 -0.04386064793932937 0.09564472075624265 0.026414918170323428
0.046773882483613666 -0.06791828706819558 0.149396671003627 0.1289141183840406
0.061518657702632935 -0.04511119021923652 0.13052643140423364 0.1051995262206333
0.08987051258284218 -0.06396671001497842 0.1315018228786482 0.0679421986687796
0.07923953359633992 -0.07853044118684811 0.13027686309545328 0.03347741376715629
0.05979009627990517 -0.09776241170306217 0.14700418920728675 1.3676051031469616e-15
0.09731907888181368 -0.1073096531457926 0.03830611186275009 0.005419748608273944
0.11369292201104263 -0.07982634388926638 0.04988272764615948 0.009541552134992576
0.04417189046450167 -0.1125481886668615 0.03457039080915515 0.02966151713166313
0.018449663481538783 -0.08596221179323744 0.03279083779460811 0.022450109878825092
0.02946983775134667 -0.10666697355374834 0.0329063030828741 0.03433046879259842
0.020883301016909377 -0.07743624873037933 0.05593294918804369 0.009186677332457243
0.04630821624824961 -0.0048687743955576745 0.0333104559937745 0.027438812702431273
0.07938073317190043 -0.021036459936706192 0.046243813878483864 0.014425520874838631
0.11096577677861905 -0.05096406250200563 0.03204489462590902 0.011235221689348433
0.06234612386382634 -0.014637377829641482 0.026268022966551077 0.026447710832244724
0.03854194413278129 -0.02449065475681114 -0.0019148109672640625 0.025132766783449657
0.03684253972838696 -0.01944429537880636 0.027484820748663586 0.028225791229329396
0.029356274877294423 -0.0744788743701912 0.08637433398371265 0.026480423367903422
0.11341353521842855 -0.060150220238973526 0.01033860922875301 0.006219480276292883
0.11109403477203274 -0.05029145148408371 0.011153882185122506 0.01195307015815463
0.09081477169022521 -0.026553948211800037 -0.0011389167598917789 0.026839793946025866
0.11265678211939269 -0.08998732252921979 0.033143674133987416 0.023778299095231246
0.010805057139714044 -0.051223894723753896 0.02483413656821831 0.016714333350663992
0.10397929986583536 -0.09308586006607765 -0.007744635064034072 -5.292474212061949e-16
0.06583233013499798 -0.11106493991220769 0.0002985805892373352 1.1670032977204172e-16
0.013359288687631742 -0.09797921839162303 -0.0008832003655253054 0.04909598042820258
0.010687195644151545 -0.06115592283499176 -0.0034529556330699317 0.0058186912831596025
0.04879408574662976 -0.013646187715684231 -0.005571752578779379 0.02202303867337942
0.07498955706867935 -0.014530314433326825 0.00130232986708286 0.029886303276602223
0.0445313817643245 -0.10423560812508875 -0.0011282699462086929 0.031072158466141104
0.08216745577619908 -0.04947645637670708 0.14080394878150743 0.12059583377730064
