x y z curv
0.027658111562713875 -1.8932102855594783 0.03898591572159714 0.0024709918797424604
0.047582504111776336 -1.8774049716059045 0.15011020424000301 0.010742244653660027
0.01702449093007363 -1.8646238434748852 -0.0035044089861652077 0.019481838201052502
0.028858713750142387 -1.9079540060960567 0.009312211858771844 0.09334786793855103
0.1313454622552823 -1.9404536811148747 -0.004831212477685546 
0.14484123798250523 -1.929549255246379 -0.002634942501171085 0.002542166355165288
0.1806729353895396 -1.912443439193424 -0.006332153229112089 0.05178391935462341
0.21173246579322555 -1.8509595071651321 0.0017427645040691971 0.00473107667824709
0.2313126051670442 -1.8543100520632583 0.0032181115582810855 0.06339661611763714
0.2370720356887537 -1.791443250249299 0.00010079721182781311 0.1006689388642267
0.22720096351595978 -1.785760398429945 -0.004450200527556916 0.09563359169174303
0.21514606483477672 -1.7482649566362318 0.0036059346824426327 0.003400921179699403
0.1683636155210546 -1.724857971442264 -0.003491557935635186 0.00043466854289090945
0.12521164660591436 -1.709301057063013 -0.005105723957010647 0.019495420876537967
0.031652959065879616 -1.7445196134318255 0.010166216282727335 0.002925903434262578
0.033728835712846156 -1.7486703370294616 -0.007096884445832103 0.007979829337384286
0.010180588126569554 -1.7958886700743675 0.0014338797681545709 0.01795215735908729
0.0004922047378446218 -1.8652327401233788 -0.001496083247990973 0.018108565741484377
0.00336375541714875 -1.84545938678721 -0.004292269641194037 0.013707254792872776
0.0024070473800206623 -1.8330072231274426 0.002575123779949 0.05520796150679017
-0.001582439640719878 -1.8140046769890927 0.0011000936168248212 0.006527286419518155
0.010073400562026805 -1.787244802813853 0.003329356837569516 0.01603264335966137
0.019074287860472012 -1.767254341704065 -0.00858456557028696 0.003243986584099893
0.08512721498939044 -1.7076908467953842 0.011083161583414738 0.08723964160395604
0.10164678191611687 -1.7136651090346127 0.0012047295592784015 0.00896922860486352
0.1356271666828719 -1.705702713058797 0.0015726695203658683 0.025513585121954827
0.16308408363025728 -1.7181958600638936 -0.004194238889911408 0.002327736523005114
0.19994714069864447 -1.7321737277978777 -0.00255835970935533 0.0022905446552220847
0.21108466168142626 -1.7711100178940298 -0.006451258510330315 0.04231546596543496
0.21667097814681527 -1.889007118066335 -0.006921791531617322 0.0864489860209441
0.20501306046812648 -1.8964018716715716 0.00394528497933895 0.012880548561587116
0.1792591780753814 -1.926137108469172 -0.0035502244941356845 0.009601432827609729
0.11180065026279598 -1.9366653431121905 -0.0015892779526515423 2.209517251753991e-13
0.09172373491617344 -1.9423073556565837 0.004591963714791997 -2.555675289704213e-13
0.05872372712554103 -1.915375594133916 -0.0030480637299660452 0.06416503667752195
0.045846925822576136 -1.9170897813890464 -0.0006745329387628481 0.04613675081507643
0.0346313770412027 -1.8775542307962867 0.11040894425473659 0.012372527137791082
0.053371358267075064 -1.895542814853521 -0.0016206301093389802 0.011786208916771162
0.012675782519354242 -1.8887442977474245 0.005367422018073713 0.04427739734257765
0.05571154055041079 -1.901212756297877 0.0963557701988467 0.0014474319685147663
0.07281132026711497 -1.9235815519184356 -0.0011818551673037103 0.04062239070948059
0.07516970192662102 -1.9202252357590528 0.0824597984955653 -9.823877344507099e-13
0.1566454758923284 -1.8955326124194776 0.1829070232398824 1.9727590042131213e-13
0.16340755433659335 -1.9156667500569993 -0.0020268165306095544 0.04361978166892363
0.190722758093098 -1.883071333612879 0.10539538608171771 0.0016310189223408711
0.17725465064688023 -1.862032565242189 0.18476440276687306 0.004130629283972898
0.20502940625252347 -1.84273741890226 0.14578721790815805 0.02291631467484429
0.21667727625893796 -1.8529004791709496 0.05757223312272681 0.008664569545304871
0.21097785671738764 -1.831675321627936 0.1465218642314303 0.0024059003964533475
0.21822760150465467 -1.8075656196396495 0.002854634562885408 0.05259777063028468
0.23305293925276127 -1.802139577812822 0.0011265913647661868 0.06930522134068594
0.19644500589937974 -1.7955971448503811 0.16742218566420253 0.009383973168190066
0.1366726202767299 -1.7157297395309083 0.059850809216234556 0.012316934620577636
0.11836079054856055 -1.7120992985049657 0.07423670219436379 0.0075604468116783384
0.13401652184456583 -1.7078834525774858 -0.0014051564270189394 0.027275482362337122
0.08846647010654546 -1.7071619869434416 0.0030498292540572973 0.07107456511762124
0.08421887005467513 -1.7247819260236932 -0.005426003367705187 0.028667901769251495
0.05733403440228424 -1.7198187065232233 0.011714092530627766 0.024587519383595987
0.051561889614956266 -1.7329292851435987 0.003839302816055006 0.02957445579091369
0.0842537935234477 -1.765682007277456 0.18883508305982194 0.0032992014720419714
0.004705537066957869 -1.7868231358282094 0.0187512205377999 0.004913903368755399
0.034651932945911755 -1.801382306956095 0.1690650752387693 0.012103822225437431
0.01611865809020481 -1.834470746829651 0.09682941487394378 0.00751459900460531
0.017463749304448304 -1.852497849507923 -0.002154227254647553 0.033616054470464424
0.02485488359920679 -1.8996685397941107 -0.0016216820141126314 0.026943748120084886
0.2229608378110293 -1.872927088415838 0.014262334429139422 0.03805442483004706
0.2372847690980297 -1.830563391344625 0.011743649703859898 0.08692449091457541
0.20412452392350383 -1.7520328018164522 -0.0014048569511550847 0.01014331049833518
0.16939036505071112 -1.717353973381456 0.003709880622437574 0.00304036946894711
0.07762570234314815 -1.707770157259444 0.004749647723114957 0.05569496969122329
0.017289874678177167 -1.869405244926405 0.06968350976210384 0.005304499617658266
0.026404420469583655 -1.8793129903593806 0.05498710254291973 2.6898173179292784e-05
0.026432412888384337 -1.8731635583709438 0.09285573493989709 0.007357986344015167
0.025983380093381296 -1.862171685968353 0.11049602973946664 0.00333174722524257
0.03283640282759309 -1.8688991140226752 0.13258983445032765 0.005017732192094918
0.0556474826109411 -1.920404927683596 0.05181104007559802 0.00021548126388750333
0.07687325256467735 -1.8881899102530992 0.19244432316892995 1.7289856828683985e-13
0.038900288976402526 -1.913305489444345 0.016231688461600086 0.04166507405164548
0.04281295447947538 -1.9060339061384155 0.05511327901930103 0.0026024385786851197
0.04201578198097168 -1.8960057807193413 0.08070278235162184 0.0040210159958746034
0.06332466853202906 -1.902275820818816 0.11653659775826093 4.4161750841602465e-13
0.06608530565507506 -1.8938567243237996 0.1445425578587291 0.0006283271478718591
0.0587333015688784 -1.8861850464214112 0.16320591410121751 0.0032663066812200995
0.05831875540901334 -1.8797204000558634 0.18482592168801343 4.9555889424716603e-14
0.08029030524144169 -1.9316416856031247 0.03863015756236222 
0.09874615630666597 -1.93297625002559 0.0801248854525617 
0.09624025938096785 -1.9250559071370255 0.1166381927820166 
0.082150599824786 -1.908046493338938 0.15456432270771575 2.847369206116742e-13
0.09313551674834149 -1.9068269540051759 0.18070138554277518 
-0.001209299170319653 -1.8478691347420804 0.006981687305425283 0.059444410749505835
0.01934166742031328 -1.8484626659399452 0.08980391831038323 0.006321388227549152
0.02068230861408225 -1.8466552245046515 0.11614933422714797 0.005035542769903476
0.030874389638519295 -1.8466385585426917 0.15107342177500924 0.01372780314205344
0.035112711444809375 -1.8386706710957148 0.1704670611736674 0.006976478627425162
0.031574581470460036 -1.8497623631899391 0.1652955880056808 0.006529883258713943
0.04540853294868921 -1.8402888515020068 0.19071125812158102 0.0008288046064668999
0.011428549765208873 -1.815514916282605 0.05171439027623095 0.005081522260031569
0.012313793688851073 -1.8413897373104118 0.05773664046322007 0.009803201834082106
0.007968954111520975 -1.8350911754996502 0.08125752268073527 0.001275226282442096
0.018289846498266767 -1.809990944324827 0.12217847237247907 0.0007016611932020143
0.028414115499147987 -1.8307334949173826 0.1526162915270107 0.004836897079970579
0.02422042426361093 -1.8404312508952547 0.12813273614146006 0.003068269794905487
0.04669097947320444 -1.8326195864019204 0.19682065648996777 0.00042241797105936445
0.10316138663750136 -1.6940606456490066 0.009598236917777801 0.008637243575938999
0.10332990405757955 -1.713672596530452 0.05730998921536587 0.010583903234586571
0.07795471153368083 -1.7180713164957055 0.037212083108327715 0.0050852211714662735
0.08973844657452112 -1.726263842148995 0.09627266793543565 0.0039045563041656107
0.11369056030522295 -1.7359901951922339 0.14938353439311722 0.009367568115081276
0.10273935804536857 -1.7346944889144609 0.16238926947798418 0.01760871205971051
0.10046833836569932 -1.751512564516831 0.18456704544381472 0.015810026368399503
0.10987269708344637 -1.7108435772471806 0.059395894307229156 0.005987013928185617
0.11104212907139553 -1.7195755269580852 0.11511868890620906 0.0025147548806003736
0.12115449804866352 -1.737026693473216 0.1873121482544998 0.010622874540449544
0.006316719037308162 -1.806346607889484 0.0250641909281428 0.010887640611688081
0.009139668911675322 -1.8044965593722586 0.05539566526262929 0.005698521696376846
0.00896083861399071 -1.7944470469770948 0.0563899179787957 0.0038898917338287577
0.006226364573345428 -1.8255827775567575 0.03588941670484213 0.0030581025129414264
0.016024999491480545 -1.7932205048124712 0.08943797299170671 0.0075998361844422544
0.033362143518008064 -1.794825449317923 0.1573775593288622 0.01531294321540983
0.026222022802879767 -1.8226574944108556 0.13729580609359368 0.004494623827078855
0.030058271294125367 -1.8257322251152834 0.16533337195217018 0.0033549296605954286
0.04452768061961402 -1.8026805380441646 0.19265172722507976 0.005539861101382507
0.011228061734154807 -1.7790649725369998 0.02259360734622176 0.008929078888460238
0.015886075676823007 -1.7875783728863996 0.0907027080349108 0.003745509677629944
0.04263880788076707 -1.7920623657171695 0.17631296453797174 0.025130041699954052
0.03370757592948165 -1.7448258380845427 0.026679197047376903 0.004459210440425807
0.023363271493523137 -1.761191976504837 0.01154996012909875 0.008366286586358143
0.017911948049988014 -1.766931438514926 0.052337799281633055 0.0042569739018900295
0.03527198520433372 -1.7637971048779266 0.09455356347892292 0.007708039671189031
0.0442397758958181 -1.7579402743311823 0.12095669705192018 0.0256558318160244
0.02922816176563423 -1.7830226959341846 0.1340674881992435 0.013649866454634455
0.036171644776115015 -1.7760056238882638 0.159726280933311 0.002458815698483078
0.05716585138156873 -1.7829537714301873 0.18622390082883264 0.015861937905060075
0.04348580379525897 -1.7349947712965637 0.02883246569662406 0.013549883300223697
0.04347958565599665 -1.7358529466181047 0.0618546253019286 0.0014706386313030459
0.03979874118292827 -1.7518893854000028 0.09663114088555541 0.012782054146765464
0.05240771512543943 -1.7450572472390757 0.14765034589030787 0.0022249434517796953
0.05891041575822277 -1.7647919507217786 0.1753877402561448 0.0034668176077858517
0.07384561880049106 -1.7696752796694093 0.18691447160331687 0.008795874960582767
0.04412175767371297 -1.7343537769452875 0.012150971497660971 0.007805891815110559
0.056444225248511226 -1.7292475035674282 0.05810905073719253 0.005179817666862777
0.06784278643288533 -1.7241958672552649 0.06350381686356409 0.0018728288354740842
0.06814659779675233 -1.7396736398021464 0.10416469009080553 0.005206345940664115
0.05723758206245594 -1.7426533173335204 0.10684624610437365 0.007385062610128008
0.07159153243310741 -1.7375784033785195 0.12126306136464997 0.01075075112396366
0.07186696437335106 -1.7386781623496792 0.12477562703334225 0.010941353402304899
0.06886834862939677 -1.7449227099215128 0.15407462646943995 0.013677334695412859
0.07031134823376971 -1.7533354604198326 0.16802476183776396 0.006293587225512667
0.06234007972142709 -1.7189396380330044 0.021282290898730908 0.023776314150019788
0.07242630112884273 -1.7209835123458086 0.05760739137186162 0.001270346720408248
0.09542909496027185 -1.7332154227187682 0.14867167425230335 0.008765099106543633
0.08953296125057292 -1.7407328095382808 0.16477324615596683 0.021219440766454236
0.15972589286856104 -1.9282086699053025 0.05359857110375418 4.919380799442388e-13
0.15788437274807815 -1.913900788821462 0.13837661156161973 
0.13895467100416106 -1.92987460922518 0.07246667614239476 
0.1874803350576906 -1.9113042941477802 0.04510442104964853 -2.357420241228985e-14
0.20347452165867896 -1.892898902564717 0.03164206081555446 0.016525128344559804
0.18173132262515276 -1.890726317114282 0.13442033294097758 0.00200344050520095
0.17456714941343177 -1.920584197873472 0.028427158261929153 0.03416203018563936
0.18358777716948216 -1.896093394667308 0.08879945613191606 
0.1821444586272174 -1.8860893751420287 0.1566520871122278 0.019794671563334112
0.15372381490589998 -1.8787635197256503 0.1968087884499083 
0.22244129345808158 -1.7714132933027433 0.013057012203834218 0.06060016733541734
0.2060718867210832 -1.7648166383537434 0.04689873436745852 0.006163325935678336
0.20082162573136197 -1.7807219677500774 0.12798624755850424 0.004289591389036047
0.19393490853483022 -1.777367936987122 0.15996391285189968 0.010245274832320421
0.22939682616922802 -1.8002463328445666 0.04697588792574947 0.011939208268252451
0.20980524260417996 -1.7794379654577737 0.05808314800897773 0.00484147266891463
0.21123281073216935 -1.779879239295076 0.07313643956772548 0.00548926561020002
0.21744158999254612 -1.8011440830066066 0.07970088785647694 0.009810458435220657
0.2115600847993978 -1.7850985809970414 0.10111192713637601 0.0010515611535396538
0.20618203339686647 -1.8034208816579387 0.1218236724311282 0.002041562141720361
0.20272048335963225 -1.795346329125287 0.13849970836818548 0.004837702849967701
0.19812844403415392 -1.7997887823420708 0.15689575299777678 0.01055759790176359
0.19431178467695995 -1.8159380392573596 0.1694341486120322 0.007293188072826742
0.19151892645627946 -1.7989081443518613 0.1801960069566533 0.0036927107860446544
0.21950241031984938 -1.8701208564979224 0.023187797441476206 0.03665201410189867
0.22953284926648793 -1.8489537155501528 0.003966430062201843 0.11027190301962116
0.22391609000545779 -1.8496269311252855 0.031755624993280974 0.03391422767493817
0.2100507531175262 -1.8665724155298287 0.09387884140957826 0.002687336334413972
0.19731139308781348 -1.849601641044201 0.16472225352141726 0.004325439168866794
0.21227109890969165 -1.8813604246889952 0.028329222815692133 0.020590975645065124
0.21792906553190597 -1.881351805870332 0.05341158739576642 0.004546053839106372
0.21723102964332291 -1.8631694353568184 0.04897615021751127 0.01928027884513053
0.1927953029044985 -1.8753550095300222 0.12813358408579162 0.014416443218116587
0.19757023824897857 -1.8736639337968926 0.15505189826171165 0.006216801711216626
0.23473337696511706 -1.8058701574227585 0.05080595245952464 0.032420460870183104
0.22835255540562202 -1.8271435927214699 0.09283228490263748 0.0014551514202857116
0.21606434148122805 -1.8222549703559663 0.11355540501028835 0.010169035065398188
0.19090342167490176 -1.8149713127330718 0.17654684206456198 0.004268782829115561
0.18067906741683096 -1.824305551540242 0.19467792102109163 0.00435888965242434
0.22103712368107978 -1.8399320824317595 0.05803337972016457 0.006184163870075436
0.22011828405856385 -1.8386934969845832 0.06317958814567665 0.004797585561251287
0.2222599837179282 -1.8491350199623555 0.09261105868207539 0.014907474182717472
0.19075190184982324 -1.8329612391917165 0.1770007922678781 0.007122393384386282
0.15695434941596947 -1.7086275514616887 0.015342179245915574 0.011425184289368395
0.14142024797367517 -1.7067122665295178 0.03194259579234703 0.005088563360877661
0.13769003112950878 -1.7162162798713159 0.08158553615806814 0.0072562119154361724
0.13612761416413577 -1.7280101946569641 0.12010355576405578 0.022619433518392462
0.1430600861674142 -1.7279594671362508 0.13718905806207837 0.004231073050906808
0.12392514932677684 -1.7400929015022595 0.17244638341572405 0.027981204459818824
0.144314638118239 -1.7503542468211364 0.18962845030754508 0.015624202658436585
0.16363546220458328 -1.7238345973413145 0.06041642989567856 0.009482746931408756
0.1615035411005914 -1.7220672023269146 0.07732298873837118 0.004428433237987795
0.1615839283547518 -1.7368712823401782 0.10549848285533246 0.006668570473585375
0.15709118673458689 -1.7522034803220314 0.17687500011767449 0.008349942246451232
0.19063208425307893 -1.741768764380418 0.04187441716261734 0.011694243470350654
0.1790857594757301 -1.7353363789252583 0.08610801611673197 0.006058827896470011
0.1667420974744393 -1.745316024183021 0.13541742699407175 0.008161702706487896
0.17870557693003164 -1.742838311040568 0.10304563429666819 0.006743809120180111
0.17691487330122363 -1.7502964860849757 0.14287181566589247 0.004660394352374838
0.16513671434043603 -1.7506426874042011 0.16887873874763992 0.0028642816277639634
0.20069564665751666 -1.7520152641191955 0.045679966737986556 0.004078551442760052
0.19432091526573256 -1.7419459803774275 0.038211569705765815 0.00479278596546704
0.20242317838794524 -1.7619772311800304 0.06213526287079571 0.0030842801462671993
0.20047075017872149 -1.7576608036381736 0.06447222910566061 0.004532812516315802
0.1954831187050782 -1.7509576908401596 0.07168419194528225 0.004609521282448457
0.2031051378874592 -1.7676264110099855 0.09410679968069277 0.005419874230336381
0.19425411390459574 -1.757204883658993 0.11097168326280245 0.008720835191353069
0.19576975070023486 -1.768380539660526 0.1217066445015205 0.01691837615728943
0.1879145721460864 -1.7650341746434728 0.15317935113912848 0.011759534175205
0.16161939414435356 -1.7614810295193988 0.18341137713672964 -1.7029999541544102e-14
0.18151058542265777 -1.8427711101325785 0.1915877720283062 0.006468746080672049
0.06161961181341753 -1.8304759991251307 0.6256389577713032 0.013502527498998803
0.06555806207343565 -1.848618919291981 0.6314700511274716 0.006829098850704278
0.15207140792628432 -1.8383408774684513 0.5949101577409597 0.017735982143335063
0.15076314744984404 -1.8131713497425777 0.5882939408404598 0.032126610085642
0.14122702458505795 -1.7912733429813785 0.5814377616155516 0.04959004817511445
0.13926094193055122 -1.7885886788038214 0.5835913074152046 0.050539369985532434
0.10650381483727255 -1.798263920453668 0.5781275013775694 0.02335847233067238
0.10591445311559937 -1.7813720389585668 0.5917048674112944 0.03130206502356448
0.141534235255804 -1.7719571415463342 0.607402684891174 0.025281039630324107
0.13173060721034605 -1.7579011960140638 0.6487622234004369 0.03345000140147714
0.12246971198345039 -1.7701668158585726 0.61897471917725 0.01441045228377734
0.11356024786984648 -1.770328433846668 0.6230130205922728 0.018143554794702914
0.1142517414228065 -1.7545482690623888 0.6417219524194846 0.039373830384985
0.10281127541599545 -1.7742876364970435 0.6053690031170178 0.03168970251234076
0.09876977956163396 -1.7610113221641337 0.6345659515100918 0.019970213294843473
0.09242390498007044 -1.7796340590059092 0.5983061472190361 0.05631800394023409
0.08236522351407397 -1.7877732381852998 0.5864060566446574 0.02197967166776151
0.073366126593255 -1.8188014130787642 0.5893282794108269 0.02171125826842438
0.07506039286939926 -1.7782068198917989 0.6512899114202262 0.03737216177228909
0.08074866524978189 -1.7761890746037354 0.6026081576954445 0.027090080685631315
0.06977847026240158 -1.7780600100580315 0.6468859579832625 0.0245685348412999
0.07400369136623565 -1.7858196434171754 0.6197353829371132 0.02409526165644452
0.0753562406482047 -1.7951797389718092 0.6061354236387682 0.047781680061728775
0.06665271723024886 -1.7954127032828135 0.6373622427465323 0.032945826559665284
0.056541085413034445 -1.8131457359281473 0.6487818266490332 0.0091837743214652
0.059883519661328787 -1.8091646998562818 0.6289695546961758 0.010352737798122149
0.155921732976863 -1.7749394868488761 0.6331370801734455 0.038772587314074056
0.15739496415803647 -1.7823956515339083 0.6188564187656848 0.06335109164633301
0.15789384870368203 -1.77850350107556 0.6602718368553216 0.0009039184276726128
0.1568797794536731 -1.7825387543943845 0.5884429178630347 0.038494930557041215
0.15764446294947274 -1.8317140856325338 0.6005385797804055 0.01705807189845062
0.15799057227161425 -1.8013256815873602 0.5909041496440952 0.04467171326556629
0.14144151187220524 -1.7836848849475448 0.58760294339448 0.05646584201671323
0.12778331940593277 -1.7762137853889108 0.6001109940014807 0.023983595445772013
0.10712209014723656 -1.7838099960723068 0.5892322737173988 0.0293113677518368
0.16439459057228736 -1.8548655539157304 0.6504755186459376 0.008303308089155123
0.16032240143932397 -1.8570598959493312 0.6358337240503111 0.009649370032424155
0.14793134234045915 -1.8558753511796962 0.6079536688425615 0.019738729936652277
0.14004189524203436 -1.8715139144746573 0.6186953572522257 0.0026064876533051845
0.1402733003983942 -1.8765604834230365 0.654819719666081 0.0004418399549021473
0.13944891708099874 -1.8776874759756457 0.6422488475370901 0.030009773431081563
0.10212135284717262 -1.8779479394049088 0.6354765886540257 -2.842096679616327e-13
0.09690110721399796 -1.877028254855816 0.6628225055494547 
0.07458740929049588 -1.8593426665995754 0.6299568983913437 0.011697954041417375
0.1685807863285036 -1.8311622337587217 0.6259758860773995 0.009565804783808586
0.17713266652302573 -1.8260290697145976 0.6360841222815237 0.009599805098770358
0.16400207470899414 -1.8108352292677672 0.6194691921626329 0.02113527930748066
0.167338660894727 -1.8230977169718503 0.6257121494789754 0.00993381496705842
0.17731113902222298 -1.7944773857576652 0.6405149888487148 0.007577923306033016
0.12354558796783172 -1.8023742492951238 0.5758979074165599 0.07245691170680517
0.1419476328663056 -1.795573525798987 0.579532679623466 0.0551699913716007
0.14738493296853378 -1.809838696847822 0.5825016126327528 0.024394441829512392
0.15239592282348116 -1.844887626158564 0.5936087579033608 0.013694610389300093
0.11718371898559508 -1.8564919266930844 0.5840539174725788 0.018264732767015464
0.08712117161460642 -1.8521082953741033 0.5955746091041216 0.020429536045847
0.07060058729843818 -1.8367417006084554 0.5928363866514771 0.03017142264589615
0.10523358191441128 -1.8537925347610877 0.5839607526522093 0.02766538021857658
0.13296557471400008 -1.8438980032912407 0.5830876894785898 0.026290343103914725
0.13260522880175898 -1.8010632438857022 0.5748519538331205 0.06568838684825738
0.13743793027453827 -1.824613743619504 0.5788387200005999 0.04086053892579946
0.08720026224358202 -1.8429298479289902 0.5829475926628124 0.029251150999779416
0.09149362913063123 -1.8137631739956384 0.5789328268670031 0.028912771313418226
0.09053535839189622 -1.8303895888824813 0.5719543524005744 0.03965024279086893
0.12095619601057513 -1.8160180756882796 0.5513570052413918 0.17709869690189417
0.1309948590578903 -1.8195687126383087 0.5622392330710474 0.09793411216022335
0.1123273224037547 -1.8165964603383904 0.32829830121975856 0.012850775224439026
0.11089999114359338 -1.8211195576357293 0.5380140006596347 1.6822494361266376e-05
0.11363688556031504 -1.8174889242212018 0.4745325568574481 0.04036224062299727
0.11433537001630006 -1.827519983339859 0.3142147961840635 0.02648505673461009
0.11186167501527897 -1.8232368718616476 0.33684101881378997 0.021019147876606244
0.11739685337836187 -1.8331787797517172 0.4837200938128849 0.05526665505482995
0.10983178936217464 -1.828516176543402 0.4532658019921198 0.009209445558367927
0.12632400698638324 -1.8262842342286947 0.4150261699909409 0.014735801457021141
0.1238927287386314 -1.8283545585059415 0.5090624889479388 0.013939763842047873
0.11851170203934631 -1.8260229722178019 0.4943180777082933 0.06428821159748657
0.12121906339396918 -1.815760692992755 0.3876232960906779 0.028719743175498327
0.11944080874108054 -1.8163537623169186 0.292216140783398 2.0975263467611725e-12
0.12092077531669208 -1.819483434405488 0.4288642290468283 0.04232614110343764
0.12139229813574505 -1.811386116600239 0.45670516299170205 0.013326315402241
0.11615140492014203 -1.8073078825098783 0.39316393890363477 0.024405414647338516
0.12256894788064485 -1.8164888564453447 0.3461486198253123 0.014582313424641929
0.1250741770606319 -1.8085235520131622 0.37231561436140426 0.009047202863415767
0.11602619694363427 -1.8115845857412218 0.44785534697458557 0.015038231346237215
0.11467120849529822 -1.8065184296454326 0.4873685126709449 0.026764607177818877
0.11844625924452781 -1.8113681619888735 0.4232182466861344 0.03411210336068912
0.11231900950768767 -1.8155134560649664 0.4070041624228447 0.006810458445463157
0.11950839670036052 -1.8241170769581128 0.31066202993081704 0.02353831332207101
0.10781111900453269 -1.8193232697059403 0.5078327383085044 0.02044745448106967
0.0595893743831573 -1.8300645524740942 0.6603685058762648 0.0020010925906279982
0.17715673723275874 -1.8352065315792432 0.6521306576807563 0.01065351913022929
0.18056588368510962 -1.8230062177344217 0.661413668501946 0.023799374360311765
0.13445337853993514 -1.7646396355172569 0.6541379985741335 0.05859788679796182
0.10665808467878797 -1.7677735474072342 0.6556541581442462 0.03895525218678926
0.08505896651726864 -1.7782427482066265 0.6556377506527656 0.04858786795273866
