x y z curv
0.3388266407485074 0.28708738802672007 1.5062726244067406 0.03841883126348597
0.3393457447474543 0.2872742831643438 1.4960598319255105 0.0368461200127036
0.2862710348967473 0.33810780433497756 1.5054885612395046 0.03393312523597164
0.2413546337219169 0.3676236135487987 1.5039756718292558 0.00043242743071787156
0.2728156918424681 0.3549926211172585 1.4917382303310098 0.02828170553644403
0.29883389931641163 0.33502328629747724 1.5023511457613048 0.03183444362560443
0.35912115976106 0.2573384057887475 1.4956258093976464 0.024955543199543913
0.18461209685978372 0.3766696577865247 1.4949396956783056 
0.11272358491943271 0.35530955775366674 1.4819682091179522 0.014334402808950437
0.09709266469962884 0.3513803489770962 1.4927735864613365 0.01682407922838308
0.09331665128036126 0.34590702558918185 1.4949106498682645 0.015827109038950137
0.10921821888280371 0.3590239226400631 1.4985249419334954 0.0034615565435115315
0.07056867348036 0.3202283130509846 1.493551238668379 0.01685858354291662
0.07972409926621103 0.3308839340969255 1.4878834833801942 0.013124661488992276
0.06155825663431925 0.29934820718047844 1.4854425032884868 0.009942196277093734
0.04065252276462438 0.2793768873813429 1.486835723933107 0.0216598584670856
0.14393337715455395 0.36670414097625015 1.4807307616030259 0.00047822751714934127
0.052387178879240916 0.29505836400820373 1.4916311122959298 0.022399267561107848
0.0436399665263969 0.2861595051581967 1.4975745352744656 0.02670443041590851
0.027322477927777405 0.2559689848165132 1.4854513309081006 0.01934845156229513
0.06324347943074549 0.061321504290768374 1.4806372828808314 0.027519824614056554
0.045445345848651626 0.07014246964967727 1.4986676371029553 0.016792213992962615
0.025889384432389178 0.11849543529141236 1.4911351962564907 0.04190807189211738
0.017249046645602607 0.13770806488314455 1.488228104729185 0.028749829364256213
0.0156851368186182 0.12276677788178514 1.496524209770028 0.07436786787596578
0.1265549529076705 0.016354045048435524 1.484162549141787 
0.1024598514740267 0.024069390131713338 1.4824783948956914 0.03503656421304908
0.03554265758785677 0.10086087972112799 1.492957891218309 0.03966041418931942
0.06325368590474396 0.04913122467036641 1.502959174146674 0.04993458456309232
0.02095232395365493 0.10039522439820482 1.4984222016563924 0.028694056272390647
0.03296858871120804 0.2743888970849837 1.487125823917108 0.024939901484399445
0.017097957202710495 0.24934085280804016 1.4961557992193169 0.021193297487747082
0.026043733617087804 0.2571329264496226 1.4936620650182395 0.018192088991021097
0.016191910283588688 0.23411685747151756 1.4882600426915555 0.017078692389640784
0.01675370048707359 0.20802129823334475 1.4898633652842792 0.03561561046457813
0.00884989090024729 0.22660354099315125 1.4950373824325416 0.02116365738027618
0.004808681720831404 0.1743922588293009 1.4882695128321177 0.04220979491701806
0.004897529963489187 0.19663157360827 1.4913898971805462 0.02676912790925519
0.003854355518012372 0.1626437002039912 1.4945890902909382 0.047097843716162185
0.060584567143766345 0.3122034865546062 1.495329863030551 0.01255622496621367
0.019054661820706722 0.24348581241975936 1.493731567451315 0.017842756212380167
0.05443165552326416 0.30697181466233747 1.505723847932924 0.011160203587450113
0.1431588966815977 0.35751745174941824 1.5072086264780162 0.011175732574333616
0.04394872007986461 0.2885885194556133 1.5067156575891325 0.023952213312014733
0.026578685190080515 0.2767370074477513 1.4913067636188373 0.010591469975398662
-0.0043166211400374535 0.19500703402440453 1.4934825540544154 0.019274642848273498
0.01924749685261856 0.11256141630536065 1.5021988644693687 0.039684310821190484
0.16872972067017428 0.35822493997363347 1.5098584506285588 -6.948785744392812e-14
0.04361343160057398 0.2780963246388345 1.5028875639670625 0.018493694663795978
0.07269693097738185 0.03986015354844637 1.4939075705276437 0.039395710675146155
0.06956719725198045 0.04159630559636529 1.5029090539612615 0.043567095397808106
0.013877744516729459 0.22163297516913585 1.4974565902559536 0.03568266375189622
0.01964034210870658 0.2397823348478545 1.5050112066959416 0.01905625142022352
0.003590249179213807 0.16194854270260642 1.4967465982632764 0.0458550640287483
0.007131469769271311 0.13994995109485936 1.4958397222480386 0.025419770420295033
0.08025547293689675 0.3276507414926386 1.5133506704322606 0.007826342382824432
0.11475785531042475 0.010628435184499812 1.4967790292007446 5.30513174720056e-14
0.09824825419845322 0.033812409323851315 1.5105143759235273 0.0022178680075821615
0.05775150126206321 0.29958078812932987 1.5076975747569532 0.016884749134994242
0.03792355995786755 0.08429290798603757 1.5057370133431056 0.020427082095676022
0.028426871291281387 0.26470336543848266 1.4988596204302753 0.02221125862294147
0.014523051917225192 0.1867165452667397 1.501961328539963 0.02833346044576053
0.005861899390449524 0.16704243483259093 1.5043543330012108 0.04685784133046532
0.06634415542678823 0.3190524109745667 1.507552201035794 0.019875138122635142
0.06535172010233421 0.06039841623595799 1.5065013465143577 0.003883227972500049
0.11413248141374366 0.350336141746597 1.5144984722514936 0.026591694686821557
0.0075562601804906445 0.20889065792426495 1.4948561779325844 0.035761625483142094
0.010654320711665367 0.1481939723293055 1.5075744159932198 0.03692675932289871
0.035609465712712784 0.08761858360899923 1.4965404838595255 0.06256273756162244
0.02924345728739303 0.12365814342274249 1.5051240653131843 0.027777242515551828
0.06518333597108301 0.24400810302353132 1.5191622155706905 -2.154940799116274e-13
0.07407436877440997 0.24092863204465045 1.5324117051228485 0.0397540702470052
0.052266070912108054 0.1927207315115692 1.5336454044620929 0.01437888251228387
0.057385750733759455 0.16081954249614838 1.4838878092480656 
0.05661386524569074 0.17477005027835332 1.5254817343679892 0.048589145507856604
0.07850891761073982 0.09942236066388646 1.528727086964986 0.03543249778108317
0.25130032474104397 0.07280858688980697 1.4828177268805454 
0.2982699215060173 0.12804055219469665 1.48032439307114 
0.31251987191369407 0.17175895268565697 1.5322913847693198 0.023307519403596037
0.2977053760394884 0.2519193549378026 1.4783958125934713 
0.31506998299394523 0.23896197592284438 1.535553886152183 0.009335983670708667
0.3104953635269689 0.2534570948517244 1.5266269118803375 0.012709340067205968
0.31950790183846883 0.18606009475337235 1.5337031430340946 0.01589078752088184
0.055312365148317694 0.21768660978892415 1.486831397538463 
0.13998505149058155 0.30976557357925416 1.4836468941216387 
0.09818865743537143 0.11302436645551654 1.4790369673184893 
0.21063872841206216 0.31220112488156354 1.4828998799301427 
0.2559992208442114 0.301105985445999 1.4837163159717086 
0.3151215341481344 0.17594793348382387 1.4834685873633424 
0.3168694672162031 0.18048926029329382 1.532908363353739 0.026386544845634637
0.22368541112722923 0.2904895983852259 1.6651626845945613 
0.2424398730316273 0.16083893936122423 1.6699095982893155 
0.26299658707958407 0.2781037154485459 1.6622928788128395 6.455962812783499e-13
0.28889425916239886 0.24192996302626918 1.6699091366740406 0.010309286524922074
0.28122193328006023 0.12490011648143283 1.6574846100988883 0.005580566448452554
0.1653353193493408 0.713527795415168 2.0815450595114524 0.11103536487086675
0.16845965214883674 0.7176179109870996 2.0704894689008007 0.09333705792586483
0.15148576145848147 0.6890368459548392 2.0703178028689044 0.04323673355763854
0.15667422984660379 0.6794842726319376 2.058889937364642 0.033985486460954666
0.14999820652599155 0.6490272437931058 2.0352585979749453 0.06189099342858077
0.14976897428203206 0.6888308876481858 2.0850169066638133 0.0596709860482019
0.15016479322467524 0.6738921254671345 2.0501623094983996 0.02853095096540916
0.15579953210977457 0.6616959156266097 2.0501840752211766 0.06052127037854513
0.1523470708910418 0.7427965114010006 2.118498747506647 0.09914544761670444
0.15188706027000629 0.7179228019916392 2.0946371876936154 0.08813170201876017
0.14853109011055488 0.6958368888775563 2.086888732036079 0.07673605065835641
0.15969272191113462 0.6323511744913664 2.043742130375055 0.06087355941913072
0.14873336143265609 0.6649571719210985 2.0742692558898965 0.00864935306191781
0.1496568925261588 0.6254032325201361 2.048405004178506 0.04413881683902511
0.1564777439926653 0.6531548179779382 2.0738894726935024 0.05334947740253197
0.15482046141446806 0.6366857645517385 2.055215014149288 0.05373285397993868
0.16438617016317905 0.6169447082113019 2.035464752978761 0.12865680236188462
0.15299854296508916 0.6083099846587474 2.015076898742139 0.0408962932351329
0.16231690288656084 0.5941612250072977 2.005790142455618 0.049747491631157416
0.14888890468101595 0.5574545706041789 1.9807537830611817 0.058868686223979554
0.15234827773270382 0.5768443308463072 2.005527118505492 0.0487747609607218
0.15660930094371872 0.5394781241593637 1.96401925270664 0.1011050487267174
0.16268324014604096 0.6186767441786833 2.0235850425852595 0.08090865787845238
0.15973549606347315 0.5789924108259146 1.9816318903667725 0.04490588503940632
0.16453690790300107 0.5899544280527074 1.9986533432552398 0.057080701152731686
0.15757417405812793 0.7261789991702785 2.094590811126971 0.15309366657826098
0.1611027014754851 0.7647333006337147 2.1234829358337075 0.048137816473421705
0.15254834510868137 0.7717148318256308 2.1282101454788895 0.021654203379634494
0.15484353343141333 0.7671014644950472 2.1390622332575533 0.0276129746364012
0.1512376878246337 0.742944058471636 2.10981638305908 0.08935112309814029
0.1564526525140591 0.7564463437352763 2.1413711322589255 0.06934544875264319
0.15876755239444004 0.7499341037273616 2.12926033271416 0.06058180210070174
0.15080697314746683 0.7377810370444579 2.113174371304643 0.09111459515417744
0.15793406420742515 0.550368087235126 1.9635784217925336 0.08671891197862809
0.16639037192799 0.5599689201324983 1.9704277447773801 0.08227695125771005
0.15298936673813596 0.5655564003567585 1.995949751297493 0.06390919319227757
0.16089869939738782 0.5478233349785394 1.9996186448063447 0.05534851135187513
0.15590388155841653 0.5404975780665713 1.9783191978764059 0.08392720450040685
0.14962556709636424 0.5760480582993064 2.011073611640046 0.04602368802232892
0.15440657539130925 0.56070858302157 2.0023377262057407 0.04989850793096094
0.17265989314510885 0.5162891527231753 1.978530214685306 0.10717201151725216
0.16503608904255385 0.5301529239785799 1.9940773456816034 0.04395182782056948
0.1534169016965625 0.7541447394238083 2.1046259956074764 0.03930334537854173
0.15716762359434908 0.6361946986360226 2.011956664505962 0.06331201054975992
0.17068258144118434 0.6034809314190202 2.0004465010697663 0.08687927352131679
0.1633373076343036 0.5987193170476607 1.9965177975754924 0.04339196115847613
0.1643935349813324 0.5694224101153244 1.977150782730277 0.05135353415353104
0.17238851113032125 0.529584594316926 1.9493665500891397 0.12162548147504217
0.1736990384237425 0.7124680199331538 2.112353904223281 0.054708339198672094
0.170998642284764 0.7726493278955506 2.1205330504179822 0.033477597286516045
0.16406075790675645 0.7373564403929015 2.09952225126017 0.07298833806923476
0.16683172407612015 0.7314348687723473 2.1203877716978226 0.12831535968151966
0.16545750179268212 0.6434971904456448 2.0235541166334055 0.08040849990595221
0.15792762293460472 0.5243832785667011 1.9613934430288142 0.0781101383690216
0.15983958945182644 0.5292234035905314 1.955959704644684 0.08337005491250883
0.17146595560559788 0.5098301069317536 1.9765086215369303 0.1216119649236496
0.1575435757934785 0.5068638661998197 1.9520176388891035 0.028841605915626217
0.1562096451296316 0.7781755461943457 2.1453548454981224 0.07383032506887086
0.16259749060181727 0.7870925231642235 2.1419751780712777 0.04217282974592549
0.160560062592699 0.795197357195503 2.153833957176158 0.022495734529916354
0.16723522952805378 0.7925626759253062 2.1266511579962564 0.08056978230975405
0.16566975338561168 0.7114155593733188 2.105301762572035 0.12047558614311336
0.15405328601475138 0.776441589587711 2.14911570176149 0.07397331876421044
0.16564490274064592 0.5978175406521309 2.0364618870679254 0.09745057435426809
0.16266936627310172 0.5915444741309946 2.01929755708294 0.06871912262761028
0.16657132097220428 0.7007823943514299 2.1041144436149275 0.11628462657443432
0.1952950044379111 0.27285377690670265 1.8198944349272426 0.046322521322413754
0.2020918067845329 0.26143143637320626 1.845511245505497 0.05925100743041012
0.20211486703502346 0.26808421936395493 1.8744665317885545 0.13643230535689604
0.19633610287986408 0.28370736066827035 1.905145615304859 0.11672166624407904
0.19263068284211485 0.3231670784628455 1.918266203471839 0.0767918706218818
0.1975462408300445 0.33200414559429153 1.9078416260289666 0.07105639067533207
0.19559894931505922 0.33528051421847366 1.8869340280489149 0.07526852010625615
0.19031293919884976 0.34062037592920663 1.8543156706244426 0.09355482614747035
0.1994494610442353 0.3140010031493348 1.8478076734919457 0.10879190397507703
0.20662398864803064 0.2984334464647393 1.8528639181771935 0.07302946827287356
0.18843803637400502 0.29964091699017026 1.8289427163375684 0.08943091626389242
0.1842634631128881 0.2964054038665391 1.8390150582416325 0.10771879088035588
0.19267943127925444 0.3258903843479258 1.8879128820846474 0.060346572507895026
0.18263749314947403 0.3060468100048673 1.8778186568964872 0.09321557233949669
0.19556064670106252 0.30696927404105356 1.8759454878465947 0.09659173220354288
0.19340031893177448 0.27814748570702263 1.8361248456190227 0.08893398070418566
0.18981166719239806 0.2732958208407258 1.847725792305591 0.08981936763071127
0.19129719881219573 0.28457231827601287 1.8860500124446247 0.10936735099266158
0.19582343301539792 0.29011141430071447 1.871939467632441 0.08674870019595594
0.194440784068723 0.3204868946335221 1.8496216728861705 0.10809638490984567
0.19752006650687204 0.2628925488526192 1.8549019947537468 0.12806562707876074
0.19157584663879 0.2918805619303728 1.9055643746536164 0.1004045346671442
0.19736506183832797 0.29123425663870667 1.86152413035984 0.1077547413764186
0.20591268747190777 0.3129337400631047 1.8625492048259709 0.09788464771249131
0.19919343167886022 0.30587839151689117 1.8953569704500168 0.08445265916549682
0.1984485362615975 0.32301865235672406 1.8796619713886913 0.06971832325898726
0.1958178406984891 0.3470503917266873 1.9011677892057914 0.07020613325266398
0.20457964549157134 0.3148638764669887 1.8817045789535343 0.0677979095396334
0.1923714637484648 0.30129181921670967 1.9143989768294847 0.09474099305862475
0.19264293909776886 0.2954396483524018 1.894031425636356 0.0992915832968732
0.1927827986536628 0.3023052561289121 1.9028805036973353 0.09052087695947578
0.19789976742682497 0.309723040948122 1.8764010984561743 0.09150381986188598
0.3497475580412852 0.19243597216130473 1.5905011727767169 0.03712711140957542
0.34333763354863023 0.18104111846120557 1.598463449763285 0.035541896024770335
0.34691245381899344 0.19437232390387232 1.6027252777549652 0.03183908459988347
0.3343410425764235 0.20381836874744097 1.5874516820409112 0.030535459166148554
0.3345478061714294 0.16955564536282217 1.6198039281000254 0.028503997686653022
0.3394751670971724 0.16974830015387551 1.598831992584829 0.02865160855028983
0.3357137469529388 0.20373093255274846 1.61094322260109 0.035233243982617984
0.33870377995446327 0.18160326870340307 1.5760959520642326 0.04391297956159791
0.34018306619183797 0.21967837042281638 1.6004937597524114 0.024636250661275148
0.3478174002918974 0.19873399938677358 1.5714689609467598 0.02352127887625686
0.3369071841163013 0.18548409383356618 1.6094575955040409 0.03131734527313205
0.3456772491779149 0.18151582713629122 1.58916526861924 0.05268366369099875
0.032885086416320285 0.1833012591327529 1.5925623187753166 0.03948696525921089
0.032164156921984016 0.17452001009800297 1.5957833031561341 0.03723352660784131
0.040594603355194485 0.19271026670729818 1.5871968389559237 0.038168333032132476
0.04398654956354907 0.1666262129942862 1.6109258947437324 0.029347809837904932
0.04840534539052391 0.21211049765361922 1.6091306198206348 0.02632870042264266
0.047803185757514965 0.18002932061991422 1.5728631490979652 0.03044780998624092
0.047850904328050316 0.20001347820365745 1.5953600268250958 0.03638191593550271
0.03777043287655392 0.1578969400697768 1.5990216097299945 0.02463445349528956
0.037478763532261886 0.17381418016791822 1.5733409193312555 0.033176416582698355
0.039452706073358566 0.2055414885032291 1.5784579096248281 0.039576604798159734
0.04330817782453285 0.18501983207818196 1.6155409184144944 0.031246197833114307
0.04630500861768733 0.21560993184932403 1.6003050503065877 0.02140248890415119
0.0385507850119064 0.1957732127646822 1.6125996785694763 0.024298272136248883
0.030981206231938733 0.2024870073948952 1.61533210061935 0.013545584603941655
0.0366400080542977 0.15896979674108638 1.6034861035088253 0.023914621508885937
0.18116256641318115 0.28936801272387375 1.8333632887620446 0.10673495685052697
0.1837348122143526 0.3270965152757445 1.8500617275827103 0.09974524479866939
0.19222121257196162 0.3350154851253228 1.859912777124286 0.09915948798111669
0.1872108845508556 0.35132405183400056 1.879341743779711 0.07115220273242336
0.19034573544444705 0.3413267953768408 1.9090372940178424 0.0630917309256424
0.18505894862884523 0.3080231757840788 1.9218501820717335 0.09357777760085573
0.17782217683932922 0.2845383510262588 1.8876378211548315 0.11135949513438292
0.18179501605714385 0.2863391006472673 1.9061865145700958 0.11406247967613288
0.1865452616863732 0.26148906732638993 1.8336352236473907 0.05133917381813314
0.18277722531431637 0.27370612015914914 1.818053374339651 0.07736193271725861
0.18041370101964416 0.31746211671692276 1.882435399020055 0.06960542053223212
0.18413299034798528 0.30985807184806774 1.855778997484512 0.1036893673174852
0.1817886983528712 0.33572657227049674 1.8866987465579226 0.07118766778326664
0.1838048382559441 0.3287192261248582 1.863717602808479 0.09602412870453522
0.17507775740440973 0.33631530812650723 1.9035941131743401 0.05664390305543167
0.18614891059479033 0.3021810811253566 1.8695170500187532 0.09809548029952488
0.17487085379945727 0.3201166958834944 1.9195006796912961 0.06477751207911187
0.1749485206483467 0.28102318801982246 1.8715009660562443 0.06473861281659493
0.18029130677907862 0.2942641675915832 1.855771892863154 0.1111483374701992
0.1819041174778807 0.2949255406193814 1.8748347650838881 0.10331657866419479
0.17885683010904885 0.3001057866850181 1.9170627603320658 0.09165923375341634
0.18214603628615034 0.30846278887845263 1.903381827983959 0.08496379646173709
0.19833979378154987 0.8061211166274732 2.0907957745632797 0.11782351224431821
0.1861737944581644 0.8003235519132437 2.0655293433329245 0.12478179907807699
0.19461412869678882 0.8080900082413178 2.0694133549371934 0.13717716875418728
0.18697402512347255 0.7967420389098872 2.077226869220087 0.10255646304552692
0.20232343374064896 0.7887960189539533 2.094335155038046 0.1028819784852171
0.1910684219314647 0.7805018935007458 2.080370608503628 0.11182976722106829
0.1939449866680282 0.7823671768754019 2.069417390131657 0.08304984031247116
0.18962076435495867 0.7676477849157112 2.0628889533906594 0.07810509266321093
0.19258271835320656 0.7623538129200033 2.070648927785862 0.09807961508301165
0.19252823515198053 0.8029301457904241 2.106040479081662 0.20787088492730005
0.20196803628589352 0.8024370865757998 2.1302138430003703 0.2026838478289519
0.19810021015622653 0.8126475023585036 2.1158894185404846 0.19746960326393323
0.20145567298344352 0.7772922205334011 2.098450256993488 0.11943486462196813
0.18312253491194322 0.5588990021636753 2.046495077547251 0.016988774853247852
0.1813271313640357 0.6175539836784785 2.070904687277664 0.08925294490199244
0.19547763086870498 0.39597098330559855 1.962695893443856 0.05460980357054509
0.19244792934370394 0.36812365119323304 1.9577672188046604 0.03316111817877951
0.19195918953889285 0.355856420805155 1.9527639105753474 0.047711117687649664
0.18821776336560958 0.66035139122128 2.0947786370558883 0.05456530440601754
0.1978846534745824 0.39181930467732523 1.957970314935291 0.07893339724634142
0.19122058126496727 0.3729560673706359 1.9528425434430194 0.03956942648775947
0.192911397286621 0.5015390772102335 2.0158632126538163 0.08938883576432764
0.19894887584210644 0.7221626160502266 2.131327318069702 0.022665570237895356
0.19505640101134636 0.31426024417640613 1.9242681972097098 0.07703919382151578
0.19224342081105805 0.5053430051347012 2.0270845789762926 0.051547031948254794
0.18438182745600062 0.5936063914937004 2.063957818834461 0.12333988101856377
0.19163184973283817 0.4572032247594819 1.9727066682643681 0.044979298867246005
0.19185385861825122 0.3556117979168804 1.9252941698704955 0.05638785467619661
0.18188945564661885 0.49809191204111253 1.9855917829128251 0.1246173973557064
0.17366723880664056 0.47979291713290695 1.977472383119459 0.04194375496235476
0.1854537049852756 0.39325116984682434 1.9455278323886993 0.0591170114770855
0.18405965575970784 0.44389540770391095 1.964264542621973 0.049279423078289385
0.18439037584234036 0.4153309506702744 1.9526499699088455 0.05393004675404258
0.1944844643645209 0.3529637501925565 1.943919854733857 0.03541640719532642
0.1963946063788596 0.41162083691811374 1.9684048589034828 0.056934966779734676
0.18660884236767233 0.5744374306001188 2.0527609352320524 0.1190876347985027
0.1880067459682376 0.4548268066016305 1.9649365199708377 0.041344742152973325
0.19729634443601485 0.6113536585670962 2.0627702642193047 0.016753610632060014
0.1925882375138773 0.4532070234056715 1.996633215724662 0.05447343409864694
0.1956757997378132 0.47302590722906696 1.9971582636772027 0.049973945326274
0.20259131548976922 0.40276775870619863 1.9514854309979486 0.04648184428592891
0.198659088499525 0.4937510894856744 2.0060343372994227 0.09057556543508832
0.197074482574561 0.5437573136983447 2.0242999773054033 0.034016376014998906
0.19595099550383147 0.336712664768929 1.9307363002815634 0.08040801151762911
0.18799845624577727 0.43573712351449434 1.9656700120137134 0.0651369403617264
0.19108931194048323 0.3174477051928103 1.9347766138226388 0.07691902653652621
0.17938062202108415 0.5281373448141946 2.01623462699183 0.07259052919510701
0.19852342841919524 0.3804132946586342 1.9344854436173986 0.03760524378831285
0.18168703195234703 0.3128966211184674 1.899572262305386 0.08006896414156325
0.19181759220117559 0.6471817242225811 2.0850406195369575 0.06165157016191502
0.19432386622317108 0.3482408553917989 1.9251609281468856 0.06211089784965641
0.1879387949434391 0.5221914175790965 2.016827335458144 0.13060242753394152
0.19160759447320544 0.6068027196479313 2.0588387772107435 0.18719116438954134
0.1904594093774555 0.47128284136248877 1.993006260887547 0.05112507019516768
0.20298178198996653 0.5724077447178938 2.027706928344351 0.015207851666540526
0.19406674851085134 0.4775881508571894 1.9954019614467662 0.08341128264687946
0.19789257496536192 0.41012346312571907 1.950260273778401 0.046436654881583536
0.1973607994579567 0.38732912496297933 1.9374921483676615 0.04391252371201612
0.2004120349762942 0.536159827361543 2.0085335793676653 0.1090459728168034
0.1916030755008218 0.3663755023191607 1.9187796823120702 0.048889607225176386
0.18247980920369014 0.5004732860240312 1.997793327826197 0.09416352021931258
0.18051989998786064 0.34516987240254027 1.9170998229083387 0.05884011059209197
0.18312669978546237 0.4070851259584029 1.95462838122381 0.044604068260445724
0.18546724900602615 0.3434338010243216 1.93574344069734 0.05572526923081729
0.1775524072720517 0.6967568111929099 2.1069684192645344 0.06392501728460201
0.18365742239380603 0.42886152635915226 1.9738807795930997 0.052700872399176285
0.1837060888762686 0.43401324400404623 1.9627261299532341 0.05448511270502398
0.18595932172388743 0.3767841260908333 1.952669341431404 0.03923941085672376
0.19309520469106592 0.6798465366397587 2.099751649081623 0.03281882312305709
0.18296747790650206 0.5393894222613547 2.0260868854552605 0.10389548640787007
0.181485466006927 0.44966570694769464 1.9842481575127595 0.0469664583780061
0.18091247554118176 0.4812698127825217 1.9986130899179462 0.027747559513160852
0.1878152230685006 0.35073880992726997 1.9377824313203411 0.055893018446597116
0.1842781063349325 0.5557938759991811 2.0370515268270295 0.020302372055816437
0.180192383428461 0.5728390877696373 2.044231230383236 0.17347924339167806
0.18244296423944803 0.4294394893904442 1.9792260299765578 0.042814046843023514
0.18925139689279047 0.5126642057073407 2.0092197469797997 0.11354559816932555
0.18011543101832858 0.3277454983152521 1.9239160709723357 0.07318443189699038
0.19330454653182957 0.6315778603890836 2.08473466578031 0.0009595203178508558
0.1951768613343483 0.4572489061198913 1.9261040433548846 0.034328084851394776
0.18657271579644963 0.7394051613942947 2.070053936527125 0.1304877343876152
0.18459346105492386 0.6626427665889204 2.0254488879509522 0.10456869734431642
0.1712770385694696 0.7068562142716308 2.0456146923833396 0.023402098098295056
0.1928750413336112 0.4275586100321351 1.9084766712351895 0.036823761320125145
0.1893823105795517 0.49815604801836305 1.9503948722755775 0.18154682883467194
0.1992687954328408 0.32877546034916305 1.8666262938958023 0.08013038982700126
0.19274942734522676 0.37977085933402777 1.8870988729351603 0.0282125134346312
0.19789408446921453 0.7214340736433474 2.060703344125569 0.21458985926674712
0.17887978415309513 0.4226513774051343 1.915743572410863 0.03492213320469081
0.19754945716700764 0.7587212063226094 2.0770326261708805 0.11708755852774312
0.19190623749467603 0.6848534274544814 2.03879271580172 0.019553616464015596
0.19275984888285305 0.7432047826258883 2.0623619135110483 0.12207898156168598
0.19057944447359257 0.7216394820947195 2.0505786782870956 0.10415814672692833
0.19129403179054344 0.3649158568333052 1.8787354190242525 0.04804932129675322
0.19053925793259618 0.4369177383276184 1.9121154221328402 0.02738377695470621
0.20261861440115228 0.5297188722631496 1.9527174312323365 0.16427150012748423
0.20081799519226567 0.600766965512096 1.983603432805549 0.02784420697579459
0.18708956088718331 0.6836378333566188 2.031611628796587 0.025692108763918864
0.19216766105257402 0.6782264669456245 2.0268257652804014 0.006306157113659416
0.1866808058718789 0.4967536462570105 1.9369616373248266 0.022340979815846502
0.18364809274378757 0.343602021727584 1.8681417220086427 0.0803139968390654
0.17940105821233468 0.4036792088717913 1.8878818928716636 0.024617554839181537
0.1892598255400622 0.4134188319730034 1.9049958328988943 0.04111810995248686
0.18735113761625222 0.38261166801372326 1.875530373924722 0.04579083673647094
0.1915766016438408 0.42111064020521644 1.9016488408896277 0.0703065908935345
0.18555622294988441 0.35308449489685584 1.8699545876790062 0.07158183080099242
0.19116392606695512 0.39878147621247834 1.894743436054235 0.03308681232018508
0.18899846944898865 0.46695730110260886 1.9278083609707888 0.02661539214396739
0.18567514924176293 0.4471461047140684 1.91116490358714 0.008838242215818724
0.19230921789031846 0.6267296569819972 2.005877727188326 0.068155926482846
0.18191969159003057 0.6388737614236739 2.010677280208607 0.09381033881056781
0.18948739889821847 0.6970450153232137 2.03592540731961 0.025913468494144658
0.1819473181814768 0.5693494251654991 1.9694876750273511 0.04568649065225717
0.1861191126189002 0.7315163698659969 2.057283240126541 0.11156761409006893
0.18667882924134 0.5913593903392363 1.979695831743623 0.025304484043707713
0.18407870354135925 0.4824657879065277 1.9308956470772118 0.036383207337161154
0.18752130345309706 0.6545196721307416 2.0191630998521393 0.030427793120988093
0.19350886750023677 0.47670739154645914 1.9289323286960511 0.024349279952952368
0.1783868081886447 0.36160566028451546 1.8915044834139285 0.0447988708441739
0.18031352526597302 0.4546879304419492 1.9244538623497986 0.02408768486714797
0.18232744729213632 0.3554761184778902 1.8757165770289286 0.07159227401542943
0.19072309874868595 0.8002515877512923 2.084520438886725 0.10182288808482866
0.1945719103384016 0.7811653544597545 2.090296869672517 0.12348010052804356
0.17857891312662216 0.7979596459649636 2.161590446133932 0.07895852137765563
0.18129326844180282 0.7784361723510094 2.06931168883524 0.0725106571383345
0.18061145910028775 0.7650857875159187 2.0691150604481217 0.06482072274168448
0.18277254001763352 0.7388032726601154 2.079139839349064 0.1139559786528144
0.18070683547159827 0.7493332008693185 2.092137556105263 0.13952352411840122
0.1858024296628269 0.800514924971755 2.103952899767587 0.16049292737398863
0.18374015062081653 0.7647197632555279 2.0760960995455244 0.08822498283621252
0.17872226032723368 0.7966113538777054 2.0843402841839804 0.09252964261787375
0.18446112999693867 0.7576043691236388 2.0825612255194073 0.20431428990365155
0.18294047051816284 0.7548917403330601 2.0809129106939306 0.23871338848299686
0.17843948232331575 0.773524964374327 2.0926720555517595 0.09438654787626007
0.18048424908756439 0.7610906771831975 2.0937779982214355 0.1727622643759302
0.18748866393676045 0.7980024731129055 2.0656189166119407 0.11071593582731669
0.1802749772779961 0.8071979978985363 2.0716084841868034 0.14553227310018366
0.17930858609321845 0.7756316389593246 2.077993378119544 0.0727637529126434
0.18024479075358682 0.8098535984365155 2.104807382490932 0.1363991942692611
0.18934305071155957 0.7902787181775766 2.1024655326574 0.164161932732263
0.2035916671040904 0.8063243433298619 1.3983218403019264 0.08791750994038372
0.20688215063278761 0.8186794719808979 0.9285205013004277 0.24110881102120033
0.2103811270718749 0.8106847173417674 1.6924371627629053 0.1241441139166586
0.20104550279580438 0.8294273323027527 0.35550780825483225 0.2004593529385143
0.21454743632951637 0.8275722669925876 1.3746203294573225 0.1366578158334037
0.21505166296830738 0.8345257318862979 0.7282705246512844 0.11968412657160897
0.2026767736310748 0.8288291349977278 0.5875966904497186 0.22901008216375907
0.2095103288964763 0.8182833417366627 0.8303241340346593 0.22271094191903099
0.20917023303229573 0.8090854817587682 1.7493541102877062 0.15933779910425278
0.2071677736262559 0.8258378197408267 0.48916686162952905 0.1808661226308868
0.21138459870760862 0.8232757005787325 0.5275307187750125 0.20379080128688198
0.20890355988149573 0.8213857836489941 0.19244423156773882 0.19776785471053884
0.203924748639493 0.8194694477221841 0.9885259735698496 0.18724727375324693
0.2068725113720824 0.8229206862316789 1.448687595492483 0.1470434333676321
0.20751091075477995 0.8148543630316966 2.0340342910739713 0.11728395218581193
0.21437767841241692 0.822302673161593 1.0304458115410242 0.152412242456453
0.21491839899100654 0.8311433826574716 0.6147538151239864 0.11022927217074537
0.21473912260622113 0.8302581996286842 0.1344925742110308 0.1186533898607331
0.2033841953636933 0.8283653755112766 0.22202974745248902 0.2074051447344268
0.20426314956902134 0.8099338122479748 1.4237076125263304 0.1574862306905716
0.20832779624267136 0.8124999774412914 0.4633599447939344 0.20499243643206932
0.21355751685325824 0.8143100732555983 0.32472391098418246 0.14267792844573032
0.20734013659670392 0.8145791990773742 1.1123715633403126 0.21841313858107342
0.2091859416091893 0.8200741013675231 0.17121927587284633 0.17247167979338926
0.20867500134040803 0.8198686868992998 1.2189325007487402 0.158795056162049
0.204127739280181 0.820564373733777 0.5900075591415318 0.24158091583858965
0.20703516853539966 0.8296059750228059 0.8177931518313005 0.2188263593643898
0.20770593997311285 0.8106976423484865 1.8803732065716354 0.12985377454918107
0.20949924602759262 0.8065594047711636 1.0879009670952544 0.1864836107219454
0.2088219958402669 0.8290594917697802 0.5137557380665254 0.24341493810019108
0.20911100790462878 0.8131554450445853 1.7313922957275734 0.1986563588995736
0.2182839101595428 0.8394042681189035 0.8644567384146195 0.06279232742404735
0.21290382994793883 0.8298435364789836 1.3183606531645444 0.18379090009005558
0.2090396675027077 0.830498765014328 1.1415991761481485 0.22162735800025965
0.21166739791073746 0.8344026392892692 0.4637977791878856 0.21490860437496997
0.21082297627559743 0.812162251084208 1.464377953128641 0.11858442097037962
0.2080739419259311 0.824335327348013 1.0428972236204923 0.19942763937038951
0.2173234013466911 0.8093203153828548 1.0990253534401948 0.18444980510760972
0.20530963931049823 0.8231481560642359 0.7482473214605022 0.2073497072727186
0.2060259526135482 0.8193448107483379 1.354584038033388 0.23153522121980025
0.2085120058008859 0.8174048138735202 0.8915212651363694 0.14175219944512277
0.20651241117747055 0.8093553207253632 0.2634250601495445 0.16247168417242558
0.21261020126259314 0.8259024948204091 1.257415776922546 0.1652303135226465
0.20077926156752676 0.81005476362424 1.14434757213374 0.21822820690604205
0.20519715068894095 0.8311133622384258 0.34706409623239937 0.18123002821132544
0.21123875495339708 0.8235004757846449 0.41268390387367837 0.17474400767871423
0.21109715959358502 0.8196472260317953 1.7737038671430052 0.2294411418223484
0.2106535271603827 0.8122205616178422 1.0540439754916995 0.19102852794431763
0.21254268022560527 0.8211091342695505 0.3042289915799641 0.2334444583774711
0.20694530191040603 0.8207009307274492 0.20387543701184102 0.17106394288547244
0.2069820357377657 0.8390148374826791 0.11206302945903712 0.08946469539697918
0.20451397229796733 0.8153025682806866 1.8196787645314005 0.16391379756571012
0.20598498695193773 0.813912994178432 0.21935089797101606 0.22260674291477092
0.20132168333311098 0.8231387229951831 0.9452790028591334 0.2581668274002837
0.21638776362958426 0.8214492930420486 0.5596697476613014 0.08203559105308177
0.19557578366520695 0.8230030586978792 1.6753114899891772 0.23024041874870232
0.20433535268713687 0.8325644767033029 0.178844190515948 0.1816321862711922
0.194607380069141 0.8358650905310665 0.14544739012302915 0.1831573171472815
0.21611154491567264 0.8175241332945681 0.6713931441511323 0.10927224704747343
0.20269635648726164 0.8329880531141189 0.6890473485590024 0.16294456565991058
0.20673555828069978 0.8275507364905974 0.16576027629562062 0.1728566655055365
0.21659285188352045 0.8266248224865129 1.155206062993686 0.1523269166926652
0.20972779937523328 0.8155340737204058 0.8645219696274266 0.1585481399370306
0.21207373179543074 0.8118724389534012 1.5917733294888012 0.12407435667052157
0.20521294403081558 0.8103754760838182 0.7740668595132143 0.2223105534824967
0.2050262813157215 0.814636008532343 0.7165850537516066 0.1802863247574241
0.2121718871371157 0.8079596126026002 0.559105430016276 0.12834932986651917
0.21151139447489814 0.8236674759063889 1.5650440007196371 0.16158727739179143
0.20257906452736094 0.8164174114583713 0.7296488691659069 0.19362100418931263
0.2074125174343441 0.823351240274957 0.846142008015281 0.22666427067869116
0.2067453848209294 0.8310529384550096 0.23243328790779558 0.21583876175798386
0.20534013333777718 0.8042396504332275 0.7217522250466752 0.16677358154471597
0.2098603614505981 0.8147255834244325 1.1959070437394883 0.1922204087685029
0.20484274958484353 0.8136639019210112 1.4835390756039457 0.17324052344299043
0.2063646785558408 0.814674279377228 0.36384539369690216 0.20454627653200327
0.20468819886323047 0.8261624213072726 0.7708592921186855 0.21310670010660285
0.21480704420258687 0.8127998258216148 0.9738216324711539 0.11868797443737823
0.21106157121792102 0.8340702015718952 0.43739151560508316 0.16580854018043198
0.2105478213199127 0.8078022713428911 0.13551662123022692 0.07196117070054707
0.20731040280800864 0.8314052607505079 0.34278252923396413 0.2010592708909608
0.1984802387206209 0.8381622575597677 0.6243235652856804 0.19332442586753845
0.2096326287470474 0.8222476906941266 0.7935111086302233 0.15374786150046288
0.20929541955298617 0.822150537511111 0.6559118741847415 0.22165563010970268
0.20248677316232488 0.8363862728596407 0.7402916113425853 0.17315046215654264
0.20664228022534517 0.8134959584169051 1.282327957640496 0.2212402849183059
0.216616897174451 0.8309627866613208 0.10962240438018618 0.08770906427299344
0.2075485164475643 0.8196278293576666 0.6504453588837431 0.22209424440244485
0.21184503403331226 0.8132149865069275 0.4463833674527702 0.21604940464669134
0.20141789757031822 0.8204187945699832 0.9428152472818325 0.23492561866566583
0.20457784389161254 0.814392312997045 0.383223708949746 0.1953714017819729
0.19448947281930945 0.8194348453045078 1.3427480857234675 0.1978431497853218
0.2024271259069747 0.8084119162921063 0.705700509685276 0.20192585571176463
0.20324478182227504 0.8132169187267535 1.6411144426018311 0.19232181204312335
0.20087096269652516 0.8257552758711151 0.5792547978500553 0.2749634327940824
0.20677212552453667 0.8340627806341165 0.14807873678703093 0.15722396839729952
0.20518537729196026 0.8263873956423737 0.14887236431411235 0.18056653780951887
0.2092276324181549 0.8254212628258082 0.24615919059474137 0.17469286956909985
0.2064918298696118 0.8299334299902882 0.2781813080245214 0.1660729444825011
0.2038335578234487 0.8181853284030142 0.6962883270717929 0.19958088567861265
0.21350777812333788 0.8150909316888526 1.3924564540991087 0.15575078245651122
0.20583233756236852 0.8093536279094177 0.2674608766999581 0.14754361153682444
0.20493628672838587 0.8158324431604527 0.8458334403863071 0.22031657371018795
0.20809861351963754 0.8341029047139972 0.832798233321845 0.22931586112820798
0.20465335907461968 0.8346037621247554 0.12040419513645059 0.15297458312199583
0.20653731670408992 0.8109345788628837 0.3705156738657319 0.22892421963434909
0.21067735625517708 0.8220791744569809 0.5241776436293025 0.17612158250327983
0.2086227724158122 0.810950462617559 0.15157089805502388 0.14908116521347564
0.2129808599626723 0.8194163317291382 0.40256156047792685 0.16036980160715608
0.20850328454080508 0.82458121422495 0.29282967322983755 0.22423926027035623
0.20913939730622932 0.8163229697101971 1.503650934237138 0.11994792628541955
0.2145467193809157 0.8332056913596794 0.20774570030300746 0.10399429372550281
0.1989850823389412 0.8113301474938616 0.17771541632673557 0.18883422609719755
0.2080179757557845 0.8126299341397941 0.6221195512309985 0.13247289370450507
0.21425758207966347 0.8228535984310307 1.0025449169573803 0.18141750035874776
0.21099535796331034 0.8253942145342698 0.47817857603660474 0.21487700752906327
0.20715475570043881 0.8134273294573057 1.3068520716286813 0.18489298595495302
0.21016027106518959 0.836724916308299 0.30812138045819626 0.14063490278175456
0.20147815350842654 0.8076061848429561 0.8454509584084213 0.20370588090854327
0.21153553352062235 0.8069717062313537 0.8724409243203581 0.11416471979490983
0.20303289619675907 0.8347133159818614 0.37206162202731924 0.18073016976340728
0.21087320678776622 0.8291477091292576 0.6339415872403762 0.15893379285430229
0.21832550179849383 0.8252444879696532 1.9439491531439517 0.09221226995620523
0.20575684465044192 0.8419346070365638 1.230235529309195 0.2145758884045584
0.21047915085172028 0.8290206377213124 1.8767656357027755 0.1813845261186852
0.20937537667771622 0.8457330032555527 0.39270401614535433 0.14937982113493672
0.20355969648603942 0.8395147604450479 1.239247284801735 0.19835133067614238
0.2038521898819609 0.8334078356398049 1.1324014256788724 0.21675969618021013
0.20523860281977385 0.8348057326896196 1.4118617542195657 0.1668095316282969
0.20868504809632385 0.8463785356278792 1.816322365987838 0.11093279136630353
0.20547563753654505 0.8379825992866717 1.2954402316954226 0.2098333098587174
0.21099496753937677 0.8313727118704067 0.9258319688255019 0.17705473646825903
0.21017364044387693 0.840901069393584 2.0235440269084397 0.1357293747413451
0.20833801172825375 0.8238793438477352 1.3491947628340755 0.2285706893401578
0.20349340853989434 0.8338674743516897 0.5601706760666374 0.18115749413604254
0.2088998120850177 0.8259847350182754 2.0562186595954506 0.18236280505047384
0.2055334598131497 0.8119960844118175 2.0786235560436688 0.11560581815373162
0.2029640136046377 0.8230177071571441 1.1737087922937572 0.1898639271129741
0.20676436226540545 0.8464691693740671 2.1217102864729807 0.12277341472030422
0.21005976334460605 0.8404817478918997 2.0495396398386383 0.19527139946589386
0.20476177444273774 0.8196775855576445 1.9776766149398806 0.2118179678868656
0.19943917623338733 0.8403806232940428 1.2659375258413763 0.13487598934179953
0.21331721110572907 0.8395605182035011 1.7546644572901984 0.06536090918803848
0.21006859124670835 0.8434498084437665 1.171082780131267 0.11210429452890187
0.2128453762726663 0.8390862818263801 1.9670199439620248 0.08626822114257916
0.2181996965662839 0.8242290486148545 2.126628378781358 0.09381299380261039
0.20045781991244624 0.8393144955550786 0.8543064877058978 0.21519165952381022
0.20403231118591666 0.8359414396935262 1.053834237192227 0.18677697358287404
0.2026718395618474 0.8401603204486298 1.0193197588411094 0.1508735142300956
0.21042840371214963 0.8306496901518986 1.8640753419641578 0.20613765736555303
0.20520685134624989 0.835264943373941 1.8874597404608853 0.1666519316258975
0.20841676151222602 0.8269133940087772 1.5446004702674478 0.214003110874062
0.21144287567602807 0.8315130264150006 1.442751626201557 0.15736448381299664
0.21538260757967811 0.8295930850766242 2.108688498424103 0.1063918180135147
0.2131791757833486 0.8197323214768242 1.6283754791245464 0.14351533406905975
0.19884268331120183 0.8353901761930642 1.8550688135477642 0.19001752550590845
0.1993809867583425 0.840545816619058 0.2182175586079118 0.17075876574402069
0.20250612545670876 0.8409652984211197 1.5272563617432788 0.21731522362807926
0.2062048130059348 0.8403146318643075 1.6614601438862417 0.16317587428518632
0.2061267317669964 0.8402571417343728 1.7639909917822854 0.11927804526590377
0.20780060329814923 0.8286124617946835 2.070039539850964 0.18339752943513107
0.20320108468400128 0.8443855135452812 0.6955065332470541 0.15697585086393284
0.20656157957115176 0.8340456796445312 1.4758302555850893 0.15822087319782044
0.2074499218717242 0.8172557041892682 1.6931292117197845 0.21062880578461268
0.20974328036248077 0.8435212363749617 0.9419632066225909 0.1385593369316256
0.20810724100254419 0.8321528621994394 0.47524081758212466 0.19682820085552688
0.20393873292805803 0.840367786235468 0.8675447176082333 0.221479979855958
0.2087950376847513 0.8279102402039584 1.1863621473407222 0.1898946378729581
0.20542972987736752 0.8420525084761907 1.4894777131177597 0.13716644853170448
0.2074885528092893 0.8254923119042804 2.0085791756309495 0.19202671547769717
0.21414027811985745 0.8220900675752171 1.9479453628510872 0.21801266749645576
0.2071272651263732 0.8343296582676981 0.9851149247654916 0.16232121528350277
0.21163062879804923 0.8148128027194312 1.705645480334346 0.13358818711594858
0.20835634708591197 0.8250340005329821 1.409734849618142 0.24622678354344157
0.2109576095982929 0.8339719863909661 1.2104761423487278 0.20123053934036927
0.2109753065767108 0.8163127146163768 1.5881884835156872 0.16908863677003846
0.20157653574687173 0.8261760638014729 1.7019151507080157 0.22885002957703582
0.21198011130248226 0.8287154945219775 1.9018206481743751 0.17052363532894402
0.21049433891939864 0.8247095213831664 1.7433616552750397 0.19905469462577013
0.20272275529134212 0.8367775481778535 1.7361610912437206 0.20182449882535605
0.21123305294816416 0.8330590955577808 1.684940482047999 0.17667959280889217
0.2058655532062262 0.8415428238339275 0.9134203105807369 0.14869469120496595
0.2146901944478008 0.8199746112586928 1.9965462195933117 0.17278475095912338
0.21074724945230683 0.8420511641361001 0.41107190300168983 0.10546557143936111
0.2114845987503269 0.8358785588143046 1.305140958375937 0.14971651080753504
0.2063314327985041 0.8199887859345486 1.4565958794571832 0.17946724340081818
0.20238862947841882 0.8358494911328744 0.6667886894190507 0.16392870347185784
0.20132702464835872 0.820165740062838 1.7897662980995035 0.21920907601951883
0.2127922784420436 0.8264042972375962 1.575102681586053 0.15003412708145036
0.21007794154434886 0.8256138230909047 2.038391784083121 0.1838296286350111
0.20461488882381654 0.8368333319944382 0.29591545623378346 0.20664201593826878
0.20200297140435258 0.8328630214948501 1.2357763037581821 0.2190448524495448
0.20556626651207377 0.8269241784926378 1.8141343378266899 0.19159157511540315
0.20895701972577754 0.8435585612608606 0.19102386030195995 0.09626611882135194
0.20075420278341782 0.8181259645894263 2.0983555328685823 0.14987012289728877
0.20342230458883265 0.829271208679453 1.8376646185604915 0.18677692240767413
0.21128267588169247 0.8345461322991243 1.3691667254758635 0.14197164229003176
0.20616481207809412 0.8449203767039255 1.3410063234688845 0.10027432890562585
0.20350246947519074 0.8184161920903589 2.05350919343672 0.15710860152991207
0.20547635173514503 0.8427816001948346 1.6753757064134849 0.13405796325731814
0.19841646281686673 0.8408679829479182 0.7753148443792603 0.1996131271686708
0.20832369246130664 0.8285205085097618 1.714645568213695 0.1581631308232202
0.2021495427064416 0.8429783330974261 1.9302119559965756 0.2274876511078242
0.20856387319517644 0.8336896464231157 0.8811161488117504 0.22560916081282406
0.20610211323749886 0.8346693615293539 0.9554594087304452 0.16577667855107647
0.20012488133188766 0.8384913037919569 1.6004187499433546 0.19845214366846672
0.20850264464290053 0.8310121095918414 2.1522560364704906 0.21724498659804145
0.2105019900349478 0.8301103842116927 1.514782180172004 0.15853969328056194
0.2016805299094884 0.8370416581248707 1.099316413621734 0.22502676962973803
0.20397526157091878 0.8214563006371238 1.8238567292272179 0.15969538861209956
0.20492920803291745 0.8271703556432528 1.646355297105738 0.17726451414620378
0.20617442706352845 0.8423523163449821 1.3679573232445335 0.15658884881409335
0.20261236183305034 0.8239853265246974 1.8357903214344462 0.1738053819804841
0.20172820151683366 0.8283003249501233 0.970158292447308 0.19083356629685883
0.21166932893129717 0.8365567474208861 1.2009607480928017 0.1732278783421929
0.20375837101564087 0.8343740751177806 2.0913682887338036 0.18879344946112822
0.20671435032854904 0.8397639752085099 0.7609136576173962 0.14266442537040394
0.20587866289116635 0.8169035231554148 1.927121882439694 0.23893609308461491
0.21237009141739815 0.8309288458506265 1.4082898252724372 0.17468075073021835
0.20760985589892664 0.8272302429832874 1.8019671322149322 0.18408611185841506
0.20835361424329932 0.8378122869049911 0.46113375291351266 0.20699857653322085
0.20160566130780974 0.8420150303032998 0.5677001609381711 0.1806909270359079
0.21472528517423678 0.8352157100756686 1.39484138769798 0.17170984477613804
0.2028339835868584 0.8168180062133163 0.952996841870097 0.23021462301188064
0.21009193277429516 0.8247468799795162 1.3352388739372436 0.15091400726857582
0.19978370022169803 0.842661266005784 0.5811559543654475 0.15268488644778105
0.2096775949092904 0.8302659223771228 2.1325712495775826 0.1753991834230908
0.20773501473301859 0.8254029164173703 1.8459798044616251 0.16549981078037374
0.20803805163314648 0.8378312099368954 1.143866806346927 0.20390396738998334
0.20210720038703134 0.8345359406531759 2.0947414834055804 0.1782353979216212
0.21468839579887558 0.8442361347770309 1.1181866344858518 0.13266178899648554
0.21058256193756844 0.8174697829271395 1.4240388431813948 0.1953119180740597
0.20776527517831297 0.8254917831226986 2.0358203139583853 0.19398852472246636
0.20580200106865978 0.8369846797950804 1.603127992748454 0.16321568512597703
0.20706453893626464 0.8434846734949613 1.5742071244433509 0.12404403836023349
0.204446906664524 0.8215064394709689 1.4865844785743851 0.17158800530422685
0.20569320907264427 0.835362476462186 1.7724563894555554 0.16464076693544102
0.20710249938904754 0.8334149236024225 1.6132305412914694 0.14940117834646063
0.2060888607403771 0.8251186883082059 1.5518673502542422 0.20226431158757133
0.2121856992582873 0.8463996569613195 1.130327560526475 0.16959994172610734
