x y z curv
0.40707123165384296 0.956121696626279 845.2299015892221 0.012845033137548112
0.37891433160750476 0.9505259513409059 845.2556046187011 0.004470536251807358
0.3837771588346464 0.9178707141924921 845.2901136147008 0.023845940792015987
0.3792501060736595 0.9316833827673482 845.2832276044037 0.013761114878563048
0.39098628725558976 0.9591547585293082 845.2379038056102 0.012231069986201668
0.38529289990384724 0.9171990032107833 845.2789582626424 0.009442280043110417
0.4179574081719122 0.8940957128744144 845.2729004607285 0.015388424397386595
0.38517550108592247 0.9694464804449889 845.2466105608542 0.01006115080573172
0.3962707901421944 0.9299995152082164 845.2603746155961 0.0061713646079691155
0.3705911470295844 0.9574109319962737 845.2776352578215 0.0072116946795500346
0.40401198325794435 0.8889894073034971 845.291861241338 0.01688039117989566
0.3792996763700787 0.9227963163525351 845.2961965322593 0.02254040821468661
0.37415393433257127 0.8579449033335366 845.3737960238118 0.013352293891994427
0.41368450725344336 0.9241143390626692 845.2410819572098 0.009826015439730785
0.4075858950826122 0.9415715677167829 845.224975313207 0.009073906137302598
0.40226068729146164 0.9396911835015272 845.242638780849 0.011543153009021466
0.39472823220308195 0.8640384758047858 845.3311959731003 0.016415815679650524
0.35086324376213307 0.8859739347279023 845.353861296658 0.007590276847658496
0.9210030629823951 1.031436754282912 845.7251067358806 0.022651063590867118
0.9011185675632717 1.0717974621213486 845.724832405262 0.00999401255749976
0.9205509247194321 0.9623771352491243 845.7299281415403 1.7142214080106687e-07
0.8440904020142674 1.1005353351499054 845.717368584029 
0.9255387548586812 1.0097922861589603 845.7286671709702 0.03501844955720464
0.9138298107826842 0.9792458505268509 845.7209472476692 0.023444158362393098
0.8939188417366665 1.0878287612459991 845.7115844916863 1.3950820319562243e-08
0.9212526192940148 1.0254178203900288 845.7077518029671 0.006018118857408621
0.9086584887210756 1.0544203269700132 845.7126381783629 0.004827596744449954
0.9048107839166531 1.0751764325220259 845.7066337257293 0.0028813304102112366
0.9161303444486203 1.0138071240920907 845.7163464084489 0.03435790672526879
0.9146438998320895 1.0485329221146065 845.7196072152321 0.01607306093590685
0.9266318658136041 0.990001973158401 845.7208793574097 0.009852110092613837
0.9167935853221441 1.0330325837436203 845.7288010977938 0.02456089267649749
0.9035677916007014 0.9387290666449793 845.7367871957432 
0.09345428199279757 0.3969850297797954 845.6004590452268 0.007041419535261091
0.11968203435165138 0.3683449838883627 845.6185914283024 0.011481444641064844
0.1260146839576194 0.3536035396134567 845.6129990190228 0.02395520353481395
0.08037984586711189 0.4450171249411424 845.5618772800541 0.004872486581141871
0.07438140424032844 0.4146922073898816 845.5912447894978 0.0027552375443745097
0.10218682120102715 0.45917444046285677 845.5000127676843 0.021286112655343463
0.08683182719610354 0.46795402200890696 845.5294365681607 0.012388890033637658
0.09484244400609083 0.45248487387614783 845.5152936330938 0.02246996902642693
0.11360571502902882 0.47545660298153786 845.4885272684163 0.0169786306178899
0.17594677341016499 0.43329289288498085 845.4483700677567 -2.8036967174296002e-08
0.20469436021254345 0.32905899340247524 845.5737705275238 0.010731539515697743
0.20239547356242166 0.3248682629737761 845.5431778464038 0.013030748196918867
0.18953731669748158 0.3275624413860078 845.5858241805614 0.012113573338302328
0.14302108634336716 0.3525445678799758 845.6023606452313 0.016874613039276384
0.2030262808358543 0.35734166028135733 845.5030299425595 0.01898660804281575
0.22285443202473737 0.3522708804689283 845.5064265958554 0.02897419715286878
0.21526198100533814 0.33465426295560113 845.525127168674 0.020201511525562175
0.21681653712429422 0.33999038188630115 845.5124019871135 0.014317935766844127
0.15080170123571499 0.38156841441390926 845.549568118759 0.0038867234350197966
0.14105546049077497 0.37818082345287873 845.5604545211519 0.006925095900362774
0.12586075946446595 0.3728562800481859 845.5878968909152 0.014817832598588876
0.14146603271358185 0.38972191227310415 845.5539787166284 0.012253455459861198
0.18777214234356315 0.34928610357989537 845.5366084421528 0.0039775341003521845
0.1828989250638348 0.3773560904453105 845.5017803731491 0.01244788370606511
0.18169002170704 0.3591581420067201 845.5368067396691 0.0009675984563084905
0.17225640992811347 0.3576474397290881 845.5500977657821 0.0015793299582833858
0.1532125808960023 0.3581816237198669 845.5767267837048 0.01049821242902679
0.1555757504753701 0.37689122664927655 845.5426690526534 0.003137797048431085
0.09857178264183497 0.3999059351127048 845.5874151461082 0.010830353679956212
0.14184598885082994 0.3680242371331606 845.5759662290146 0.007534029975113703
0.12224516136902588 0.4125499878308159 845.5309982117103 0.003366823338222008
0.11358201539579904 0.4264079068629924 845.5309204731049 0.006551200464182745
0.1517991564531425 0.4178010731895764 845.4792766818093 0.007311957911666057
0.1292670913637315 0.44818054185919237 845.4833205173925 0.01881929328095822
0.11906796440226415 0.40910131380555614 845.5608868361014 0.012228765025096332
0.1267641910465509 0.41828600310528136 845.5157364425504 0.008243583925941806
0.09250798386840037 0.428772787069864 845.561869495268 0.0070819775492207875
0.16583272934486692 0.4066183716726101 845.4847056210237 0.006778036751038762
0.09969545557819333 0.4425857745534643 845.5333446727898 0.008106930664663574
0.14179754166407776 0.4302034189016131 845.4724294491807 0.005930951649923643
0.14257435495656434 0.4277961079513072 845.4927913242475 0.011529384788596208
0.15301153174105128 0.40543326689113524 845.5065827596114 0.00496639204403204
0.10323507514268364 0.42103154188587855 845.5577022646279 0.009493585876480356
0.2027049608242219 0.3900430404457244 845.4594563740552 0.01605250243275071
0.14092853573608607 0.4394787807008291 845.4721952393377 0.019470662434436868
0.1309918816073936 0.4458679946328638 845.4775555219813 0.016865657777852906
0.1754147006130318 0.4160518463610565 845.4612609927933 0.009122797891194143
0.12570780864078318 0.45934994809899676 845.4734835064613 0.012659675470562933
0.09485242559193006 0.45158644406920095 845.521948237076 0.019299684785208805
0.0731207690020858 0.44854081254195044 845.5655773561962 0.009564861313840323
0.07818505488577304 0.43574740064941747 845.5680326716795 0.007340524484008433
0.08839368219585421 0.44146759363341675 845.546396544293 0.009465491224877644
0.13964970632453458 0.34652436470026743 845.6242577349592 0.07387808391403383
0.11992526154930379 0.36208167954079995 845.6041148173134 0.010447572735307768
0.1759786508214523 0.3389613044157049 845.5974171588432 0.011414479123077713
0.2257772673746541 0.3602585651734955 845.501102015185 0.02380343414765284
0.22081783685979128 0.37126111050006183 845.491308920668 0.028024473377673845
0.19795918988106745 0.3494096643215544 845.5250934606489 0.017038538225195826
0.2173684320971409 0.3754190926820174 845.4760158518455 0.023207637985980478
0.19566725629510098 0.3308281652684487 845.5499351604952 0.01829480597436601
0.15677978548822702 0.3865017005902042 845.5260466780043 0.0025624415224919125
0.11652700655100948 0.38580051556937434 845.5767185889634 0.005942281354500966
0.19853444145667168 0.3767937301908474 845.4866684066549 0.024074566517335742
0.20438667752021752 0.3692767696561282 845.4817870265019 0.021633409546490047
0.1752147748784056 0.39271063699447667 845.4947111489683 0.004881442695486473
0.1746246036745601 0.36751622486225377 845.5328289988965 0.001942586123491368
0.17058961999343 0.33619171929064956 845.5823682100407 0.006708630019178861
0.1922371008098431 0.35868949278891415 845.5171407179247 0.015023422280500619
0.14096000668582637 0.38875050325090144 845.5567764363682 0.009563665365331861
0.17284898798038864 0.3814020198128176 845.5115037536965 0.001408727312191475
0.1796640109684388 0.34071027791423025 845.5664269629044 0.020521171779226743
0.18508228073763058 0.34763763799076725 845.5429177638591 0.005248978683248864
0.1963892868047775 0.38017475529551187 845.4754008308458 0.03137289333127474
0.10782135070599211 0.3853095044484419 845.581833521272 0.003714307785751795
0.11491673385536628 0.40589902342393996 845.5685226441202 0.011179855160754879
0.18257524985973864 0.40145388977434776 845.476462974585 0.00443753053587354
0.12123886229033995 0.42129483407471935 845.5158345836157 0.007261903645561606
0.12850353905652886 0.4180565986378815 845.5151892825697 0.007089232770760849
0.11913018571697713 0.45758188729911564 845.4927038531519 0.01617972315137807
0.19271941415900676 0.3854770220323261 845.4808414969511 0.024401997019881005
0.11353721737107737 0.40817978898747315 845.5670928126626 0.017016721954111243
0.14321117019930263 0.39384215019656527 845.5409905584763 0.007875951728479538
0.09274888183344376 0.4145323615001109 845.5809408527283 0.008546847123890644
0.1214722732084762 0.4432125782849948 845.4969087088368 0.015142454890206809
0.09827460481942843 0.44843119690294403 845.5188936268607 0.01837438297701908
0.10382613293198571 0.4267766959521982 845.5518651076401 0.004919498276529542
0.15971717496976043 0.3946352100860844 845.5176193143151 0.0019194989208301714
0.10623732921793548 0.4246737908703431 845.5519397686132 0.006590941475061167
0.15997924423196946 0.43735076884042146 845.4592484523637 0.019106021798659504
0.09476435243190874 0.4521197701065714 845.5068845221539 0.019818081072196778
0.08251417106881355 0.44922995749330735 845.5453575941136 0.010787400645352494
0.07521051870320729 0.421938444717086 845.5839928419811 0.005498567210269781
0.0838403844106178 0.45256912362743107 845.5425327125952 0.014696420008095519
1.0025132390617253 0.4042289919944096 845.3502374156564 0.12830006054931004
0.8642762963254809 0.46395641348819977 845.3230811548422 0.007299528602098452
0.8968762335878901 0.4213684024337143 845.2807662650689 0.05344482141772063
0.9970564861475388 0.4032573350219593 845.2984931443472 0.03346679678662353
0.9613762719013654 0.4115061748912039 845.2849558986669 0.02757374207397997
0.9465668922761342 0.3987167667468006 845.2786489334969 0.06459255364722562
1.0291202222826665 0.4292447479637017 845.3877292984898 0.09694628454192504
0.9979189807440522 0.41237692733050185 845.331819711372 0.04475276138978229
1.0123038210338604 0.40613196648418654 845.3127089340998 0.03346939809856519
0.9480092631935996 0.40780037475892916 845.2978288244942 0.05191398200053565
0.9844700335166651 0.42550243934120857 845.3471528922489 0.05828965523267652
0.9872962519403289 0.415789023220343 845.3110584467146 0.017236517979613678
0.9535636101515798 0.40112658520372746 845.2760515411628 0.03872388217199967
0.9309314056057627 0.4243623551174113 845.326121037514 0.02621609612970815
0.9336393197980909 0.4373014549276319 845.3065572549921 0.037355334160065104
0.9371365907739883 0.4244180577308983 845.2936755159368 0.08085307474325212
0.9166600602732605 0.4497944889409824 845.3287943444203 0.07373715296433986
0.8761246469218676 0.4848088726316886 845.3530603687019 8.136806759041302e-07
0.9480027503229217 0.41812602045113734 845.3137989059932 0.04862402855064542
0.928613878137894 0.4158428787676471 845.2792912741103 0.08119938888449346
0.849086267880362 0.47134486770013345 845.3271128015156 0.009296968764016278
0.8678145787772275 0.435041660609321 845.2960359112304 0.0204118163677704
1.0204721094682538 0.448800269421998 845.4043831120154 0.021299562580555303
1.016363644490973 0.4104958513129449 845.3424928280028 0.11254792587153993
1.014194221813346 0.43336006785261055 845.363810194498 0.047589221516094724
1.002279759282677 0.4114338165849889 845.3403823976751 0.054782982435346114
0.9995900297708514 0.4098817926468591 845.3203521873829 0.036159257068821275
0.9683401779943257 0.4138325211610763 845.3213538620907 0.029378039510369245
0.9610962555455509 0.41355770107626383 845.3115515489405 0.038576607058563056
0.97616508426451 0.4059772028030841 845.3043375034167 0.017715587545040625
0.9787182160187288 0.40439129218460973 845.3025551734347 0.018623712263996783
0.9751258049585838 0.4216855848977898 845.3196771498632 0.02802418748234723
0.9698538232632476 0.4036041170728563 845.2993296991085 0.030194707431584825
0.9879490692678484 0.413758521943681 845.3268313604485 0.041006178664522025
0.9782513127099228 0.4124521398488612 845.3218268824352 0.03786615840549408
0.9733694482830723 0.4380893432655321 845.3496250746746 0.02715267451072901
0.9497681506235436 0.44403051861376136 845.3348835688824 0.05408253912538513
0.906196628534835 0.45809577138681273 845.3319190417092 
0.8557708532326921 0.4777439172443684 845.3316070388948 0.009348214620433812
0.8811062935779973 0.4373122069173699 845.3085031357004 0.025070238793962123
0.8939114557210843 0.43169812028135734 845.3026271310952 0.08935796459165228
0.8809431364341543 0.4308083972422518 845.2893540292779 0.07590348967567069
0.9109152917755138 0.40625192942557864 845.2939243485636 0.04152827982858703
0.9068199732275896 0.4362445435479208 845.2845060679281 0.044904215539805115
0.8536724341961188 0.44631785099742705 845.3114180353824 0.008450288636128312
0.9298298349354566 0.40552039346421553 845.278588409965 0.07910408389181355
0.8746300995470413 0.8985760546345339 845.3110755144546 7.50014072917694e-08
0.8736421123294422 0.8952511092604006 845.3118659573153 -3.8095573602283835e-08
0.8767150617723471 0.9061332831144984 845.3288987263992 0.00823376399046676
0.7575489305575323 0.17702711562797724 845.5195806210603 0.011574128327353628
0.7327854782827368 0.1924527691621564 845.499199132187 0.03556232798491756
0.7523186453685429 0.14228729574428284 845.5644065480836 0.013649631996586604
0.7533358015903838 0.12959841745862968 845.5761421546779 0.010248144084942195
0.7290142064056759 0.11054359136434452 845.593452035537 0.025521543845350738
0.6429188389669056 0.07587952054743813 845.5903064370294 0.020752852633749534
0.6854805546323018 0.08307094453286146 845.6124682882648 0.05031362014062775
0.6228921236668058 0.07171018392909964 845.5747277628928 0.06088468934312849
0.7615848823053899 0.1759715725777366 845.5440026537995 0.025715135619566586
0.7497671622711413 0.14410075915178486 845.5538360622376 0.013220397177126331
0.7447268705421259 0.1653558058318707 845.5386260801394 0.019774306692545245
0.7451114478556551 0.17053794143895984 845.5221936566425 0.02347824508836227
0.7420396716602837 0.18620183147057864 845.5154948363513 0.03341213704142792
0.7313929843707848 0.12856704581086592 845.576321872673 0.014527669006484185
0.7249864556946319 0.1451414360895381 845.546658145935 0.010587148538889125
0.6963661749134417 0.15006017337849148 845.5278919727922 0.017727736630561094
0.7400001594144302 0.16709516673123992 845.5253470141904 0.020545808539541882
0.7087073667221813 0.13211569172135826 845.5501847047587 0.011313802399613413
0.7194259685667511 0.16530757723006237 845.5272245163768 0.015424956232984604
0.7237236171784281 0.13426093744582446 845.564020227784 0.010029631656470885
0.6679364818403837 0.12991157958699928 845.5334262530494 0.006979474578638317
0.6904600727966486 0.1359087525996531 845.5424641131906 0.009258432253831637
0.6196149944956515 0.09821828267291899 845.5504376460689 0.012931862938435033
0.6889066608711293 0.1048669796106889 845.5800944732321 0.014741259663204746
0.6302689040231679 0.10753605942108495 845.5345076661579 0.007127150065255577
0.6514553758161509 0.10487487884810465 845.5500860054914 0.015433971716975583
0.6747596917158805 0.10081878221399973 845.5745218713869 0.017766271865197414
0.6842767185093568 0.11980252402455192 845.5566849951817 0.008264773004071704
0.6477300962875351 0.11848505181920785 845.5311891065222 0.008939435765712943
0.6226964415304514 0.10819860305689165 845.5316872934586 0.006570650018621508
0.6961200248696928 0.08676866368493127 845.602017201423 0.022752228154241126
0.7545230924642574 0.12666960025061222 845.5965379909244 0.022640203515396747
0.6661491864245035 0.08320113628659377 845.5935905659834 0.032518914621746255
0.7192263161170955 0.11315424608146976 845.6081546757422 0.011218335623130784
0.7660228524748723 0.15446538079774735 845.5632312407012 0.011851243777393904
0.7285601457174143 0.17770438724431756 845.5086009659314 0.02193181665406815
0.7435427089253325 0.16583867721118226 845.5337839709571 0.020416259636742845
0.7061763264182277 0.14688562307793768 845.5439923345872 0.014130503648887119
0.7321698561364518 0.1465119722890882 845.5441171635048 0.010643342524073687
0.7380462846188743 0.13451285389050252 845.5684252869013 0.011132114163781855
0.7156179429195295 0.14754409353510406 845.5444498493102 0.011445416865384361
0.6999822195414942 0.1513817607301601 845.5207475146786 0.013909623040262322
0.7355842493298758 0.12484150476529482 845.5830806943022 0.020908746528416816
0.7326924266308269 0.14544700691977533 845.5460043881609 0.011615840801988155
0.6524460383568533 0.11094312288919031 845.5405735680404 0.015464495964450372
0.6571477713625521 0.09021477620179563 845.5613919191784 0.034802581318480345
0.647851971049833 0.07604133876740228 845.5758129949124 0.03897645461502769
0.6412703546329369 0.07802107124216698 845.5598721237602 0.04194166151389211
0.6094951986660821 0.1046818821947854 845.5273431733699 0.010914870779940269
0.6158825232571825 0.10038234112200083 845.5327818943276 0.005055643691502757
0.7014820125671274 0.12346996295628533 845.5618204217731 0.008457933491831309
0.6310135227694627 0.07241145343781381 845.5616839944072 0.06479738321977914
0.6904334398106586 0.10676541130862371 845.5691572918702 0.01135849521756143
0.6796909658415377 0.11977073990094579 845.5422284504758 0.00453254037601061
0.6117674847675064 0.10990201388819394 845.5155669453274 0.018287233837252944
0.7189483639369052 0.11381313526567464 845.5762458820134 0.019269497628834488
0.7012866721251866 0.10398809573320175 845.5821149107446 0.021487725640696825
0.6674601196484614 0.10875556814894394 845.5566013399158 0.009040827591099624
0.7111297455966596 0.11673110422287282 845.5728432554695 0.01686340900753566
0.6787256136648739 0.08476916084269011 845.5902158424054 0.024095019088356217
0.7099046759465951 0.107056578466248 845.5977694145009 0.018412850112974517
0.6881588479767731 0.08548040758735304 845.5927739306195 0.026608094159166325
0.6560228971556753 0.08572005436052013 845.5979865033684 0.02500919245137528
0.6323745636806098 0.07783076258772115 845.5859442617594 0.015677057194310225
0.6690602271521675 0.08738348630532827 845.5867705904402 0.02872761843930201
0.20566279078969643 0.45126380846528535 845.4150395254677 0.012673701184561214
0.18420389534899362 0.4465144419436991 845.4078629441423 0.00805612642703893
0.2469105821479011 0.4909685387587504 845.4151778659826 0.00047210014704217123
0.1705011549583169 0.613496822833754 845.4182440444263 0.00042394381543886886
0.08843816856403255 0.5869928259233443 845.4190445982226 
0.1327857690778603 0.6105186034460047 845.415174082992 3.1310116826067833e-07
0.06978204278238201 0.5139812100000363 845.4123922172754 0.0039938036159014945
0.08250031154178529 0.5640279578690085 845.4183291850035 0.008285391547883894
0.10596561635150425 0.4591659378732651 845.40843756501 0.004943714072916837
0.1533703405033716 0.4443577387772782 845.4169431348656 0.00213296200599559
0.2160376707057021 0.6017205095829374 845.4145824100013 
0.2133414618719494 0.46267351668833934 845.4111127665485 0.0011984648249134576
0.09342206046291598 0.4774735818648122 845.4224595030406 0.007004241728144479
0.07870244161706147 0.4973329960244994 845.4129294520327 0.07495587047250524
0.0828041246649386 0.49214032147972514 845.4055445948104 0.06601210679547515
0.11068958797594175 0.4452740384057857 845.4120901394858 0.03435977023293435
0.10117832336815927 0.5192567652183402 845.4087223898732 0.010839928496282058
0.16843551227025672 0.4484001408164512 845.4062412630742 0.017678909422470017
0.1450075289406422 0.4484607960288943 845.4035223571943 0.013069464109960164
0.1899400850438417 0.46051336944352966 845.4066041269191 0.01773195983206084
0.17151807519189427 0.5840787186988706 845.4088862032029 
0.09764109348648031 0.5664457980606359 845.4051067382649 0.002946136686518836
0.1889945030630102 0.5983519394875217 845.4137043290003 0.0017760597919709872
0.11785241619420725 0.5315223216140925 845.3979470974006 0.00785723436237757
0.21127766557795058 0.588300867920951 845.4070239332741 
0.2297158983115436 0.47715651732711856 845.4136626205283 8.64879672131131e-05
0.22518121233318264 0.4716897661743857 845.4124990178245 0.0013091399493649484
0.13303659266274423 0.6188237725974826 845.4156934902393 -1.5359286266618643e-07
0.12595293014876863 0.6030130074123722 845.416564835334 
0.07619245817738528 0.5348126586103955 845.4210445845418 0.012557530815748416
0.07483821836447425 0.5369075926057171 845.4231154046578 0.014899015228756588
0.17041375107148127 0.44335765233698526 845.4185480300957 0.015595959346552168
0.09323672895887074 0.5471629134352313 845.4104060927258 0.002339592099630473
0.12386631357919817 0.4523878793125797 845.4059168064953 0.018677834173029206
0.0977055593428821 0.5326941012108034 845.4107489060402 0.018904720020051956
0.10556545016320722 0.5425043005655997 845.4057414481383 0.002165497496493401
0.4948538466909565 0.6483049226635887 845.2505498269946 
0.4744114520477436 0.7292387357354756 845.2333328324 5.632750909328309e-09
0.48329368999998085 0.6959666590848531 845.231424966645 1.784155945258591e-08
0.48483275452010743 0.6840749996868898 845.2393378267469 1.2015745137089887e-08
0.477949733365101 0.7453855316460251 845.2555519693097 
0.49594697571757224 0.7168176380824558 845.2257508262268 -5.71276988046977e-09
0.998977094593253 0.8428456791221446 845.4093036866544 0.007780471507523009
0.12294311176645771 0.41082784814633844 845.8853380506214 
0.9675207653552442 0.9634968425450813 845.6190987253497 0.023048192661794815
0.9654412843204881 0.9521236067071394 845.6007936302217 0.013369931329421552
0.9567501435794096 1.0436747899845935 845.6035549167311 0.007469914655263872
0.9769030391928266 0.995992837872877 845.6090921658816 0.011747515847521421
0.9681566889647656 1.0082277034456555 845.6131356596053 0.0274348276396529
0.9325884296524647 1.0789301211501046 845.5461804158508 0.018539202755320994
0.9554909571930861 1.0570766008201729 845.5770613586715 0.03614620026046105
0.9274972501993993 1.074038572827759 845.5327665153343 0.020325211045101852
0.9010793274784937 1.0254241034366653 845.4738254248946 0.0275489238245299
0.9738056549703851 1.0038258050880688 845.6023766304749 0.016612912125323696
0.9685175735836439 0.9695896184336483 845.602165044346 0.025118589281295317
0.9666234173543654 0.9700284523727777 845.5937238157726 0.022516397327325077
0.9684214696381344 0.9734660689752763 845.5965694184282 0.022132808547738702
0.9683452897149022 0.9886876806677987 845.5830409059256 0.011460643649168264
0.929817840635811 1.0685145561650446 845.5416780190603 0.01609249709402978
0.9265500104879029 1.0521235073772832 845.522424361036 0.017511364600475643
0.9484327683608688 1.0352897261652698 845.5672907680719 0.014312244042374458
0.9513549227488544 1.0520016751550745 845.5647474381858 0.014780265887694745
0.8969770903579323 1.0487541974210037 845.4774697679798 0.012529201010100478
0.9285049624888554 1.0476744534289526 845.5169960806996 0.017092935502047876
0.9128254492062312 1.0116448649157241 845.4896913954323 0.019735682886739034
0.9116000210372106 1.0116456281992812 845.4673675884078 0.006390084967029444
0.9660022402139896 0.9686518888832666 845.5836224200261 0.018752223672929204
0.941788895732782 0.9918475169046218 845.5447650569546 0.012712725019899864
0.9262097595935347 0.9960695189746697 845.4903277779351 0.011074526932382027
0.9630204851561371 1.0221127284399392 845.5925009143667 0.0190089918235259
0.9554200429553038 1.0349884581596533 845.5748175548232 0.014327974839856575
0.9665713599281447 1.0476575302086775 845.5884593783453 0.01466913503761196
0.9345122701698997 0.9990144665935222 845.5178091061679 0.02352960035146567
0.9601888896928658 1.0330610666270927 845.5889968450546 0.020678160071082696
0.9432588491743085 1.0233399032277413 845.5427989499311 0.013826927829338816
0.956890326020986 0.9995779296724536 845.565912638518 0.0065354883926785675
0.9210568919647306 1.0210529536400088 845.5134358171331 0.013602001578618234
0.943008927345882 1.019197712331581 845.5564604829846 0.007644770868534232
0.966928827136156 0.9521777780765045 845.593136279275 0.01486972307306126
0.9661656746821787 0.9799760516131063 845.6122458478484 0.016829943143029772
0.9642693731259968 1.0239733024743938 845.5997576396753 0.025233980306316347
0.9105471824256456 1.0723969935000202 845.5172105492619 0.01100965079888491
0.9418633033512784 1.0652180327701142 845.5587950759059 0.013686758830301703
0.9177154931811607 1.0626326786373417 845.5116782174886 0.023436191957395283
0.9154570315169734 1.0619193706897716 845.4977414402438 0.01515006444093969
0.9254262617268165 1.0567865061619506 845.5360982956655 0.010305654316849601
0.9182269942614866 1.0455360546544994 845.4945983559063 0.012292099663365174
0.9254987580555367 1.06829405163745 845.5265399877546 0.017778652823073192
0.9405528620617291 1.035359169788788 845.5426922024735 0.0158329500728191
0.9496696344800172 1.0563483546956272 845.5548628081837 0.012453743745744416
0.9411852243305161 1.0294460421213407 845.5310445498677 0.013554674878311598
0.8988343719543468 1.0150894194304863 845.4605208896303 0.015058541526772103
0.9056694718550362 1.0368342418079826 845.4869967312378 0.01881239508492598
0.9206343888352118 1.0329034933793628 845.5059558458752 0.01544024953468002
0.9043401181051468 1.0292228233225271 845.4782957366544 0.02629394845521534
0.9171123044058963 1.0271439564083111 845.500238714823 0.01575577245021833
0.9567384187514799 0.9912471444803449 845.571851929465 0.009689613529442465
0.9503207283870558 1.0044421439538647 845.5577735180848 0.011719834419981468
0.9332156249964093 0.9966849690793851 845.5312634105491 0.0237140472534972
0.9552762245976666 0.980539281890817 845.5652917602667 0.03334524648821208
0.9502375943116272 1.0077461706049047 845.565665186504 0.006870872954006275
0.9639905239920666 1.0003884592678722 845.591799257783 0.012784351103808869
0.4324979460964748 0.15567993050386641 845.8173090912821 0.07479134354981032
0.4384448736709322 0.15800173949880128 845.8651057380141 0.012631332326704776
0.43946330367482245 0.1729831655045659 845.9139370900832 0.0014488640070958521
0.5232196982710807 0.21931550688162388 845.9345394146342 
0.4280096686618331 0.1642052596709035 845.8729130780723 0.015699939608097756
0.443138904478047 0.16737571094927334 845.7988339129206 0.038210820731575536
0.4446610770455835 0.159209816222696 845.807697379627 0.0170274408247708
0.43690971626060715 0.1496798050473425 845.8226538879228 0.036113080775457884
0.44379607666985055 0.1629844013372589 845.848063522748 0.0029261249718092637
0.4759871063876245 0.17432084871015327 845.9320909909823 
0.4481901040225613 0.16967346831098504 845.9061222123094 0.017937807163125995
0.444075819022958 0.15816082484363578 845.8811574343252 0.011685089506194872
0.42606341985288637 0.1623576576377695 845.8341452349206 0.025896959903024003
0.43107249843954915 0.15582787857260338 845.8346455516929 0.037224552144781
0.4328091992975752 0.16333568267302584 845.8934186833426 0.003944075492255557
0.4641341954974766 0.18033985384156556 845.9190072339338 -2.2155377252255564e-08
0.5356063881878628 0.1273604135895462 845.4795300953774 -7.781963897573904e-08
0.5146447651828263 0.25400801295395664 845.426217860597 
0.5230329261250013 0.15033104533953043 845.4352246570809 -1.0207353735286541e-08
0.5292648706506948 0.1254809377313446 845.4588121785315 2.258678994234248e-08
0.5196623118943225 0.1328607364808811 845.4578781324624 6.017257001722145e-09
0.3716034040856658 0.8284337908280575 845.3833399367903 0.0011384890082106775
0.3426626917268275 0.7731264428314202 845.3586349520035 2.293468941361673e-07
0.36194770046802516 0.8038969201677914 845.3702191784579 0.00832295033625945
0.326570624104949 0.7362637961310392 845.3453573711118 
0.3521474349560973 0.7790299372255948 845.3590496109416 1.5314704253532827e-08
0.3490022358888938 0.8160232569873074 845.4024995624683 
0.3417490894608718 0.7903882439952633 845.3696900486038 -9.106578234162089e-07
0.04078622854648403 0.4044979263236321 845.8990013306986 0.023039208962390215
0.03813507321405014 0.4193095589308683 845.914711802164 0.02770722711494142
0.052879821238384715 0.46824059992097794 845.9024135585192 0.0016643584139054847
0.14876863927918196 0.3177057490723355 845.9128440033792 0.0012025558905120856
0.17307233584917742 0.3376790700840138 845.9209217774655 -3.3246251052474336e-08
0.08117668230789779 0.33445038536765614 845.9038167987468 0.09591551050858253
0.05452052191252431 0.3648728642828597 845.9073310608635 0.0007248416331218046
0.05178504821973918 0.39314975294715554 845.9043630153288 0.02667343247057962
0.03098233626306095 0.4215312705520867 845.9060330558095 0.03027011182839598
0.04375911955222391 0.43981283119353864 845.9063411862383 0.0243535617018913
0.09643910810254676 0.5076592053116802 845.9273036973103 
0.0526201051813408 0.4637172133039498 845.9195722797109 0.010082292668598206
0.04506028002331932 0.39692131647939155 845.9117431768324 0.024696025525671
0.08427582053205183 0.33479580581463664 845.9005168063463 0.09801671983015424
0.16678670911098809 0.3727678644795957 845.9117890233147 -3.3700418649969476e-07
0.16223516458385856 0.34929606465682556 845.9154900531247 0.009851378663646902
0.07909418418194485 0.4894631695528222 845.9082612905028 2.485349520149768e-09
0.04497777355281521 0.4501242262619711 845.9108189944508 0.008064449842551506
0.06706763902996497 0.3829358754232044 845.8953705474661 0.017115411551280928
0.07077172907117768 0.3736007963307026 845.8944159055496 0.02614670750009018
0.07995820380951925 0.34960707260522345 845.8998943215237 0.05689550895931481
0.10228335317347224 0.351541949146467 845.9036394458925 0.029082219068889335
0.1259557553131725 0.3562297682516178 845.9123635250662 0.027433396314744694
0.14935120578186198 0.3872349219649036 845.9139378708045 
0.1277403056424289 0.3250452584002267 845.9153991478861 0.06049574362811561
0.105934463670468 0.33974199191643534 845.9218174464464 0.005666434459864514
0.11544119409473594 0.3280201439124504 845.9087665286362 0.04198470611768573
0.09850235105242881 0.33639983582173133 845.907904487737 0.04646529402351791
0.7077380306298434 0.5761022074679377 845.2746165777046 0.003889783102651204
0.6847846727527758 0.5979682951695094 845.2918200359961 0.0028817746721832237
0.7182021113475514 0.5488868933533477 845.272905649177 0.009577318267623654
0.6912258831610556 0.5869197267954661 845.3051904283114 0.005610094808533401
0.7062413679608451 0.5607639313003612 845.3136707580337 0.011629634987545281
0.7195969093446857 0.5536819226126513 845.2772582925319 0.017639670822396036
0.7285909736945458 0.5408211237182105 845.295641729806 0.01781991869481272
0.7411628410676464 0.5324003445612011 845.2869216621217 0.00459092453499215
0.7081928581597682 0.5698086363646525 845.2993355046095 0.007733958235471082
0.7084192785017145 0.5646571606612212 845.2920968915487 0.012725137052474593
0.7083064240118954 0.5489342503747061 845.3171366610637 0.0037298422810665526
0.7427059196013232 0.5225215719166547 845.3039226559192 0.004914354605924263
0.7280201103364249 0.5416828799375952 845.2815238141629 0.008738325844823496
0.7279275538048547 0.5197952825593489 845.3331071087371 
0.7578084650328006 0.513354028580579 845.2778659143003 0.022332212564449092
0.7130644076483413 0.4151477032774634 845.2018314722326 0.07745261413231094
0.731337563018334 0.41794205367922016 845.2093191687638 0.018034717656029528
0.7264740201977301 0.37063990227777 845.2135385308543 0.015322953744343247
0.7277847105664867 0.36506882398754187 845.2183521362352 0.01356053293992874
0.713199897921528 0.397656487283462 845.2123319742077 0.023368333966980685
0.747240948268998 0.3210416300103671 845.2629141208798 0.009873194899893228
0.7717864338416046 0.32977148129113876 845.2969902708624 0.006277361594730188
0.7796720839424647 0.47548713030116796 845.2952127315123 0.030647476231328952
0.7626446868085814 0.4898384246490339 845.291890986328 0.025062879384233863
0.7817315261261959 0.4917480451258433 845.3083821342818 -1.1544308133484162e-06
0.735069571956807 0.477916736261731 845.2177681981568 0.004438243271972298
0.7397354582960531 0.4881703091604322 845.2478850490669 0.02892520646441983
0.7351818899481095 0.4705293533258914 845.2305602159686 0.009746737662828225
0.7634248136937223 0.4858388117352494 845.26402970111 0.010399220427026063
0.7374214316709812 0.347021963230765 845.2366770605931 0.010130002969836424
0.7303871672350531 0.35031485220008524 845.2242215953825 0.012900013514282044
0.7331005859715579 0.375508668178801 845.2272832282343 0.013725122956941945
0.7248783095764849 0.394063898677161 845.2158152422855 0.023038246249835036
0.7607205165354222 0.32779989097187084 845.2755656476181 0.005022437097786298
0.7931389042554056 0.342454968389883 845.3243100423141 
0.7555123210720189 0.34734440906733294 845.2682942801084 0.0054580396463533324
0.778308997545393 0.35068090837542565 845.297873395998 0.007110699798965742
0.7462051981922724 0.3606209020203898 845.2389389958291 0.007079121747876874
0.7577986370454235 0.32943111148847665 845.2817993624221 0.0037215162554500294
0.7526731485512042 0.364277060471747 845.2513337868598 0.008721355003661571
0.7673193929502128 0.3514036967471438 845.2774235381376 0.004525631284175002
0.7415687235408505 0.3681780127637503 845.2361884183495 0.006104334738072489
0.7591454966755886 0.4375189856802035 845.2637730722895 0.011866983349610446
0.7469216953757507 0.4563610414731384 845.256904302862 0.011902757357875007
0.7498822309277526 0.4186077930764127 845.2411210052096 0.01217906137948798
0.7566273561057026 0.4672712247689347 845.2683289663266 0.019416096015282568
0.7297042062721336 0.4216267741476514 845.2246124222122 0.024061414838739442
0.7405876171696302 0.4500407562649035 845.2450793913654 0.013689452753152148
0.7393068914460403 0.4610060078112544 845.244537767749 0.014291592324646418
0.74749009631347 0.4040157550502875 845.2411895939359 0.01343627329866651
0.7441646692038683 0.46909626842637797 845.2495604603114 0.018436764224426132
0.7309497447601889 0.44353522137746954 845.22590302632 0.018636478624490957
0.7459883239325271 0.4370419338413094 845.255518036144 0.008458576936323615
0.7358366076702564 0.4074930130143537 845.2178688042613 0.02057147784977157
0.7577562477102988 0.4547662955558726 845.2778442556986 0.018981621831019407
0.7200796891627311 0.456196167654903 845.2121508689314 0.01357982315030596
0.7256937529432428 0.4612582247049045 845.2186164800341 0.0108496516297212
0.7452003265807504 0.49228137927377735 845.2578509824707 0.021849877274894104
0.7541390475361189 0.32638205717737007 845.2689507839765 0.009832742469307494
0.7449484203791255 0.3415975221608586 845.2478728936122 0.006613704166316448
0.7444497120268486 0.3511541218894419 845.2359206545245 0.006615495227724353
0.7598017935056427 0.37092648515464477 845.2634046033913 0.008044732049195055
0.7536676958062689 0.3727710283356807 845.2571703228618 0.008615939799965819
0.7413290342102574 0.36693287303145933 845.2322778785176 0.005406978644920027
0.7384450759309944 0.4014497649946506 845.2352456806218 0.018830807325594914
0.7534041458252503 0.390145885712943 845.2512435206809 0.0070521925735473594
0.7362215616140821 0.43359637259876777 845.2373461565957 0.010570534005178149
0.7654561269574149 0.4670184330271125 845.2852484842585 0.031306610105005316
0.7514412565164275 0.42808648939826793 845.2574240101698 0.00817130882779549
0.7408166235294552 0.44603720106628253 845.2480557721935 0.010414615669872321
0.7318007279177449 0.43419615665375794 845.2299568883423 0.012756719320625666
0.9538192862045328 0.8745471855638058 845.769987654421 0.010497796213698212
0.9569047354377457 0.8601158888942434 845.7982628911828 0.0007747342569013562
0.9416715181175981 0.8619506746129584 845.8689947197325 
0.9525557944545441 0.8662998546898628 845.7939023929733 0.012334657796741654
0.9491958932549251 0.8725214882620664 845.7586209641017 3.404205837221485e-09
0.9408808944484106 0.8684972880432333 845.7595447422617 0.0014996601946302656
0.9625499410002133 0.8697234517663475 845.8086845222405 4.990520771540832e-05
0.947982469557425 0.8548874216453085 845.8405286065818 2.427598899713092e-08
0.946217892082497 0.8713908280262636 845.8516272893416 
0.9239194248773168 0.8540571021210583 845.78708134952 -6.463979856371587e-09
0.3545341284985945 1.073900705661244 845.4056250298997 -7.259505221400849e-09
0.39354025518481306 1.1174164624025018 845.3532178137592 
0.3730120276255349 1.1061696622602266 845.3717688984593 -3.4482320690563004e-09
0.362024672446563 1.0779051584618595 845.423925092629 -1.2183517300376622e-08
0.3670019911191839 1.0866913169023 845.3878443808294 0.008678409124769876
0.36962222159947083 1.08366307063848 845.4053127739888 -2.5943069886489956e-09
0.4914955827534249 1.1408346815951278 845.3616942544544 -1.5493294433515475e-08
0.4471368411680694 1.1397330609161038 845.3526726720529 
0.4733189325854455 1.1381618083058174 845.3514285388493 9.509113662715669e-09
0.5012152048971745 1.1522251973906212 845.381443020223 
0.4592282208842271 1.1375670545636458 845.3431717589517 -9.13150695217683e-09
0.5200490673630179 1.145056822143302 845.3979120131785 
0.38326920650429813 1.107297466653892 845.3574415028718 
1.0395400426089203 0.6356115297230039 845.6231732599861 0.022964093197703622
1.0120063458638742 0.6125026295016729 845.5804868196747 0.042973703957601
1.005202504730531 0.6264181178665458 845.5916356312944 0.05963858407356794
1.0616192943423937 0.6320606139123394 845.6757662500621 0.005441992389417102
1.0566060911925617 0.6287031869647492 845.6594924864349 0.010092441147751907
1.0926048511572397 0.49083113371668396 845.6834928010784 0.02825870669013893
1.0663199267043433 0.4641044012896822 845.6349200670869 0.018208238276615073
1.0597512683585304 0.6202714047684593 845.6573278809724 0.008730845094284078
1.040535954182896 0.6248316712890121 845.6332433241685 0.013896950787263475
1.0508159652526199 0.5867248631902273 845.6317178755139 0.011822212920205891
1.0539252135574657 0.5717824917202913 845.6443078291084 0.019031540576014836
1.0540642655520809 0.5912244813044745 845.6485259404311 0.011152340976601406
1.0700722645625582 0.6093432497214313 845.6749214434226 0.014528235022137712
1.0417896593526264 0.5644412628099909 845.6105349173366 0.011172100026295722
1.0427036831444405 0.598940412920556 845.6278783597611 0.0074752380772932815
1.0482347084695018 0.5600703628416087 845.6330307001429 0.02679424912381484
1.0734484292567636 0.5904030377299218 845.6767451220762 0.018007184015409544
1.049854982328296 0.48849998614677975 845.6170061783472 0.01481716940124007
1.082022877230593 0.5018816315161949 845.6654798849808 0.020899098131717486
1.0788951322634002 0.5219305315443488 845.6656766502114 0.011513037885757468
1.0605692538995823 0.5193921207585733 845.6346993916951 0.008987337563596992
1.04931580241386 0.49580079000787103 845.6264506690411 0.010558684701104059
1.080810365826072 0.4959349679036968 845.6555465184962 0.016826335979378867
1.0695321285246246 0.5840415948488602 845.6589648150838 0.017149160985910687
1.0531627785313191 0.4522049533105956 845.6251431438943 0.01471057695499937
1.0526279575152566 0.4707678361440044 845.6150311594839 0.0200721464355122
1.0906133590666862 0.4778848571403928 845.6632820564168 0.014099892170109799
1.0780659714150593 0.6081399865303803 845.6899733761903 0.011509254577047882
1.0795291609570128 0.5867967228250203 845.6900490180901 0.016714946234007995
1.1081777550060001 0.5477686233376045 845.7036996128239 0.042398886663029836
1.1000429433123506 0.525456125860167 845.6886299153815 0.017563974928052076
1.0914646746807772 0.5592849035273163 845.6846883916164 0.023918128704433883
1.0910636139309753 0.49676741811016356 845.6814530546607 0.025823992657416014
1.1018792866267568 0.5203159964909746 845.6888509250431 0.018055310867515002
1.1055529406635691 0.5484627346734301 845.6951584080192 0.04130565878237591
1.0985111696201293 0.5345095392009567 845.6824063309399 0.02859513722952333
1.0954626049687362 0.5138744363581604 845.6751477951191 0.017754774834697812
1.0317432003622415 0.6229250506809818 845.6148411044288 0.016762913163520056
1.0612923460160517 0.6144637078044578 845.65837435856 0.007079835471002745
1.052508067446297 0.6185287114777788 845.6478918306929 0.007277033396379995
1.037948251502775 0.6376294538369216 845.6283088349759 0.02590719714838104
1.0375195647200957 0.6207825664775778 845.6231713660243 0.017449351620858772
1.0141944010281436 0.6140122868104594 845.592314067901 0.0338931867047684
1.0122369752670624 0.6219448008872515 845.6056143239368 0.013494179867359127
1.0431038176436298 0.572492675885862 845.6295616678302 0.01820363737632925
1.0278238419884735 0.6068661705799564 845.6075003494075 0.017353948099844828
1.0528755402684002 0.5649737442706961 845.6426498568284 0.01826842805879429
1.042209933763563 0.6101126553076363 845.638804280277 0.004587114392703815
1.0601345370884079 0.5989197906627881 845.6542685111252 0.012944639359286993
1.0735750265269992 0.5765226337517702 845.6529132311703 0.011820631583849705
1.0175611298719174 0.6027501727261645 845.5920780572154 0.025249042697244803
1.0401585013129846 0.5825146232826764 845.6179691371506 0.00857324298288365
1.0685157229273627 0.6084487233977187 845.6672307319136 0.015225898365117882
1.0313499342627186 0.5989419264326251 845.6153712388469 0.017116229932849024
1.0848204522657212 0.5274319375445458 845.6756091561072 0.013652428401273842
1.055131389511436 0.5120607923331757 845.6261432260951 0.010312676068630724
1.084635306601574 0.4915745303745851 845.6640646628666 0.02080435434466115
1.088946293727582 0.5671259095196205 845.6785825482115 0.01728430802742653
1.0748528958882309 0.530445478235011 845.6569760300874 0.009417379273762438
1.0744452698087161 0.4921261315827119 845.6509686390284 0.011898328896120282
1.0731565936564271 0.5195927040180214 845.6487938922116 0.009324993953919497
1.0682294370767789 0.5988579093383057 845.6724674299883 0.01192104195537135
1.0680018854378934 0.5601990440821297 845.6577006395808 0.010349545496002099
1.0665824061787772 0.49983341593195013 845.6465586333256 0.010205823973945689
1.0784786415114787 0.5103801781606091 845.6542153700003 0.01253774221025482
1.0625735127752 0.5423209856366146 845.6369613887393 0.008849040014632945
1.0789900829348813 0.5502092340555992 845.6606543615937 0.010387224573358507
1.0565533337168937 0.5029347240429478 845.6352309951544 0.008446696000838489
1.056947982157787 0.5515645782321925 845.6409467089361 0.015869344466131204
1.0637350219014585 0.5725579673118789 845.6492848071175 0.015489097717298415
1.0738379061802827 0.47601825238354056 845.6566762108698 0.017168596913420615
1.050972645863318 0.48380371591660554 845.6229608220872 0.013408518979728093
1.0668610388097042 0.4759199866056128 845.6343336883021 0.012587327963869839
1.0661861283312382 0.46603510471566995 845.6438898416031 0.013164813058666658
1.0907355035873274 0.546354430690126 845.6815388309835 0.020077251487430274
1.0852446003037157 0.580912813015923 845.6799136164811 0.015533748612788728
1.087098388601418 0.563032215933736 845.6988931620823 0.012372618025401358
1.0918461321748782 0.5047366992484211 845.6924620808389 0.02351514308910781
1.0487262036806124 0.7802355924638286 845.8005175968295 0.014003396489792916
1.0485577532685757 0.7628176113187908 845.8553982530381 0.031219493953198577
1.0303882503517552 0.7598429610715837 845.7406494207981 0.017532736862221263
1.0398631201543873 0.7829920755077058 845.7829110957944 0.004755248467666355
0.9951511085262885 0.6795324719102899 845.7138201585334 3.732727562009749e-05
1.0075874890259806 0.6264353467653306 845.8768756424608 0.0034643705299409622
1.0188432838819312 0.6773597945809272 845.902707032408 0.008389279471112
1.0086397127689666 0.6456922172262756 845.8743686435976 0.005050279303048784
1.0289227880644412 0.7296796002001201 845.8898017997717 0.024474117929210178
1.0392295738449866 0.7515471163047591 845.7811699058261 0.00927794473874321
1.037121545801889 0.7662718619859588 845.777291288995 0.010640829687477468
1.0367187691264281 0.7582346838003831 845.8163791621947 0.013525539677434696
1.031773523396724 0.7436547040535042 845.7769874008217 0.011108952703160495
1.0246201717528247 0.7072468596507787 845.8990997519459 0.008204078225513285
1.0378565813200114 0.7510504945209191 845.827785211198 0.010737359884336852
1.0389041337293374 0.739175607054163 845.8756571006916 0.02541022788395521
1.032689638274309 0.7025444524363946 845.8731937466132 0.007569810594060546
1.0486946316606531 0.746652437158102 845.8658344489648 0.012354358422346409
1.0321196935769459 0.7076624526239649 845.8588147635666 0.0150394548086484
1.029784347512398 0.7179196812806724 845.8482846345953 0.012793444178337382
1.0285040585901948 0.7400793745591244 845.779534830093 0.01204776779739968
1.0325350905767683 0.7267232014860755 845.8665162416412 0.023970069463149803
1.0438834598697955 0.738193936097482 845.8393535134305 0.010169901532690505
1.0270792248234015 0.7178261310774746 845.8172463998816 0.012242013231493746
1.0182937103109928 0.704043781793758 845.7820820711016 0.009452660975821085
0.9968960179946993 0.6105574429285404 845.8145799602095 0.01373789558255128
1.0185253039545015 0.691359888808274 845.8998346724056 0.010138196112598176
1.0167064035858286 0.669234473723789 845.8066767758834 0.01007703037471129
1.0262612612042568 0.7323016407808486 845.7597254063646 0.009052542015531446
1.0096340088286129 0.6628992658603363 845.8185017392392 0.008372206320112041
1.021569903120116 0.6975212698131102 845.8075902347512 0.012370964066857431
1.021501304788982 0.6826717896745296 845.8642454887311 0.009494950094351655
1.0247274652288023 0.7077233760935159 845.8396032867911 0.009949340327986708
1.0298689522909548 0.7168498915463026 845.8326679272692 0.011927765082676381
1.0097360694145392 0.6618686838112368 845.8298578469771 0.0077839599707595405
1.0248205453349915 0.6874657666473555 845.8242351281705 0.00620991296600241
1.0130838706590994 0.6915627210453562 845.7897547983202 0.011648686075292531
1.0161059282696505 0.6735458343136891 845.8560713466654 0.005800204600340586
1.0090369289443704 0.6649381315017717 845.783188201954 0.0051282127079315355
1.0228869057528247 0.710915458513875 845.767599180436 0.007960680100399225
1.0095204349760238 0.6828468333305598 845.7735003371619 0.006604913987589679
1.0249778875245823 0.7401077469708045 845.7613561771415 0.013402493959509475
1.0095626568230407 0.6645141972901352 845.8451985104881 0.00675666010789971
1.0228905803039505 0.6984873284126113 845.8294151700594 0.008864599500006641
1.0123738617527223 0.6974607975695467 845.7698911713264 0.009483858342736103
0.9869268148916945 0.6005328204618806 845.8217360866792 0.02364298288189592
1.0076480195283872 0.6439690025576745 845.8561592600668 0.006378155581329816
1.0001661116466487 0.62180475292671 845.8585803278282 0.006521440134547829
1.0022534804705063 0.6380977396258717 845.8514283975043 0.00702574602658661
1.009702306488136 0.6539933158227031 845.8560606590544 0.00810075366577762
1.0144921301840033 0.6978194321972504 845.7199036343683 0.03089490144224212
1.011314233731397 0.7016555172568495 845.7389614533383 0.023197457148680087
1.01515158567859 0.7160893212159265 845.7515267515419 0.020336402491618732
1.0031203261389967 0.647013941817846 845.7679204964205 0.002370985564731245
1.0072316619511128 0.6704405768845966 845.759543243215 0.003864341760889634
0.9986457434646804 0.6238747720464772 845.7891626995648 0.018983263307166126
1.001884731623125 0.7193302516636856 845.7184488446383 0.02123893329977096
1.0290366637147925 0.7587680077897337 845.7527647272292 0.020079188966728993
1.0302283193805917 0.7476983094512882 845.7716644878701 0.008742077867363151
