x y z curv
-0.007836584028546976 -0.04427232994293975 0.12026647161933297 0.013027088183593194
-0.007213800549037771 -0.011463070332057882 0.1290632983687985 0.044036370325682396
-0.005974210301980193 -0.023179952943578663 0.09969702981625962 0.04412490379343608
0.002560639092298194 -0.056834530547020985 0.09922461997945292 0.0009529919210152244
-0.00021966516848640312 -0.09210989203785379 0.10767670853677348 0.04177278894223214
-0.000652858442894372 -0.024471783538789753 0.1385753077920859 0.03948022937118066
0.003236475014470075 -0.12370667841653941 0.13470133952595273 0.11267395644279833
0.4613814088517213 -0.12066737500748086 0.10164697559688318 0.03548938471515449
0.21735588819738494 -0.12089034237717132 0.11137235938167751 0.04391804987782417
0.5854753870956452 -0.11866761928916669 0.10360065334838378 0.0687424126767441
-0.004752063350478518 -0.11682290781688387 0.10751402152905072 0.07409810489467276
0.41588589633245127 -0.11361269113242771 0.09826448894881427 0.09179113951033605
0.021429750800424068 -0.12587300626497303 0.1114387771325438 0.04430691234703792
0.39236233256582265 -0.12388079364117907 0.10531327603038615 0.08243857485394565
0.22817669207968802 -0.12921586820252037 0.1255150414384567 0.035277304283637845
0.02293525264762187 -0.12178272124960438 0.10341122357367978 0.06956838071819056
0.11935621301872187 -0.12404773379692205 0.1331024302102349 0.03195828457442385
-0.0020630121394824424 -0.12639106044167292 0.1257418598314644 0.08953252660616663
0.3384454606813024 -0.1314491724325862 0.11534923998430766 0.007447868879038676
0.3122475332487996 -0.1229075033138582 0.10133343711037127 0.020624764933176762
0.2933620035875815 -0.12429116971717531 0.11466584722586547 0.03295903915093194
0.09113909233635227 -0.12063099389128883 0.10398147714454026 0.04125611762315283
0.37722217859579704 -0.12718613611908605 0.10788528054056197 0.07474783151609173
0.4019919632473339 -0.12559509432340774 0.11718105587432727 0.004664247070036484
0.01950246116339634 -0.12402115019264423 0.12445375981646474 0.10167615836759775
0.15469683298580628 -0.1241830840055506 0.10012616800541731 0.017716485194943878
0.2441038915674836 -0.13103194525035383 0.12052841266822314 0.0321965449290701
0.16357059327005652 -0.1291175445866583 0.1267411878210469 0.01955802296606881
0.27627383093600616 -0.12891066480663368 0.11144757233527995 0.03126733144888801
0.23144647620839515 -0.11933081922685537 0.14712398717449565 0.025627888477997008
0.5695651136024439 -0.12555906811729578 0.12738739679338498 0.04220873203051219
0.12348122254461279 -0.1254109884069973 0.1397204321344294 0.0418545372960642
0.4466299382852064 -0.12368201716963073 0.13418940309854682 0.006828805420098269
0.06926064992362313 -0.12255842058564914 0.1382165146209378 0.003128626278847772
0.505777399472436 -0.1249355354734613 0.13094162536730886 0.006659093860926479
0.2916807222390357 -0.12321000220830648 0.13943734679456016 0.010005596546069204
0.4785557954591366 -0.12250132039059407 0.11717564969704343 0.01953888975849666
0.2142403082788339 -0.12288591104800689 0.12217346904666863 0.044527251034171836
0.3875099751545067 -0.1213533741815205 0.1390881475033154 0.006499169727577955
0.5961892927247897 -0.12218688337075413 0.11442219004563238 0.07437008135487154
0.6055752230913185 -0.11210265894330174 0.1269835220227405 0.08375421357080251
0.3472631792427894 -0.12718568403425362 0.13591660460160615 -1.3195315872815663e-14
0.4408874459327169 -0.12433434220011105 0.10619947411704055 0.037824921295113285
0.5378761912248746 -0.12601784734143484 0.14340265810125138 0.005641308460287668
0.5300387858818352 -0.12550503370241617 0.11538596442948316 0.014609623534281434
0.5890527280146193 -0.12541519136928297 0.12455625452553605 0.06068174631723687
0.4750021368117494 -0.11869492085420347 0.13976056330988043 0.002221878146667972
0.604891686759836 -0.08220773839595558 0.13252103734627474 0.005129823039628117
0.5960277710996943 -0.04442389739005111 0.09899503822668179 0.0036110507902616783
0.6002258528801474 -0.10652332282862323 0.10585586009141759 0.07830890599206441
0.6020823925970509 -0.030103817932822297 0.10637143860026607 0.023013924761759105
0.609098497768855 -0.005250199954528692 0.15699030983710743 -4.1648883302214554e-14
0.610142565983939 -0.019463523488963207 0.12467549127416519 0.06973111757751951
0.6071897255052482 -0.07540906486929662 0.14291221741462054 0.0006561229524357868
0.6056637931096488 -0.018672801070328735 0.14118508670652716 0.018260858717279758
0.6087944690273609 0.005849302442401134 0.10863641529283 0.0022240370909968493
0.5065580243878884 0.010313091759783033 0.10376679414809839 
0.5764227288031328 0.009648826159913944 0.09578094341509631 
0.027870904112982993 0.001249855084462918 0.10399950237048708 0.040932952903693025
0.22329359520813213 0.009579678384906889 0.11549382104751567 
0.5867739809611457 0.0035292382377520534 0.14369475960629932 7.797920609044452e-14
0.00929926193858251 0.0028757105478048792 0.11156567823829174 0.08923343553213911
0.1541576464403666 0.007232332443884773 0.11551947812588167 
0.0366252962203686 0.005654773724078109 0.1188934076795451 -2.3347617206188217e-15
0.08576868783984608 0.009429959321088383 0.12008650076090147 
0.06481999092658745 -0.12074170108369311 0.10028586892133082 0.0066969363962731425
0.5662855088326394 -0.12731070031916356 0.1119305277134372 0.021601014547415098
0.6044058284375051 -0.08647428814005242 0.10992002571850623 0.028857006401643275
0.2643890141357326 -0.10846105628890802 0.10321259793150493 0.03346116706641232
0.21562107953466716 -0.11603365337351666 0.10195476100591885 0.009153059743724403
0.3900985930175874 -0.09250066603203586 0.09544617936307076 0.0001575631079409018
0.4630688880241884 -0.11048538123403097 0.09960118705311656 0.030362493006144884
0.4833778776141321 -0.12144095979478504 0.10446091253037236 0.021930360323982368
0.5989893477080809 -0.05642296621475662 0.105017248609578 0.005660210272238128
0.540371784430489 -0.1249250351348704 0.10945695187503984 0.02977961385600738
0.21688568314880713 -0.1145807013154406 0.10029819556173811 0.013889785818171223
0.5798264656603223 -0.10697326737049832 0.09548661024541254 0.07580006552457358
0.23222564646531912 -0.11043987708459507 0.10192734097510682 0.016518181237800245
0.5162539678804726 -0.11896159272299076 0.10415572484427014 0.010926995155419053
0.10283860006365453 -0.10379942539594024 0.09776670193215072 0.006141774655991131
0.11838497711006102 -0.11378072204253034 0.10224652378248579 0.04337740056856752
0.5947644681813663 -0.10899193645397155 0.09959741472389506 0.04048181642185549
0.17537636699924686 -0.11548700744905406 0.09247602126687307 0.025918542961335
0.36248626590311667 -0.11555547713310188 0.09284428865659307 0.013018458419625158
0.4875579379849432 -0.12143769809675618 0.10007952862237218 0.020705287753529256
0.15826835069949657 -0.11062236480392998 0.09752449421511464 0.014681699697849234
0.0916085725884493 -0.1266982066878224 0.10952636291959401 0.02730131014913209
0.44469250374889513 0.006621070784437135 0.10399324242071417 
0.01340648496971246 -0.0006200760721739558 0.09969403950918042 0.06178449376451431
-0.0040167460273465355 -0.06605489276654758 0.10114929895969339 0.011795708956842739
-0.002771191343298451 -0.01595052752076167 0.09937110822917486 0.09045979701835144
0.001884706858968883 -0.04742116139089614 0.14507006509942197 0.0017690682208872956
0.019250039258694687 -0.1209173959901245 0.1342521414965023 0.07065768756687499
0.586847902613396 -0.11996364035303067 0.144369823740725 0.021224431010970563
0.27642464734214267 0.01186398974839589 0.10463205323492761 
-0.00018434821767009547 -0.002142876876695785 0.13664115738371915 0.08928430895995744
-0.0027994319508542554 0.0023296704172026256 0.1108624017575398 0.0645611473570113
0.6032714611145363 -0.11790116287021712 0.12309367954711112 0.08835585461699463
0.6021360428211272 -0.10694480221732813 0.13955381692122878 0.07113675837386287
0.6045540905482845 -0.06882321024221766 0.13229238456009987 0.007968091760871713
0.09424473071444492 -0.1258784002950314 0.13461034935369842 0.005928705730310717
0.24099823258234562 -0.11681213290113826 0.11046859650247004 0.04589150029936639
0.04370341173137364 -0.12339472351139502 0.12634476257646915 0.004154398603388159
0.1427343345943122 -0.12327373812395 0.12938206794855422 0.03862331872796811
0.05175004669274692 -0.12255665410938407 0.11651520811365056 0.004510756181206211
0.36499712437727316 -0.12650368197832468 0.11553839024099408 0.021926427143828985
0.1903098196110758 -0.1225652579247267 0.12026332926028165 0.0077190115003586
0.3070787795008572 -0.1291139499578272 0.13444230224258238 0.02423105477392725
0.18456256559576756 -0.12619188148648103 0.1232438495123625 0.01259382818241195
0.3779685404060979 -0.125159933468515 0.13548165981836813 0.0030986886435562773
0.26276147264018995 -0.12785312181252312 0.13403265473257783 0.055883532556091846
0.13466140481172104 -0.11310037035881232 0.1519190152901382 -1.113773792411254e-14
0.4483658011606024 -0.12482491619390326 0.13997980110869065 0.002501257546543149
0.27919676096740004 -0.12566850043033131 0.12909805597892307 0.05157976349928991
0.40716703403342613 -0.11852828902030978 0.13632998104825833 0.014524440567744608
0.04665375848410332 -0.12072879072758969 0.13368961196046272 0.003972456740120032
0.546576070194485 -0.12963046514704932 0.12316858420557356 0.029682213096372898
0.49100098732094527 -0.12294782153625486 0.12894705383339658 0.015187597115835163
0.4970679773499389 -0.1256715198655584 0.11270655320690004 0.01601168342961376
0.1792227180065775 -0.127326841155944 0.14478758400541614 0.00041982499028853895
-0.006313923378659086 -0.06726400680423021 0.1225779383616355 0.019743637552201848
-0.003760707415664498 -0.09953598638736279 0.13403907162588063 0.06635602617692839
-0.00642975791685458 -0.0688066778096395 0.12303165965707769 0.019605623328036646
-0.004015113058403257 -0.07168903734479438 0.14035174247490656 0.016472063690373868
0.2729002868012592 -0.10977847663819641 0.10322086605484265 0.04981694220706062
0.527765210555336 -0.11518791736133271 0.09850546463887254 0.004589212468419146
0.43770926846315267 -0.0961232603583261 0.09278604493452196 0.004277049867420921
0.5953221082014597 -0.011289035872784327 0.10453230814343212 0.07526775355948087
0.6023872460694478 -0.07492932045516988 0.10020067702908451 0.029512258002228602
0.13387777752858832 -0.12320594760640795 0.1010148529433562 0.017160397018160623
0.32496989100545753 -0.11759372227497339 0.10072448741615515 0.011262869289543025
0.42418309200005483 -0.0662259576839228 0.09245158677967308 
0.5669800043865425 -0.11022466409021499 0.10174492282452656 0.01379134869812977
0.008274079440328583 -0.10001144577393643 0.09979546261710857 0.07892410114221224
0.07531604118881449 -0.08093926397794945 -0.003863182957771381 0.05229968244533959
0.03634403588897446 -0.06289430314211102 -0.003617381832959389 0.05206903923293391
0.08656326911541368 -0.0324708359190766 0.000161089631467699 0.012239180521417262
0.05098763829369902 -0.02898395260135904 -0.004632623860416613 0.09661906223567905
0.04567476867147979 -0.032294148845186395 -0.0101741127438299 0.06356214832551159
0.5689062585755698 -0.05367641576294641 -0.0037826688080698743 0.054907554638305545
0.27515941165905594 -0.08335146088434425 0.0007954615566942857 0.0645351421374596
0.2788043814886606 -0.02836099866121517 -0.004131648073335876 1.8135081485066536e-05
0.2935703374705533 -0.08735906109878047 -0.00692458473700444 0.05353744304261797
0.5763442279008169 -0.06519779514310643 0.051595055773185 
0.5740300203360091 -0.04652991625578899 0.04415343462214109 2.1808242739810905e-14
0.5461212001738925 -0.02306017828282492 0.023177452429274083 0.03293084741473981
0.5488806019716598 -0.0844453393275349 0.007955993307183749 0.0562077502139599
0.5557119902611443 -0.07868739815496334 -0.0032062221156822415 0.03475631736691885
0.5757490086838647 -0.06400577293891062 0.0043715844920953146 0.05630233903699064
0.547031837548437 -0.02798846647084079 0.003473439839661728 0.043485092546221515
0.5433191188879807 -0.030844911371568993 -6.7835969062074106e-06 0.046234848443825693
0.5376058690285402 -0.08959801614621857 0.008103063586485111 0.0305226483046286
0.5379081706201357 -0.02501056157101168 0.011949831989776009 0.07112503368246673
0.5150347438628857 -0.04439480592721118 -0.004211794049336501 0.04463298398247011
0.5167437436095209 -0.06058691622702232 -0.004060691405590154 0.060421716986753984
0.5278232111255741 -0.0780899696258573 -0.00245837249815049 0.06464612339890698
0.5292439205590195 -0.08362918250704299 0.01578756803741363 0.03760986753357701
0.5620417132774217 -0.03751755372408054 0.012015987454483661 0.018199978137903715
0.56356949693792 -0.07888951442440245 0.0137247352180006 0.08936861659450032
0.5367699547415833 -0.08780238754584618 0.025983240584438662 0.033811065024547664
0.5671641869436826 -0.04347235261424047 0.018957464554931355 0.061150617597537614
0.5035415629922642 -0.07076552175948483 0.02448793730360025 0.006135045515306121
0.551280141361393 -0.09016907636805115 0.040329935320855256 0.017086561998535525
0.5170056945477981 -0.07796149339413565 0.049986345752698634 0.011803892760959589
0.5311959032841216 -0.08814018505348638 0.03853806416534508 0.014026256335734172
0.31032819311702414 -0.08159088430523204 0.0052605265378413875 0.04207503972460568
0.30619791593928164 -0.083670436893411 0.00781115286508458 0.06547812916576508
0.32283893311173084 -0.05683464042035992 0.0058787003153819885 0.015347143986798817
0.326596160816012 -0.05757205063052101 0.00841103648700662 0.011143285844239854
0.314882533215322 -0.017476182029673624 -0.002539571696342339 -1.3908041732964193e-15
0.32666717964731884 -0.034857704632792495 0.003932433613217314 0.016814363560168553
0.25946909031380627 -0.04614382798820497 -0.0006943224433106163 
0.275534565446253 -0.05659310148733619 -0.0039347172813015705 0.027239915310163676
0.2930908679599052 -0.08817362663609685 0.008692881916065372 0.1304688908815815
0.3262591456973468 -0.06124280415026235 0.025659330588249075 0.03756533962465535
0.2953559236045712 -0.09593953963979174 0.02662127452098145 0.009097720967623402
0.27351879020237596 -0.08402493139735633 0.028168679517407126 0.0032643839429351887
0.3126833435220599 -0.08032397429181379 0.03960753776720783 0.020124376974719478
0.07964135553555939 -0.08693413235900718 0.04603830363246483 1.6115807941897146e-14
0.07947143160354664 -0.08210029357263356 0.01929903266073659 0.06593519840848644
0.0692474427930519 -0.08976201692175453 0.01563939308153067 0.060434848591175934
0.08672473484202695 -0.05098336061121561 -0.005892296448190127 0.01457816062892265
0.08571332641701716 -0.06280905274824868 -0.006115233806692824 0.04643354054483927
0.06172734103991672 -0.0846232137709201 0.0019649477540479472 0.03879462031862645
0.0347806315874624 -0.04880994236809608 -0.0017014697541074609 0.09908194857894369
0.059508982295765636 -0.023325566793192594 0.015585118684565412 0.07917766117759154
0.03541814618474714 -0.07338990634016719 0.0174155507802526 0.04752820233892892
0.045559857771833225 -0.08167891509525253 0.016963948011108954 0.047011824310433756
0.05460283657855091 -0.07468894636541801 -0.001248706269843814 0.06302543411474226
0.03604844102831827 -0.07231781969829644 0.0010304649214400354 0.05299043953952617
0.03429933410260473 -0.029414464381465517 0.012865966785086414 0.03163839486666147
0.031091876195687727 -0.04141693274908655 0.02349181120125178 0.048874797334160974
0.09901608548886376 -0.054889507141789966 0.028697015972809273 2.0210539851131156e-05
0.029405897821363054 -0.06688878234250059 0.02723312027261162 0.03123834933950122
0.038270046905317996 -0.07849032361201493 0.026189713262679475 0.050897441049073094
0.027459672191882747 -0.04781564257387941 0.0385907963369384 0.014068780193952832
0.027507991560677014 -0.045535681970457376 0.05403471099653549 0.005740954661579776
0.029533055765317853 -0.06327796441391977 0.05207988989178557 0.012409202476767769
0.0299580064078084 -0.058503856716007295 0.009049416433526589 0.04696403104606154
0.056308040363111635 -0.09611827235462153 0.0330555412180067 0.019576722534859287
0.517886658438946 -0.06915618787140232 -0.0031969473756790325 0.05492264673377668
0.5572455496712142 -0.05317200993950825 -0.004043376735819444 0.0694233851035734
0.5359889673505549 -0.039079554599386376 -0.008682089628177554 0.04598288497017021
0.3001470700190502 -0.0712200536832727 -0.008548259931326163 0.03186072938209529
0.3124028236242439 -0.04375430691527109 -0.00558588058288295 0.05203658293637662
