x y z curv
0.12330884899061553 0.11384685947572945 0.45754329069905153 2.5524979507571887e-06
0.11645145401747449 0.11961540743678711 0.4756172392545243 0.0006834737064987131
0.12089608806208427 0.11973295799809033 0.499100832261285 
0.116457745785561 0.12880385828827493 0.48487685729147034 -3.095733912154237e-16
0.02424746802925222 0.06873478293513219 0.20689607555126766 0.007722269065977841
0.02010588801991767 0.09537498664045026 0.21068800228633322 0.003916421575607326
0.17565780600576136 0.20561952769637354 0.22325463277085747 0.0017080908878374728
0.15851712014308392 0.19445656966524816 0.24408104802666675 0.009214450338795905
0.16488902378623674 0.18101277597059956 0.25589027714640433 0.000357307424119447
0.174882206295628 0.156982678110643 0.2638462852964256 3.418654260439621e-14
0.1911662273439908 0.16241216631110572 0.24213922056180465 0.0005764540767473398
0.2049421827255507 0.1352812679440805 0.24101189111317084 0.004995329615138087
0.20383344012410515 0.11770699279698685 0.24648687569209035 5.648423106692884e-05
0.20877650423370206 0.10527711155627743 0.23062749066277666 0.003629986463032537
0.19005615149284488 0.08074041520057108 0.2495747261900007 0.0009986027150869887
0.1870303299485305 0.06280109927865486 0.23681667507024845 0.003245693547275889
0.16848171723351035 0.044465231839125735 0.2378422404277582 
0.08900186465993 0.026816493989515515 0.2316187105043363 0.00020725325257989904
0.06571001177403776 0.0431664444095966 0.23174998929602203 0.0005892719664496376
0.04922527189699775 0.06804730311235631 0.23665916560422307 0.004644150033001428
0.03186945807286422 0.06586654656646124 0.21650990420323318 0.01116885916477976
0.03628659141669104 0.08389225225811162 0.23301464555493168 0.004303014463015277
0.03713212011298714 0.10779583221649568 0.2462345224942799 1.4141401527885986e-15
0.04761921961200248 0.13622585581869587 0.25062127935805495 
0.033035132823263764 0.16052232201380526 0.23538860501962888 0.012176479772663371
0.052129050112596116 0.18709364485277413 0.24397295634920835 
0.09697044147649914 0.20950327756578616 0.2272020371012262 0.0020118787161198886
0.11928429085612849 0.20745238050839887 0.2411834970551186 0.00017631731710989758
0.13225377486866957 0.2137988155349317 0.2353725015088593 0.00854868298159003
0.1567738284525741 0.21393056106426417 0.21905014944875342 0.0040685103644378185
0.2000906787069378 0.18121897979256807 0.20973823609043232 0.006335629119600212
0.1894095320804876 0.1863902667701781 0.22301055990522578 0.005842398102888784
0.20674205704724646 0.1575205730787098 0.21841129804423423 0.0011592584415556085
0.20862093220181374 0.07110536700287104 0.2170871436512163 0.0023827111662439292
0.2124881457910966 0.060444975144881744 0.1986879619972283 0.0007441493484983572
0.21232285721659447 0.08702282160261778 0.2205527859823548 0.003977423614141353
0.17687397601199217 0.15136466115493918 0.2650422141015707 1.0043039656189035e-13
0.18522290451688575 0.10132334272153466 0.26061199048357947 3.5380300426921336e-14
0.090711772536451 0.02005698841003864 0.22156155428097665 0.0002386963674185131
0.02824603825027598 0.062296786574441 0.21020720034119392 0.00686637872405404
0.023683627386966558 0.08701690950184485 0.21600664953683554 0.0042157027345736215
0.018566875682636288 0.1291625660889839 0.21231522327711894 0.01275267123512492
0.08391627231477897 0.2045991999110062 0.2272928658844542 0.0011594370093202864
0.0837557952803703 0.21497372807532777 0.2142002583305724 0.002417310759125242
0.1139351526109788 0.2239404506747535 0.21239298535628837 0.0032000906669153294
0.20555161777158834 0.12601119450046278 0.559075248228271 0.03092293312247624
0.19268358009815992 0.15059057230516928 0.5572413861588855 0.010526936384770005
0.1694466952707402 0.18830888376437974 0.5673711838158623 0.0549762277320162
0.16581146262158103 0.18925658715484947 0.555076877119302 0.028608185107177532
0.15155324384940086 0.16725732770769167 0.5549187968903476 0.009781467147455033
0.12697629661369972 0.18023425649162791 0.5520113760884832 0.03257749942016
0.13347877779931078 0.20430944238968848 0.5657566615507209 0.01524698296300752
0.12341540777352852 0.19565429177435448 0.5610551244087786 0.036750788861258626
0.08820454691987746 0.17544003625454457 0.5550676253530887 0.03527142428411767
0.09482976878023648 0.20104325589563768 0.5561801687375363 0.00574184706160264
0.07347250033069332 0.17900918464264304 0.5620635199329944 0.028422164926988326
0.04589397739254951 0.15070916812997465 0.5492829540561307 0.04369368450169744
0.06650182279739207 0.1326913463473367 0.5487772869640284 0.055642807768807895
0.061064790757685866 0.11267643995783595 0.5549457083075932 0.04275686859395129
0.039186094728190304 0.12060339604006871 0.5587164980567547 0.0473214019680184
0.04409825074568044 0.07391240495835419 0.5556666086441181 0.03269196738301707
0.06924147123114426 0.08184461838056532 0.5428388030419794 0.011598213329683017
0.043892558371647905 0.09612498906277855 0.5603080290553838 0.04325900422867179
0.08776642258548277 0.046923484225222994 0.5543344937905281 2.6598063395466167e-14
0.15745996066324713 0.05544824947848937 0.55948127560789 0.023863448241300187
0.20416975912868496 0.09521865590318257 0.5576498110749272 0.03143120594407104
0.18086831213532104 0.07947074107458534 0.5536805088710782 0.04282106421061284
0.2107643658753025 0.14063857242938635 0.5715061594846839 0.017472195661599948
0.2033201532227105 0.14981478991419242 0.5685294879136644 0.01934658172792937
0.18875440794097273 0.16437197261580277 0.5699065156083247 0.013087094735932807
0.20226085287574425 0.1582865960279047 0.5773830406421778 0.015794054405643267
0.17971742154765213 0.1800121344967575 0.5738220740667934 0.048111363317468354
0.18900014332879636 0.1746803698076236 0.5873608668765002 0.013547290177512026
0.14510892421674815 0.21177826557349116 0.5939726361500024 0.006189427633568081
0.16915589901691913 0.19298590961676637 0.5929595011000485 0.01889189223458632
0.12616913444165997 0.20516187126368474 0.5692572910309438 0.021246327801174334
0.10780056458105121 0.21754480543600563 0.5968390110989472 0.01916830574384354
0.11991940803235102 0.2077049089647156 0.5799735394243205 0.05080223670037721
0.08772020169844848 0.2084179814217485 0.5769284796715191 0.0292673937614147
0.04989734340022048 0.1728665579243875 0.6060093951637918 0.002214570893561921
0.06348623619506825 0.19386440662355517 0.5880253970801441 0.02177418373306535
0.06423595683471102 0.19167960343590276 0.5738387478923248 0.028797344822640975
0.045236540467264184 0.1613224383931947 0.5648574705930727 0.05217780105825713
0.04055097749833172 0.1498385472613933 0.6048833732284565 0.00474528383471314
0.04801967077228802 0.16500253585882318 0.5857829149186209 0.019526456220347155
0.032573027269136155 0.1357941207235586 0.5734662465334267 0.004373894657108772
0.03730164664805336 0.10310470194074625 0.5812582889399401 0.04775088182894755
0.03521111922185959 0.09965430405636905 0.56388326357703 0.032393047050836656
0.03402338553116904 0.12341209578986286 0.5780972907203666 0.05666887247802893
0.034116693564780885 0.0785134104130217 0.5947916546368983 0.014701352779080426
0.03767942539971865 0.0875621624721102 0.5818293350570459 0.021706368109057413
0.06898230158697935 0.04738790523874722 0.5731942569980347 0.00914100620557757
0.052637110180910246 0.06612932980823126 0.5599292457581057 0.040443471172496574
0.04784882635109364 0.06332530243991168 0.5769888613526275 0.027044121269436453
0.08059600413036568 0.04091238923475315 0.5785258628325269 0.007479379255864534
0.0685751816880283 0.05382723421168517 0.5999667552337544 0.0010393031530117015
0.11166105179731353 0.028786647107672078 0.5761041902543189 0.0011092625123144066
0.09231435012169356 0.0387692924928682 0.598142381142821 0.0016970981328891155
0.14044468805077018 0.040071650696881504 0.5598340256409681 0.0030612102877019794
0.1479947434436613 0.034387155325703814 0.5760954891977118 0.02915895982418795
0.17174604480304612 0.041034793163330995 0.5671646913078334 0.016959572918219003
0.17537356901280116 0.0431298727802404 0.5940660867726203 0.013574453956741051
0.18491026326935564 0.05807542695916715 0.5590407755085269 0.03952439800854399
0.19819900397687767 0.07087658560495154 0.5778544741021249 0.016633618651646403
0.20494516304649602 0.09102613064196653 0.5989295694525351 0.0003640416325001517
0.2150458985713835 0.12196723471379026 0.5844479180800838 0.006928394092759692
0.20905287615994642 0.11024845941838668 0.5515735491363404 0.01090647753661566
0.20375939639166746 0.09534871938719024 0.6049513105324595 0.001309578270955308
0.20748991413271176 0.10475380796406543 0.5901999133304295 0.01425140393781225
0.20567939991362658 0.13677695783619245 0.5955911314759496 0.026048809754811025
0.19970922739449887 0.15191859519110906 0.603552947249594 0.01873144463877822
0.13633729665092853 0.20096122668995264 0.608045578724718 0.015082967203735814
0.06328667855549504 0.18593545606118456 0.6004085959095395 1.133330725325215e-05
0.03723807652463755 0.1309251452997176 0.6024096766053139 0.02372684047863534
0.03671416833309188 0.1327352532871084 0.6005111243198954 0.022560435419651734
0.04981752621347933 0.06517171306755724 0.6065355801419552 0.03961976822107958
0.04066271381305667 0.04455538590739319 0.20159324210598673 0.0009455904198389519
0.11082479285685455 0.1752352351218016 0.005439913700893749 0.0032659251490007838
0.1425172759389497 0.22258740797694518 0.03255200722671912 0.010306005911337242
0.12652265486559924 0.22306087081910475 0.03901780372021135 0.009926920602847077
0.12164587507425102 0.23065879047179408 0.05987343838382076 0.002152417863705339
0.125700209628831 0.23955344500290765 0.11310135541399138 0.003581489037732112
0.1349969836394828 0.23839078404968364 0.10283355359721282 0.0008112761919537486
0.12108496483348137 0.236274736433867 0.15164692206417493 0.0033903603558101234
0.13572829773454728 0.1516189210294013 -0.007988207479082528 0.010283700900446554
0.137875800557834 0.18105991682653852 0.0008205669997014562 0.0063841756614774646
0.13589079115649294 0.19463642518566382 0.011652833963171096 0.011312189272038621
0.15412537090662098 0.19391834937640196 0.014758388277291052 0.001986367392885411
0.1485814875812962 0.20386358422838066 0.020806226970106666 0.013145961607912912
0.15923474623054798 0.21551634441851503 0.034554597484238156 0.016335681352892442
0.14374302379235052 0.22850481948692014 0.048334358740264406 0.019640304652180376
0.14855385611555894 0.23545253958203838 0.07326711057539326 0.02599594235759396
0.15941194230490394 0.2353782411922448 0.13641858409165325 2.0907714498949598e-14
0.1365395824560959 0.2413921430507377 0.14610172081301195 0.00418233715591887
0.17061087789858442 0.21470505480117588 0.046513756560468085 0.014683988194657173
0.18009283976974905 0.21058533174699234 0.05135434109363361 0.01185443734821067
0.16210205094186392 0.22980185285919988 0.05318409173337995 0.011747414628785906
0.18835014591389138 0.22043056445358772 0.09055237735594636 0.006008593813522557
0.1830219262398087 0.2225743644756285 0.08579937943252627 0.012682651853792967
0.1689292432741247 0.23827935058499725 0.0857119977486062 0.010031338858269866
0.18482466400866682 0.2260460411884358 0.1265721669189992 0.0007335227563190011
0.1523831091903077 0.17540831286391426 0.007868491020685467 0.003977196412462808
0.19229675371289134 0.18898830700506633 0.03321221688971054 0.005757192945542597
0.18611805936045098 0.19893811798490885 0.039734504592047255 0.010033193938978583
0.17867638607134373 0.21610643382575706 0.06826775592434674 0.008013570556675495
0.19720134758877148 0.21421289904558602 0.11443161491021024 0.003480146038027907
0.19525789989825446 0.21463903017909658 0.12426923283051726 0.0030121037311640893
0.2013249384408223 0.21064926330072542 0.1144429244387722 0.0027602992839721465
0.1938234450072076 0.21100827590505866 0.14843186211370515 0.00043252288680991724
0.1593508279389773 0.1543933189544868 0.0028484965689596553 0.0015821572895992132
0.18877873306099022 0.16913519065708393 0.021793646360646922 0.013501372717361867
0.1926874308964112 0.17903949533242322 0.02782008312406551 0.016191922055758666
0.1747944015087053 0.18530049550646477 0.025241029065079683 0.006121026145315174
0.20679072294097386 0.18351790424814696 0.052581871069790884 0.013412686955765559
0.21229003191244347 0.19214777507708286 0.06252068421285746 0.01704441345303747
0.21153152697228955 0.19419930891635584 0.06576807010274563 0.015891129775021638
0.21663590623176715 0.19453496958668692 0.09736827773735933 0.004797744252770548
0.2273214272892009 0.18537961652442006 0.11868280934664724 0.0063507943854374535
0.21650576560440124 0.1936181163981748 0.1329723954063176 0.00397505824099269
0.2070848427455117 0.16393024908117976 0.02471733779836495 0.027110018717852766
0.2226047588774316 0.158593499671204 0.05347662483417242 0.026627740398125998
0.23128422148865518 0.17821707162386458 0.06414872405990497 0.015497426817646435
0.23487705730680025 0.17070571507179863 0.08106348349718887 0.024821481155170282
0.23413519277056927 0.1776201453972285 0.09705947670137446 0.017656926331338807
0.17717591912251804 0.1299847348695704 -0.0007989653343646085 0.018279799976080806
0.2200541059364571 0.158632251938361 0.03085718920590883 0.02219144869705441
0.23077032269735875 0.15597747700827555 0.07318286137322422 0.007283252125850488
0.24078282293347938 0.15179325179286193 0.09698026250450266 0.005563537278872249
0.2372224639786463 0.16099610806610073 0.10005340094255746 0.023352859054830418
0.23503894174606657 0.16530509667660004 0.11768907786849439 0.011766032745630869
0.23693049346452563 0.16459519913320503 0.1447616894905862 0.008023118057841349
0.1994516800586608 0.1322323275806655 0.011029706781464116 0.03666375077665605
0.21623839557137717 0.1379571745820737 0.02122256550640396 0.025881056607161723
0.21024914283557974 0.1350689665352794 0.0157955364113176 0.024735205070508057
0.21771986971931823 0.1405769258774198 0.04507818476424593 0.01645963154848496
0.2302650894708863 0.12525128753800827 0.0686039516656289 0.010665006068520827
0.2340371399304602 0.1317650596640486 0.07845001604326843 0.0036054295752606827
0.23955701638822122 0.12885616025367097 0.09299548883160191 0.008955381760687869
0.23799797856726204 0.13998007237228943 0.117923417720478 0.0065506460348239625
0.24378150064407456 0.13882168304087894 0.13763477480758868 0.00424351140947285
0.22985463642254525 0.1141962468683643 0.04184423339135317 0.011254483600245637
0.23161751146569654 0.10523008035600784 0.06513185296885479 0.01615028801754723
0.23364494159447063 0.11959683029174066 0.07377555759277703 0.013645090689666229
0.2437032329530083 0.10710706919968507 0.08609065324756517 0.004465225973349762
0.24014074273943292 0.11134172918188598 0.11442316678096386 0.011642770434516036
0.24476361913410724 0.12007399977506429 0.12217816525647049 0.010037923238383855
0.17331821847096554 0.08901870824989479 -0.001723330022052918 0.009922949789302684
0.19310719335866397 0.1061190326605683 -0.000509527438820271 0.005910747975504876
0.20163257928449982 0.10676768447486529 0.014603148738422276 0.01218391265944148
0.21933504998938427 0.08325141657754506 0.03883424245367709 0.01605405548978336
0.22888007669965035 0.09440684988893246 0.04303840958202448 0.012005836651464737
0.21443507151912253 0.08520150057623467 0.03144805709038074 0.01137751849749639
0.22884332591782044 0.0741852013882465 0.06700385394613449 0.010859377176317455
0.2297147269729171 0.08648950034524837 0.06581930400377274 0.020515563958470318
0.23934663162535783 0.07650646063051182 0.09689417825480288 0.010167129841397081
0.2379864138788425 0.07627009184663103 0.11105691087087982 0.0005232073086874179
0.2371288263092542 0.08346798968750727 0.11355820222995734 0.005207503812506816
0.2360930666792125 0.10184368976554564 0.07656963518924893 0.013659999798194964
0.23143236718844834 0.09063347510238066 0.14049569624244598 0.005412387034519877
0.19312322082714603 0.08367456690426231 0.020340826152573186 0.006635177371300806
0.20821917166715206 0.06521880434613217 0.047276199073346015 0.010234371949088961
0.2192696274819837 0.07500369658361737 0.052317578814394805 0.01993998613029967
0.236947319230569 0.05669275088809963 0.10565115129464578 0.010169897320151436
0.17720079958409235 0.07456038083779369 0.00808476456777817 0.011923425895193256
0.1906827132213263 0.06585709088022318 0.019239211323555584 0.0035099765660682454
0.19917821585772535 0.05466150996574283 0.042852841955001046 0.009219183076490488
0.20203089484778625 0.041233381455624614 0.06664534221599148 0.005969419179170883
0.21221539707814718 0.04622357154590273 0.08190773868205106 0.008208258591301558
0.2057004409246534 0.031162905872784558 0.1310784246649776 0.0012309474743599116
0.17093941567579088 0.06325256387960096 0.010700581065928215 0.01226918192708827
0.17601775688826862 0.061784863891989346 0.014863873935454646 0.01069023557895269
0.1730069075213564 0.04969416334159928 0.027743745949504822 0.0031520165900329783
0.19475438569653764 0.03843667731710349 0.051018928508209924 0.007034129844241912
0.19440763289612512 0.024463872097813942 0.07080707294632686 0.0026600195171386674
0.19867320651574713 0.022393832768517665 0.09310335576123903 0.009142746069457572
0.21049563196686866 0.03251316088021966 0.09542815669895507 0.011114545777504207
0.20208752879775888 0.026930324664116965 0.11054853053556934 0.0066652489029435345
0.20512138837970334 0.03342272576416377 0.13896609576431768 0.0002979462778255482
0.15985131796386345 0.0623189640963057 0.003483227550851977 0.006630960288206087
0.1538775713076021 0.03185012682696161 0.021386924568333528 0.005677145881771736
0.1709026080528984 0.01915828517327669 0.053791503612027815 0.004209455956800292
0.1743677273117698 0.019915372012279768 0.05765178302973279 0.006474147050730103
0.1847769069877393 0.007321356269051601 0.09801633220695143 0.0017406258298462106
0.18165256152463602 0.0071123238776955415 0.13078072896491594 0.005130442890132926
0.1896608097873462 0.015527531078460239 0.15394939790449347 0.01389594036668565
0.1421754691886624 0.05984738980827799 0.0013766374086089123 0.006843044579746098
0.1451776096997727 0.016689930610487853 0.03144988155169856 0.0008886529667783804
0.1573229008537108 -0.00037320054795653753 0.08584127483400478 0.0007555236608497804
0.17073320294653763 0.00279846369731992 0.13446034508339325 0.0020304481918492503
0.13815549082448964 0.004250742630973223 0.06455917816974646 0.004859410729332394
0.12103510495532788 -0.009909486666238794 0.09837587037416368 -1.0176106701042829e-16
0.10796117939214374 0.04983079571127834 0.00593445739579318 0.0021343946382187764
0.10966586911527174 0.016008977126809196 0.033111405895511474 0.0004485123229146778
0.1087955320608777 -0.005009323972901002 0.08710986776739185 0.0010074840999851394
0.12119332555777708 -0.005314164494858456 0.13168486780671101 
0.09432854579919385 0.04138661127117931 0.011389251321398185 0.0023221455397612863
0.09747524236851807 0.007071336605204667 0.05868949632723013 0.0001194261710936909
0.07867643288794111 -0.0015501411763690024 0.08867457546723369 -5.601559475041959e-16
0.10250838916866022 0.08661009814803595 -0.009650218589000448 -3.779561332316838e-17
0.0910655862550687 0.03291451135419432 0.021169859033026834 0.00237392808774145
0.06945135005470117 0.02940354799506917 0.03503034689920865 0.008537673864631138
0.06982628158282662 0.01453537824429155 0.0465676964216915 0.002124558740022298
0.06474428091897286 0.013529473212989725 0.08837788827529662 
0.060541640502307925 0.008999322148375087 0.12320960277442526 -1.0564775304620495e-16
0.07693064911461378 0.06109358311251986 0.002181839054112563 0.0014349312075215232
0.04882015252467637 0.04571437849021178 0.023766819146510902 0.016984845960850408
0.04441614817122597 0.041720403139452064 0.030352284427088115 0.01971108878232372
0.037808396751919396 0.03156087544488797 0.060813959774693366 0.0051993544079823005
0.049539754098051086 0.07732043861342631 0.00916225655922736 0.007646600158299311
0.032542966296528024 0.05937811648205195 0.034044510599722785 0.01176905171998203
0.03867838940107567 0.049548433265493665 0.03615229690605059 0.024182449748129352
0.02305585153792976 0.04556484377463521 0.0797326456912316 0.013192444755139282
0.03292226879130501 0.037834912992763765 0.09725474723899026 0.003996058528054938
0.009637711069026942 0.044993631457328515 0.13272949665986586 0.005941372085638131
0.029198499599553115 0.028317412895803834 0.1341292599670756 0.013150668637662006
0.05534747549986866 0.09448148662118647 0.007547476529046239 0.017384625805102336
0.0325709637273771 0.0819271480653292 0.02856208001233243 0.010106118103100307
0.014386092482613261 0.07314860300344672 0.05986662627760346 0.028484752482100414
0.017622519793714708 0.05914185005052045 0.05179283102262499 0.01829495256343594
0.011874339875396657 0.0596831678488288 0.06774561555673317 0.01590895640797389
0.019770923258510723 0.05646202864377185 0.10702822010240981 0.013475242561093715
0.008582625528308106 0.07170896404114781 0.14277151214390676 0.0029977102203204474
0.07913696422064506 0.10129837593882765 0.0015381793956270621 0.0021813415705455425
0.046224692852720066 0.1084367358537919 0.00969123663167427 0.012827061975590918
0.04148809478876324 0.07780408890340469 0.019949037701219648 0.007552105702948635
0.015867480393534143 0.07603378561108698 0.04358346345851696 0.014662300060707137
0.005825185185969192 0.10083330673047762 0.062255614053283524 0.01410303858410992
0.012242373623250084 0.07782743410272892 0.07897254868810999 0.01165474008553053
0.005399620540642009 0.07620593569831781 0.10830810110490588 0.011354398542861653
0.006443356732591922 0.08786684230361319 0.09636213143767115 0.017178891836448492
0.00650426094345203 0.08156654326838918 0.1540412227066527 0.007421030580228218
0.04683761927026842 0.11720729414299513 0.009190047948823441 0.01140491518607466
0.026911150508844323 0.11058032478165421 0.01906605171177312 0.003492757915920956
0.0205639256684861 0.10031909094849742 0.04054298536728314 0.008960433348607645
0.0020972362481264913 0.11158076828170396 0.055840833847110694 0.038111888780884694
0.008599590883510587 0.1095862780816964 0.09038484846092626 0.012182957617486615
0.004405424066735811 0.10870371560413396 0.10408017262753513 0.00856378290185087
0.007984766774376642 0.10187184976050968 0.09684583033587812 0.008846532960322173
-0.002652005980111531 0.10208441150371803 0.11972374821251912 0.006966127418295557
-0.0027412605484163207 0.09772807038284556 0.13176840822459018 0.007023234265828122
0.0007733706507365582 0.11216574730486807 0.1543114308917132 0.006246610674541741
0.059921235410021284 0.11589572223640002 0.0034068548351091285 0.0023805885880214006
0.045313059826882336 0.13759268066406777 0.008734076978278361 0.008739832608927156
0.02340824218992164 0.1301313744051455 0.02802318098895806 0.017347922489788677
0.01049236710793514 0.12667365602189368 0.04065384814770305 0.032550577111462795
0.0030808715473652297 0.13017462958351597 0.07061853698060552 0.012853145676809402
0.007388135501331127 0.1206135162355488 0.07880195428317219 0.013392065573402764
0.00274518161553815 0.12320418413498016 0.10383860360478316 0.0069364105907144405
0.0037951846031074785 0.1365157044260669 0.1509973506862744 0.002286041046441736
0.0016876888502220153 0.12350091363599656 0.13705781428952432 0.0057058063134985655
0.0004985939933219202 0.12311326391543014 0.14494441555226173 0.004141114556330938
0.11338905610163708 0.11947879581567329 -0.00805319671650758 9.07402246162112e-17
0.060018005354578276 0.13765605860473906 0.0026957050430581647 0.0050951487595722374
0.020214755604597047 0.15220007814380307 0.023604514200857282 0.012750056467037202
0.009383875294693294 0.15654798235212886 0.059339312506857644 0.02429632140664213
-0.0023455369110073725 0.14220756108072719 0.049986985728201844 0.021088798327153192
0.00816525184163633 0.1588412914524356 0.08788041546693595 0.014711793022784556
0.0068277543342415365 0.1615840520810055 0.09888252002315374 0.005824576660827163
0.0015700100671930239 0.14296627744323367 0.11224716303724618 0.00670720573566402
0.0020356764117558795 0.15045741633285092 0.12781490921711913 0.0035589219256935566
0.0016581311070275294 0.1389695358155565 0.1227133470045758 0.008079638742481342
0.03785991015935983 0.16269781195897123 0.024479402596067554 0.026537970190642315
0.022707955815784664 0.16609702646344837 0.0523909635240872 0.020359769595865367
0.025174794598922717 0.18953020606124965 0.060128704462931094 0.0068709907886385126
0.018429626824306242 0.1653519128583847 0.057140451647692214 0.020964241808396837
0.007183016866583605 0.1679739714557432 0.07305389069348622 0.023182281664097897
0.01322603896326574 0.18556380679883208 0.09463939351538861 0.005320152409017174
0.012350498805073724 0.17819661349612714 0.1564403286243239 0.0014424119646129284
0.013305723171069043 0.17414558948646872 0.12638447892178362 0.012369133780390753
0.055368861229199595 0.1744645363546144 0.02037575476575419 0.002274402200367113
0.04237829413368541 0.18235141990819875 0.031558506847239556 0.014786117960155604
0.03809643186282399 0.18713667621999466 0.04280031578854063 0.01061659239271165
0.03034807671687285 0.20402241249751038 0.09512747446815742 0.005478733286410327
0.0314969956574831 0.19758870104077245 0.1230960041435557 0.003827117315944035
0.033361642258437206 0.19910586132930666 0.1486962191465204 0.006959976342302193
0.016655910437984124 0.18583867715834115 0.11890315062612505 0.007261307105379965
0.031212972390571095 0.19651139559678407 0.15444431713753087 0.004258690928563584
0.08149829462487262 0.15500339616278935 -0.0030211446346449147 0.012480032753245517
0.0735119449073934 0.15837010800948165 0.0010092252068165932 0.0015227135168755805
0.06756835828052675 0.1916691079617394 0.022758645538045533 0.001829507601916305
0.05888525347582335 0.2101952021487407 0.04256103745164152 0.02053448420858497
0.04344042922360646 0.2130476546439252 0.05434941509628925 0.0064035583140949065
0.04658353120515823 0.21407053809835597 0.06677284870330533 0.013775779456486522
0.042346236634862824 0.2129299147027498 0.0827833614964786 0.005606263900727924
0.036820869257490924 0.21124067374309644 0.10552173745211832 0.0019538917069978506
0.05454555682606795 0.22235037690910925 0.12597752019559194 0.007452532523961909
0.04983373693200483 0.21468178683355202 0.1491639078532757 0.00971202870436403
0.0754352660659041 0.18390318670351585 0.01311487399773605 0.007707416386062568
0.07320414943790819 0.22466633868601285 0.05793727491885669 0.0053083922153991155
0.05989839672522364 0.22580765127982708 0.09214433381798952 0.009027837028823874
0.06594387962642241 0.23093829178180816 0.08547797967842405 0.00788835740931273
0.05831794402110906 0.22192399675415875 0.13189939110819007 0.007654557575784194
0.07366886333587513 0.22427428462415408 0.1523401550766878 0.0060024542266893756
0.06519661481920938 0.2212574628374866 0.14884532644105095 0.0076534336953811895
0.10276805513296514 0.1586311664789496 -0.007152631033660331 0.0009332836454322229
0.08522523153689324 0.18384391273065326 0.00912718659192746 0.004749336950158816
0.08154976053790632 0.2163397323844152 0.0334240382749548 0.007921736037994445
0.09694890421083438 0.22301173951787598 0.06091289147079107 0.002325605925250576
0.09219895453996482 0.22044029120802602 0.05249106801892066 0.005511705831962743
0.10166713761065868 0.23585681772653252 0.08403364543613046 0.003940835858284327
0.07460433941261338 0.2353447173122168 0.10678801979435532 0.003608925919079144
0.08436683752959115 0.23236675069192878 0.1222885044420196 0.008319806897921955
0.09082544357166168 0.23331937619136262 0.10755982373184428 0.004800157450178157
0.08750773689740862 0.23417250140322263 0.1407889634114151 0.0051431762557557865
0.11432810817817099 0.20500507409551277 0.019474333814891415 0.008623334754258225
0.10950430626575527 0.22501425076071857 0.05139739265975041 0.00729108116791737
0.11901613607099949 0.23584268836121344 0.08046559288375874 0.00429148246087276
0.11867507181677166 0.23625247502305324 0.10346112278616093 0.004625571319285859
0.10229232744526597 0.23783213133299053 0.11697265255919786 0.0029762677718901632
0.1076576072882467 0.23458888733208624 0.13522986203782766 0.00557133985576737
0.11405681884806461 0.23960806196112114 0.11416331231574513 0.002177244140464651
0.10968168048213776 0.2380205242794089 0.15780346901537068 0.007334430384453158
0.13803731113118206 0.23561847170652286 0.18642612513711557 0.010610592038214026
0.153169236189441 0.22949596859322893 0.1893672555254542 -1.2864242285358416e-14
0.19131934183192997 0.2056329743273366 0.18465165770382652 0.003599722689912307
0.19380211346624124 0.2076058496492475 0.1685081682934828 0.0005928445624767021
0.18228117308007571 0.21985280929530418 0.15812621704599286 0.004633207728235993
0.21489446799979262 0.1735694203859603 0.19899948778466622 0.010370851223894672
0.22997469581212557 0.1746795236335008 0.17867000316920897 -1.8794255691706376e-14
0.18099862686902993 0.2187052881564889 0.17929313822563667 0.001766747554490829
0.23435771498814856 0.1343618453376417 0.19132317918665934 
0.2284732826440394 0.091589222327564 0.1736683153650248 0.002710446972186076
0.2316624204290804 0.080600947158078 0.1571190894970677 0.026181719572285822
0.24035636912305883 0.10869979308998372 0.16326989394198227 0.002011961409699524
0.18969578046155972 0.014071895157908937 0.15867480163293537 0.009075869776063356
0.2309053186965082 0.06051281364781636 0.15678435996988577 0.005397419754038779
0.21690349577403237 0.04704781476512878 0.1780372729569137 -9.762480717614881e-15
0.23350438036408375 0.1521927378822936 0.17456752869713088 0.012076544829130065
0.1983458506267662 0.195620911892491 0.19202502075732386 0.0014698600413619281
0.19849478367059895 0.03712604270795384 0.20087266772048273 1.4251555896991897e-14
0.1710141420118285 0.011552455534020057 0.1713242389573619 -1.1083105739299681e-15
0.08735091978204405 0.003334285258808467 0.1784550945843119 9.468678845537358e-17
0.07627853468025869 0.01592046853385054 0.19764387840962983 0.0003046049026481814
0.06708312302850959 0.023768402406767225 0.20224960122360003 0.0011374710041051393
0.06641052558148365 0.012561661209675116 0.15670710113902325 
0.01953800370921679 0.08284017542075467 0.20183362296100357 0.005671718520781269
0.007998418953995862 0.07705475410035843 0.1737392328023379 0.003317901622317362
0.014393432941927518 0.05862963874927815 0.17965240347241526 0.004026750230416585
0.03091603583327314 0.03901478672702243 0.15981385177950283 -8.747797237685278e-16
0.025906882584276186 0.17571098215791472 0.20225586252618974 0.0010525090788637555
0.013219958700200549 0.1610410687155031 0.19689393652360082 0.01871595480604778
0.012168738312881908 0.13945760912061525 0.175760154476943 0.00794022411464428
0.012513981749784034 0.15132921440455113 0.21015670678013235 0.011174092223748539
0.011577342098744696 0.15955804048778266 0.16282976327156565 0.011923893299841405
0.04585304060590395 0.21234915348698624 0.15810501163758245 0.007576208349169763
0.08515667568269533 0.22214319343156777 0.19536598106637326 0.003484331715120636
0.08846484835406894 0.232368477973596 0.15414213165091364 0.0066056993540279715
0.06306046132369011 0.21337182505317462 0.1831559625139994 0.003398414105167939
0.07037641901865462 0.22411926265780144 0.17277918407582274 0.0005169024581233577
0.027105119069229463 0.18373044883875814 0.1808938891532214 0.008286602739910049
0.010895906728995918 0.10479755221964787 0.17741396362526948 0.0069823618121154195
0.006870719543111546 0.12242011403995448 0.18717086111924888 0.006000088810280498
0.03803480189929981 0.20424587141806227 0.17731423426047743 0.0016748987677623717
0.10756728337960142 0.2378832001471132 0.18314883708350604 0.002582775038526501
0.120189333509618 0.10939888578447685 0.3776979750857875 0.0004260344113120576
0.12201332776309033 0.12100210141336003 0.3842337195800762 0.004656006411225845
0.11664231098829839 0.12109344939835968 0.43793273768426094 0.0009759639567141818
0.11957562248545638 0.11814430757235649 0.4145454442882807 0.007872088161722081
0.11657004812351718 0.12556731921856534 0.4218850907793236 0.000834625067516819
0.11701302180803287 0.1226065504486772 0.39139877430593994 0.009357371374047619
0.12259847378705699 0.11670619262367263 0.4065717039677196 0.004235241708252029
