x y z curv
0.38508368784679564 0.6091565835844348 0.03649943755317877 0.11784773085446985
0.3787850564076495 0.5800534839848439 0.043837757826718574 0.13073195379431987
0.37787080349552415 0.5923981251883828 0.04078746074188405 0.13412682332669543
0.37834316053328887 0.6579043246156732 0.02447926271408865 0.06479508167126341
0.3721934566257064 0.6475902720216162 0.02711136049721187 0.07128203947560298
0.38471882961127823 0.6935017171458523 0.015541151741185213 0.07725838055013014
0.7139648921606812 0.38335138428354265 0.009433773652076923 0.10195286889794741
0.3445523602776784 0.7023609474273406 0.013042713561859442 0.10182071427036064
0.34749271162848394 0.6744344160334788 0.0203319636411852 0.06389037985115074
0.3457305270217766 0.6495317492366701 0.026496790075310965 0.07839305242332043
0.35103196867219494 0.6332110586856944 0.030620638055743683 0.08364910772371788
0.35692674165896887 0.5601204449491791 0.04890811803134738 0.13323432683800832
0.35750983003753817 0.5999838837704252 0.03898155128356046 0.11166073765225723
0.3409327377541037 0.5902066424156824 0.0411459005370741 0.11349590639265038
0.34463107896013323 0.5634876383257419 0.04786021631096394 0.1139586234298003
0.3538932401528869 0.45462452348997745 0.07508067056476343 0.2157354069983535
0.35199839172797603 0.4860516071587897 0.0672384138982151 0.1947545108600861
0.3500462258358451 0.43577853214741613 0.07956970572527816 0.21370346806809418
0.3519886766227123 0.41367191295494565 0.08503275106363646 0.18302862321711524
0.33809851163868926 0.4382959975103785 0.07814284084116424 0.20023720273346995
0.3355477633453428 0.40426695758615744 0.08542334169552517 0.12132577601995169
0.25791006095293406 0.3875613448616133 0.07056621806197962 0.19417398886793744
0.22036136309618015 0.38981237366888316 0.061276526091553644 0.13444240360385545
0.2657461602654381 0.37816572404442367 0.07290056145283313 0.1712816031271506
0.1247828036823504 0.378944196065417 0.037888933265619 0.11892002801273116
0.11523360095844419 0.3703130579947441 0.03561934229736792 0.08807028058970344
0.06072848850020331 0.3830487468399625 0.02190208453298695 0.06890893188673877
0.7091396924852102 0.36152517982045707 0.008029544007376346 0.07517123265153638
0.6449117341639943 0.3594262539862636 0.021030462502206294 0.06628146213884267
0.6329230762767448 0.3591391188553924 0.026583295984252013 0.09028611439255037
0.6607815738653969 0.3598063453556576 0.021274731211935384 0.049293411815927834
0.6766583777225836 0.36018660369406763 0.016428250295550555 0.055201309698261064
0.5662788837224985 0.35754295521127133 0.032961685150553977 0.13759113347265653
0.5778181171723221 0.35781932561471397 0.037239101857477246 0.15444911904221387
0.6009517746318819 0.35837338912418076 0.03143095501124875 0.10645033866603003
0.5501097895146634 0.3571556967033931 0.0365587105933403 0.1797564655316426
0.5362860107940775 0.35682460970706276 0.039603500630990426 0.18616794825585142
0.5203304623694054 0.3564424658370237 0.0402325796473414 0.17272267134262057
0.5045446035760086 0.35606438625367864 0.038608150517049036 0.1437380903514241
0.6201652427332509 0.3588335621260201 0.022729588235925448 0.09201526017167933
0.5922171416298279 0.35816419043845066 0.025157268889626886 0.12010558771342295
0.43217270145588077 0.35433104123491366 0.06653701669489312 0.19536868449125117
0.4226361336244513 0.3541026354592108 0.059569604359733366 0.193489344265371
0.42143471727041704 0.3540738607778209 0.07226252410469508 0.21554987271515955
0.5107618949107459 0.3562132933906471 0.05075855917324201 0.19228483979488478
0.49066341623718346 0.35573192439302104 0.049526391306508245 0.15372948028010833
0.5295846713822465 0.3566641086584512 0.051896960106832 0.1841484862110288
0.4767958296047083 0.35539978825069757 0.057630750891985834 0.1709174092762979
0.4725781726636733 0.3552987731595513 0.04669756603535692 0.13435695391128682
0.46293688426099017 0.35506785911222094 0.05366031928606759 0.17610808646996656
0.45691256854558226 0.3549235738537139 0.06408741922388256 0.17919452088831336
0.44473559138971475 0.35463192896161044 0.07063819862158942 0.21849002839539605
0.43735940520038874 0.3544552653903962 0.05574901747891497 0.17553431455893953
0.39943546277872244 0.3513435401301594 0.07101649509578384 0.22381608911905324
0.3923880596296226 0.3476550380958321 0.07882328674297742 0.1962826958479837
0.3891449370327993 0.345429112844935 0.06516883651543831 0.14465675576083115
0.4107530218968774 0.3537179844348609 0.05994316585264973 0.20628053987761272
0.3908073118037938 0.346516064443157 0.05129974693572588 0.11090083811859462
0.3767806200813685 0.32726801224816127 0.07497772505092992 0.24795974647295257
0.37774714089261174 0.32993933385959273 0.058671686770982265 0.15493632469752266
0.37501541473335503 0.3177679020238003 0.06431260223943616 0.2264908671015136
0.3846542427253739 0.3410952150092282 0.08432981988470625 0.16728269255615422
0.3744648692910145 0.29819760899507886 0.07626463792600047 0.2533463301965607
0.374741248473876 0.30973720609378763 0.05585897470945114 0.16007912522836334
0.37446431670237884 0.29817454774615504 0.04675157967361782 0.0955224111036611
0.37429971347512986 0.29130190805517425 0.05787500922524501 0.12898628202529935
0.37458869747046797 0.3033677806490078 0.06663103371888299 0.17871573763544946
0.3736013607746695 0.2621437684599013 0.05920629470023032 0.2010677322606791
0.3739885239311477 0.2783088916520031 0.05385351180508738 0.1520879108496889
0.37401741091166535 0.27951502198948763 0.042726252897320835 0.07871174118912991
0.373431187317456 0.25503857117945394 0.04914501792861714 0.17750291978542468
0.37390568960026593 0.2748503297057261 0.06977057263598438 0.23871020434975412
0.3727323052162522 0.22585833157903157 0.04414265198776666 0.1533887015000234
0.37238965328392826 0.21155166586543026 0.05463210280071592 0.1806537057660026
0.37298989692805096 0.23661348765420026 0.048096726208614445 0.20242878749346907
0.3729244467668421 0.23388075375485648 0.06016087532019498 0.23034911768137525
0.3722693816142306 0.20653000455712933 0.033890922539236305 0.11162769388951216
0.37179676786817695 0.1867970816190559 0.04591721561996952 0.13873596686418904
0.3719314769065043 0.19242155544735287 0.0338073295736499 0.13642191946280405
0.3715317049570177 0.17572997719956512 0.047785074955422974 0.1295747759861572
0.37143567940922095 0.17172064860896327 0.035959463595624803 0.14717363982486786
0.370391745728182 0.12813354235972851 0.03184969820227029 0.12005700818178963
0.3710646055890817 0.15622729438527694 0.03583680121615733 0.12520224058406584
0.3706894791252995 0.14056473139259126 0.034386996121604535 0.1275319602748326
0.37001389345070623 0.11235718507892017 0.022154051330794226 0.09916769103721296
0.3684096685773574 0.04537637204904537 0.008321854960309953 0.07526800889482288
0.36939161753245325 0.08637545478846365 0.01981551502343485 0.07697294092128242
0.36885801079064096 0.06409589470542446 0.022023539167193934 0.06748905221867488
0.3580291316240847 0.14217864095357918 0.03767978584645658 0.13243825118193878
0.35759445599428763 0.1603275295798602 0.027965783579158326 0.1452470054462094
0.3576117752037068 0.15960440588392483 0.039363352426047035 0.12873263770710766
0.3583047563913532 0.13067056162583615 0.028416906561192695 0.12852484706387435
0.35878019534276007 0.11081969637271943 0.029192287133648298 0.1153181344613104
0.3569785314926923 0.18604405327444157 0.04028885490777771 0.1576872102575289
0.35583462967574697 0.2338050601781112 0.048553791723119036 0.16970248436138813
0.3561654497346801 0.21999241926369717 0.05500747270056977 0.19057736264103498
0.3557317191273797 0.23810184522138528 0.06071555031693533 0.2153636538894007
0.3562510183226471 0.2164197075880621 0.04355086884371275 0.18416450964629413
0.3567152883423714 0.19703516661148202 0.05230150931041452 0.14511120235645203
0.36020689482643664 0.05125111781231907 0.016945139835401773 0.07039463379576452
0.3593507618788506 0.08699699430582915 0.025589773472693245 0.08916027599886224
0.35926680420117235 0.09050248415809793 0.014943872817580724 0.08439640954301089
0.35996975576813006 0.06115230570434255 0.010132120163655854 0.07100794627058377
0.3541281518424283 0.30505513647598237 0.07131575534797718 0.21068891849543692
0.3554502029477346 0.2498559059731964 0.06426393842779661 0.21543098207916336
0.35484040697768343 0.2753165522732486 0.04240168657499101 0.1163733231236776
0.3552664433561224 0.2575283758671767 0.05075573356546929 0.14151461907382853
0.35443148628751203 0.2923900966558328 0.057427024748098396 0.16771761407672867
0.3548480538629091 0.27499726626141946 0.05703397526566969 0.20713417596234748
0.355155314803819 0.26216828644898077 0.06226349947098221 0.23121521379534823
0.3538135018749577 0.31709563721993306 0.04941390210021286 0.15188577739501397
0.3534354247155108 0.32029358835546057 0.07467736633386199 0.2753345848170027
0.3529856579901274 0.3237537226444618 0.06134751048689702 0.1783195802276888
0.35062002582099105 0.3309329026938333 0.07763275895780572 0.21688516037682984
0.34849364671568095 0.33458438715196825 0.06502470843732448 0.14880972370155332
0.34295163571291076 0.3424698913070244 0.08786951706482032 0.16043325546657028
0.33879006650297355 0.34607608552614766 0.07066655173894319 0.2069025038314265
0.3292869351401773 0.3513778641276138 0.0650239920037958 0.20416172157051493
0.32468528913709355 0.3527626825609822 0.07660681119617793 0.2766110308929358
0.32274692583130293 0.353205697158224 0.056537699811625236 0.19208369209367787
0.31210067469429315 0.35395942224038324 0.072734838791764 0.24109555851839462
0.3115739864883875 0.35397203556793033 0.047268882967911735 0.17508317208861165
0.30040124000406554 0.3542396273292283 0.05258666998588918 0.1530375987327188
0.2565013274706748 0.3552910549502795 0.0648935095779415 0.21115710484390537
0.31164333088848345 0.353970374782975 0.060872656507489215 0.20045142825536097
0.2687822595081849 0.35499691937500527 0.059367407406223774 0.17989147933691993
0.2798276981853448 0.354732375398282 0.05933505585274669 0.16786351258953364
0.26249369310227305 0.35514753499571 0.04442721581524972 0.13983614658972626
0.2529491322876478 0.3553761323582472 0.05082421153690418 0.18227027654532865
0.2903119830942439 0.35448127264523777 0.06833353252003052 0.1942131618115913
0.2405008363140475 0.3556742756232757 0.05984233018350947 0.19798195400761032
0.2040033051522446 0.35654841053531916 0.052405482300484287 0.16724385105278677
0.22725155119601037 0.3559916029602077 0.052403581793264056 0.1817797428477727
0.21785652337904035 0.3562166188384398 0.044271433777168426 0.16352401769904829
0.24177761005919018 0.35564369639200694 0.043079807444393374 0.13947807970402215
0.19012729948139245 0.3568807480502085 0.04732484073482304 0.15594293469911513
0.20129347693644503 0.3566133117245377 0.04197141931820278 0.18300480360622282
0.17105290019705902 0.35733758900283474 0.04074573974704671 0.14628901325334537
0.1439164413413785 0.35798752140921364 0.03797820256101765 0.1377827133182707
0.13294953450779606 0.35825018415980303 0.032476859721687984 0.10536025306553519
0.16388735807091193 0.3575092066253818 0.03084518711856482 0.15592960410361914
0.15927453892980986 0.35761968731208393 0.0436368677349883 0.15683454868568505
0.11201297541257721 0.3587516250092428 0.017960864324883995 0.08782404469083303
0.10345298540351332 0.35895664197650845 0.027702552442765573 0.08193876002395717
0.06393999012613014 0.3599029986534861 0.011853404468871327 0.06209122149206064
0.04555133032632307 0.36034341694664246 0.010059905851931082 0.06152612893565827
0.16678582788961333 0.37131749871861625 0.028114761064235792 0.14671991771661472
0.15813127237674934 0.3711102183403173 0.03911159760102593 0.15048255569700156
0.13397712070067302 0.3705317136230598 0.03331950573888667 0.10964091987106345
0.1681486769923283 0.3713501406446354 0.04413191014011074 0.1310890522469542
0.2398960040906285 0.37306852742499547 0.05935527367681025 0.211734154895977
0.224078604783217 0.37268969214064546 0.04920734069109096 0.20057729691960458
0.197182327468438 0.3720455121198726 0.04845559697303663 0.17307548357100458
0.2373632513838368 0.37300786638200906 0.04757070271488778 0.1727541236065795
0.21039696188333862 0.37236200964702204 0.05160117571333884 0.18835331525111443
0.21223739182488108 0.3724060879125534 0.0362890298813343 0.15077079690007766
0.17850415636956773 0.3715981587885871 0.02969231429619506 0.14956034110261923
0.08432352726426398 0.36934248325736385 0.022148899397596046 0.07576318603018838
0.09555569842054548 0.36961150010761357 0.025989406591928835 0.07529469927928026
0.10615253343304532 0.3698652994819974 0.018679974395959 0.08813101580627725
0.1458752745406479 0.37081667992421946 0.023829972662470326 0.1317121175324699
0.12328451052258006 0.3702756193061246 0.020979878379505615 0.09758633587300368
0.2948794651334249 0.37438540951621097 0.07410541576735186 0.21238297061578856
0.31638909095192863 0.37490057689631734 0.0691739821393749 0.20696388867809756
0.3076886881213394 0.3746921970866731 0.07949973309989655 0.26264372874112485
0.25479049128206677 0.3734252583534555 0.06044844135329805 0.21810458854422238
0.258738304960547 0.3735198103254179 0.04811087236944544 0.1613559719964671
0.29606288283932997 0.37441375211568334 0.04603155890366992 0.11264455394281943
0.2752432146756944 0.37391511133766797 0.05008505208107971 0.14837293606904495
0.2657364432857824 0.37368741905848724 0.0597818459867199 0.18466878122171962
0.2875095378706682 0.3742088958284444 0.05685838004383931 0.16742922401463686
0.3027795483528423 0.3745746209543734 0.062327198788227546 0.17161921981403933
0.3063118934086257 0.3746592218818984 0.051283951157839555 0.13447361823296508
0.2769016203007491 0.3739548310404647 0.07165260275554862 0.1859371165424856
0.32045983853446247 0.37534683800940755 0.08118422709317386 0.2445877619966862
0.3360269223192038 0.3808221208675875 0.08773820453768602 0.1770338751654186
0.33846189983313985 0.3824143274683927 0.06232240321845854 0.14034118727614212
0.3363861263397758 0.38114950802639724 0.07521295125270233 0.18073913818718373
0.31926321827989607 0.37516970764243746 0.05696527431771976 0.17450599658278243
0.3517202721224462 0.4004631200324047 0.05758896839501071 0.15358833971041733
0.35152269130053027 0.40002488944117 0.07280491142629422 0.23454718844309083
0.34889877210765463 0.39457051318495534 0.08421102152664214 0.23274569528993952
0.35372095348278904 0.4109040797191548 0.06904393991577758 0.20948225484555438
0.35411568944949096 0.42318171934187004 0.0789041358045187 0.2462618250846955
0.3545197355436665 0.44005176626594433 0.061054045990617874 0.1790137925531217
0.3551440684528123 0.4661193824384736 0.06750739174143679 0.23132142624979082
0.35480539125341537 0.4519786769149998 0.061166876934379125 0.20039134480660398
0.35462472381574484 0.44443530458606656 0.04346528609389629 0.13952169462121086
0.35535690245252055 0.4750057822049284 0.06043266973809072 0.2088022074669847
0.3552574074912014 0.4708515816430103 0.04044900044628407 0.1442688343002734
0.35548150718138954 0.48020836263632094 0.04626620281003872 0.14148298284464736
0.3550510494632664 0.46223557277464455 0.04872599020113074 0.15412320983985664
0.3542821148087837 0.4301304496226471 0.06717834698798644 0.19176580810677765
0.3558420326880013 0.49526130088223763 0.05887069013366777 0.20252817615985286
0.35579399308134607 0.49325550401188356 0.04132019893132897 0.12128055412387728
0.3564617295678968 0.5211353433274447 0.05155657671957504 0.16595301711160224
0.35641596437543654 0.519224519348271 0.03751152781296626 0.17194776615070514
0.35670608012200244 0.5313376484874437 0.0432899904332808 0.18324250454601865
0.35704141689180385 0.5453388859034571 0.03878975869435979 0.19275762224980908
0.35801058571473676 0.5858043370163999 0.03648745730676941 0.13675507402231518
0.3575398269263385 0.5661488755808002 0.03408350614162202 0.14791460494375425
0.3581605203558604 0.5920645214063884 0.024430689958808063 0.12935705994334293
0.35895440285061747 0.6252112781649025 0.02986962113906416 0.08321469382462324
0.3586212251617225 0.6113002024932694 0.02989271961662731 0.09721847252972007
0.3591956138552883 0.6352824919075215 0.015090075925774705 0.0844260833227195
0.36002647687162737 0.6699732943668761 0.012850585203909946 0.06688980591626639
0.3594886688376378 0.647518340247809 0.02473987256752201 0.06943460393948916
0.3688775837560383 0.6638440728147175 0.019799078144424973 0.08084922075420581
0.3694864902758444 0.638420566396945 0.015477470721709434 0.0782883996563919
0.3707567854944859 0.5853822959951764 0.034189006916742294 0.15185378217346437
0.3710712679819814 0.5722517996547846 0.03185066728180862 0.14418188505131116
0.37044683886979773 0.5983234080302546 0.03294200663523605 0.11845412570615761
0.3716555357657743 0.5478570254327213 0.03305337400568479 0.17554020144179344
0.37195034892494455 0.5355477666354678 0.045703947273635935 0.17083502864832079
0.37243014637451466 0.5155149009274266 0.04110464336929528 0.14732279922949149
0.3719771047522289 0.5344306348590382 0.033892642663255326 0.1734335613129696
0.3700609954294398 0.6144334174848007 0.021655499568275817 0.10342462040322532
0.3691665117508282 0.651780539271257 0.01351375044662968 0.06410824140699616
0.3684781082720966 0.680523260410899 0.014630818919803286 0.06365263925212532
0.3745015525027611 0.4290280538788241 0.07451834434621077 0.24637134389280554
0.3746748334429599 0.4217930913490193 0.06112872091361691 0.14707965907896606
0.3747748717450189 0.41761621946787797 0.07698334774818857 0.24841129211164356
0.37303578789111635 0.49022772994099595 0.05979773543927843 0.19668027174645664
0.37219743645371506 0.5252311901502413 0.050992078301139096 0.16941468343815877
0.37269566903063595 0.5044286178634256 0.054357122385876366 0.1690924842077944
0.3730935323149252 0.4878167187156993 0.04332607370529049 0.13400028197267602
0.371668339351661 0.5473224451024298 0.05052329855837754 0.16468203728118228
0.373528876161097 0.4696399254171282 0.042470454772306626 0.14589148335458188
0.3738078088618094 0.45799372610595745 0.04271054233416883 0.12202926529522556
0.3732706876646682 0.48042001561908365 0.055479028095036007 0.18499642514068435
0.3735745819431217 0.4677316084287352 0.061608068656690385 0.18726711159410872
0.37395333610197495 0.4519175814850263 0.05677928815865669 0.14691485393196776
0.3741081602834114 0.44545324332495023 0.06792870227063223 0.20688720155841892
0.3738283568357305 0.45713580818561356 0.06712928793584824 0.21977702547299022
0.3742656820236133 0.4388762828679883 0.0564820618028361 0.1648006064337758
0.3748350420731083 0.41510393655231026 0.04955024893564613 0.14386249741311247
0.3817102428418544 0.3916331775023838 0.060092177335264806 0.14893082294644935
0.38311960219851543 0.3895109528202488 0.08210971894307328 0.17829784736809998
0.375568236734157 0.4059285503358397 0.06046523555835957 0.19674474072864612
0.37861321249302576 0.39707534808598766 0.0703200070923619 0.2133317420299478
0.38569509676262376 0.3865609887290145 0.069392404929811 0.16221070419526087
0.39005820853051565 0.3826283100305109 0.05425871341743957 0.1294717639214271
0.39423054632127885 0.3800018838498517 0.08814923000579325 0.1787073568132421
0.39567769691795285 0.3793951772934739 0.06928837191782453 0.1731888245955156
0.4063945193996883 0.3755570498235514 0.07659000180359657 0.24470351446856448
0.40929548913503055 0.37519040368714673 0.056812266343825926 0.17624555162838643
0.41935105470131945 0.37473333466034164 0.07582696162138498 0.24058971909906676
0.4330125439975976 0.3744061357610759 0.07774024694599724 0.25395011136520934
0.4213549167656698 0.37468533976820556 0.05074070766541821 0.13507433204291988
0.4487415840161279 0.37402941481363383 0.058810232116855675 0.18364465447076403
0.45613350494448823 0.37385237440197794 0.06732028303699107 0.2056695433494668
0.47339732447886945 0.3734388980074987 0.05924761848509082 0.20878059875871943
0.4819195574457073 0.3732347865754757 0.04809667921915486 0.15159457599531814
0.4661409962675527 0.37361269219781823 0.045557684174014804 0.18187105058269668
0.44336414643462607 0.37415820799065663 0.06996970578333422 0.21383325398038322
0.48758084496262266 0.37309919485217047 0.061134732827252306 0.17970160930864712
0.5092032212705923 0.37258132957328005 0.04176320851246368 0.1571968272055198
0.5269809601229949 0.3721555428689848 0.05703276021703137 0.17025828956631628
0.49926405086730075 0.37281937721328334 0.04772678466334916 0.18334381770286068
0.5079526743327771 0.3726112798458947 0.05543603690366457 0.19713960186405446
0.5200484970874909 0.3723215795820141 0.045600867189167935 0.16745152610524588
0.5365238697855106 0.37192698602291935 0.04650744876266244 0.1638323020881012
0.5518905278336688 0.3715589437574886 0.027649742076425746 0.1387616053159086
0.5569207449468727 0.3714384688533804 0.03848065459972312 0.13671460326971843
0.568735972945417 0.3711554882194428 0.03797610096566391 0.13655065894384827
0.6175843334467636 0.36998554323626814 0.017588337218814244 0.11165647482301425
0.6143810327331168 0.37006226517318047 0.028659017601779364 0.09803164060741901
0.6044844939942564 0.37029929136338713 0.022049751030445736 0.10671729499003
0.5942234235236312 0.3705450498827598 0.029099053513903517 0.12398447517073731
0.5830912926282835 0.37081166978783187 0.02819765413430204 0.1333869635194999
0.658282715123552 0.3690107959997259 0.011904752795351928 0.04971204348172159
0.6464760192398515 0.3692935724978308 0.01344712392407949 0.05822296726257336
0.6319639815221822 0.3696411440667864 0.02193181219786325 0.08554585953430938
0.6432453720424975 0.36937094947527893 0.025873193262949883 0.06281389882602299
0.7098508370536676 0.34315946960798943 0.011089571689888358 0.09001598799558679
0.7285335281985851 0.3632824658157652 0.008445319301685834 0.11411995557894687
0.6153939479399299 0.3407141271541747 0.040008962716958994 0.11731791840761611
0.5871407264311868 0.3400374461984733 0.04374235038118467 0.13597596833360862
0.5729199879285651 0.33969685037960906 0.04691319363099434 0.136495544303253
0.6688959361877651 0.3419955273745725 0.022995202337950577 0.06794521371121638
0.6819781271328782 0.34230885349348633 0.021134160781208087 0.05217765189577409
0.42732695710211477 0.3362097929357765 0.08251980803698802 0.12355652036430154
0.5298417627534178 0.33866510341318384 0.059662547967409385 0.14286801229994586
0.5460227330757402 0.3390526466505812 0.05634989096114221 0.1497191314398972
0.5118899581734876 0.33823514654375336 0.06637524840889747 0.14812141957804426
0.40714988350317843 0.3349531981050552 0.09059813041466774 0.1418792164168096
0.39736750973556223 0.3284363174632744 0.09139744535096807 0.1332701328015723
0.3924418629445289 0.2970215066691328 0.08148753502714555 0.11983345822223727
0.3914681628472237 0.25636685035093787 0.0702674400589713 0.13846229125380546
0.39071653373223425 0.22498430121398388 0.06709962462589064 0.11655091598490079
0.38996258248649135 0.19350471427074648 0.054971116675795705 0.10278913700201371
0.3885785341011616 0.13571696309145193 0.04342456494269416 0.10877989810211487
0.38697177436099306 0.06863027898234043 0.02596863670779298 0.06650469381320591
0.38625724942495376 0.03879695631244875 0.020599004922454936 0.09130275370253021
0.38592887408878684 0.025086397563754765 0.014450026021441693 0.09962889121452202
0.3796243592454298 0.006396771762664407 0.0078049473680292195 0.14888405435029
0.364352887618631 5.254352731229203e-06 0.009019569178882901 0.13061640213153897
0.3488970152175423 0.00663332744263425 0.009943269803144724 0.12244331456487997
0.340765744558035 0.1112075189074036 0.040125466243056886 0.10641101044262836
0.3402094526547422 0.13443422130108346 0.041933231538180155 0.09834062018360108
0.3426772291143529 0.03139785097096004 0.015449080597937133 0.08224427748969051
0.342393869445283 0.043228885352382944 0.02214741811340519 0.07373687286755286
0.3420708894192243 0.05671417044683417 0.0268185058845273 0.09797128616752424
0.33708678685450666 0.26481402210057003 0.07504377695725087 0.18092694332218268
0.33617964076494194 0.30268834757346885 0.08497028388580513 0.1096136590601126
0.3386123398440408 0.201117979849195 0.0576609696036436 0.11998394410151479
0.339093585818599 0.18102471817495605 0.054156866400931675 0.1495969681335859
0.3383345799855539 0.21271521325662734 0.06485882135582792 0.09718783707830649
0.3202085945403552 0.3353343486288203 0.08474217843861614 0.14140912385308152
0.3065984904505821 0.336085965338575 0.08392379024602367 0.18948033561788963
0.25539901793272524 0.3373122931349838 0.07333037997383313 0.11963424895778893
0.23887385416148463 0.3377080786330452 0.0667026949868264 0.16556447535860208
0.2208784690723113 0.3381390752910852 0.06727720144291151 0.09216094660835678
0.17227782160232258 0.33930308917640906 0.053310641241219106 0.08691219601143395
0.15558394333015646 0.3397029140937533 0.04730825368265337 0.10534145099612853
0.10936045131761238 0.3408099948924929 0.038529666087715415 0.08514421504733209
0.12236072762765063 0.34049862887128285 0.041719264576539454 0.08660902253779112
0.07323205017751737 0.3416752872256089 0.030881268242576223 0.07742479962159945
0.05195990140998795 0.3421847674167501 0.024858582886010876 0.07332652349781854
0.020560223054517348 0.3430001419713589 0.016329134316184903 0.10622559243527047
0.0022904880862064008 0.3551236396479892 0.008515721497186018 0.14879528619363636
0.020839724490856245 0.38578406903564655 0.01309848437840465 0.0982658362484473
0.004049228768832709 0.3761995187941821 0.006200507680781934 0.14063136437338858
0.11450078216889718 0.38807040707816276 0.036449212949946894 0.0979570485946997
0.1020241825895685 0.387771586291687 0.032715312779508 0.08794517732270973
0.15205441216382337 0.3889698357181697 0.04964895577700079 0.09897638490640975
0.12780527166916383 0.3883890553946434 0.04289430403446915 0.11785304891873685
0.050205552201721175 0.38653050276970674 0.01948653272480142 0.052449628988486506
0.08535573998595677 0.38737236566910205 0.031710035287495955 0.07465622044656425
0.2659241677012457 0.39169707715722757 0.07687634292910148 0.13276708645469104
0.2774298117545287 0.3919726431824163 0.07645991007484898 0.12731798944607572
0.30976855212089593 0.39274726794016795 0.08361543758354778 0.14865135748086217
0.29823178412497375 0.3924708594583763 0.08165817541097639 0.17380524246193357
0.19973546069432274 0.390111820212232 0.05874730915891917 0.13536557823277706
0.17830830940374065 0.3895986314042802 0.051645353775858396 0.10684242048402508
0.18905420016706004 0.389855999242928 0.058167586487274776 0.15565307800122377
0.24706210927144087 0.391245320745158 0.06774385021183543 0.17861086232795303
0.3221127872124408 0.3939418051265918 0.08604498449097892 0.12043318223412804
0.33592564256252 0.4154677603491825 0.08863888480516006 0.104367613061703
0.3361802601665688 0.4260947658172769 0.08127274312087512 0.12398643333742097
0.33711534757673517 0.4651356712502349 0.07614763736427752 0.12142710707122441
0.33678311980697884 0.45126425103076523 0.07940026891234728 0.1062244954989105
0.3376032053676734 0.48550505660236853 0.06716100930636584 0.16754082719441507
0.3387224699465622 0.5322374879402259 0.059172214287248545 0.13496417816437742
0.3390185177250694 0.5445982710913656 0.05329030647009581 0.144403730788984
0.3382873266306673 0.5140690339587914 0.06394746177835751 0.14594600104544392
0.34063661212290985 0.6121581419756168 0.040557025999352805 0.08665624839177812
0.34091427656793566 0.6237513993826961 0.03770397226133587 0.07388170963164904
0.36210194673597734 0.7282925897541793 0.010545476812844021 0.15323021030387218
0.3495165359311553 0.722623476300351 0.009995919536019544 0.16443680360468738
0.38524945033240443 0.7120777675657637 0.01423044790823503 0.14540000576334372
0.37972287293001616 0.7222929937881517 0.009388589912406889 0.16450477368182198
0.38788836502912627 0.6218567634932973 0.03538214934296703 0.0839499613346194
0.3875360783136463 0.6365656410361278 0.0323487135762737 0.07539696352075004
0.38844173743489363 0.5987519312684667 0.03944212920929918 0.11404901197965024
0.38880250799203503 0.5836887757546763 0.045404404441811506 0.14555178156253026
0.39165332841006173 0.464659196534448 0.07752941626141421 0.16726353064399008
0.3926503332028083 0.4230341200642834 0.0868744419653236 0.15491421649982584
0.3891956919673485 0.5672723082859197 0.05187224335083858 0.10861516771213006
0.39020104918275667 0.5252958693056239 0.060739456919094985 0.13071003683253693
0.3905630003320509 0.5101834009122123 0.06378816316111433 0.13162862235852985
0.45050349777662235 0.39199238068086373 0.07781372523140724 0.07870632179354164
0.4707392226929826 0.39150772358447583 0.07610449916613088 0.16489429530962418
0.4829245509136788 0.39121587972240607 0.07211219349813729 0.15476167477672526
0.49914390520494584 0.3908274169951693 0.06566192570886561 0.15918734173997606
0.510283813389945 0.3905606092499428 0.06653998749014256 0.1459657601950311
0.5321971165635351 0.39003577351742946 0.056626616778942256 0.13470200371792612
0.621289018112917 0.38790197867100534 0.033630999685899186 0.0905430130139163
0.6477611676480998 0.38726795403314757 0.03245181844101491 0.078569520387017
0.6677651677230929 0.3867888496773401 0.027478377180459052 0.06278192083122228
0.6979953846678049 0.3860648206905716 0.01728349874189768 0.07260427453930199
0.13348452777404313 0.3621784924771857 0.020739920552625475 0.1248419303295518
0.15677288859481858 0.363379661935077 0.024192971151645513 0.16857421365658992
0.0888884907164326 0.3629071937985895 0.014136115112065554 0.08190483644439119
0.024348902779252876 0.3630554094458987 0.004575154546644816 0.09666602200021923
0.3342070047685599 0.35211445363209803 0.05009178307419439 0.1324438315349094
0.21151453756676797 0.35885797106012923 0.03228571752427709 0.15596272849891055
0.18238111797261142 0.3576552959435648 0.027969758184380623 0.12686442574072798
0.2807334915521559 0.35602927997313644 0.0424946703794671 0.13761970278970742
0.2917203997883543 0.3567015112381693 0.04412269330552395 0.14059587709749619
0.37366683071631807 0.40060322072168314 0.04939062588025252 0.11883820895677687
0.3658382916834717 0.42351661061991674 0.046186651520609794 0.13732557262539782
0.36907845249878873 0.5791321311573733 0.023121007981018293 0.14360618173059328
0.369858757995555 0.5921155570060712 0.021199395105345735 0.13602775545901488
0.3689822379666514 0.5608546516585564 0.02582616764758582 0.14971200497266832
0.3655926748128352 0.44157078427781876 0.04351179482327139 0.15773481464937691
0.3592359713295559 0.5468177698233752 0.02790704567676668 0.1684753859065848
0.3624699148167495 0.4617509813188302 0.04051971945959542 0.1213695043282642
0.36175163034407387 0.5349515794733463 0.029666420757934443 0.1886045904095892
0.3686751850674724 0.4977019391374227 0.03518934657121588 0.1356545614213343
0.35510486555308796 0.4142744003954878 0.04742199989890932 0.1798390811488034
0.35467437764917337 0.42672193433842986 0.04560155176735146 0.13364809845291056
0.36101575685648024 0.7025019368817229 0.004856257511879406 0.08794101913329194
0.3648978125183907 0.6247576568570772 0.01636819877136945 0.0876811239939576
0.3583279249575952 0.5713510527599783 0.024272647048341308 0.16033296520102472
0.3591946381817544 0.6072007162020125 0.018966715034592446 0.11997427709343166
0.3579670245088522 0.5079832490816647 0.033652930629995664 0.11024595513932361
0.3545304261997647 0.30431447428987607 0.045930363871591384 0.13914033572883447
0.3583537792602781 0.25970861888343905 0.03941618932134028 0.13540225464931765
0.35878434242067725 0.2341230565432954 0.03563400273855331 0.14250519245892798
0.35719753691314027 0.24683042304144476 0.03750225010033994 0.12161476776988565
0.357999091685399 0.19723442334395785 0.030170473722050076 0.1583018686081956
0.3584923712985786 0.14281266921690539 0.0221127221635222 0.1382176476441378
0.3626982348664331 0.1251404346905582 0.01949714310228405 0.11249692362557973
0.3650281111128113 0.0778633931951015 0.01249868709118281 0.07777601543820502
0.3576804600682308 0.17208283822877427 0.026445611561072557 0.16429467907838974
0.3644647647453587 0.2935951378505575 0.04446198890772709 0.12902931406348014
0.3658180307670479 0.21692912159447303 0.03309487724221173 0.20608096418063776
0.37320492466041577 0.26514073071291927 0.04018890374184977 0.1089702107967343
0.3693415698337648 0.32802706859334674 0.04947355259474365 0.18028498834891582
0.3697328006303586 0.15312066528472806 0.023638357115804316 0.13689520781578007
0.36288389115884656 0.10538946960037944 0.01657390152510274 0.10967040319880941
0.36982617683467456 0.13589210840859034 0.021088444564938535 0.1330367535046803
0.36851260006711994 0.24192386815476566 0.03679900485439419 0.11108855325498268
0.365217226805102 0.317119294478506 0.04794871897116724 0.205276768034067
0.4071776034593083 0.3554598388216033 0.048455849475869436 0.18262282080180034
0.45700561982036997 0.35740713246751243 0.041186331520995254 0.11891499205019979
0.6827701988876822 0.36164552152010926 0.007779029535246096 0.05127771691041263
0.6093558120989202 0.35903131836916724 0.018647751691520914 0.10098270189987611
0.4348278584677233 0.3622960297535847 0.044508510216306724 0.138089885119789
0.4387003136923658 0.37400132354735893 0.04384748173376614 0.12107230937460968
0.4828054336573731 0.372873106218014 0.03736241722317119 0.15384314609834293
0.49506949409135576 0.37181631864902254 0.03555588135616773 0.13756913230676232
0.39760700840511354 0.36662475304843967 0.04998624241399678 0.16360198771201628
0.5721300450537232 0.3639012658999602 0.024157347436498836 0.1575130347426307
0.4483852822754224 0.3646240005661717 0.042501414342688615 0.13833376842787062
0.5580174740434929 0.36162917214273166 0.026246473564522376 0.17793062923837147
0.5353672837077357 0.3607877051117263 0.029604774834164887 0.19388147043311874
0.47847274067032614 0.36146604491134154 0.03804041466268604 0.12267610591963281
0.5263156848075966 0.36901483516326294 0.030946815635168604 0.15755343573419694
0.5145502464714553 0.3685254648587505 0.032691255265457214 0.15612057891627817
0.4230296068207014 0.3633078686350879 0.04626085381657096 0.17186760845896382
0.23894512079789026 0.37092783302713833 0.036342448801865164 0.1472719643388505
0.2506809626425047 0.37238621641095654 0.03806579596240065 0.12743603331299067
0.22292790691563105 0.3652320949315975 0.03399416306681016 0.1454805998277782
0.19199373858333166 0.3700629341025935 0.029396512472197198 0.14028195514312874
0.3241451960685836 0.36925995629056385 0.048917265256184325 0.1698007544482439
0.26067347953282677 0.36690717353095514 0.03957965731771128 0.13424684255258373
0.07550003987106746 0.3676729927374233 0.012150388372048473 0.054282612361275275
0.3663988196993339 0.35980768267935015 0.050327658653259284 0.059977128888405645
0.3691408010953576 0.37101735587001544 0.05032765865325928 0.06117986129392583
0.3560596144039696 0.37576242407174976 0.05032765865325928 0.08630464386746013
0.3568301592075972 0.35063477067243676 0.05032765865325927 0.07604266513637849
0.3826061536331597 0.36188822600597825 0.05032765865325928 0.09233665773902704
0.37768895782039547 0.348054186151526 0.05032765865325928 0.08767478598877435
0.35948133560795836 0.33635868111585643 0.05032765865325927 0.1007333573168978
0.34464479441863105 0.3421158319924529 0.050327658653259284 0.1259491297747923
0.3744076917242472 0.3863750105704673 0.05032765865325928 0.09727044080913191
0.3494443041733315 0.386559298523096 0.050327658653259284 0.09362091501752297
0.3637053704262996 0.39475835267269604 0.05032765865325928 0.17678546252509397
0.3476306746595945 0.3648747732341415 0.05032765865325928 0.07322585303153749
0.3351625601284486 0.3727122121626529 0.05032765865325928 0.1460172112304804
0.327517620000451 0.3396065564360826 0.09242144327941672 0.14099975365797388
0.3425323777674105 0.353614072478717 0.09639407247798598 0.1371571354261245
0.3236934753071819 0.35183732849299626 0.09279591026828322 0.1673524010713688
0.28332864407426456 0.3642668584073921 0.08204473326451871 0.17646603704747016
0.29113236443780965 0.3520642376425903 0.08519285676600374 0.13338036654406357
0.25652484060707825 0.348519459838457 0.07652028367578073 0.1383849715922881
0.3080936190365853 0.3468616247277916 0.08902935112246282 0.1981636683556141
0.29394611188496433 0.3377913251558705 0.08494498238016004 0.1392696739887811
0.3570559840205386 0.31630744517965653 0.09158261176427837 0.1269821251002395
0.3580934307250279 0.33534391805038494 0.09530472911168121 0.12290206109064941
0.3472177684602337 0.3031164378563209 0.08786106301693487 0.13314969695708906
0.33742400094357883 0.27473519152949977 0.0803857160193864 0.1230193654146797
0.3481377121620842 0.2223966590678149 0.06810367920166341 0.15639164658374727
0.36822017124258233 0.32130347837443457 0.0926632377251349 0.15050532987765344
0.38267632110490624 0.29876262622346766 0.08674079236169305 0.15673373751606737
0.38381171088217936 0.3366688430982066 0.09449804126557743 0.13447904549830028
0.3961902907642655 0.34003621061662537 0.09327875804518798 0.11152253297089093
0.38593258695808436 0.3502658369517077 0.09607394286927619 0.11536025588682595
0.389978094624549 0.31641331993129673 0.09015753811789545 0.16440184374763028
0.3911140991779242 0.28110992137453605 0.0819229335367472 0.12398199247045984
0.4429041030270332 0.34548222870562284 0.08358573932928273 0.11614217365441397
0.3947715430100953 0.3601665544752859 0.09511737767301165 0.13204808482991426
0.40757518635798706 0.3610154781941346 0.09264386807245321 0.1428460985070183
0.43409691029588016 0.3591318985138368 0.08627431519463105 0.11716359556884
0.454994457259192 0.354461553842363 0.08100136699253624 0.15296142725524822
0.4223607261195202 0.3587585688281751 0.08919889591952997 0.1261942859487981
0.410590154873606 0.34617492159107066 0.09133506371133508 0.12249622001542758
0.36571524715728576 0.3088236669686065 0.08985718564831799 0.16653097085593174
0.3892249463258264 0.24554527167477183 0.07346550119298315 0.1251544643531856
0.31026613290218097 0.36165609976035973 0.09020427492754589 0.1651113388276133
0.16340389280164413 0.3482355977581891 0.053475529060470366 0.15769321478331802
0.24300507613902167 0.35335166065350065 0.07333557274612179 0.1539960513178706
0.23168647009677829 0.35097837513847496 0.07047036842143493 0.11534248611943206
0.3389179648386659 0.23432961918382944 0.07069896940870701 0.162374015651882
0.3430126473011875 0.18936285456356294 0.05978530015365756 0.10663647617905249
0.3497164911817874 0.2418755865942416 0.07297486120967808 0.18808525468554976
0.3446338232943753 0.0869965511973635 0.034390206740603724 0.09588814923315013
0.3499339763829047 0.2540101990030546 0.07597899289787291 0.17918952679312897
0.35219070040028744 0.2714363548240293 0.08035599842645338 0.1496167491663276
0.01568397389135006 0.3556868844858946 0.015244420093781968 0.09709173384978168
0.03192316584373204 0.3439703420294926 0.020476153601635575 0.09430285754359215
0.19463265285003245 0.35488732057485184 0.06112172356523267 0.14988569820213965
0.07714857491705054 0.35229292483891306 0.031160452852695225 0.07507665588866697
0.14699935071656173 0.35978901108350436 0.04850995399579699 0.1352623352492266
0.23537912588250456 0.3623953174090251 0.07099789327184006 0.18081244712781327
0.07057923164796123 0.3639525763243069 0.0285648375157534 0.05715407138359782
0.13091557971362852 0.35315002293341125 0.044898079237817384 0.1297055459526236
0.14223473844443607 0.34895762457097484 0.04813105561644083 0.11839444371852054
0.05960882769644573 0.3620614584710549 0.02589566219148297 0.058798625802592076
0.25531146937054605 0.3608522619573659 0.0762357293814819 0.1709105627741858
0.20683177022180876 0.3545964344293185 0.06427647074207149 0.14334158781964876
0.11818164366236755 0.35249429538222904 0.041679815966011974 0.09428968431222773
0.3532701993815176 0.03747076091748376 0.0221696465631345 0.07123548094501944
0.3452982740637317 0.015860318094980078 0.015777634820144854 0.11105881836041671
0.3573795414734653 0.019771597290411787 0.01684786110806256 0.08748717837178673
0.18553862014905928 0.34612434175096385 0.05891724376079121 0.1417127727422176
0.3895569585196811 0.18056136956787142 0.05748845242810998 0.13098954204948576
0.3762534111294217 0.26712647729268224 0.07930346476086461 0.18693850543102677
0.36724892271350695 0.07819752574866627 0.03224860924185005 0.08030064607261787
0.37849795730902536 0.08655741136860126 0.03430040773139928 0.0781226702818082
0.3864797468375318 0.10162161107380892 0.03799767149870586 0.09291117934011014
0.3746468041526446 0.09718932764789034 0.03690983933783659 0.09400567838016433
0.3613622565181641 0.05590535449922027 0.026777356957091915 0.06776064037448004
0.363225050580719 0.09374493647085194 0.03606446932492498 0.077837891777398
0.3588001630441222 0.06972766309024815 0.03016981866990837 0.07425860988603056
0.37829176351327143 0.21169731282095156 0.06549287625369973 0.1514583262338453
0.381123747689142 0.1944032798324138 0.06114126287377035 0.15128925532648216
0.368967329141573 0.2046030506035475 0.06376768729323916 0.15166550667640466
0.3744184056777392 0.1818272064135599 0.05806389280695186 0.14115045535456847
0.36289175720977646 0.29473857306057866 0.08634048379292047 0.14371734919526483
0.38449060341553987 0.1133478538279913 0.04091448879610967 0.09846628380058924
0.3601420100622224 0.22262572757927523 0.06828113780268211 0.18630718763237564
0.3632892080466848 0.19056585535055073 0.060252327940623886 0.1390387738029316
0.38014969617569133 0.15640056261715035 0.05169625394004622 0.10356746362310895
0.36408717989628825 0.11912468812223263 0.04236119150977567 0.11250513830037773
0.36362324571801924 0.27755082036107664 0.08203612482991941 0.10508555708275182
0.36660971229835543 0.25790982735735857 0.07711739660780315 0.172330960409042
0.3613464697223354 0.10783667342598724 0.03953431425119843 0.09757805191904483
0.3659285250890354 0.237240096257209 0.07194103970534849 0.16970741938960024
0.3790476798671245 0.12358578265999666 0.04347839121552755 0.1109669341182974
0.37108550972699206 0.1421131516842593 0.048118232637188466 0.12221558726815158
0.3620157875952832 0.1782437856367026 0.057166490475842165 0.12456087041327304
0.36936930153536196 0.16348019957727872 0.05346921980340806 0.11857888690386137
0.36044941193814406 0.13315302636373288 0.045874332785514525 0.11603659566208498
0.35953765664732007 0.1551491709630199 0.05138286573992177 0.10403973319581668
0.37744232038317566 0.22405050557570794 0.06857304730338853 0.17559066943461363
0.5150787040149684 0.34968250076886537 0.06596433928942036 0.1371441006829021
0.5985915142516871 0.3403698434617525 0.04505368808631111 0.11168342685458278
0.5639232923920209 0.3454360998562447 0.05376278661628241 0.11846059240413713
0.4671176034142259 0.357186705180557 0.07802552353927782 0.14576502491123838
0.4975755553111366 0.3382110383723929 0.06989501993552948 0.14435528769122077
0.3784043910863556 0.01563828866472505 0.015623565681443956 0.09854747024830926
0.3701020609974007 0.038975096027173105 0.02258755143056347 0.06397066193587045
0.38617828626929823 0.052437398590904974 0.025799066978737493 0.08160691622560999
0.36868752330635796 0.02459823375828149 0.018367824437800846 0.07661071277125246
0.3761828060267008 0.05781670593394435 0.027214868270982847 0.07021117158927448
0.7203408616647708 0.3492358629075496 0.013302015367851232 0.09368189909300004
0.674242509351678 0.35314524258292695 0.02640019785786029 0.05527441772197996
0.6866307069348665 0.35392847542636413 0.02333143489880041 0.05779497534112027
0.6928212189667048 0.3436126762794078 0.021709072452949212 0.06764865917992696
0.37823829228817946 0.25234394471192156 0.07558753534740117 0.1704820607179617
0.38781396275883095 0.1685676534504016 0.05458044654493458 0.10975770122832544
0.5541983235364405 0.3640351069293509 0.05624368873179107 0.16070704719688245
0.6197690968785813 0.37151286746747064 0.03982268443292279 0.0905747990126929
0.5143520798515503 0.3749868954224017 0.06622245374389779 0.19016865709719274
0.5894640127686273 0.35400178526429343 0.047412040041869066 0.1290642033339464
0.60169545971741 0.36450645728142894 0.04434889723159116 0.0999406823920247
0.5086050121810699 0.3658758526234803 0.06766170202651937 0.1631061167103267
0.4800677068391101 0.35742184944135985 0.07480834968390293 0.14656461146636632
0.5934798923057696 0.37169009133111575 0.04640633625370328 0.10636524606797973
0.48297771802934186 0.3708920402564885 0.07407959045431124 0.15697144638947821
0.5828644793835891 0.37507774964175816 0.04906477281536815 0.1283869751866356
0.564407498160798 0.36043736602964316 0.05368698714281147 0.1284548959790867
0.5739271829339823 0.3660611417816414 0.05130295571209075 0.1234936588343654
0.5281835209742824 0.3523111827677651 0.06275862157356774 0.17317879829468028
0.5394594551306345 0.3706242915996312 0.05993476951544028 0.16943567130406534
0.46321824650365984 0.3674979082656547 0.07902798972319801 0.18205372796190858
0.613578374539805 0.380485656786737 0.04137303793581204 0.10534528751436767
0.5496978275978812 0.35072538500256645 0.05737075585922154 0.1690943486773372
0.49536972616257446 0.36869907128719 0.07097623802371478 0.19310969233726402
0.5237917179596387 0.36435812257196554 0.06385846854055321 0.16315918012538674
0.5553953256497699 0.3758431707269406 0.055943921383521826 0.14383709900723082
0.6005595694828161 0.3525362457637633 0.044633360224394125 0.10906220816641414
0.4492522890550763 0.3783404355820922 0.0822770726286877 0.09622073632684722
0.40582310912494834 0.37589438463795677 0.09269918682388643 0.15070549792994867
0.38815143146059244 0.3876614779368889 0.09465026861022979 0.11599969070895494
0.3774196016936881 0.38053043548752824 0.09708270784079961 0.150192576542105
0.3851008990709619 0.4055860803067101 0.09208444128773664 0.15802681125379583
0.43159104905636053 0.390894526203756 0.08570222255272517 0.11997421959029239
0.37105002088324296 0.39800129890141445 0.09440088509935565 0.15882691595625578
0.3784987657965688 0.4201052563563699 0.0893819258857402 0.13891813890808008
0.37879726852208917 0.4551039771565669 0.08081844009847192 0.15528339350261627
0.3813301946683615 0.517757894824325 0.06525039544914207 0.13542850638880427
0.36772289213292914 0.41595612275093186 0.09082528633720349 0.10700472522663518
0.3843305048269536 0.44392881805027534 0.0832752464204842 0.12602396855138853
0.3897987077450742 0.4342433758844204 0.08518122262327252 0.17024147377140564
0.35870574323104654 0.4003564789400962 0.09399828203129136 0.16206594387467452
0.344753308174613 0.40719079469758424 0.09188867028931165 0.12793043011399796
0.34504549055153866 0.39327428428618694 0.09431427052452146 0.1382901559475687
0.34501896209222893 0.42223522542437386 0.0885086555815178 0.12860557403464673
0.34217769905174406 0.37446565707154206 0.09640391678314306 0.12850738231123363
0.3182765830922841 0.384763598054352 0.0911484763703265 0.1319337859547981
0.2836613427349692 0.3804914757755934 0.08320898424198231 0.17207104682005595
0.31371088263128266 0.37406252671007484 0.09086224023368895 0.14925898566954895
0.2963151497235197 0.380923105585001 0.08625576060888149 0.17331790211279635
0.2653596978446046 0.36556095140999034 0.07854166905875093 0.1720739765319149
0.12581276650915746 0.36451558382439786 0.04230423118373926 0.1003861020342449
0.18149030345583134 0.3652162448464729 0.057036210871732156 0.14060484216866917
0.29427024967709253 0.36541272512605344 0.08569706373093215 0.15245209717829797
0.3244092742336481 0.3650110889109168 0.09291801504626332 0.16583273200899798
0.35011693571368296 0.44751396345820615 0.08269445948010985 0.15537533031633274
0.338612640803747 0.4967779641345985 0.07011015184447307 0.11851711072163013
0.46791190524174864 0.37975870633600095 0.07762816768856393 0.12884309688123996
0.5228165196716956 0.3892256146375571 0.06375581147725742 0.15999613167956728
0.4246855471433972 0.3760699406502197 0.08841181817685358 0.1576757774677689
0.6546378943787532 0.3630725583605874 0.031247691454855366 0.04915227124874781
0.6391535414703884 0.3626756953866368 0.03504807501910767 0.07117097831252034
