x y z curv
0.26161973651330694 0.11817236969598255 0.4403243004554469 0.02916439989866219
0.276384055812129 0.1346032431591548 0.4399627023382957 0.029434303552298077
0.24086702852895459 0.14842574117920987 0.43911108779262753 0.030214016564941607
0.24077998445052168 0.11761434039818251 0.4407323568217808 0.028711898701167894
0.23901051781016797 0.13257626399597328 0.44000661503506633 0.029632700464802788
0.22918780389050009 0.12411079941828572 0.44078490904491074 0.027246203712418066
0.24809197073814637 0.1572678022428365 0.4384012556648105 0.03158645023813357
0.2512018621720944 0.12909317060191017 0.43977543872850267 0.029845061452264322
0.2055421000166789 0.11948395478939841 0.4418311302288651 0.030418947023877686
0.22510934345200498 0.13745728401705568 0.44022244785040276 0.028778238508294543
0.22349258900755056 0.11031923614286827 0.441702742438374 0.028750543139464166
0.1984872967323109 0.13190786564490645 0.44141857784172317 0.031933793937543295
0.19179613221120528 0.12094461672894655 0.4422215621190522 0.029853056875488497
0.19355734499539412 0.1645608628048735 0.4398718838483634 0.027571807614876324
0.21219488938919007 0.15792976276149168 0.4395865489471822 0.02742134771103229
0.2131290871568789 0.14429999911081806 0.4402703484195678 0.029262150243856307
0.2125182005889365 0.12939769210898805 0.44107347048198764 0.03162237864167427
0.2556356317470857 0.16578799480934753 0.4376975123775322 0.03188958231873245
0.20256505973401895 0.151566956168975 0.4402478945901844 0.030956314756369573
0.23640856037086475 0.1626988811007373 0.4385131876989528 0.029029833095383224
0.14893932405216165 0.12418069353130665 0.4463194130159032 0.13296264272511674
0.16774868447301314 0.13865601262146143 0.44362574959705614 0.08839591463659037
0.18609379693378758 0.13276872288933286 0.4420495086416698 0.030432150092591845
0.18644898786566094 0.15483936371164453 0.44085356722549995 0.030860620935397244
0.1580750552162266 0.11699938725462042 0.44575769407417826 0.09646624423430016
0.170938489326689 0.15087798344381365 0.4426558447211502 0.05463171476041872
0.16775576111866888 0.12514460794034055 0.44433481552489684 0.07326925242642603
0.12591325846185858 0.1414606046980983 0.4477827545973515 0.10409082071563935
0.14474741211027223 0.13707885597045255 0.44607394886970897 0.16715092918693344
0.1550778543685874 0.15786533261309132 0.44392217246076787 0.09173019835103915
0.12451806883931274 0.15361238917685027 0.4472899218870314 0.09228889328062483
0.1351894213358835 0.16082746623065003 0.44581382618424564 0.10230349766006545
0.13446707671809452 0.12168998849270465 0.44793788358190334 0.11641385827803861
0.12500112132956953 0.11302736959255774 0.4493657387500642 0.10750505245732574
0.1360667508665515 0.14648864026514977 0.44647449398599914 0.14475029011758456
0.09684321807811452 0.14273892519634165 0.452338773454011 0.03184738604291091
0.08951294108955195 0.11752016615535539 0.4548880661199701 0.030388871006712854
0.07210980332315678 0.11897136049709456 0.4577291155212763 0.03330391825782445
0.11375554107829515 0.1453298553360834 0.4493683200225128 0.06780928663618711
0.11680101267571699 0.12140156819528097 0.45011089402621046 0.08417268274506268
0.08189856230272292 0.12648821614805136 0.45569473098103214 0.031516651327258026
0.10027982384956369 0.11386983905358425 0.45327452009688024 0.029366933877675847
0.09862296632847964 0.1256454968261133 0.4529355844006099 0.030008683506940335
0.10971672421814908 0.15990122356084657 0.4492822128057963 0.05781403612725489
0.06877851475171425 0.14437063577042128 0.45695727474735104 0.03203501485180167
0.09511359020142843 0.1664501256119857 0.45138688291138057 0.027692281754285807
0.06778306932771085 0.13312771967964354 0.4577129332995041 0.031414697310212944
0.08234395001513709 0.13938759683653534 0.45494452752799663 0.02991053807912198
0.08272145592933577 0.15205180737328053 0.4542180068631219 0.03200906055995041
0.07571475922298279 0.16137777048553142 0.45490399028591455 0.030968545834470278
0.43596197666863423 0.17815542660836042 0.45374728160996186 0.030284754877617146
0.40634714285738316 0.19632929640414598 0.4478742311594843 0.027553453773108933
0.4196961198989984 0.1674913154862747 0.45160935672319047 0.0319556720014214
0.42420756072663307 0.183598779194118 0.45150947284987064 0.027332798407408675
0.38890948460826025 0.19411721597238846 0.4450964771219258 0.10344301438775161
0.39479080323092647 0.17268218136771027 0.44720206114837835 0.09967841189658629
0.4062224660262915 0.16858603288850374 0.4493153157490108 0.03135758912380964
0.3972942871682251 0.20485153322089572 0.4459226032832856 0.06965145914456386
0.3933324596095661 0.21655118906776347 0.4446485690945578 0.10402183481616009
0.3994061247442513 0.1858125136181153 0.4472762829672547 0.08387693674419458
0.4468566731414159 0.22548423662690614 0.453085086882188 0.030409711312285165
0.43390297704825087 0.19241825907500942 0.4526584317692703 0.03003579413069781
0.4187266914632537 0.21745383399488322 0.4488247685007507 0.02998496688987858
0.41867724107572285 0.2053623344510096 0.4494486177002056 0.028890448520603334
0.43740490553510425 0.20753827684342988 0.4524506717384309 0.03196047741362055
0.4476884515528781 0.2008840051385836 0.45450943688147505 0.03237064444690091
0.40892013231737667 0.210478794659512 0.4475578263836235 0.031235899744802776
0.43126235571591465 0.2178508323555889 0.4508896267647862 0.02913733822935144
0.36254882515868225 0.22213768278669374 0.44095041087027664 0.10163586403040002
0.37781509187974743 0.19185966873804347 0.44407441669764225 0.12623138737610995
0.38133916833917725 0.22225896543080426 0.44282898042354896 0.12358592820195774
0.35141941181991576 0.2065374198191634 0.4406545146662802 0.07153169755693171
0.3707052179129116 0.20631735726206846 0.44260074066213395 0.10952584810201967
0.3429540339344702 0.2149109295884794 0.4393648794044682 0.056446055247288796
0.38505026140560245 0.20626334165979582 0.4440426014314442 0.10590490636211444
0.3655905249968735 0.19521538623322138 0.4426716069300701 0.11505636708257672
0.3424375855330374 0.18876821568741922 0.4406845638444896 0.07628922759967317
0.35146247646554163 0.17663722363017212 0.44222713483217735 0.0832545882772645
0.37564239051800685 0.17170205941121652 0.44491547214514665 0.11076276677426894
0.33860035355244783 0.17818257906721222 0.4408537029093389 0.028677544934261858
0.33259308556257117 0.2116897442290169 0.43849417380466493 0.030453348059533904
0.3246283547968257 0.22012403766378313 0.4372518525108986 0.03367627546697935
0.3384645778158918 0.2009559357839192 0.43964665845995615 0.041781698327185
0.3645156792318486 0.1817240434367661 0.4432722189619541 0.14838385695309758
0.27631143255512314 0.21661733588844112 0.43566004139807096 0.02728937328663578
0.2875795999462115 0.19982448521760723 0.4369227685812873 0.03079726153687374
0.307171888675272 0.21588147137085467 0.4367463457736518 0.032014914039476226
0.2958655434275752 0.19169743588686874 0.43763004597016775 0.029720404083151478
0.30412615740274557 0.20088623708140585 0.4374288868794851 0.028549081854802608
0.3220938172558431 0.19125534777903364 0.4385436865891476 0.029865443434292316
0.3220376518710948 0.16813418787368176 0.4397536302220954 0.03103003795282098
0.2909402457991134 0.21349746346142429 0.4363202225310854 0.03144184242136873
0.2952306704357758 0.22420431624496967 0.43590470684257704 0.028513028141356245
0.3108657475849434 0.1725543329743608 0.43914252100798423 0.029074662875627075
0.2962786133014882 0.1773423228438178 0.43839605607849347 0.03024339009528547
0.2671262936743174 0.19218726170173 0.4366278857507322 0.026511145540264267
0.2759305354452909 0.2023341206827289 0.436395565341373 0.0291327427454338
0.2822873844856037 0.18017499340924256 0.43777225901343053 0.030829733815007244
0.2689441071779438 0.17818486496106817 0.43742309595665146 0.029932635766541878
0.25977306828978264 0.21820410758821038 0.4350152691596051 0.029486085026561106
0.22279226199904933 0.17120869380956472 0.43852986192971044 0.032943136259932164
0.23633735045170093 0.177615246440348 0.4377340000655855 0.03050442423919471
0.2253748232106319 0.18489259202239253 0.4377255072933832 0.028538150193987536
0.25398219613613515 0.2084063465096844 0.43552186111460456 0.027494691841975373
0.24097867472089937 0.20172651403067982 0.436313626808878 0.026697562180968398
0.2042794442952128 0.16941608088661989 0.4392529519750047 0.03216933820644
0.2510052389874759 0.1882947403469758 0.43667621721750277 0.02849162284029897
0.2039657829669586 0.21688646768334913 0.43677717358734913 0.028678899354779727
0.212044308532356 0.19728184318651112 0.43752962919525007 0.030352562500462296
0.22410670172593905 0.20716741467361557 0.4366019851987195 0.029754487696013233
0.19082290098512208 0.1894016872738918 0.43866340423650846 0.028956613402865424
0.20037471999283235 0.2008853994407228 0.43773734381031687 0.029422522094661407
0.23980003838151084 0.21728882562180546 0.4355386259562699 0.02709591985335363
0.21775610653740707 0.2238632269342078 0.43594319164110507 0.028751942343054573
0.1889284090073647 0.21417590419951807 0.4374893530654364 0.027972271671448643
0.14798688887837974 0.1669093810638036 0.44417827082692213 0.1300835141058046
0.1684895402514237 0.18209873947100783 0.44127276148628997 0.05999240192207702
0.17991674140885727 0.1836731265048519 0.44001429348354626 0.031092991211346732
0.14767980554118634 0.18762299497940776 0.4431250420772733 0.15212483718056707
0.17193420031719353 0.19398204697069799 0.44029589648116796 0.052563428543216974
0.18739654613491674 0.20303484303538355 0.43823049190983443 0.02994944241765933
0.15955156970162832 0.1918777722455952 0.4416804427833024 0.099901764187005
0.1614857677225884 0.17259780370982536 0.4424911353838029 0.09980028737895723
0.13160753714467782 0.17597589998569077 0.44538878027721485 0.1412113624113496
0.12237890226057804 0.2227364043442155 0.44387140273637804 0.07764622234303581
0.1534836063532852 0.20465527274351994 0.4416320543213228 0.12542527993205105
0.13459691243420968 0.19702807999645694 0.44397241553340683 0.13681428714226646
0.16314594874437957 0.22242069586830754 0.43970406302496334 0.08731832537179535
0.12769274185571314 0.21029296714714374 0.44398187071231837 0.10818429395066509
0.12311574700404206 0.19473609306821904 0.4452715434639922 0.10041412140309731
0.15290070476235923 0.2167394482907881 0.44105497852067127 0.09778107690099114
0.14009740612174976 0.22053496152910676 0.44216895546145396 0.15058154722762243
0.14142888240218188 0.2090848952979345 0.44263578308417706 0.1300865739512532
0.12145701519307618 0.1687971699157026 0.4468476623206586 0.10536735407188667
0.08865166718562534 0.1885800577696066 0.4513011475743428 0.028825427056106842
0.10512054230543495 0.20499830695614576 0.4476732612413739 0.029558766580763333
0.10014863022175383 0.18827826351487545 0.44939001976161264 0.032955977440185746
0.12108915098003814 0.1812611880829303 0.44625079775831294 0.12231291850398016
0.07120388092194031 0.1768130572780951 0.4548482986481206 0.028176117907213024
0.06912876568642148 0.19256687391406613 0.45437444637536456 0.027436694953506466
0.0718308207523719 0.2064908803299258 0.4531926420656661 0.029416947664113784
0.08492338959878856 0.2182540340332392 0.45037600015482754 0.027472133307620796
0.09132065641314598 0.20477261837818544 0.45000415897426116 0.031204737111013056
0.0738250915330983 0.2222349550376661 0.4520348185021735 0.031154068227351714
0.09617258163484012 0.2193008761385084 0.4484291788061364 0.02886100252196507
0.41327875756703225 0.23230721066737064 0.4471415749589731 0.029226319022538878
0.4029206002893594 0.2258820034169358 0.44575442406097343 0.030070708874593163
0.4022121440861476 0.23888921569586563 0.4449559803989999 0.03843937315365509
0.4180942008645762 0.24255560679596405 0.44740651794210506 0.03187851984884836
0.38910640386409456 0.28012667739470337 0.4406178543161373 0.11824402080931255
0.39324596766362335 0.25259685981910396 0.4427470118272153 0.06724426150166854
0.4334658029360928 0.2431886150646386 0.449931346451508 0.03201339196705637
0.4180203957494471 0.25773914061183345 0.4466003125805328 0.03024866491761217
0.4007556020526023 0.2707088647039314 0.44304878140542286 0.0628592997061134
0.44465389925167975 0.23781873163805586 0.45207452096147327 0.03190216213878126
0.4156317506082424 0.28031386968335603 0.44502488515643485 0.031239182651127306
0.4379067701362139 0.2794038043142911 0.4487815944236387 0.030019736896517036
0.43164372622305525 0.25831316254190073 0.4488389223884749 0.02964926260306651
0.42406783967919437 0.26753003229335226 0.4470965643364342 0.030570790065449042
0.4427871921427432 0.25059636609890235 0.4510970979863159 0.03172024871488344
0.37769986284918633 0.23575124544650025 0.4417565688239663 0.14112582077645225
0.33847450702258386 0.2720076049235347 0.43592226219487024 0.031052144492084467
0.351502510451713 0.27355760182583333 0.437148823695687 0.08567597200689937
0.36976803722851515 0.2624477076819397 0.4395635253097177 0.1304569194566723
0.3843692193261075 0.26846205643999144 0.4407143938549711 0.11384524181547276
0.3516242064832308 0.2607274434120988 0.4378323799249541 0.06333456685262658
0.3708780197622916 0.27794883433733214 0.4388638378228558 0.13799638058622066
0.37140254851592774 0.24871796232295987 0.4404459991114058 0.11684178126416875
0.3492664275512556 0.23948996677157874 0.4387083149109572 0.07562002692253289
0.33892254694105917 0.24493109855579043 0.4373855966884559 0.03138171712533147
0.3293134113112514 0.2544027119429483 0.4359254054713996 0.03022110616676547
0.323071542675835 0.27939649661915406 0.43398970944944665 0.028832278458762323
0.3242716389937923 0.26653426703809485 0.4347840136785161 0.026919199642662102
0.3289831024664822 0.23159428884860317 0.4370873220220717 0.03149541183217609
0.2994111066138315 0.26146348970309774 0.4340945245713757 0.029385642290262127
0.3166872073164953 0.237856677199783 0.43591789160454775 0.0314106836997464
0.28805132974052033 0.27142383014292326 0.43318698871287586 0.029154365802279033
0.3040602629063175 0.27773610772838747 0.4333998426139884 0.03107023439726286
0.31264213725205897 0.2504049999184212 0.43512312915055945 0.027943822737889087
0.2760039553324256 0.2798438562675666 0.4323368049545562 0.03159204288035083
0.2949607801565262 0.24704428990867117 0.43469885947828873 0.029284549465278146
0.313536842414295 0.22610258528684202 0.4364267532414512 0.028121576396728486
0.2745028592202555 0.24165212455525717 0.43428681670665126 0.03125061331677857
0.28652866587899173 0.2546948482838983 0.43401173855398195 0.02989021876300117
0.2727492952592213 0.25285870698930807 0.43364012232136195 0.029609082747409303
0.2864858850959616 0.23876847636220522 0.434844735250703 0.029692456862999175
0.282701788444236 0.2270227259404464 0.43533167141826723 0.02935085238661423
0.26315083756242186 0.26841858261841867 0.4324990010553381 0.03144714608417583
0.26700402169885973 0.2277966533265658 0.4347581718873028 0.03148237609734779
0.26231165943543117 0.24135487246653609 0.43388849116107514 0.03087752273457204
0.24603103059160264 0.239829134562267 0.434145838932226 0.0286868020921151
0.228596980429362 0.230367246372631 0.43523402962477115 0.027615498452317148
0.25449927154087815 0.250840783595279 0.43328104488677344 0.03105882067140488
0.25556251680830266 0.228920380341553 0.43439369752142365 0.02786432221047428
0.2521357535085023 0.2761124755785332 0.4320369391240657 0.03150020528625702
0.23547318058831504 0.24675226281544285 0.4341417247879154 0.02760046675585121
0.24122126301498853 0.264689087075495 0.43300642273349277 0.032760175188213135
0.21782410074076947 0.2652139323073961 0.4337744000416967 0.03078862336978158
0.20780305197078647 0.25654834805830934 0.434568996724209 0.03157491286860132
0.19868254060661686 0.24000101373159888 0.4357457677641066 0.028172608937350355
0.20630602905670814 0.2725352141521997 0.433782610759771 0.0311384984611606
0.23559528368027738 0.2767811526400117 0.43256430400152196 0.030741866429513494
0.19251039728351899 0.27797344683479136 0.4339668881259487 0.03273487245709222
0.19572105152543637 0.25979740674467244 0.4348096598680684 0.032683773281642674
0.1821960559016428 0.22598229788044477 0.43756170121137505 0.030278060363267748
0.18723379769331303 0.267091445295134 0.43489147592579624 0.032947822945762754
0.18817787862458726 0.24810644896580847 0.4357889777995373 0.03202696875491058
0.17118480519463436 0.2521638806700451 0.4373204430766838 0.0692623217578516
0.16719762417230094 0.24103943833454392 0.4383123177190875 0.06520069017721583
0.1554400716010176 0.24529457967555093 0.4392961103819669 0.11559871493945205
0.14774349422072253 0.2351442313725989 0.44061765630556765 0.12800743142786253
0.1720805422123026 0.26625335294582664 0.43649053897818574 0.06392486307436034
0.12623054280091248 0.2597088646187531 0.44154165825053393 0.09840809504339355
0.1419689056492489 0.2464899689073555 0.44061646741764515 0.12069624730180588
0.15509158961602781 0.27144070260652187 0.43796408196217274 0.10558718495600852
0.13858733753050265 0.26119974705064053 0.44019461396330206 0.12274347627556532
0.1272039900446034 0.2741249727125546 0.4406878843004152 0.09039723394866163
0.1096748679760994 0.24865158610530202 0.4446247415359157 0.04590149825059815
0.08056530605765891 0.23254349650042627 0.45036257647388006 0.031172876494889208
0.09138940955366007 0.23264537464958004 0.44853661358615715 0.03259330390578579
0.10707887662271758 0.26478025603875704 0.44421878237693324 0.031863707971793435
0.09712440236779213 0.24953821761970849 0.4466894399403989 0.029181388215909765
0.11710443728196526 0.23998280890463372 0.44382795347631443 0.05600747390713578
0.11657388581676165 0.27554117535528494 0.4420595153613034 0.07343958843933134
0.10946495411280026 0.23035052959213484 0.4456161528976599 0.04472785203039138
0.06594574375750951 0.2805024642355277 0.45032637810143666 0.02785786763246665
0.10325012453532562 0.2760701482885039 0.4442753441208647 0.029745599250430462
0.08243754375601524 0.27456080645670344 0.4478585529666562 0.02879960758526367
0.08614410854740473 0.25139357556556086 0.4484401880368747 0.03150650919767031
0.08362296172339506 0.26296773094261733 0.4482623252517349 0.030612985683665547
0.07248622927322662 0.24668439390641342 0.45098515171332776 0.030440452355438342
0.3474201128675907 0.3113642448324838 0.43475541501899667 0.07902612226182598
0.35662042850476827 0.2841533486734917 0.43710766541212004 0.1090505047688102
0.37886823348421755 0.2880470094776685 0.43913633447738065 0.14118990515161003
0.32911721146400974 0.2955087700502739 0.4337507973743604 0.03138720943966942
0.3416897153353333 0.295895064312252 0.43499247434378374 0.053799328687072275
0.3643858177306236 0.2979960700587607 0.43716026866928825 0.14327923971663317
0.32958779583650194 0.319135991814564 0.43255742913553497 0.031093589499401362
0.37466401759671203 0.30542734996970416 0.437808528915314 0.13785101300136898
0.3882004086823627 0.3052853522755976 0.4391817694694925 0.07799109771657112
0.33042649168164956 0.33308085280280186 0.4319094332803147 0.04753632246530934
0.36109561571298177 0.33859646877032973 0.4347177657783136 0.11932705016858523
0.38741723401620876 0.3374263435493929 0.43743444687843425 0.09139978659019365
0.3783237471644131 0.3169025998490554 0.4375821789202906 0.1082505668770154
0.3618826514975806 0.32310867129957377 0.43560108393255437 0.1340063707354935
0.33998724508120115 0.3250237594329071 0.4332923556305227 0.060919764961925506
0.35126779398756314 0.3260326695805567 0.4343782351097478 0.07907690990971664
0.32028004014202766 0.3076777466655603 0.43238049004462237 0.02945274746803402
0.3076671832403362 0.3062373421690815 0.4320266719030994 0.029159240010342122
0.30121768862502357 0.3191040536946529 0.4311324383605082 0.02836585626001214
0.3148226968561928 0.3262476149400739 0.4312209745111653 0.05014796940263958
0.2844298988417725 0.31923436143840467 0.43055414014238746 0.03378719950368246
0.2993984778285192 0.33129765961775814 0.4304311176534641 0.05020486262688637
0.3081096928796475 0.29510887609123015 0.4326252764340496 0.029461419279988688
0.2837161565649985 0.33773146429086875 0.42955991489761625 0.05897555777905445
0.28892145509984957 0.2835774923196578 0.4325794879767094 0.02794669663958159
0.26167063080795616 0.28207096853891733 0.4317333638619299 0.032020908044910854
0.26751405308479975 0.30418331772542656 0.43077009891560447 0.02921874113300192
0.27116478529368215 0.32294961571025 0.4299081684571492 0.04436415290028766
0.2757745932713114 0.2957839255809608 0.431491837453127 0.029885731380733402
0.2948611348855088 0.2934019297304718 0.43226503629860863 0.028613146875608904
0.2611882529180381 0.3319454751651984 0.429096830062093 0.048192079598345795
0.23013458639533083 0.3080955702756838 0.4311038217490659 0.030105974536714958
0.23987444405001726 0.29039591867669207 0.43170368899511424 0.03120664793087167
0.2226960278888413 0.2844605907347353 0.4326000381068356 0.02765694690417825
0.21780677047117908 0.3033689426882774 0.4317716504193594 0.031229823740043478
0.20979717896561656 0.28369142421212384 0.4330791087005437 0.03017615646295085
0.25443841565917275 0.3209132526906071 0.42960314717899595 0.041566965794114036
0.2449137138152369 0.3109519028668285 0.4304510227864822 0.029396652115702467
0.2502562865961046 0.29447481361720995 0.4311361036727698 0.03245733549217357
0.24479038758457425 0.3383010421219753 0.42901787417208337 0.0703759707505848
0.19424624146926578 0.32772155719444124 0.43129799214322806 0.05480059316470552
0.1967566147201762 0.3002542096540212 0.4326531401608984 0.03059105454469435
0.22042854643607748 0.3301890317287072 0.4302749106910381 0.062423215150596324
0.1956165117821827 0.3115560788988227 0.4320992012577109 0.030918497771262075
0.22963774241792637 0.3232032582138871 0.4303270317520179 0.04426947249436982
0.20943249656021456 0.3155669266270594 0.43141724422371275 0.030325184634736442
0.17073886668564428 0.3241219957900262 0.43360401078505545 0.07261833276174613
0.15461371736223295 0.3272596292687936 0.4351060616291822 0.11274187000488763
0.1425610340577729 0.3346298627727772 0.4359646909420853 0.15104031907157642
0.17240484906253806 0.3042032155344217 0.4344785540984534 0.04289465913308616
0.1859363138773908 0.3200540580008471 0.43224675023096404 0.03505200747169248
0.18587854865910397 0.2986299563892413 0.43337859318088745 0.03317428775611157
0.1552870457638988 0.30761603811938987 0.43606570615173457 0.09680514709652896
0.12297895313037055 0.32124386316208664 0.4386781716609372 0.09573816976093644
0.16043849058947163 0.282405940002383 0.4368419214804348 0.09149431905289818
0.12646069534126642 0.2883903473380165 0.44002160970639825 0.09619014664799047
0.13034716795157425 0.309832941539976 0.4385122613306621 0.1019302035640159
0.152750238593963 0.2942027178451807 0.43702072179088824 0.1298334060721125
0.17892344560446796 0.2848214022795272 0.4348184457621022 0.029765209687235516
0.14192110331962593 0.2819355148641569 0.438768022299678 0.11798994683408251
0.14597664665059196 0.3177550526613357 0.4364969336152781 0.1310907877287127
0.13769866141120346 0.29725072935776864 0.43840871270903303 0.1352990039015418
0.1222827996705203 0.30192042652897544 0.43975015186982974 0.09591372003315027
0.33544139937628686 0.34837874470773855 0.43161696792537996 0.11640851347725312
0.37629819304573553 0.3489204365011414 0.43571128859819125 0.14358243278814883
0.35439327393538955 0.36089198105879783 0.43287324964741825 0.10431444997195696
0.3465470202221894 0.3446023431446602 0.4329356016304532 0.09838230759718297
0.3271091391102918 0.3672275481476282 0.4297879151455395 0.08811638187093132
0.3296075346840282 0.3815105901735434 0.4292911376437204 0.08909684920132548
0.34301745194041444 0.3640473452919628 0.43155991280700645 0.07901135340540011
0.37935792693046744 0.368584127836445 0.4349871210632516 0.11200776344266572
0.3767627674639165 0.3901365685850736 0.4335934622675528 0.14576565304994696
0.3669915423157151 0.36108622502307436 0.43413395306944336 0.15158707555127726
0.38371598439727383 0.3787743523238348 0.4348913588328134 0.11015737081981773
0.34973364515373784 0.37542982964296456 0.4316403898179292 0.0890887966081651
0.35992931507220915 0.3808687211756543 0.43238281560006 0.11267718598030954
0.3206949995450251 0.3464358226424515 0.4303628775000461 0.12902794402073242
0.29556999270303264 0.35139717508640195 0.4292479166528712 0.10623333071443833
0.31716118164807816 0.3630037639426352 0.42937535589730946 0.12956623445755824
0.2868012862239788 0.3591929706251695 0.4285413649463279 0.1092648433324237
0.31573308985522275 0.37527799843974546 0.42868426296549855 0.10369212204999254
0.30569416072053257 0.34269547753375385 0.4300480271441169 0.09209077514720863
0.29933380391839065 0.3658874394664371 0.4286175626347227 0.12315218640624805
0.30708501162510404 0.35651964864123165 0.4293717625121507 0.13404216288256285
0.2942299636421803 0.3774119985206409 0.4278410159769013 0.0897768222121426
0.27167679261471395 0.36899025760981463 0.4275146268226537 0.10919083143935446
0.3134657111833259 0.3886819347646356 0.42790568631881054 0.08632086176049696
0.27361331071429557 0.3574606723747816 0.4281833495755791 0.12227537725080748
0.30029229773785043 0.3903609201677264 0.42737002123538154 0.06544224203746751
0.281531832718319 0.37652207874486987 0.4274558382712541 0.08978465077820524
0.26155190972515974 0.38297634476534204 0.4264390644429526 0.08510640180881791
0.2605056763610512 0.36601654088305263 0.4272903269183913 0.12154928198250818
0.23140412083685177 0.3496965892193356 0.4288778613075973 0.09351197338873628
0.2249784572163771 0.3590270664232039 0.42860854682301663 0.11184041444115106
0.2503389453965051 0.38579219501111184 0.4263412780530804 0.06686148748941935
0.20036933477557844 0.3462830257039774 0.4301158931175353 0.09415548886515614
0.24423591843074724 0.3767321561996437 0.4270240533989928 0.11105883471288804
0.21340588600523486 0.3460688406124701 0.42968215223058825 0.10095299235788537
0.23770030149034146 0.36604019560727785 0.4278070566186752 0.12597210419187907
0.25427455651606035 0.3472277068706843 0.4282265520814364 0.1055730526560945
0.22734092055178173 0.3838511537455037 0.4272286009043713 0.07972322147361299
0.20807707265076325 0.36904359690869687 0.42866157671507676 0.10870017654293491
0.19358005137891424 0.3661613006635707 0.42930773115420073 0.1327427512774866
0.20695183612165446 0.35645798009644436 0.4293585190376448 0.12322853707504805
0.21591310392468943 0.37788799224565595 0.4279310779978035 0.09947102222949092
0.455923204479459 0.1064279277949156 0.461244858584481 0.0325820577944723
0.4558373979903638 0.09324324744135293 0.4619225147867707 0.03236306032631458
0.46742441362018283 0.08763034625682155 0.4648377803580228 0.029372992838797626
0.4532669169726047 0.08172995117327359 0.4619503024472515 0.029673514986122508
0.4661409159844859 0.07542299114612516 0.46519310390101504 0.030322652085966066
0.48872628424237907 0.09518767042752929 0.46925672522453565 0.03619873995072307
0.4740145663770541 0.09924408964312736 0.4657150113239231 0.03006558745206068
0.47635327139880274 0.14644553383813425 0.4637579525640734 0.030110642765062437
0.45829761821026804 0.15137733811284182 0.45942138633696217 0.027691781051286123
0.46268836250258283 0.1353738169435627 0.46125217356859116 0.027726544551733553
0.46745679788010897 0.1166207894592439 0.4633157900564955 0.030849262918342057
0.4814258173546381 0.12376625957039428 0.46609692594419416 0.030176128813457197
0.4844014795295051 0.111941398752141 0.4673970453889661 0.03353284603782484
0.4936822529323367 0.1350267665586282 0.4682724612826516 0.034683208580220566
0.4944598289724013 0.12216609440574279 0.46913026124902635 0.03709674878000879
0.4870196165393444 0.15627157329346272 0.4656493696647395 0.03157435621763522
0.4766800714124859 0.161346860797343 0.4630480820192281 0.029667766474965405
0.45055806942271015 0.17295270357913675 0.4565435979958264 0.0321029346439693
0.449463683034271 0.18941585675930023 0.4554376240773442 0.03078858295311183
0.4750335990133424 0.21581535620158676 0.4598361870134565 0.03035348242643937
0.460515118042681 0.20112265662648882 0.4573232202193496 0.031401440919767924
0.4500759219370466 0.21375292190214648 0.45430640600813144 0.034239951706262865
0.4593647729678393 0.22128452054443526 0.45601166848129515 0.029047727420476767
0.47474822088692875 0.20441257588338058 0.46036653664759397 0.02964165753228722
0.48624525516964445 0.206422830493454 0.46285859004860685 0.03351083103347095
0.4731739307935342 0.1739195072752715 0.46159828466598884 0.029889043231446838
0.48191511386348795 0.18957929834596243 0.462757861044808 0.03273790992072753
0.49001489918392704 0.1772204102101067 0.46522752910495013 0.035606623409304615
0.46215645197218186 0.1695508137049863 0.45933871915429036 0.029832946298816325
0.42884774963508426 0.037970537622463926 0.45973464252458435 0.029727565570885565
0.4009625721045798 0.05127437841515201 0.4545634961125211 0.062204271602088475
0.41512988078491264 0.046803838354090604 0.45709857775405005 0.0432185432989612
0.44091951879311425 0.0445698081259226 0.4614755847780614 0.03250778485932923
0.4246750116356545 0.02718097765393817 0.45947551322871216 0.03558635487899662
0.4601297200127351 0.02404115878570355 0.4662324460294825 0.03334319220140976
0.44831481369540305 0.03408385873053962 0.46336121264232166 0.0344862520751308
0.4747847282497627 0.02968285454011945 0.4691823543188954 0.0385183636109702
0.4523473198962071 0.04819747202437486 0.4634419802683297 0.030927897743546696
0.4670205617539623 0.04319813764960638 0.466923539005181 0.030228657430594212
0.41253419775801836 0.03457021099542992 0.457159818718542 0.058855677270564226
0.3981973956020742 0.03161617647803612 0.45495495643052475 0.07294600143315294
0.3983894477216052 0.02005427090603861 0.45558983035772155 0.07276115302467573
0.3767020394740155 0.017306746956891734 0.4528467203440273 0.15142708415931022
0.36008578026084864 0.041522142601275125 0.4500404580396814 0.11786869151905248
0.3321277712020966 0.049522527540155174 0.4468998585597985 0.03542026068852114
0.3574060197236315 0.02794906221546465 0.4503280376817014 0.11119807430784973
0.37336287514977856 0.029892485878164572 0.45185331827747155 0.15224643976257135
0.34837467008055184 0.041610538951404014 0.4488588447578044 0.08618689216767682
0.3821747556488532 0.04354281071066061 0.4521793792898467 0.12095431476448695
0.37328423459175464 0.05009141771674627 0.45101631089500194 0.13584323392887818
0.3486495583296909 0.052469261861630916 0.4484407814392265 0.07661259612559077
0.3615752876730006 0.016385278493439983 0.45122206547855703 0.10064169866190337
0.33123234280095465 0.036663139640468814 0.4473548217882874 0.034334140417535214
0.3398238585510073 0.02768330696033452 0.4485837728373624 0.057112750514319965
0.34980730075134686 0.013277889395068167 0.45018635905005405 0.08415447012197039
0.3210663888431379 0.027932946231109774 0.4470166256800667 0.030572833313296868
0.33376100468744613 0.01614088006064385 0.44860137689579715 0.03375570047947685
0.32163088939802903 0.01511809163712532 0.4477411882795253 0.02948498622057117
0.47066584505278203 0.054036849062432474 0.4673262296652938 0.030661556563305273
0.482717926210891 0.05120223372221909 0.4701675231914818 0.031573534139102265
0.49015263181370217 0.22007236483692377 0.4630244521648329 0.03304208447039656
0.49095549811071026 0.23427530923800363 0.46245632497960754 0.035755258396045216
0.4835823447715518 0.06454892169735495 0.4696972314184095 0.03125553882243309
0.46022080357129636 0.05967985864843904 0.46468702843258625 0.028760626109445228
0.3033193622631697 0.017536904331696936 0.44668325569686046 0.0305755104510144
0.3214133720188707 0.04771594037452293 0.4460080712463366 0.02885769757022448
0.2318303765934922 0.03333807309695736 0.44524147653248386 0.028812228685061444
0.22047034279499583 0.034600853928764386 0.44557560190719253 0.02964372159718131
0.24342975919717147 0.04384009628200761 0.4444008491083175 0.032339259518339575
0.22465885593816493 0.015232352454155502 0.44625309988825146 0.033114088518455875
0.20742696280677886 0.041227835667366035 0.445739946955135 0.028420797345926226
0.20264523995981953 0.05126251106223605 0.44547805335902807 0.03141175807109493
0.2169758456091503 0.0015151717664730665 0.4470974395994579 0.03744121462817023
0.2476909863544801 0.0330284025371352 0.4447281998537961 0.029641437837502928
0.23719471641050147 0.016641265415551408 0.44578598366965194 0.03150936969969258
0.25299263877702993 0.014460732157751266 0.44562812460389456 0.03204902626267397
0.2580881588106572 0.04213752207339328 0.4441445498759114 0.03241838069547234
0.2525063310216502 0.0006408229954943696 0.44636119182084116 0.03299189281145181
0.2644393212139484 0.02349310811929023 0.44519616300992615 0.0298579652869566
0.19475696395046507 0.03069156297600406 0.44672615949070793 0.030378694179085942
0.20926279997873026 0.011821041137544185 0.4469514691329841 0.03653683861428886
0.19160031715283016 0.049005324864405446 0.445953149638583 0.02868639596676858
0.20340098601220635 0.020867943814286964 0.44678799354123566 0.03532222915428592
0.182287985036428 0.026769942771902946 0.4478153621917669 0.04363425242082848
0.18752667352469898 0.009801661981985677 0.44830559719415447 0.039006411321324215
0.1705904728406826 0.004564478724991228 0.4499049859803672 0.04282130029159798
0.17240882043822967 0.016406673286135598 0.44915371766092826 0.05250400204974253
0.17167146158467086 0.04319950492980575 0.44810028743299674 0.060622742815059465
0.13216600176130291 0.04758777314646985 0.4519899469424324 0.1265623294315001
0.13534938573991623 0.03388898259261034 0.45221479248392604 0.14671382190981674
0.16218128283511746 0.027312945076079915 0.4497179829685672 0.08044214843082076
0.15748398890217952 0.04057146424319579 0.4496667364399102 0.08598229926514629
0.14338809753694484 0.046118527479533516 0.4508940154364747 0.1397269701783772
0.14861768900389818 0.022345940074957285 0.4513145524816755 0.12766605218316884
0.13380121199499742 0.017216922268641712 0.4531963058062109 0.14046427173688106
0.12410368934354893 0.032831171946734135 0.45358374923518796 0.10320061479053486
0.12209520997434223 0.013651633457750351 0.45488973683134887 0.11160713224659516
0.10678404835624303 0.03836374603757093 0.45596689580410493 0.06738226021956566
0.09580941792225306 0.020276374494432536 0.45856057850718257 0.04063745174762836
0.11796196086289519 0.050862048786909114 0.4535801358031433 0.08891531494842979
0.08583494988676371 0.025914082565685774 0.45999219347114534 0.03708728676967407
0.10313465688782515 0.05088138383787394 0.45606989194887515 0.0380987863753546
0.09345558797894263 0.043146764002437374 0.458010577606489 0.03167588524850623
0.07597933699832483 0.03631553798666067 0.4612241775377319 0.03292688788426287
0.06917795399014383 0.021149291135258985 0.46317735846875346 0.03502232185429555
0.06626875495076003 0.04674773744247761 0.4624504734838282 0.03015828687122538
0.05613704109806086 0.03242428450965868 0.4652119330530745 0.037496629100792295
0.04526829319776983 0.02609653148241145 0.46786051580089427 0.03807832270509427
0.03813512123912727 0.038492050230029565 0.46892433282258594 0.03538178624031724
0.04537531253098111 0.04991173895841035 0.46686220116627736 0.029726993856732737
0.02172120073761941 0.043532686668283596 0.4724701246329442 0.039104061087106984
0.01753340636263821 0.07155858887697283 0.47207289436846844 0.03933633785060249
0.058183138164547524 0.056358565493298665 0.4636775890238275 0.027508329952827978
0.03782451720436343 0.057807352182730906 0.46819881622154086 0.0327299624878114
0.02430001922935318 0.06249898193690543 0.47101077882856335 0.03938206447385371
0.06118230706776429 0.20269007937676164 0.4553108703847911 0.028428538492162866
0.03391731146342948 0.21371300794052722 0.46091213084864363 0.03096631459641208
0.055451978116427394 0.1863561135186865 0.45746002822054926 0.030704506745268083
0.02790102197156847 0.20105194484798183 0.4629346566796739 0.03314981934405431
0.037061739550588085 0.19269988424918383 0.4612949429754216 0.03163241242244783
0.045952902754615985 0.2028173823039217 0.4587537916076193 0.03078597945753273
0.014563340024407161 0.19247789876955876 0.4663963611730956 0.04389003182672171
0.03509306198751844 0.18085072487225126 0.46235435306783146 0.03083551775920282
0.054285058351983426 0.1747128261540907 0.4583309051788671 0.02947001593232326
0.014494276225593392 0.17938029016421628 0.46708966278266695 0.03797961283482671
0.015839302787796838 0.2064634031956578 0.46538413133654577 0.039492823907866806
0.04807562007539665 0.06631779003656905 0.46544191920882655 0.02965819599277688
0.06185692187125147 0.09368963202678177 0.4608702199206509 0.031356991235928514
0.03864480098890439 0.07693480799373714 0.46701692703880365 0.03174088645946143
0.02436765541432237 0.08183170342061369 0.4699928878111165 0.035465764253151996
0.03094609872666983 0.09115089846324544 0.46800892960771096 0.03382730185107208
0.04267233319426442 0.089568047432159 0.4654355759741845 0.031108915303743805
0.04790589130028895 0.10708989408054051 0.46332429642066664 0.03112945673671409
0.015159117882732498 0.09957024383155968 0.47114751703406077 0.037712282895652816
0.020156574797256858 0.12640963647095052 0.46859233763920327 0.03889895049536687
0.024638118233325002 0.11026522644416466 0.46843338965172343 0.031928212315364135
0.0367365361405385 0.11116526005949122 0.46564201224079244 0.03091441453111485
0.037579582808392124 0.15209657355321585 0.4632948780819618 0.03117491067239016
0.055708887322699255 0.1337913354976751 0.46015053231125624 0.03186576326449059
0.03772748002595212 0.13971025049808292 0.46391071384316307 0.03007525080077217
0.05549895471521024 0.15865477054840238 0.45889466485770924 0.030744759659315012
0.029119660779019715 0.1324459902728048 0.4662400781581915 0.03408134088383192
0.04007389758827597 0.12556236641175625 0.4641212136327333 0.028952503147811982
0.04439126224955606 0.22336941049196662 0.45803447238510436 0.028535437044006667
0.014156202083049001 0.22542817287639288 0.46476951373259956 0.04049334794213026
0.03358304578128871 0.22929190760719786 0.46016913273588955 0.0342500213598393
0.022150937348320576 0.16183601187368388 0.46627256453201515 0.036394765349522316
0.03762149007292782 0.16804783218542452 0.46244546385098284 0.029986161316689162
0.024206760788667646 0.14863331350812203 0.4665028964321372 0.03691631058447481
0.284262517202059 0.04433567205151623 0.4448620895767206 0.03148786858009675
0.28759672091576516 0.031221593353867434 0.4455314523795748 0.02820363665095051
0.3001684052265192 0.04030276129925719 0.44557484483736703 0.029697557734048745
0.2931683832620966 0.008556263359750049 0.44668182238113124 0.03932185948256968
0.2731555091209352 0.0327370910825814 0.44497528112131524 0.030035041874011945
0.28553386111723483 0.01961095458092445 0.44595324617027704 0.03229911988066356
0.29799781116200447 0.027984839740806088 0.4460229436893754 0.030815442184799834
0.4801550472893984 0.2422983289378473 0.4595616766259812 0.03153232357544073
0.4938241253722006 0.26216391333208555 0.4615094322853677 0.04149627244119265
0.4820365919481345 0.2558536198444056 0.4592112241065609 0.03481605449798729
0.4616368358460058 0.24028633409140288 0.45548833592418536 0.028129851623770043
0.45702465944931864 0.2578519410504516 0.4535484982468553 0.029066472092073904
0.4704963178244337 0.2512165125594487 0.4568880168828463 0.03128008578046924
0.47496301125754503 0.2693452912280024 0.4569365369781354 0.034124670441853355
0.44979664385340845 0.2737478551687551 0.451114275070969 0.028513491981653892
0.4848867200436586 0.2753966683382322 0.4587443180750694 0.044806380010392166
0.46967053189853136 0.28477290454831716 0.45482645519267995 0.03540541364536286
0.46275137004380557 0.2972797798349166 0.4525693912219974 0.03543815241799596
0.4776932065936173 0.297713279291781 0.45577896838976617 0.04093250477984864
0.45628472266718745 0.324246669409508 0.44970173038202454 0.04277707664985325
0.4557485325061637 0.3102792133847921 0.45035725391308945 0.04321301565583093
0.4139184900581885 0.3161942758175502 0.4428912601229894 0.028847979730755476
0.39515077990376646 0.2918958516387906 0.4410167275919303 0.09018609569513818
0.40585309582797485 0.33519802923537495 0.4405617415551897 0.031903042759810436
0.42680503054109914 0.32250579256720957 0.4447151987287359 0.030401882975309866
0.3966813127847474 0.3249560968214727 0.43956115814004326 0.08005115467208855
0.4436707306694993 0.32866311055858016 0.4472111839070289 0.033606867637676945
0.4030933494565496 0.30642641442713736 0.44159021942439847 0.0490738815896392
0.4207147434787061 0.2906439595402112 0.4453398482043096 0.03248699819310783
0.44458221097169826 0.29078369290277906 0.4493068423798463 0.02924161923716653
0.4348434882089033 0.2976944794411598 0.4473309252723241 0.030151880167672056
0.4158037125838113 0.30292472548500166 0.44389245929370336 0.03255301507544006
0.40673096280575616 0.2867316254907192 0.4432120088501167 0.03127596505252722
0.44428880673128357 0.3108731255727902 0.44822796814562693 0.03363207771863671
0.42665930847347633 0.34143320008621647 0.44354069240145055 0.03497775313012127
0.4234591983723168 0.35359096363843673 0.4421240442110709 0.03308092665062421
0.4346911463811501 0.34976360553136093 0.44422814931960014 0.040140324373646556
0.3990530187250469 0.34483080403918 0.4387895854319815 0.04491521411596951
0.410877403209733 0.35120118014512247 0.4402623320167878 0.03317239625763784
0.4069842199152123 0.3646613006273405 0.43881745185810866 0.03079511870344444
0.39562995471337126 0.3561832740316402 0.43757412696307846 0.05344107027947866
0.2925308017321814 0.4142057896474729 0.42558539939206763 0.02999293658030992
0.2871971998750914 0.394957790095539 0.426646585143652 0.06083310390641778
0.26779159514001594 0.3934866535522187 0.42608150758731256 0.06744716017254379
0.2825355109425225 0.4057817125057527 0.4257892617465413 0.03351411240704686
0.39966963915624953 0.38231161950125386 0.4367181772002092 0.08013428675177385
0.30210257447378536 0.4215292770219019 0.42545102779813493 0.03305163237562858
0.31397185077855955 0.4114185914601831 0.42653849252766657 0.03308963641045029
0.30118972992130505 0.43370499803277135 0.42469476089702246 0.04113806279579324
0.3165911352776256 0.43023648908236806 0.4256465593109318 0.038087117389151874
0.32919813045554686 0.41536706667685763 0.4272752829618417 0.036515423751601946
0.3232192873712722 0.40425140283383443 0.4274450880928383 0.04637589318191251
0.3390650370924221 0.4205598362156874 0.42779609148839504 0.08682425000208709
0.338510925656173 0.40873071966795993 0.4284623965363882 0.033557181554051525
0.3595599980884359 0.4120731139754388 0.43030827347104167 0.14796084822014252
0.33204348475606105 0.3962851913756608 0.42867545491579384 0.05685591718995234
0.2748319423163851 0.4258898839700741 0.42430159553788693 0.038697354027462154
0.2632334971058357 0.40369862352703006 0.42529001154899987 0.03841602844381942
0.2574172076983814 0.41376504387140367 0.42468650922532336 0.03363069653130037
0.25916005594536895 0.43594295752225803 0.4235601873023069 0.03461427432555659
0.2509100700369991 0.4262942805504011 0.4240896539019868 0.0386765930322497
0.24978366186945006 0.40363698678374504 0.42530357138744296 0.037922254389848066
0.2400828675925431 0.42998189634373585 0.42404058271367623 0.03576229477213606
0.34979636909010176 0.39804851230547467 0.4303785579067817 0.10268644217494777
0.3723254245690421 0.40593278775651936 0.43209004574480114 0.1576878912189317
0.06267544449605536 0.30602561340758355 0.4495937377453856 0.03234460274811904
0.07716819847068057 0.3118355510110961 0.4468624897228867 0.030256535952062555
0.08662178812318645 0.30190603867902777 0.44576841292406855 0.031121720816198097
0.07249499754812026 0.2948146595800431 0.4485022611707065 0.029207746743130963
0.10349815803437654 0.28958345676170716 0.443544509795574 0.030588032088973052
0.09774985681585675 0.30026992217428816 0.44396820674607135 0.029944847521674547
0.06551191198997319 0.3270087844405011 0.44800230856404294 0.03496129679492838
0.04436018674878592 0.2460876041289921 0.45679856133404223 0.03326057075307502
0.05801288632544452 0.2692871882482903 0.45254588405552526 0.029832364811918023
0.0292108827626637 0.2644237117913345 0.4592262081700158 0.035175577200417335
0.05988587699725269 0.22994651667379293 0.4541728226014121 0.030621260949026768
0.04031515912318592 0.26969526465041804 0.45647413803522785 0.03734719697880999
0.060998722555889784 0.2560874450426589 0.45256567769644984 0.03150880694472315
0.05992501954275533 0.2423974006330713 0.4535168932454299 0.028222141169219887
0.033074389023182355 0.24812917942172727 0.45922302656610325 0.03419432034352596
0.04898008746942558 0.23579772595965526 0.45631167105152165 0.030745198790921916
0.09357647881107747 0.3291452358584509 0.4431494781055191 0.028647280495462196
0.11962928074554266 0.3344260160625539 0.4385083360967607 0.10493126096918722
0.11527429614499343 0.3115411779441705 0.44041672959112976 0.06073040645232979
0.10351355824553857 0.32466481394975466 0.44171356739485457 0.031146812324435502
0.11056680879744847 0.29994652952196443 0.4418030672976141 0.04220576524891172
0.08165147015200813 0.3255593484960463 0.4453340053252425 0.028756529944053238
0.10877868761609305 0.34268948536295996 0.4397969821432204 0.03098157804962695
0.09531900834416297 0.34102246465894415 0.4421431660488304 0.030995637238186973
0.0957918723881202 0.36158032693954884 0.44065962162333006 0.031347793171082376
0.10417597759001944 0.35301836848832113 0.43986138859081014 0.03275695612514866
0.18238491391455944 0.3579043406252408 0.43062573098999 0.09731911523518304
0.15474704499784459 0.3416282366866944 0.4343372663573542 0.12799683020079425
0.16792593346985576 0.341499860141296 0.4329816412921841 0.09016721532903589
0.15129081813804013 0.3556351776518363 0.4339592047273003 0.13908317803085735
0.1813909389822524 0.37053241666530223 0.43006552343593174 0.11443452977454757
0.18605435372473508 0.34265408013495 0.43104702462592903 0.07172937344881812
0.18780826851584054 0.3804802190110854 0.4288798852104486 0.10373669062194407
0.16288480699619218 0.35928937290790897 0.4325688376331883 0.12728344455280372
0.12862926918061007 0.394175246217565 0.4342181532698184 0.16857882185798787
0.17018009964968137 0.3934634427715805 0.4300003592601006 0.08271677684080417
0.1471046737444403 0.3778713782258692 0.4332017425865402 0.13399936367159804
0.12846965370149777 0.3559478213004738 0.4362884925097867 0.1113722961417192
0.13869655658501512 0.3598009321750746 0.43503392304513966 0.12274325151802877
0.13432825885616273 0.37178918493532354 0.43483722820917226 0.13988081881490955
0.16179671932333473 0.37112427883022775 0.4320593675311138 0.13329849089063944
0.15390010862580736 0.38610182784022606 0.43206345953195335 0.1170948704218582
0.12424367016107826 0.3447066958610868 0.4373253533935317 0.10623194877409531
0.16836877986019821 0.3810224890837651 0.430854354544844 0.12316016620981146
0.12608939904202515 0.38303831968596747 0.43507670734630877 0.11678118041627474
0.05300021083755846 0.2791491879925059 0.4531384871104544 0.03157473208347686
0.024549408959386607 0.23974471489807378 0.46164989029152015 0.03851109385205857
0.04125880583297578 0.2915653916554892 0.4549109134400884 0.03782132161998006
0.054252802333411926 0.29256016373494004 0.4520254039377207 0.03301711636688885
0.12040902114743693 0.36621853426552575 0.4366359963005251 0.09666758813348605
0.16168764192823878 0.40283635441354965 0.4301526601475816 0.09065379012532838
0.14600731571881875 0.3988167674448153 0.43212790187712424 0.13491043370428474
0.11542725487652193 0.3531665481025337 0.438079439215695 0.07430553596038073
0.10134599001066326 0.37413376297981266 0.4390398403584407 0.037351768678802307
0.14271063626627553 0.4125410387305971 0.4313839932385607 0.16100157864867162
0.16629400618119547 0.42099500437046233 0.4284708160315136 0.12847426809886792
0.18744350476777547 0.3938943992486298 0.4281741726279566 0.06619415237520689
