x y z curv
0.5404941678989947 0.5062501700685247 0.4334231531247976 0.08658872492758787
0.5631830562307462 0.6129009112154286 0.13360046127461717 0.022074383728861936
0.5498502961462215 0.5646617945798736 0.27737097835312735 0.014466036276884447
0.5413666836460534 0.5322491744908664 0.3866989230064583 0.018075305424180378
0.5583287666911368 0.5933090539571542 0.20087160229916048 0.012816211471135675
0.5659106239488788 0.5789128102213795 0.2323425876144038 0.03059451534132258
0.562194280594634 0.5654820180183381 0.2702892994718556 0.019809668286118992
0.554109107104195 0.536627561530853 0.35639344232592624 0.017082516363998726
0.5810523608718628 0.6327780156355676 0.06940975913011532 0.02547262983276143
0.5728507017387456 0.6037885775569153 0.1491946434928177 0.030801379338531082
0.5637894541726571 0.570915225856813 0.2498426033829379 0.01792465547022235
0.5813683982243267 0.6358665502070479 0.04831833496426149 0.1341049420693802
0.5695440209479128 0.5926416398367463 0.18140022973389913 0.02080783340565943
0.5562569407171386 0.13105652840432974 0.2182426010346754 0.014455235919079112
0.5730575471884242 0.11215134741409065 0.14331292326613487 0.02729618995224259
0.5261318358140218 0.16859668610078243 0.3577232739583709 0.1729535070678449
0.5847026914526257 0.0979629279585743 0.08985106667212228 0.02201301286281239
0.5483327539344085 0.14303006129217283 0.2578792407378714 0.015469181436200763
0.5889449143870579 0.09631451658262936 0.07808416580517111 0.019729844688389484
0.5967417642535552 0.08423639477878771 0.036451929450725874 0.06791170726911874
0.5699365797543606 0.12000542486016991 0.16593759933461694 0.01164087707335996
0.5332254641110068 0.1559398347373906 0.3252982632103591 0.020702095194736238
0.5360028843435444 0.15286204044229842 0.311950952558295 0.019066163615907954
0.5806255395823391 0.09591382782315816 0.10989195926963234 0.01635499969835261
0.5507396215051845 0.1334248963183141 0.2476529454368211 0.018146718205378144
0.5444032514752656 0.14125009965439977 0.27933662375882606 0.02396575741714433
0.5620693705362245 0.11916752048663971 0.19628206297613232 0.02324052592189328
0.5749177280360827 0.12076324649854987 0.18278320203085452 0.022514618911558953
0.5806099211486887 0.1136486284862252 0.15665055764287314 0.021765728639905994
0.6072404744191198 0.0807634158307921 0.033927821302005515 0.06471908761103859
0.5434217993761713 0.1585456418045923 0.3288147328130787 0.022224787081224513
0.5557296327497689 0.14333726869071314 0.2722318119965247 0.022150496318984577
0.5460574786884329 0.15487643073813256 0.3170732220954996 0.019311847881078467
0.5633910097465112 0.13571914696164736 0.23373663718785648 0.01666501046142946
0.5714841293518342 0.12585325173551412 0.19211895986886793 0.022334287960467675
0.5317887515267432 0.15885848332346758 0.35230112607833275 0.13527730447195765
0.5724645014375562 0.10760572789647435 0.16140862677327905 0.017243242111289997
0.5776757205367963 0.10099981751683934 0.13667202841017173 0.022072632175573027
0.5350406736861522 0.16970963149498874 0.34805801561212957 0.07387896849938658
0.5475592085916772 0.15372481886858397 0.28752943203267906 0.020776636426610047
0.5313192083856433 0.17466234348666937 0.3674808018873022 0.2028171589597183
0.6071982248794328 0.07199858354269059 0.025968414920648462 0.10594243147646741
0.5953971949556645 0.08530436246456397 0.07707698686849675 0.018066513188985125
0.5654639483782551 0.12330354373652372 0.21675563307744677 0.01837162519991863
0.5482699310095123 0.1438100408341743 0.2939663984991069 0.015709915630215635
0.5697836599537734 0.12232507860230124 0.20507859668482126 0.023345577237127966
0.5838474740643484 0.10731110070068693 0.1437453696794574 0.029407910052119957
0.5353647674153421 0.1654252550207886 0.3637097047780731 0.20301889184985228
0.5948861234890207 0.09190981344708807 0.09065987741809098 0.012785411740124358
0.5862032052628441 0.10072950282238236 0.1277535399446815 0.0192842431349768
0.557554807798898 0.13517494490539114 0.2579475118099741 0.019832887285573187
0.5434988535367838 0.15735278895022964 0.3013583010051757 0.022672149338694665
0.5349142590200969 0.1658290577890181 0.33364606492903437 0.02921669492000043
0.5923911156350202 0.09342514121831162 0.06580819228167847 0.01571029060150686
0.5990132739592928 0.08909160804658858 0.04860541635932748 0.04982757913391123
0.5645604074668299 0.13246996699414182 0.20889117585319625 0.026437005182056654
0.5877479008301831 0.10336323161287568 0.10131468495218242 0.018568756218325884
0.537381510894437 0.15583893269390495 0.34003619560555753 0.020054771835622286
0.5599573881475998 0.12564546148319317 0.22907226597823271 0.022460999612281464
0.5865511986746712 0.09056538965878196 0.09958721175833407 0.018300192475984134
0.5946032880320595 0.07912695046564347 0.053557832494575394 0.027261843210763945
0.565789887840142 0.11493443218624079 0.18517285541337078 0.02702717436211186
0.5835586289936283 0.11031905590903231 0.13155493176768612 0.0217660218271288
0.5856693425996291 0.10701829324063505 0.11715856505377709 0.03124487365129702
0.08835898680780342 0.538864425164457 0.335612004499346 0.019443252054241213
0.08618435501231697 0.548458792084939 0.30632585569246906 0.020398410793566756
0.07576428268141966 0.5825795111391434 0.20389508785684649 0.022054619821620436
0.06719564671960798 0.6151425108006086 0.10526624097699075 0.023030128500512757
0.09339384310532878 0.5179574456204766 0.39947885831281243 0.027601943670185928
0.06381741532166477 0.6232217264232192 0.08189784039910866 0.015546663648466722
0.07298808083289386 0.5882498551645925 0.1891055894065122 0.018108466870385292
0.0896688675405367 0.5303243666686495 0.3628161684858528 0.02369594851987979
0.07621055898144079 0.5731321364088527 0.23826669498569442 0.018625243276172886
0.07134531453891471 0.6075746532308212 0.12779415227748578 0.01957618715988678
0.09790311673157152 0.5132735320779986 0.4124267825088874 0.024268251794657098
0.07690209596691377 0.5918549171362845 0.17591351721195458 0.02126365538846138
0.09972017706482068 0.5100329653056821 0.4227456382629017 0.051426934992597026
0.08314311611494113 0.568807587094307 0.2453295852436762 0.02669944265514036
0.08073237950905617 0.5772636099036313 0.21978906466548975 0.021099180382839058
0.075614880601139 0.5991467437801095 0.15484252269055393 0.021112602661040255
0.07645064398349528 0.595608082101177 0.16524539943751998 0.019961710690582165
0.07484001053304927 0.6033631094833554 0.14283597699015627 0.017861882380873825
0.09398086773344282 0.5359921015499294 0.34657282254050703 0.018810664547153688
0.09226162514192336 0.543313306698057 0.32506832588199885 0.02076352655382006
0.10373777676508374 0.5035920064587172 0.4455278332192133 0.20904811612293922
0.08714554497251109 0.5662709668527064 0.2587836646697857 0.024424840170026014
0.06932170885840802 0.633973095689487 0.0583936448890284 0.13562677913967922
0.10669450205121231 0.4974513198191829 0.467328349606328 0.19559847950057357
0.09039402642926206 0.5585730411865488 0.2857125350431512 0.02506705791891064
0.07742579007122699 0.5859947828378713 0.2292574231713643 0.026109506084276403
0.06708670482434656 0.6290338536143125 0.10040790781581353 0.02898005649010297
0.05934479593839144 0.6430483796066474 0.053473911721462444 0.1160620392971449
0.06587844576483202 0.6231995008421207 0.11505668998476135 0.016987780013187414
0.0861909793492808 0.553477517099054 0.32673683320810015 0.02158969886846818
0.07176844973158414 0.6049407642939892 0.17149454245863088 0.017731899745326865
0.09528629084559137 0.5213073755971691 0.42392023065622264 0.02378288099543896
0.09786606054385438 0.5084184327414233 0.46098099240223295 0.13476681228090814
0.08704248057440651 0.5476694294973635 0.34289087563214493 0.014702395833001085
0.08145445820949804 0.5807893115239563 0.24614148246414666 0.024492541537807447
0.0835838315296319 0.5725401775570425 0.2711524376079925 0.026145000776559915
0.06654186276331799 0.6352777181482732 0.08148399935389988 0.023340032317971177
0.06226331313450738 0.6527783817159711 0.028279392685145906 0.17158747636533977
0.07704269721011599 0.6016099315914558 0.18240599218441964 0.017855072969419097
0.08436983886086336 0.57681082866243 0.25700070776664724 0.02398472684448455
0.09433059134853036 0.5422006126617143 0.3609707913906038 0.018654383926794138
0.0826526260080488 0.5548698297264153 0.31504055215260046 0.018546548161520425
0.07276675812885454 0.5878835755665621 0.21334584305993448 0.01246432782776995
0.0915381680030614 0.5228516820611685 0.4112807450013296 0.02593369772583811
0.05610211275547854 0.6449417655719287 0.03712798144623072 0.1570573885166008
0.07685525177220898 0.5697886817848685 0.2613910802964959 0.02692743643953375
0.05911010341746722 0.6325362658323667 0.07125261971293151 0.02009320072696645
0.06401117696182229 0.6147617553803751 0.12229845813054523 0.018236786979515352
0.0766420414753038 0.6131206984401594 0.13736183480897954 0.012965114694761273
0.07230188137084098 0.6288063449603469 0.08852863817582392 0.02186236800691223
0.08412725937794933 0.5849319588240145 0.2125149642365515 0.012639911873534034
0.06858360063053237 0.639184984320839 0.046454097811244134 0.15862250757228283
0.07545216168960689 0.6165625414458167 0.11838564866504739 0.025601517879751838
0.06738330591908269 0.6065052318111417 0.156464321427511 0.01771819970698069
0.08786968998446205 0.5325951408087185 0.3775603957941225 0.019854794125382165
0.10442152717926514 0.5141360317196144 0.4335386534594041 0.10091090842430876
0.09230577749463786 0.5571011417862679 0.3005680584050512 0.018141658352363386
0.056440023221592334 0.6439532925860617 0.0235339262072435 0.18409742285582523
0.08084154679681466 0.5554670310275418 0.29436072208692665 0.015273282328687665
0.08128243594667997 0.5947040773840357 0.19723684838108185 0.017316538125499173
0.10024941567604506 0.5268112452953913 0.40268192904819666 0.03294524991502054
0.09913448621982748 0.5320935163481291 0.3836527777141212 0.02262173499814818
0.09692370666737427 0.4973094916587593 0.47286929981848325 0.10209780127481162
0.08877845080954543 0.5266760464706294 0.38901507343333325 0.02117902945940687
0.07850262442610673 0.563254249862528 0.2786645512043332 0.02031398799969668
0.09389074537483422 0.5085283992761177 0.4444033066534221 0.07233516895100797
0.03361404574705394 0.07565508263467258 0.03467943918868356 0.08650421447274954
0.05330540908391709 0.10125209095819415 0.12690309767257485 0.02613998481901292
0.03732969983644495 0.08640170816799629 0.05470404583414011 0.04398955789573221
0.04895798962348742 0.09944377770223295 0.10961871379888255 0.02339090349568415
0.057896255137302274 0.10983838062236043 0.15147143213925873 0.0318084974883836
0.07684981600924373 0.1335562408179002 0.23859516778284573 0.023238183256824505
0.08739303404297015 0.14627323688646027 0.28752097131176424 0.010660392397202359
0.10417839598271496 0.1521891368708347 0.3143430923870134 0.019456872289019916
0.08030542494592738 0.12209948213635956 0.20717476861747597 0.017177048161231976
0.05653792192397339 0.09294249636681723 0.09172804539552538 0.021112528737286425
0.04569903552357192 0.08928296323982629 0.08823710101355302 0.03192842065607648
0.0691525278519957 0.11717554420219499 0.1932293059688022 0.018473293407072756
0.07367295477065824 0.12340980833457552 0.21548990361640508 0.02355324262869306
0.09794365658879037 0.1539599195047703 0.3281164681707137 0.03303125665541279
0.08214222446900879 0.13141945748707978 0.24865958471919497 0.019030725758787385
0.05081544242034805 0.09139274215874543 0.10135560617290276 0.03069403954520777
0.0846887741755045 0.14573432710926726 0.2703613763678809 0.009558242720383534
0.042713865056478964 0.09357357895824846 0.0772826594529791 0.025001615088601818
0.055584280147451426 0.10955875205646667 0.136741137409588 0.022951835445435838
0.06186318470953009 0.11734649563729944 0.16607368607311146 0.02700273328429605
0.10005079382346387 0.16478972484527815 0.34213808895953685 0.01806981440067451
0.10476903151910065 0.17064501616848374 0.3641517240663366 0.2299666856977167
0.0368110790998042 0.08611939866906158 0.04280036352389874 0.0622943589057775
0.03258233833555665 0.08106529272367732 0.024753621066199043 0.09511294635209845
0.0529933519945456 0.10299056929852174 0.10030248817647565 0.024887702580759154
0.07312823719586524 0.12885799057170513 0.19573705060877655 0.022438112954038907
0.09802036231515274 0.15774995766666472 0.30341620733452124 0.011311317024612447
0.06901297376882182 0.10847536421574752 0.16155673981583046 0.016368011492886147
0.11089935189545075 0.1689810425225563 0.3501623767022057 0.1302117377383001
0.08797489136459108 0.14348945359713727 0.25131978089269147 0.01986874810929556
0.06058299178027679 0.10917911116050008 0.12434806163477842 0.021814778992414935
0.07228178407725575 0.12174811136426353 0.17380796082850594 0.022588186522448594
0.10816781047379886 0.15960612447296002 0.32931260402303386 0.02511737473994726
0.09063387314808946 0.1476509472966553 0.2987637241932473 0.010395043804943327
0.04782357984586656 0.08342441941261614 0.07343999162613804 0.022790084959558327
0.08019889808167752 0.12487136156878825 0.22640861070758617 0.019585212610032314
0.10476727363693353 0.1551827414887268 0.33864704168237403 0.021717596681457375
0.10942961600902418 0.16067508260460409 0.35907128647038516 0.2347965479204954
0.06223449968065781 0.10246162460404444 0.14351108626722742 0.015886616661534167
0.06796817186112497 0.11328054485771431 0.14726103883488625 0.02285169545663586
0.09347235081110415 0.14254158895013114 0.26229863507741374 0.014184380307777243
0.05373945215781966 0.09524422834213088 0.0807943472709833 0.034696621396591076
0.0965448728782135 0.14710793350977525 0.2775488903772177 0.017461026782421347
0.04431580665354236 0.09383724033830924 0.06610477033222435 0.028709797760520694
0.07694618952696455 0.13449315314022497 0.21668180212377408 0.017960750890898727
0.09452820473566398 0.15765823536008822 0.31770984255028506 0.023306292806757223
0.06525841246965183 0.12102829424371572 0.18330719509810062 0.02006262671253878
0.08170804137229928 0.1408397759951112 0.2596765902625563 0.016536432468466155
0.048780541255807844 0.08793173279674261 0.056462799414077586 0.04810157571469303
0.0885401215152336 0.13538084127690844 0.2385755982337391 0.023419755086264996
0.06090755929618513 0.10040607415649211 0.1103329723248164 0.019312594312527513
0.36158161052198 0.5515225878042405 0.48938781990684155 0.14644776596726944
0.3687249173307159 0.5463563322144481 0.4748577412481862 0.14488491389276467
0.35029582625009276 0.5497711609432891 0.4844622569736755 0.1411810690932338
0.34343894526404933 0.5441806023690937 0.4687387914206648 0.13235187268770968
0.32796400498187805 0.5397193604422472 0.4561917794063013 0.13593112969148685
0.3311429133484636 0.5445560972905443 0.46979497012085136 0.12737916685747713
0.3350402754149025 0.5495843587323637 0.4839367904032884 0.13999761624248522
0.32260448002477815 0.5503922733058954 0.4862091218534691 0.12683649715543094
0.3136456335060027 0.5463447601535351 0.4748256556724467 0.12854043615548744
0.30763919666675454 0.5421245422779126 0.46295643935899267 0.13898012631219045
0.29410081778458275 0.551781725703458 0.49011713811402063 0.13902606336571724
0.30910188496630153 0.5545949569849362 0.49802917061991275 0.14683099404667713
0.3026720130313718 0.5465415906527498 0.47537931939441447 0.12613958174743886
0.3297492946074774 0.5538180314031782 0.49584393051894227 0.1500279001186469
0.286558329606264 0.5480416891695693 0.47959845568941517 0.14930602120098743
0.2835060664175694 0.5442429886671691 0.46891471564883813 0.1537074172681501
0.26898630108010474 0.5476501060116886 0.4784972633573111 0.1424230782270428
0.2772181731394846 0.554649393462999 0.498182523859262 0.16771229738582674
0.26322529365943237 0.5545914266089625 0.49801960507875953 0.15977830142070787
0.37182864125613485 0.5576979723291149 0.5002709587088136 0.15982923394339837
0.2917819288284383 0.5571989190100202 0.5004422401418015 0.1628316499261525
0.25977691450974005 0.5376151496953498 0.5008186863828377 0.14402675315335473
0.26614573190684393 0.5338924074420568 0.488619615311997 0.15088870633528192
0.27538434129196926 0.5285881387206759 0.47867178403776367 0.14352594034248703
0.2956957851802145 0.5273081210448057 0.4646143581540306 0.14666490752708009
0.3175557520039556 0.5214936372343146 0.46174256662621627 0.1448803969259523
0.3394724363625773 0.523099005935564 0.463779378672208 0.154724552010214
0.3710088072990658 0.5298331725423213 0.4837862743728108 0.14195841554364677
0.357088986234799 0.5419847125845156 0.464688631746672 0.12968124323653257
0.3850481351471627 0.5543425722763398 0.5213576793654684 0.2387840663014342
0.3827586538528651 0.5629774708654902 0.5365922715755174 0.2277943822981228
0.3729022749198704 0.568765766911667 0.5548855807143875 0.25417029813288633
0.3679757638510745 0.5886349173414323 0.5483294153462017 0.17769354363063292
0.3511094454359687 0.5911340329994546 0.5539160454221279 0.1505266515850514
0.3466549468896437 0.5770460039278956 0.57390486525478 0.25446149000832335
0.3525287535407879 0.5639853503754237 0.5764948410305321 0.23551337094879513
0.358283576253699 0.5704141916195107 0.5697120246336661 0.28613528063264837
0.3543956870106782 0.5857348216279054 0.5418464134518703 0.18413865175742947
0.3248438958850842 0.5967401583740316 0.5664483251210237 0.1513756399617754
0.33456989862511866 0.5927460621826967 0.5575197117079367 0.14802363863517035
0.3605974603558541 0.5805317122608632 0.5302151034386445 0.1820786563495483
0.33483984245339016 0.5834348787111787 0.5367050148015694 0.14135212309524278
0.3093905364691126 0.5830315100452035 0.5358033286992653 0.16281223133957404
0.3265615641200308 0.5893839594008963 0.5500039011172546 0.1481690666376266
0.32109050141529755 0.5839205036103386 0.5377906188443922 0.14673798159378204
0.3192858538554083 0.5747049188317407 0.580783345234621 0.26122125151589465
0.3133068245334424 0.584508958755194 0.5759916344782695 0.25682986930563223
0.30822756857560757 0.5673757636047001 0.582709811998771 0.2882798440062262
0.30264191341258506 0.5761094049584228 0.5773635497895913 0.2817043906290331
0.292711123429793 0.5672271004618363 0.577164076978906 0.22949581691540674
0.2857599854654886 0.5791116283841458 0.5676031721880973 0.2594074458765863
0.28727934609723527 0.5922697329054393 0.5628802272714359 0.22657666361987178
0.28244329543541635 0.5674570583318549 0.5703618341210842 0.26249996598335196
0.27323613362357235 0.5643639675848349 0.5627659887453682 0.25984295266773316
0.27824516745486294 0.5836428078077569 0.5371698169288724 0.19068026101625557
0.2885025715756723 0.5814624047501622 0.5322956422627854 0.1826696541908621
0.26880605353044607 0.5720075158442084 0.5535606274981695 0.25119281382116687
0.2621679978896145 0.5606739414548243 0.5465479108896317 0.24198817589545477
0.2591077518604117 0.5660425739215549 0.5359271330293787 0.2430271619399108
0.2576618634042832 0.5531748728857432 0.5360764751781999 0.22500088660825043
0.25740272535623504 0.5761684977948052 0.52478993139179 0.21292779242894455
0.32563154287197205 0.5874102550781259 0.5750146189068178 0.2598149251724443
0.3659558285488515 0.5756139399139921 0.560447150058488 0.2543759023363775
0.31571185402077573 0.5651317403918366 0.4994527658735784 0.14959964821374228
0.2709600017157501 0.5639396042737315 0.4994045836993697 0.16871466213337905
0.3817237933664556 0.5736265608775142 0.5019616344723601 0.10226708352253033
0.338884151361987 0.5760189272132211 0.5034697718610438 0.09538948096278407
0.35898279576555037 0.576389340986613 0.5037542087250451 0.13131251501724206
0.3850449451887501 0.5795635203272524 0.5101437272097974 0.10648531651471638
0.3753706010723504 0.5769584149259266 0.5175173606632848 0.13974592221055807
0.33578578038975027 0.5802163445903314 0.5143256901744889 0.12683591640482686
0.3664845630631831 0.5810389835272567 0.5111203666904521 0.13509005341994987
0.2571807929342872 0.5420428571316289 0.5145132844673322 0.1761322242684202
0.3474282648014651 0.5612957626076343 0.49949854849361686 0.16237286160616288
0.2581480845320371 0.5677527899531636 0.4998136146405903 0.14928608426497128
0.2566355988349266 0.5786694970544497 0.5097011970965524 0.11947980739228826
0.29306994391935004 0.5879480262574888 0.5467939543262654 0.16710830044263159
0.2805331402808095 0.5894800582276835 0.550218725435927 0.1580490198343613
0.26927487930478633 0.5780807707878223 0.5247361219570841 0.21061949992635268
0.26834705713699264 0.580469403329496 0.5087385120466861 0.12686007043125722
0.32679097957167536 0.578710290750235 0.5059143558509358 0.115260014891494
0.2933379029110525 0.5771740060084265 0.5043568320332459 0.11965935199645171
0.28193262363696114 0.5810041858033582 0.5107687578258701 0.11264042767412155
0.2989404122599357 0.5670473792129269 0.4997020510465166 0.17094020626757817
0.32736972477530435 0.5668513848387559 0.49967653377585347 0.154979689697738
0.2776582149111165 0.5747173972184567 0.5025860588222366 0.12608137748136386
0.36971039105122716 0.5835661605456381 0.5369984841344502 0.1571454491686471
0.33847846226923217 0.597290320817424 0.5676781744843991 0.16974826258140988
0.29981381237525123 0.5958918317458478 0.5645518697409075 0.16488007542829536
0.30352712410013283 0.5904853190714061 0.5524659354232464 0.15252247312793255
0.31274744444977676 0.595820858831468 0.5643932847197954 0.13999207707146735
0.3484774455382041 0.5794742210088369 0.527851130449413 0.1741483790455083
0.2867501135081745 0.576155502967211 0.5204322827501848 0.1683931120129204
0.35560134206201394 0.5759210264129176 0.5199080909862359 0.1732867094785078
0.3259330904017187 0.5794251249181768 0.5277413839428278 0.17257209214776645
0.31389619672163094 0.5776444164532544 0.5237606818839469 0.18581855950774503
0.2972966028760002 0.578260753622163 0.5251384873146402 0.16820680800968757
0.03918635457422695 0.07085605156849764 0.020714513025141483 0.12353472244230293
0.03889074329878316 0.08069623085808049 0.014701314852651134 0.12251342784122234
0.04256530111959593 0.07110952996404059 0.008615647270240574 0.17839555809171628
0.028106545888692346 0.08033099115832373 0.011774033093323012 0.14324385249211746
0.032813358747781456 0.06402034619611602 0.009293418355846322 0.1480071680185455
0.054263306747245554 0.6558704579711974 0.018703854258771257 0.09484638681691246
0.05026069788675436 0.6484456600745834 0.011184365750095784 0.1682768513083404
0.06695722377580582 0.6568719457683626 0.012063058360660066 0.08920561145461038
0.05972169123901955 0.6452252742271518 0.00524260184499644 0.09201409201071746
0.6088735310038621 0.08171993072029571 0.014766127242680574 0.07895475560136683
0.5979361502435168 0.07100145174705076 0.01572193867152964 0.08490469017841461
0.6147120293839182 0.07294958401540431 0.01636868578964338 0.10643257855514346
0.6020891338883193 0.06614237893833037 0.007266464404577405 0.16508174321290556
0.6012684142697253 0.07902314005393546 0.00588498360818135 0.13195878618066587
0.5734781016948338 0.6543179170833083 0.01838709032211232 0.15076200432342637
0.5748054829196061 0.64366880599439 0.013465227464348547 0.15083889863303734
0.574263832638976 0.6554075759837414 0.007241051523061123 0.13432386551096628
0.5892507141293083 0.6555673554427099 0.012388183521539076 0.16257482726710523
0.3260201136891784 0.12495425458303391 0.36814041190207436 0.21282630093574237
0.28749480769600816 0.12227430562642659 0.36561792755284944 0.198966594970973
0.34304904580300366 0.12790293787779075 0.36848556148061073 0.22117318500582334
0.35506213835025646 0.1309844396880315 0.36743227869448 0.20644889607672412
0.33676420482129654 0.13109117432357456 0.35831713938233634 0.08206677732595781
0.37117732417132165 0.12734188975925795 0.3691008269224445 0.2455601759592928
0.38624183073744023 0.13152564971756947 0.3582815140865982 0.045980556040977436
0.3983574541342794 0.13294811691236447 0.3587930767974494 0.026607219825873003
0.41032684904246614 0.12688022165498278 0.3602762994745105 0.019567307117424278
0.4309717466297631 0.14002202702970518 0.3651557282250111 0.2061079865102367
0.4231433497730495 0.13538764301418674 0.3595406870087381 0.01162825412873102
0.4569564499979668 0.13408248046481458 0.3636521275606467 0.06576398879400898
0.4392754073092918 0.13368671784958402 0.37149075184960534 0.2559961629172579
0.446195293835277 0.14246577393185622 0.36398747952282123 0.13245420039673758
0.46369809478513724 0.14441274877598947 0.3630613275568352 0.011901088652161242
0.47226997862813613 0.14023611932697733 0.3734635981336518 0.22076775744435462
0.4847153343013776 0.1456271934504091 0.3753651583764283 0.26307702054949506
0.49230408080686927 0.15606058395390082 0.369489916880967 0.15757833949801356
0.503457076496827 0.16152776239280103 0.37320800425893624 0.16412469626714274
0.47514578322276146 0.14478056154928798 0.3628387765402016 0.01332804079334713
0.49165726488086026 0.14524391409598827 0.3665392311249666 0.01834411128500309
0.503771189802713 0.1524329136194761 0.3672382031883316 0.05210128149259773
0.5137444946162929 0.15925569268015452 0.36843904260870575 0.12480918871729058
0.5455986017301602 0.19828313640561576 0.382540206971827 0.08923173184924414
0.5203935259694253 0.16845180478768332 0.3711435627372491 0.14199210424259998
0.5372293256380706 0.18169257409972378 0.3752240508197275 0.10145879355427882
0.5481081302638557 0.18664725158641782 0.38034806191922543 0.06847790894489188
0.5612162908701285 0.21640340854088996 0.39926886629022734 0.23289545870236839
0.5539970128350713 0.2093333129054733 0.38471288660380093 0.018579398041865848
0.5615322673984161 0.23427501666757972 0.3935571329582164 0.10719815847614558
0.5664259851564561 0.22342955271705428 0.3929380278439194 0.025656443784181138
0.5664671591063071 0.25425896980503837 0.3999726476751027 0.09230960490501458
0.5723719191112906 0.2631746347353534 0.4048942529965298 0.01987009301207028
0.5707565286976525 0.2421765270213591 0.39875458031865585 0.023363746908850454
0.5630595710194795 0.26682590968916664 0.4113524911219682 0.21980910460224293
0.5659355857983615 0.2774296629922989 0.41845460677916835 0.24744636143537288
0.5748965266180741 0.2880267528861049 0.4199762915745774 0.14326349910408356
0.5685105845511645 0.27526025363890766 0.40690701032659143 0.12996404312086515
0.5724571702054109 0.34250262785523133 0.4320227823852547 0.12138718267794928
0.5645723553340662 0.3145532207516061 0.4290873503502499 0.2524701988965381
0.5550551781289786 0.39269844699029427 0.45063695224387373 0.19178494678663954
0.5486448013332765 0.43142144031994023 0.46953724805932895 0.218908254574899
0.5392931403260516 0.4651396157145536 0.4744641045692971 0.18066299850712977
0.5099366722878951 0.5180734082593845 0.4965956499163338 0.20747055599557496
0.5231201265008205 0.5143028454809311 0.4881986230380754 0.17000500070932767
0.5122546597691485 0.5291895865753857 0.4944161201859208 0.09842560061464754
0.503690459619795 0.5375465448816683 0.4981894114225374 0.10361922073554655
0.4969692679465408 0.5413067014274873 0.5065445424078117 0.1987284024733368
0.48742497500332044 0.5415494297495957 0.4981932189190303 0.16335691164037186
0.5689179757216013 0.30051505853998917 0.4153032643090436 0.13373732198110383
0.5740740787931179 0.3233816647706049 0.42606417393848794 0.121942854155218
0.5725668272145793 0.352733206799661 0.43932455269786214 0.12717722635097004
0.5700890026312425 0.3677936195110738 0.4458830065624874 0.14126006582133332
0.5619523771332379 0.41784021715044006 0.46072579802316355 0.17712315914741117
0.5756850568666514 0.3074819989919094 0.42447841561829636 0.13827737258294945
0.5611142662421531 0.3489480935469682 0.43663881417443856 0.21625672968857565
0.5685464989166965 0.33298759447789755 0.4259899279167465 0.14375304594345562
0.5654400935755792 0.381433657797296 0.4429419863805356 0.11608664874265233
0.5609033220186908 0.407766818282815 0.45163693311908226 0.13253989957444418
0.5655118661895127 0.3964253408625461 0.4511041838168522 0.12996532325849003
0.5579771942218255 0.42534358108181886 0.46807633249224495 0.2024568910280139
0.5513047705876221 0.46302860306137317 0.476637822199103 0.11919824412825224
0.5538799788129446 0.4519558941674684 0.47093480747447947 0.1385168849009555
0.5465250295245805 0.47430561274835037 0.4832932865305425 0.15996304206853876
0.5353446110724656 0.47684880240787036 0.48503947130259334 0.25684276554658686
0.5430304055642967 0.48691357994524387 0.48268454927857485 0.11394509000590915
0.5243462271963588 0.515998241357806 0.4984682819983174 0.16407873849804028
0.5313345150029974 0.48720066076075536 0.4888043953728328 0.2800359916777366
0.5327538655744135 0.5054630378925227 0.4873963691910008 0.17487579354632046
0.4688190109728225 0.5532834781919024 0.51246773274998 0.17845593789761102
0.47620652158192794 0.5411755289991077 0.5066944222064013 0.20478279979168637
0.48087483589599556 0.5505784610066512 0.5029022138249188 0.09424702856663919
0.4124026540705451 0.5558465341578706 0.5129738285662718 0.18833727371968711
0.4500129769791053 0.5603661777656188 0.5061792338254059 0.1664901566969326
0.38135153644647957 0.5664981073722122 0.517026233425285 0.20175933757636938
0.41010321105293623 0.5643880021318349 0.5060650255588831 0.15148223414558445
0.4236312673967861 0.5652039800872767 0.5128981166091364 0.1727977181129666
0.4372045987765439 0.5638387828776047 0.5116970780696166 0.13971863882596838
0.4024907239222698 0.5588822103586724 0.5161257014156924 0.18856012032155234
0.3406513906063767 0.5610687468311533 0.5122104100026985 0.18184279460039807
0.39836002950152716 0.5686279819925167 0.5108017510364413 0.17658787723131628
0.3475895942529484 0.5681467709184606 0.5182124200418816 0.19476846770634745
0.32500355617422994 0.5708844804656359 0.5173665249382093 0.20419153443053362
0.3729405636483677 0.568045186935287 0.5071416211290047 0.17139196402348714
0.3020974305305461 0.5714814109260278 0.5091934535253257 0.17616453511995994
0.2628059547770185 0.5703441818723616 0.5139840124034634 0.22783276141221645
0.3546417831683309 0.5613095992644807 0.5088372773039169 0.1953155836939275
0.3012640382833193 0.5635389170512364 0.517612711353133 0.2099434431592227
0.32050248859455555 0.561477764490905 0.5119103890793657 0.17236230543398967
0.25372250724446044 0.5583079229789937 0.5097570178125019 0.1892370743862228
0.2876870351442567 0.5611207288743354 0.5098181794732883 0.1951954182201322
0.26686695228544116 0.5600226554192326 0.5090924595924182 0.1866088079979081
0.2807436414001647 0.5671889925982552 0.5180089911164028 0.2141648694289861
0.24148606980770798 0.566450067858723 0.5070836320136641 0.1699115242113677
0.23253870843059182 0.5566138889579493 0.5142176387642545 0.19945099020639842
0.20859102979682373 0.553275956113058 0.5123433929883485 0.21802835151698607
0.2191928549288524 0.5627713083548846 0.5053245740018701 0.14784948621338248
0.18976642315490966 0.561001660174012 0.5086617907080628 0.13785697759262042
0.22951220602344208 0.5670693919826076 0.5106379013891651 0.14996528740674334
0.20166905993687068 0.5623049952643014 0.5133070756235318 0.19010692332464804
0.16075672197567153 0.5523176893579009 0.5051653667414853 0.14578021162396285
0.1734144840289456 0.5449747013993206 0.5070541163156912 0.21775541269617527
0.17497284125532142 0.5553435207601474 0.5125869514962685 0.1754389037376078
0.15841251258150307 0.5392862358356841 0.5074952535506748 0.2262976769313974
0.1477290600328623 0.5329097143972761 0.5044630524099151 0.23905694214217837
0.12527441508696344 0.5129496816506327 0.49246037476277954 0.2210097775800403
0.13451105450135661 0.5358362822586162 0.4978459904183613 0.11907912754484078
0.11395238155943667 0.5170025912688995 0.49460977172178083 0.12922602659377683
0.12414643709743335 0.5278048039168904 0.5000453933372484 0.11580782370842713
0.09862480262484175 0.4552464934159678 0.4737075474310914 0.20131320596145286
0.09457010031317495 0.439763515345562 0.4694947145267563 0.20622576105134463
0.09124635306376516 0.44841424727019313 0.47756170600479514 0.2322552543982534
0.08823544836850103 0.4106548114092181 0.45715157200843726 0.15562490545856877
0.0748453307974768 0.35116837010746654 0.44438604483755684 0.1700292091131573
0.1507342784502579 0.547580604080255 0.5068700158967194 0.13259187502905326
0.13626280088290588 0.5272991542963241 0.5049094259649934 0.24675887887324277
0.11133722529685403 0.491588677008417 0.49005859150607334 0.2698509587859094
0.10935938263872082 0.5053492985256677 0.4853309993702315 0.20576636961815128
0.0943686718506034 0.47194095140631853 0.4742283183329836 0.16630256015069456
0.09738262822260672 0.48341049596853786 0.47934560824885986 0.15216494750001092
0.08814746569804896 0.460421754125804 0.4748007307209311 0.15050784301282571
0.07387055163145115 0.3898758783630169 0.4550137917178919 0.16960746655787493
0.07563395192900732 0.4050365752450248 0.45612514699532314 0.15746881342449087
0.07164329906396873 0.3764423429760332 0.45035572477001334 0.1646830014049372
0.06558421942715671 0.2755010952148053 0.4157977257235361 0.13524314114638408
0.08746766335163503 0.44780807915934184 0.46586300982772266 0.1618530951930171
0.08272063143846772 0.4375902630246489 0.4700725582855176 0.12335611305276856
0.07549826847224474 0.3858849355049834 0.4442713026531456 0.15154899024453947
0.07951574726329858 0.4253234064722958 0.46146453621300465 0.0941839204733574
0.06878095394737625 0.34469896546342904 0.43174614740641 0.14450032045381053
0.06908995286139874 0.3293633882915168 0.4253883367530277 0.12137541747753276
0.07725235339099219 0.36538868030772664 0.43785752997576327 0.16636694532651294
0.07521110595181416 0.35511781100686823 0.43379773897872254 0.17327530091317642
0.06581018264572797 0.3170647216234852 0.4236683695138871 0.09811894063151093
0.07360227967893862 0.29609635902643805 0.4151119859239074 0.14834303438448135
0.06974358307616797 0.2699620116196884 0.40540368239555263 0.09226198756258125
0.06483120246005604 0.2877250302286215 0.415316993363209 0.054285656603411614
0.06786276950159124 0.2528059345493142 0.40256613760278664 0.022959437022206906
0.1163840817519002 0.1702205964966585 0.38246635411838426 0.2865042475376977
0.11001745341090668 0.17921621312514274 0.37593767937484357 0.17887017447694256
0.13686946720653798 0.15903499930492768 0.3770407573540818 0.266534795854828
0.07660387487823306 0.23381651231037384 0.3928949273498885 0.021294063500523364
0.07957950015624046 0.20546011754686175 0.3881445205765341 0.023411305769091725
0.09024202523310977 0.19047268052591027 0.3808275825752664 0.03419377715309688
0.06862720386217872 0.2399722388670478 0.40041841894824926 0.022840862966865137
0.08878455353642056 0.20105658738590154 0.38191846651843964 0.025924619677180794
0.081502323590885 0.2165921001295755 0.3870558507507851 0.02235406785057266
0.09847985138815613 0.18312311878296306 0.37663789415406407 0.10523492193394025
0.1261835294512971 0.1559192322297245 0.37021894888699225 0.1681382007128315
0.1544938506585817 0.14222970822258457 0.3662289372301417 0.016285502762337728
0.14471385010440269 0.15148249186014023 0.37693648098143356 0.2540038468279986
0.17120520533166375 0.14498132852032303 0.36285516093412495 0.014438020263004763
0.13744300266317402 0.1515428308286401 0.36676869964205383 0.05746873608067944
0.17448492452334627 0.1401895634097325 0.3733985237696265 0.24428089592334967
0.2408543492071925 0.12479991126571967 0.36165488051129296 0.12719305935052505
0.22884529516000435 0.12560146134593367 0.3643047593363545 0.17088113243764516
0.18192422642034628 0.1424894883179108 0.36206941363376827 0.015598709644197897
0.20531465185236858 0.13523164303581553 0.35952785940243726 0.013831878880115013
0.19218670916748104 0.13289246479661554 0.3621664126941838 0.014107660700516732
0.20372975715956385 0.13098487607801687 0.36993910613638625 0.22093442095511187
0.23285858624515732 0.13454987861769765 0.35958198656071066 0.026267394996126476
0.21995388844863925 0.13812352002970332 0.362135778610349 0.13401108193003516
0.2591103560585796 0.12688073599284355 0.368810875198058 0.2281455992744385
0.25022883159841436 0.13275298690498855 0.35883856775352935 0.04528650580378556
0.272227498528085 0.1281498508757239 0.3687795436818409 0.23077098840902377
0.3087111810084272 0.13202307914226477 0.3658199423261411 0.19299316265442892
0.5801346962252965 0.2532792852846417 0.03200722576477642 0.02410385647754988
0.5843191105185604 0.1050816065211644 0.031251887975811035 0.045241210984741514
0.574243627876949 0.44750733104106855 0.030944792589108257 0.022328945305329313
0.5756750688178122 0.40857343171557986 0.03246922299570691 0.02397564118300172
0.5723184303816004 0.5166444835173775 0.03145212199404329 0.017596956976905876
0.5813680568426868 0.22270509522726448 0.03317321371451996 0.02022665425436052
0.572972424998713 0.5401595310338327 0.03455852732113888 0.024827769814002896
0.5837332474911937 0.1367151584808285 0.03293885897825995 0.025062206888888505
0.5770066130750466 0.38295678659619403 0.03368168854900702 0.019721109086357932
0.586560431518717 0.11651146015067249 0.03555595780084118 0.02859209582089201
0.5746246232747851 0.5036760235502342 0.03515389988808168 0.019597269013962557
0.5880447697712368 0.09353651907068751 0.03610173425594339 0.061557599711340165
0.5764221349064191 0.4805841757446485 0.03590873553226458 0.02060335475599506
0.5759687704164232 0.5756146972787853 0.03662465696226133 0.015463279737607938
0.578767449714995 0.41912781601681554 0.03627500272685331 0.026267198779118883
0.5779974478663151 0.46501406158922265 0.03638752220306072 0.02478731934225986
0.5850000892244096 0.26369237957182223 0.036602972423808604 0.033944558667421666
0.587354828634307 0.15652126076847156 0.03645215169836554 0.02653029940170965
0.5877850210942409 0.18819436266153794 0.03671115411517084 0.024542868066731338
0.5870928785649193 0.19989033864793973 0.036644751886043506 0.027249621438758836
0.5896532524981896 0.12862348055348283 0.03671404230569068 0.011244108578183086
0.5805957559421899 0.43532292050233823 0.0367197357920945 0.02740841705395493
0.5851424508018243 0.28258396235758576 0.03670977330882945 0.020731981860545323
0.5693161906496216 0.6220521692935523 0.03237954593709473 0.19309503413460993
0.5804105480366667 0.6108594616243296 0.03392022412173852 0.04112952349739008
0.5815486103093491 0.5938997821224256 0.03262920571954118 0.016329777473266475
0.5904934480094093 0.2920305944719311 0.032116885573342385 0.015171525015840941
0.5833197650949605 0.534783556383268 0.032430371950594374 0.027057833260971807
0.5823906465886635 0.5649700553238937 0.032657053531732844 0.01981283943612651
0.5810300665235362 0.6234017615061931 0.03015672691395222 0.12356233971614437
0.5846760229154276 0.4923219638565562 0.02950695335758976 0.010589375077475632
0.5924362357536233 0.22408831551659217 0.029036397527136656 0.020507143777990615
0.591025466097748 0.272644624810889 0.02908689301254426 0.03706929083124069
0.5867285927594094 0.42029777654430356 0.029205268839621268 0.022854928153437655
0.5914968423303028 0.23567449996090484 0.02774061289799242 0.01830416944013916
0.5922719168050004 0.195137235038408 0.027107351329833454 0.026916893326524787
0.5872676462477177 0.3599897680763937 0.02683686214000093 0.01354163637852575
0.5928343698295192 0.1581713486255256 0.02642771088413087 0.020646078219413357
0.5901962143789788 0.21506812816471665 0.03566875902809226 0.018392110995529076
0.5847657577743346 0.3731233941374554 0.0361874114414279 0.016299622843315802
0.585343868518683 0.35223334460888445 0.03620980756474523 0.016283957896301503
0.5880131162732126 0.3258177254799126 0.0349450854099676 0.011386975878940673
0.5863222396308527 0.39364360280920224 0.03450687174497016 0.02706029353343402
0.593401703536246 0.16775948378375288 0.03381453179905226 0.017499317261707815
0.5891318197609714 0.07290808829177432 0.02813829491437509 0.059861873468510476
0.5740528988815018 0.5820161608557181 0.025150182278231174 0.01569320093751113
0.5809478788677754 0.31944335007357716 0.025658275839790887 0.010436622468766815
0.5761168988360768 0.4702753600711809 0.025929002947824367 0.02587668014164379
0.5794964192353971 0.33577836545962664 0.026288212732795177 0.010169320525149364
0.5757906998340632 0.4581738048947811 0.02636822914741451 0.02518408578721584
0.5711835773719702 0.566480026528641 0.028407843198011717 0.025499095801069047
0.5706515618848049 0.5954771522649771 0.02793975216118587 0.012172592753896695
0.5818819895012074 0.21148021931899633 0.027969150400816233 0.022384137819111614
0.5812151931166257 0.3914692531344509 0.02483253716124576 0.019911734735812463
0.5836019400593994 0.34775376621027726 0.024810464662898553 0.01413615935226982
0.585255471257081 0.3008139633557467 0.024864033482566564 0.012202725662397666
0.5926322303298758 0.08599840851496338 0.025072935598242894 0.07390296664962162
0.5904294507789535 0.12378605122729258 0.02486391784388666 0.012353747895615552
0.5884481995366337 0.09677984277413837 0.02510480815039014 0.06482337282372627
0.5910296361259201 0.1818373939901681 0.025680526327183876 0.028375499085100793
0.5783267730791208 0.5260087145846896 0.036641359815695836 0.016243259204430475
0.5791592987737777 0.5531164924636303 0.03633564794011893 0.027146770741291803
0.589272887060806 0.3369700768779648 0.03162242896989589 0.009583635732857152
0.5946501187100848 0.1415973572964871 0.03309791978887571 0.021695398172210983
0.5867556983310502 0.40665783385792686 0.0332978936908922 0.026811440228719955
0.5910957815492357 0.25122187892294207 0.0336099928097257 0.02300878105919957
0.5852568617827006 0.4474749759355417 0.03374888705397237 0.014990590175956041
0.5876081130130362 0.31309056596187756 0.03548356747399982 0.0112477030038083
0.5697491453095653 0.6072976420595956 0.0295610952523648 0.05518371936607451
0.5731036252441242 0.49059934142688355 0.029884980060058026 0.018517516659804528
0.5832758649902074 0.1743502632777211 0.02751366535018577 0.019074094159636956
0.5779847319186843 0.36741254427348763 0.0269768901420641 0.022314608571187302
0.5803243664160678 0.27176736199814927 0.027661270653696765 0.027981992821067614
0.5805073650715628 0.512622877064694 0.025151308033659565 0.019952916582003218
0.5871503723257997 0.26113555907458896 0.025004156197257106 0.018559333192243763
0.5784780811661153 0.5458032124946753 0.024943348666646083 0.024246310624649693
0.5822019917091692 0.4348761988344972 0.025035001980055746 0.023241491104623122
0.566952670874455 0.6350750522322421 0.030649243815387237 0.20450587696197217
0.5344720020611244 0.6407458991007824 0.03627964032928562 0.02606138168906831
0.5624579235450146 0.6477036383864792 0.02702127983842309 0.09658188937333972
0.5454880085795482 0.6486187810926356 0.03292973600432763 0.057455604437346035
0.4102136455777884 0.6481931215797905 0.033621516322450966 0.019022880551769095
0.45672353311022706 0.6383139107394744 0.034247194609838494 0.02294403686802173
0.35795750146522837 0.6386537795077756 0.034770555902854224 0.02088624015791578
0.39589780698690186 0.6373049091471722 0.0321391339838091 0.01926204246391933
0.4686005070949038 0.6373347644389523 0.03230851420607478 0.025615771062719
0.4311003188338272 0.6444785701932991 0.025017062190886355 0.02309263601071312
0.461932365909082 0.6439316687562802 0.024908030164806617 0.025296723105230026
0.32238792951908607 0.6488549936299486 0.02965625665534386 0.029091600733002158
0.47074911300064115 0.6489979699620964 0.030458771951392006 0.024520418505367413
0.31034452931043127 0.6489912058101897 0.03039044216305422 0.020391405256823012
0.16259962843891643 0.6489534469452707 0.030159576425991652 0.01758504580918674
0.4869366303129512 0.6486854086864123 0.03257207372440131 0.02015092012212009
0.5216791740339146 0.6487864358083544 0.03205851971010477 0.027321808893414207
0.1753617108707136 0.6487084813359205 0.032494070475375454 0.015998963497647147
0.3192467492848746 0.6391270944413197 0.035180758662225586 0.021039108190447704
0.5096712193640189 0.6391447067516104 0.03519207787572381 0.014732598369724032
0.5098690181307609 0.6427431191998969 0.024791205426702472 0.019414224875839037
0.384533619492349 0.6424240314686073 0.024853663358774723 0.026941092543021107
0.3338462485034419 0.6421622425598608 0.024903741935441422 0.020197343234219407
0.31086674995933633 0.6385994111214255 0.02682688807703736 0.01687619437842801
0.48082139012458186 0.638395825369668 0.027119862482640526 0.02251085704942319
0.1954295536443763 0.6375921140396048 0.028324613367391276 0.016696664778026792
0.278762337681556 0.6416331263551538 0.036459422543107176 0.01987343264200536
0.36513620211805753 0.6486177499919507 0.028512161783550042 0.02187011187176266
0.08801036547419969 0.6485103867426374 0.028338665217858515 0.1029955504934567
0.2302542275538566 0.6484568430912323 0.02826030385951329 0.022572569154672387
0.09267394751546378 0.6395696027711519 0.035582339083558415 0.06844797779436482
0.08212551920866874 0.6405848673374162 0.036257699641765825 0.13785638574462852
0.26369143396939976 0.6406109317232083 0.02531721093645445 0.021192817835228858
0.22193310892865642 0.6405785502796884 0.02533943542892419 0.018598442175736855
0.529387894280638 0.640866049462011 0.025144185032584542 0.019229736131217288
0.22185246314605506 0.6460389374646727 0.035810146361503536 0.02514795917329437
0.24558510776240483 0.6463660334528395 0.035598642317225086 0.023405641183338446
0.12870539756474922 0.6457351368098726 0.036008803519531014 0.030066282212035625
0.26397980242391117 0.6461744016241311 0.035721547006538214 0.022874000735081935
0.2892116739154213 0.645475886199621 0.03617084913655039 0.020288148011658482
0.13968064536273828 0.6470469239760354 0.026344379479841442 0.022739931765666105
0.21053256653128655 0.6473254909929199 0.02653214096052348 0.017207993351600795
0.07462027836816555 0.6480125811601671 0.028175978468571623 0.14925505680951484
0.07071463068440703 0.6198447388996731 0.03200819566798384 0.15481772292691415
0.06804835953604876 0.6304530604560658 0.03603260840241444 0.1699550109300011
0.06361389233627866 0.6050008769487658 0.03657815196453401 0.013565055592664708
0.05901690214902757 0.6178640688368416 0.03178631198962123 0.07811574683364995
0.06711641762716435 0.6042780035163576 0.025452016027259886 0.01913939419411891
0.05463384431203681 0.43864583751699815 0.027513902436633157 0.030529451614341806
0.04836875757669874 0.24497414770456344 0.028418919720726604 0.01440766599863424
0.06667325481680103 0.5920437461921053 0.02541163984969675 0.022739070982007382
0.056827486753955526 0.2619995350911382 0.025286571271949682 0.028317633370212415
0.06371811117084049 0.5730622816348057 0.02476264934031447 0.01941253174898553
0.059844685120993654 0.41487541867150357 0.024905359251988095 0.023344131027443305
0.06312745427750144 0.5002109659802755 0.02505318512912868 0.020450734351879607
0.05878753033137571 0.5128661667717939 0.02562388141122626 0.02058045915234141
0.04676638631739798 0.14311537528911553 0.026423780638829743 0.01607034635955558
0.052977413439080946 0.3536105527943351 0.02639396483531371 0.016746534637082713
0.05562297286619686 0.46444999876854776 0.03426896958341154 0.021631385785979323
0.05758423955705913 0.531909990330621 0.03424901619552137 0.024879664442087366
0.06407010121825249 0.5882592664773442 0.03669981641719351 0.026494703615666387
0.05555945698238583 0.2791971078057688 0.03658856214345203 0.022755071195989397
0.06560574811792529 0.5725609969630303 0.03630676594852881 0.016112748209668775
0.06013374895725001 0.4486360951304963 0.03666757777289454 0.025704512183651437
0.06420865980158942 0.3939066275848766 0.030465512903029665 0.02420763611757334
0.06333516731900576 0.36551657957260275 0.030250041182678197 0.03009954834465096
0.0595702786647605 0.4696317677032119 0.024897435575768463 0.018330560045162418
0.0528210796545327 0.2795873823740477 0.0251257051142124 0.022725348288647144
0.05677472277856262 0.3751352426681022 0.036551065705241324 0.016803966874790917
0.055780019275730265 0.31467856234149877 0.0366976531573257 0.024774579111919638
0.06680049098546922 0.5243567427387588 0.027208396299740853 0.035566962789896094
