x y z curv
0.24928988216906636 0.36131920063082706 0.39025401449067987 0.09737273905280847
0.31358861162275387 0.36365683182150144 0.39230088451923184 0.08405343923503748
0.296359159616603 0.35800355675332624 0.3873507810226163 0.08885210344640526
0.3775992208581636 0.3595007529383225 0.3886617520904409 0.07859390065907651
0.20999613511944826 0.36204983681427905 0.39089377153883353 0.09469756899330188
0.17869180444106142 0.35828883601519074 0.38760057529199354 0.09048390224631543
0.2710549538545276 0.35833245445430234 0.3876387691841185 0.10391155210178865
0.3922054731402522 0.364177653968787 0.3927590226609977 0.07473899172751143
0.4056320005694244 0.3627898436998157 0.3915433755440678 0.08644798613088625
0.4632377546262871 0.3627262001837405 0.39148902654738804 0.23583001760708966
0.4338411585343695 0.358917495490541 0.38815117966071944 0.07722759436662605
0.46943724531763104 0.35433296726472163 0.3841376700511407 0.20951479795681083
0.3920182017731574 0.35240530988300367 0.38244918515091364 0.0789597368087833
0.3546716166638283 0.3483042517837265 0.3788592681580256 0.0893891691104549
0.14712680038017942 0.3558255684824563 0.38544369658060085 0.10261232498801902
0.18940989116016316 0.35410057889688 0.3839332674465733 0.10488302516015431
0.31929396565489143 0.3535522459792072 0.38345313923271 0.0926455400706016
0.20363515125096018 0.3534450585299551 0.38335928305986366 0.10410008221432196
0.1280815609209738 0.3564522326348596 0.38599241394247163 0.09401825511722611
0.4516417085338207 0.356288169803847 0.38584876077613806 0.1559105965299622
0.2215303982958355 0.3527074633058155 0.38271343259914004 0.0944004066946728
0.25909198615173035 0.35603095801419454 0.3856235400934646 0.09836558920276546
0.3657605646535766 0.35511324585118154 0.3848199770660062 0.07821890570525095
0.08795887698614999 0.35466954733965816 0.3844325868813981 0.19181187627137886
0.12598147128677523 0.3458299820538332 0.41382935749667454 0.14411719761247455
0.1056747508909094 0.3459369907059969 0.41544295157787786 0.1394907230295701
0.3589680603320771 0.34439331083325486 0.39216518449354815 0.0730566737256272
0.33344616454382464 0.34432283961276194 0.39110243197816214 0.07776177689871845
0.34708938419243535 0.34425886061393834 0.3901375864503557 0.0832677355127109
0.37677118793140335 0.3445320700678198 0.3942578796993935 0.07181633330516557
0.3664934944644347 0.3437342710758573 0.38222697918567183 0.08426318056646663
0.42688610135652716 0.34427006427162943 0.3903071319419895 0.07951155980348067
0.3974685995566739 0.34442852197242774 0.392696535868434 0.08089862046572813
0.44018120850271714 0.3442587688511872 0.39013680685321633 0.09620642500747936
0.414736847610079 0.34392294288879033 0.38507284423662685 0.08708850500084668
0.43236086355451986 0.34509996584733243 0.4028213366846609 0.07514844607226621
0.4196584940777125 0.34488255402019213 0.39954294972563387 0.0724937376697075
0.4552036355980423 0.34539490096812603 0.40726870951845245 0.15569082873165413
0.45002272744496774 0.34470590349247254 0.3968792087783323 0.13178577019594678
0.4660843384571188 0.3442535121911675 0.38947094843442387 0.23220634864331646
0.44091221639024386 0.34688036157582347 0.4296670413203825 0.16833086026063812
0.4712620707642352 0.3469147741643777 0.4301870573571589 0.2768021997685158
0.42839718718251785 0.3461910045844987 0.4192732520499075 0.17282953292642872
0.4477617232555144 0.34601718037588874 0.41665213956496805 0.16525697981162932
0.38761411810462953 0.3457415417471191 0.41249575733848026 0.17973139941009267
0.38650078334328714 0.34896630524475575 0.4348251061545859 0.2210093580698906
0.12397111480790599 0.34910454867711926 0.4385773454270145 0.2696204803267842
0.09147350085490097 0.36520514923916747 0.3985263858481194 0.20679088737252013
0.16560314458882713 0.3624512683562078 0.40558189074737827 0.11255541478606539
0.1407568450833838 0.3644455048932959 0.4004743919403603 0.10991375288655571
0.11798656062913018 0.36300160378599944 0.40417241022746725 0.09243072890846195
0.09828684121048009 0.3601271530536437 0.41153426030852475 0.1865526082673533
0.08714136420411638 0.36076506930495744 0.40990047010971953 0.19436942043696917
0.07884836825480893 0.35738732571566534 0.4185513304050909 0.28277432206942094
0.1341352815662553 0.3605560471480046 0.4104358042553215 0.1395011365004722
0.14659060025831266 0.3584833907643733 0.41574415888352506 0.15483858883567797
0.16206806473868274 0.3576842209408734 0.4177909413916149 0.17708295774832672
0.12269610207828847 0.35878393522618185 0.41497442367926174 0.18402847499443234
0.10940074687281744 0.35698928279687103 0.41957077240565216 0.1764872556165339
0.25403368971267903 0.3606436826792627 0.4102113577519729 0.1610460733893294
0.20506827487763374 0.35976097954700426 0.41247208041418515 0.16660788324685907
0.18005596840309857 0.3601601725055378 0.41144969300558587 0.17345013433584403
0.2680773035149163 0.36105124386487764 0.40916753817675505 0.16168228179642266
0.23122926308194586 0.35782489174444365 0.41743066434951404 0.18514641727708975
0.24168622431790282 0.3584014395361345 0.41595404711446593 0.2232225407998533
0.3219190291699029 0.35724872713712524 0.418906300197318 0.21026091160328955
0.2918207866248189 0.35984416077678527 0.4122590419821639 0.17712621896222044
0.3452342976680843 0.3573841928792073 0.4185593540249455 0.22051133034452658
0.30295382431935963 0.35955310114976935 0.413004485235737 0.1957393750280661
0.2824076983685625 0.35755131011020325 0.4181313440887034 0.20638719222308513
0.36258531938655003 0.3574968779945028 0.4182707521331739 0.18557851936924571
0.3349524984448521 0.3608063451727086 0.4097947570039002 0.15532109192885926
0.09032140691196086 0.3559463786500211 0.422241789301189 0.23497706695030754
0.1358703745778976 0.3556061598191098 0.4231131351599992 0.21126933337707232
0.10247824661298978 0.3535755416542157 0.4283138194497352 0.21551911732038154
0.1523867513789017 0.36590105275666696 0.3967465447981252 0.08133249901224895
0.19445987031305087 0.36393098471308244 0.40179214495398435 0.11540090594614666
0.22310253403631541 0.36439682016102437 0.4005990798634689 0.10102629451507615
0.21128168773891615 0.36351131706245565 0.40286696831874425 0.14882839031254583
0.19801580675003216 0.3566105862582376 0.42054068202170214 0.2214959812677537
0.25988127886368106 0.35667178265378435 0.4203839467410184 0.24328751519050343
0.21266820657924412 0.35658913717337815 0.42059561709272764 0.19413865954334517
0.2501363554190176 0.3532302311799098 0.4291983470370802 0.27887490249320185
0.08603252540597801 0.35168006278203645 0.43316836124561664 0.2544374348437581
0.4389164096893012 0.3649270433795559 0.39916377604419423 0.10027064809891868
0.4676896269434695 0.3620147518255712 0.4066988028027937 0.19139779035576285
0.4345505634483603 0.3569849372319772 0.41958190198781486 0.13262324428405986
0.4115501840728807 0.35935065625567714 0.4135229741174433 0.1473538946737013
0.3923768419595198 0.35833476224234906 0.4161248167238701 0.23060600899795106
0.45034453223493554 0.35889260793924754 0.41469609809480024 0.16923014390817354
0.40065381826770163 0.361068843911953 0.40912246206472447 0.14010839724774213
0.4262456784806211 0.3597659377261557 0.41245938184366765 0.11980108336421766
0.3323010282661477 0.35543897754759296 0.4235413823700104 0.24651621217357841
0.46227484125574525 0.3547253596855743 0.4253689819240952 0.2388777441990071
0.4107214504865928 0.3526539680210614 0.4306740783669246 0.2658630170463464
0.4524040343569584 0.35308298680131334 0.4295753169102608 0.23731483738552753
0.37266391333569526 0.3553554340963755 0.42375527766387605 0.24539368247080542
0.1977200140358027 0.34546426249249784 0.37826672746941326 0.12364161022101088
0.1268041348785296 0.34587288738850663 0.37824269394470356 0.11641453293213352
0.0955045315063019 0.345861043041939 0.37824559524275775 0.17840777977917646
0.17804949823786853 0.3457449374853162 0.3782482999518558 0.11650944523041865
0.32434368320576845 0.345698814055226 0.378248790178627 0.10428740176660416
0.1763720480670126 0.36613969223392406 0.39488445970086133 0.09073241379540427
0.36786387307244317 0.3637985196491415 0.4021313981582141 0.10571554011110744
0.4455739257731128 0.3438285629163656 0.37934102735016084 0.12965220099639574
0.10741174567798728 0.3451673028800082 0.3782950333710866 0.09893246167476996
0.39850278733806 0.3451687761945745 0.3783186462151614 0.0916331460444463
0.22812818111232416 0.3445665028738349 0.3786224832654812 0.11891490135329878
0.2527368915629388 0.3436389335985596 0.38001447121313775 0.11370138292893658
0.14302156669305258 0.34753402833479 0.3783398425234596 0.10388802214348945
0.37844228424451176 0.3471329721481759 0.37820140543634756 0.09185158447990946
0.45671275651623494 0.34742375603748576 0.378310272681844 0.19411963233025173
0.3417492220590428 0.3475118841177764 0.37833518333288596 0.09844922459535028
0.47598826891145074 0.3457349547763189 0.4005397905569431 0.2725495269901939
0.11602814835059845 0.3454658356525254 0.40833834472338437 0.08612341016506915
0.17425049796933562 0.34509112677917675 0.40268805099292637 0.08553868216047349
0.16114493880064323 0.34504582883572943 0.40200499621609276 0.08568562044458186
0.15373043169845782 0.34564213175902603 0.4109967412976691 0.13736111178942567
0.1414427801326599 0.3456450739752928 0.4110411074371134 0.12006482960022773
0.39813508125036506 0.34659697647140164 0.425394942404807 0.21762981855460903
0.4166548352857042 0.3464298784627799 0.42287525495672657 0.1874817205962202
0.38268553978993824 0.3465032749979949 0.42398200859214863 0.21856227570292266
0.41093993255331884 0.3453405646871189 0.40644936423536054 0.08770498278961048
0.46691135001081685 0.34565601625753894 0.4112061078231991 0.20949851644063003
0.2806852946581837 0.3627987117247338 0.40469203938168113 0.15462108379065642
0.29515361376203764 0.363941246623678 0.401765854368021 0.14390233095494745
0.23960837687290587 0.36505902972494847 0.39890307264761665 0.10490955722054617
0.31852970597917246 0.36326308590592155 0.4035027128457568 0.1113837240698757
0.3488995092343586 0.3626012004349056 0.40519789045138455 0.15490438856673594
0.329822684003467 0.36505498216774646 0.39891342580491684 0.10034033114648826
0.4194672974158117 0.36399449569200715 0.4016294850873847 0.08281683857587181
0.3853125698825023 0.36173266837876017 0.4074223186300684 0.14047054284050517
0.45547481007726365 0.3624111356809944 0.4056846757415162 0.19468402137420324
0.43473070856822443 0.3468286736505477 0.3781827153193068 0.0986893908107948
0.2720138544702661 0.3461745151543811 0.3782193340116955 0.12283367043468003
0.08134418416151806 0.3469061552874834 0.37817334349978565 0.19215325894471055
0.05418162255836206 0.40019614672590265 0.47919817974320145 0.1940762049886369
0.055716286230435355 0.394380049113935 0.45263214973549704 0.24423355767735114
0.05803989980226142 0.40973190853383074 0.5172007055187391 0.1267219369796912
0.05810544538947622 0.40691785176787804 0.5055675180848644 0.14219029261725924
0.060272930878533804 0.41299932056763067 0.5297630170130472 0.12966664574826636
0.0715195125890819 0.4136557084920849 0.5190526341303836 0.14032397921988435
0.07634000021151333 0.41110316051794615 0.501114880274774 0.13938046784411473
0.0677954652215629 0.40282414946403466 0.47517738024864203 0.2197032702380305
0.08348034935937995 0.4058606739699694 0.4664938076852706 0.2351477138540373
0.0663373718214899 0.41755928080671134 0.5434381042858395 0.1366099591247427
0.08468539853917637 0.422900833169537 0.5433400352786161 0.15537381900625438
0.06885894518671581 0.3987595023095421 0.45437192373934054 0.2850139439996137
0.09569669083431775 0.4079763046712516 0.45909504961457026 0.233261829497239
0.10145472248970858 0.4073671204733903 0.44817061581303064 0.2195103227022448
0.10567168301814489 0.4116375372601098 0.4634760532068474 0.19104590818487643
0.11834317170489442 0.42064653608190183 0.48986776210791994 0.11995092252685857
0.11711630044116098 0.41646031436471237 0.4713799083898014 0.15970008345388262
0.09344117113013758 0.41109479154584305 0.4770902860259633 0.1929213534612114
0.10205354226839322 0.41758508174127246 0.49648987022278296 0.1363622335258529
0.10307887670025044 0.41556227060402207 0.48571594651458405 0.14778024666851505
0.1430720303669749 0.4268804501649101 0.49202401123053285 0.11892436335840256
0.12984781115446128 0.41931594386938903 0.4695719697716276 0.14265038174902248
0.13139802163295491 0.4243211025787246 0.4920867270333714 0.13009460650514684
0.15609522823012112 0.4294464397120737 0.4903955441876798 0.11353204992822606
0.14882680924126165 0.4252763625227778 0.4778710808755562 0.14003652798905925
0.15071137534633636 0.42262155485950015 0.4626142080041278 0.20204016871006975
0.17622048323653366 0.43267242130172634 0.48911566292674613 0.12256388248649976
0.16764603525490263 0.4326099869456577 0.4956028505871375 0.12021300527144435
0.18908527801940728 0.4357568215867495 0.4942739947988588 0.1199619702092092
0.16880004296124201 0.4273911593280647 0.4686677623401753 0.16780485441923762
0.1841477172760236 0.4308466032651085 0.473458383693044 0.14357888433490482
0.19497422071743115 0.4339870127378139 0.4804198474800435 0.12485512435364442
0.19673439784566052 0.4316114318020218 0.46684303312663955 0.1623503747890579
0.20228490133859248 0.4382609413857098 0.49767679025469075 0.12281712974361722
0.2052357601838289 0.4358837911433808 0.48406345082418206 0.1141501708825672
0.22681151537037053 0.43887378052061593 0.488869800101707 0.11032995017580861
0.22612448839449759 0.4340352644226264 0.46401978967001034 0.15712223077638154
0.214472102178007 0.43516890969604893 0.47588939605709235 0.13800524688878946
0.2255847196609824 0.4361502360755283 0.47531205968493534 0.11997740120896633
0.2366515558222367 0.4364493587700352 0.4713450544482839 0.1334453911226145
0.2626984937652026 0.44197720304645427 0.49633276890503586 0.11466440114904937
0.23818904527718096 0.4406663991025629 0.49314971527281387 0.12174705969799304
0.2519314077270086 0.4401016268871676 0.4881431397663787 0.11348357649652892
0.2636022807656814 0.43788749723938797 0.47476321857096104 0.11885383086463985
0.24382028968712022 0.4351064060038413 0.46323459954959023 0.15045904573032562
0.27425469590286494 0.4398011767417658 0.4831570920266525 0.10999581312986159
0.30407135127593726 0.43554534676462847 0.46676260081941573 0.16452168776619538
0.28366478078236634 0.43760633796129766 0.47335060347729974 0.1398832855178982
0.305083641016182 0.44037436192901236 0.49213639793332337 0.12541718817648942
0.30536606501222907 0.43780334679774313 0.47879983033748075 0.12584069597635775
0.2943906092837643 0.4402171678709225 0.48920300666440486 0.11361745340567372
0.33068364370523673 0.43285137895285275 0.4642862474315039 0.17127534905592873
0.32756138897485937 0.4351829607032627 0.4746398576215666 0.1358120725182713
0.31716679322035746 0.43445771418076967 0.4650563334057022 0.1658349604392708
0.3414181652568074 0.4375665385391724 0.49433617629410365 0.11550435922553086
0.34531359879139123 0.4343091026344642 0.479805742079253 0.12094007905458726
0.3177945021492162 0.4404405057207661 0.4964261461202033 0.12433114531067006
0.32967407504671736 0.4384588265243513 0.4926412172552901 0.1273012055034224
0.36558038355274647 0.42983998097061904 0.4726594239391054 0.13602641482446037
0.38391015194673883 0.42460485511404755 0.4621669326973475 0.20195484624398102
0.35321215454190097 0.43081480567335173 0.46677257118195226 0.1605697059901774
0.35576333901189394 0.4334817183152179 0.48252705555600106 0.12052818174586759
0.3748030199503419 0.43151235361215634 0.4889194751126068 0.11063915847529524
0.38816760213394974 0.4276765983143205 0.48103881235861934 0.12082626984128549
0.40485100129847057 0.42110065169895855 0.46758306615169076 0.1804115954391683
0.4014385766486318 0.42465109138293156 0.481144683578709 0.12690686026079345
0.41525815921915815 0.42382624576500516 0.49255207737201756 0.11340434306774819
0.42066107968715305 0.42050356209349826 0.4825179483532741 0.11252837372502944
0.3961106877454435 0.42927512954028896 0.4977017830799346 0.11683463467246767
0.42679920001143173 0.42211525923154697 0.4973671798793421 0.10758741459036306
0.44469056203015556 0.4116788425594676 0.4717851247790266 0.17363392451101226
0.42815209745559774 0.4158507762008672 0.46920901216879585 0.19706778427051677
0.4364004166381597 0.4158265825312551 0.48034330475419307 0.14072555841371978
0.4425234414305067 0.41662193567080796 0.4923074681774405 0.1293010345030777
0.4570604225178484 0.4088702262367813 0.4750444434119945 0.21364408038855773
0.4574211570006937 0.411885908841556 0.48958793117335225 0.1438573848735965
0.11535468653072307 0.423579279376005 0.5076788007682826 0.13174157634373246
0.11905149335689669 0.4294106540102651 0.5307573948822235 0.12231843042729605
0.09696882219922986 0.42465451878570787 0.535904758842924 0.14005658840474702
0.10536347804175847 0.42448340455671835 0.5249289506761274 0.12753887998174568
0.09479244257956983 0.41894463775556273 0.5122375600090159 0.15788998254594586
0.12648953872347146 0.4255513269931052 0.5032563339574609 0.12183622034066982
0.1588850171208907 0.4358274850150534 0.5188312163425155 0.11410063622013453
0.14896862292977442 0.4305190683616409 0.5033596818369905 0.1252663817424423
0.12900485504611042 0.43090835112484394 0.5264401040291584 0.11704536018193509
0.14145436236574457 0.43268869476987903 0.5222583516186607 0.1200926456397512
0.143507628091539 0.4355768246163476 0.5340037779371829 0.12448165055304093
0.12811419328273146 0.4332713421053908 0.5386752473775424 0.11517049095175742
0.13294521912421903 0.42932717936096426 0.5148374511544775 0.11947905516889189
0.19658725144036024 0.4396823524471196 0.5080557977984579 0.12395947927805027
0.18147489398589622 0.43830728006184166 0.513289497406258 0.12946764595354707
0.1779622508376857 0.43556132099407346 0.5021594161818289 0.13069793991077341
0.17254860930449942 0.43920639237090475 0.5248039427498818 0.11524288086144452
0.16975123579650137 0.4363616005965717 0.5128286283802231 0.12890120671919797
0.18612041000856583 0.44214528874871495 0.5290286387118477 0.12351727592270471
0.22356366926176746 0.4411944066580916 0.5023863189102652 0.1185657476322108
0.21043912612115565 0.4406645147976481 0.5061011638122309 0.1289163780958888
0.23398081865974107 0.4441669289645842 0.5126657019956751 0.11846940060520669
0.22372670345487128 0.44402135270411686 0.5169594569089754 0.11760127623853746
0.20687208740418536 0.44569215094038006 0.5335038368376406 0.1180204908382377
0.21277092187095553 0.4437418307888991 0.5208054986554439 0.12030701811254556
0.22811650683545437 0.44723443517919603 0.5314408694128351 0.12231733560688061
0.20110331635875486 0.4425570092419404 0.5202165127277687 0.1234154559138709
0.2666670477550638 0.4444908635930259 0.508853609511619 0.12043537368528634
0.2695375657458315 0.44891224563760806 0.5314842570182763 0.12550029934722604
0.2552890029215756 0.4454816620143476 0.5157199104830339 0.11782569466103648
0.2715304943102753 0.4466728151397805 0.5195071708695265 0.11534127371965001
0.25160954985897616 0.4425616926396309 0.5010405082964449 0.1173839966015544
0.2573574004459773 0.447881826977571 0.5278911877754241 0.126706466068165
0.246699124028403 0.4464765302464585 0.5221273353834266 0.12087289654990281
0.24135774671950314 0.4488600237569964 0.5352619635242034 0.12238264014281547
0.2878040524738261 0.4430019691515242 0.5024110794427756 0.11366326868216023
0.29354164545356376 0.445563475372843 0.5169046983438403 0.1156446273199074
0.28215164760686473 0.44553271564079333 0.5144895109882954 0.12584511201553694
0.2881728184236162 0.4492448640297077 0.5349621813381645 0.11493950429163813
0.3049860940423876 0.4481985957821055 0.5327194960590707 0.11190710141414209
0.3040934999876726 0.44371533838782284 0.5093496598889111 0.1302870293059552
0.3150784188992197 0.4452826828484222 0.5199572529476015 0.11741590728483198
0.3168053733629129 0.4430236479990638 0.5092117988824735 0.12186255167449084
0.3177769360488382 0.44782323828538867 0.5345415558426365 0.12047869103717097
0.32856849713670233 0.4427993150308418 0.5143886728958431 0.12059741267454763
0.34087338968416514 0.4402187246292833 0.5076791909932932 0.11773493174147692
0.3397747320103499 0.4456989867952317 0.5349879633335142 0.12477794392303292
0.3480456385359123 0.4420904184887471 0.5208969164882131 0.12067400583220293
0.3604193589429361 0.4362774531168515 0.5005673508299735 0.12354004867755584
0.37801652216508846 0.433621084155607 0.5020657071792387 0.11386433364171467
0.363050004246545 0.4405678225371035 0.5245295992931094 0.11812892023188425
0.35352156331356427 0.4389576999722786 0.5082801925060235 0.12409186996652083
0.3529028258128253 0.44383088777266266 0.5324332377830765 0.12227647061488481
0.37040335794003354 0.4365438380728462 0.5103988663616627 0.12273792749878899
0.3771382765114444 0.43863465910749266 0.5263776321959577 0.10763186841516469
0.38076669537224594 0.43608084233415234 0.516685806803866 0.13439288457719234
0.39300693277639276 0.43786475961375054 0.5363948318087023 0.1196553458854927
0.39483856541942686 0.43490696165902765 0.5238957169988652 0.12507674804830074
0.4145564813593634 0.4276922733377264 0.5105468888898099 0.11028337479775221
0.3939848507276472 0.4328176361060167 0.5126530641110261 0.12621848425885424
0.40570826128166626 0.428347968111218 0.5038298759385142 0.12583224131338694
0.4254569960622441 0.4294522829573203 0.5305688658867841 0.11029666361506701
0.4036580110640865 0.43521279514029987 0.5350316869264525 0.11739278755958671
0.40946020886217616 0.43148396422092583 0.523381813990968 0.125577055168947
0.44555175414641945 0.4191164017918092 0.5079489112441081 0.1581446101603598
0.43166196311719185 0.424627447524363 0.5157578105876267 0.1132927521181868
0.4411921263927536 0.4238191397446513 0.5245349704640977 0.14646897472625892
0.4392021013033681 0.4266618826183526 0.5351698755791059 0.13964844121413164
0.45739617054893345 0.41713438784260204 0.5140084405640735 0.1567049326422175
0.45189001710560134 0.42131483601907216 0.526356158533426 0.17138337735744116
0.11241393985383305 0.43102487445196713 0.5465865952187643 0.1286740010169927
0.12169849237596872 0.43974126125058904 0.5762491777446137 0.14586377022478267
0.1127432996268558 0.4361299549641988 0.570312218444464 0.14470710502856196
0.09401700480465155 0.42653310409152806 0.5482282734709851 0.14757202499795172
0.11579171882662616 0.43469078672798955 0.5597174556299924 0.13492928213723604
0.09537743971813209 0.42942129633529486 0.5599397180048237 0.14300961619402167
0.10682887320512056 0.43729638773503265 0.5825807919457997 0.143075275542441
0.09513016101033858 0.4320547833736965 0.5722691543990627 0.15662550520621327
0.14587833633750802 0.4397747309034461 0.5518226999531377 0.11734144797192003
0.15489054594995688 0.4431909530809755 0.5590846499215585 0.1434730489979761
0.15524864587826126 0.44064885679928373 0.5463831480767152 0.12293972815530109
0.12664465615842974 0.4359071687040816 0.5527582197538812 0.11589886108017637
0.1420017445202471 0.44367990009881203 0.5744571302771544 0.16054245828171915
0.13021795626521532 0.43866667622153155 0.5623036158231696 0.14141212635546815
0.1960402878773183 0.44648987385858113 0.5429903132915439 0.12021089279187623
0.193558060467439 0.4516663022054794 0.5703939584925599 0.14088114124888337
0.17187210991677168 0.44347440042285985 0.5464523507448926 0.10976186199699992
0.1844471626255137 0.44543340763018047 0.5465738661194168 0.11132543654769643
0.18033330006945975 0.450398252713668 0.5739634837371932 0.15029226300102666
0.16920194619900053 0.4478535344371359 0.5697312437434648 0.1771347774867567
0.17532606843528353 0.446602609686063 0.559216833534822 0.14126432393806398
0.23001541668051684 0.45007253881337095 0.5448098471828843 0.12179548261697766
0.20814128023341494 0.449587703974702 0.5523088614758371 0.12283267868779159
0.21654107764314967 0.4483929611079735 0.5426313809100028 0.12671268896839902
0.20507491839607472 0.4517239372228443 0.5642106143223695 0.13763598992686482
0.2006628533576466 0.4543033371961441 0.5789211286671887 0.13505030168582832
0.222099130664152 0.45144125105844407 0.5551392467916111 0.12397833075087283
0.21055286438010282 0.4542884057493329 0.5744387373185242 0.15350911206133513
0.26352677095284516 0.45124277145318337 0.5441925968459931 0.12703829274342113
0.25149414119446467 0.45167811602108104 0.5480097627232811 0.1137326080348784
0.23847753102685604 0.4521671693918694 0.5522290103714909 0.11884716898375014
0.23678618228140136 0.4550438506558 0.5667479840103818 0.13970088984381965
0.25445234383123383 0.4569225816560577 0.5736850201726598 0.17001195591023097
0.27392352315448504 0.4559509253997155 0.5662162282397063 0.14487292533641638
0.2713733839428429 0.45371497911264713 0.5554265025179289 0.11267051586656292
0.25687225311235246 0.45384411859895096 0.5580284758604268 0.1219039942310042
0.30185880512786406 0.45474744647704307 0.5648844180347975 0.14056555611309415
0.29888213453764434 0.45029566058405374 0.5422644406865437 0.12050762662490967
0.3042992068704233 0.4524065278775759 0.5537157792621539 0.12348705226008456
0.286393913275714 0.4556409342059702 0.5665781867558609 0.12277036416658599
0.2830049955392847 0.4534169908257882 0.5549009947346225 0.1351284974415062
0.27517321024647795 0.45141718382130397 0.5435505855879419 0.11672111927782478
0.30506858172521023 0.45682149798762994 0.5757753687351731 0.1694084615073411
0.31472222404731226 0.45074839680795104 0.5476385836146557 0.11306948945419984
0.3240783601092243 0.4526227477051426 0.5616196574711907 0.151336611339366
0.3301619687470431 0.45015450089062614 0.5524036871132584 0.12020242797952707
0.3191794554673535 0.45662139297458315 0.5789701797285929 0.15195766475079073
0.3494491364469699 0.44637485960192114 0.543266672211624 0.11209213126188668
0.33747564189524737 0.4518915447215249 0.5645766801888038 0.15177589113045642
0.3301328362436211 0.45432294920653576 0.5729714856141839 0.17301217646189232
0.34760393922630184 0.452817491683623 0.5740136580863535 0.1724759966791674
0.3667233037151789 0.4432550283832773 0.5408286827085135 0.11071014559232982
0.3551307783308939 0.4501836700283324 0.5656525975983234 0.1470503503576938
0.35363921375778834 0.44807726563792133 0.5541014505523855 0.12881373539770113
0.36983018964791936 0.446005199857052 0.5568357735068232 0.1262395873789602
0.38581903645040055 0.4417969560348314 0.5488352974825582 0.11102150209697244
0.35887054063715107 0.45187510953501997 0.576889474830514 0.1542053301645371
0.3792558826791949 0.4459380094730787 0.5638120072765573 0.14337277829254214
0.369635655843668 0.45003433190033115 0.5762344621105147 0.1422471532275807
0.391656095128178 0.4431739596085136 0.5605868930345178 0.13145880212537858
0.4077748997988426 0.43776314401301925 0.5516600046321796 0.11308381081484603
0.4020937237829108 0.4419766735206181 0.5659568520857567 0.1557838906087074
0.41262472515911064 0.441340967338142 0.5736969297606841 0.15593348875568536
0.39060677399472327 0.4476629233015654 0.5811466317831938 0.14988118276219875
0.419605065480186 0.43500650548429765 0.5509510937433432 0.1148813142594653
0.4012826499914597 0.4445155025122721 0.57714807779997 0.14898093494236325
0.44714003948408315 0.42942847034157056 0.5580107824778368 0.1621595884623341
0.4466878529414921 0.42673662018553793 0.5447716792070081 0.15256570202195724
0.430436431801115 0.4360444517885291 0.5679625336084458 0.14664544014533973
0.42990805171020063 0.4330903551220983 0.5533928951776755 0.10978952715180003
0.4580244816270554 0.42566036641537347 0.5538906011222599 0.15193111940419637
0.449599954423275 0.43389617025928806 0.5813296417883214 0.16551583955905674
0.4410752269542203 0.4329829223645635 0.5670397702120438 0.15863409741699896
0.4562400257661744 0.4299075997369321 0.571085133634834 0.17930544135319273
0.11468326575338662 0.4414671792567642 0.5926610829486535 0.16161707136660186
0.09398912550506103 0.4355985105201363 0.5899040063771585 0.18197367348071203
0.11534316136666706 0.4453070979294133 0.6097837102826775 0.1834214069415294
0.12254249957335542 0.4450502550041177 0.6000237924423131 0.20894859343693753
0.09359559808092399 0.44134673809606434 0.6166706781927076 0.15893659675624677
0.10765387169348392 0.4462641005529274 0.6230543920922667 0.16271756305667084
0.09518037719191542 0.43833722370755285 0.6010924968984835 0.1939603842249131
0.10513688594980612 0.44188643433972324 0.6059181233498849 0.1853328014492096
0.11993621291647201 0.4494019215304834 0.6233344334650703 0.17500088558601448
0.13757599976879428 0.44561529764430746 0.5878650627379061 0.15486358508472445
0.13801201489380682 0.4490723801998865 0.6035481308453936 0.2002802990387398
0.15109671001187258 0.4494552919824035 0.5926969935269562 0.1732857277206846
0.13771314666953108 0.4521236967960709 0.618169586521307 0.19006019996455975
0.1634049502754855 0.4563524778331801 0.6140775699677206 0.19456988428367394
0.1663904535696673 0.4542963952356093 0.6023163679686834 0.17512685767259276
0.16692426635990745 0.4505181421476508 0.5841998645511736 0.17747641022302116
0.17550201061033632 0.45384934969285046 0.5937855502836775 0.20577736464840082
0.19106819788223806 0.45998199256570027 0.6116927765558811 0.1902356208252545
0.19110156104650441 0.45517960793451434 0.5890258013349372 0.14658890677232456
0.17658229795676736 0.45835231273770016 0.6142090099920156 0.19011685148056276
0.19053507807302592 0.45744808520293445 0.600120673865473 0.19049026154497783
0.21620600316962435 0.458893560418166 0.5939885349457175 0.16634464124698475
0.22946259955289994 0.45814136060742344 0.5848542050049165 0.13619298416482212
0.2043465466597169 0.4608253614867656 0.6080757266063256 0.17393246250187422
0.2323262200438139 0.46455951767032455 0.6138256173151114 0.1829103669467349
0.23453094553673853 0.46080850077075136 0.595256520029813 0.19161595279197663
0.21880973585809743 0.4623086598032822 0.6089441149131177 0.17699617457993833
0.2509560856491766 0.4596172153711259 0.5870979577645663 0.15216691016495754
0.24262880748304022 0.4635732333484621 0.6067234911769303 0.19580190006606385
0.24215169427512076 0.4578661775904452 0.5800053025304454 0.13968700469620984
0.2626905648019015 0.4594147526566279 0.5846502841291619 0.1640657123530702
0.27037792814756856 0.4641230516062852 0.6057590614756149 0.19357401484099396
0.25971838897084365 0.4625169866119276 0.5995856217007399 0.19053261288119286
0.264841298674801 0.466818111995719 0.6191107289815952 0.1795966462982677
0.2555159177236165 0.4651026266222824 0.6122534891025482 0.18797919845240604
0.30714261460369835 0.46467437106996273 0.6131891954295088 0.17814762380301963
0.3013722404837877 0.45943398924957246 0.5876245373527151 0.13911045129532118
0.2852339957604767 0.45839027649196556 0.5800161301091348 0.16130002231939106
0.3131825583463009 0.46047695627038304 0.594502752594113 0.1806696920331206
0.2948389625386171 0.4628919833015154 0.6027571129208071 0.17226741828167227
0.2821898363102746 0.46121893173131523 0.5927799362427042 0.18010327428328574
0.3384852043982526 0.45515504802081846 0.5810431557237926 0.1762232258864617
0.34866213418258507 0.4601437390848143 0.6092053328424821 0.16957809964953954
0.33348312799568375 0.4578968629776853 0.5916149882634976 0.17961749316903083
0.3501484192398672 0.4568512383199531 0.5944169511886689 0.17117259006120059
0.3240895970691442 0.4622250131144139 0.6076251138226307 0.1725648660757289
0.3325507118752967 0.46374490696524806 0.6186890540202936 0.1946892208582628
0.384263956646418 0.45307380799373337 0.6015230182575307 0.20724330094957435
0.3720444176266867 0.4536876404990492 0.5953069955320626 0.18455800067534242
0.36502133515445967 0.46000364397577065 0.6198456921165725 0.1867585867406011
0.37303851925665144 0.4564121770466609 0.6088598312024451 0.19708001166083455
0.3598814228867812 0.45673169581430184 0.6005957903427378 0.18561990211939752
0.42452257431363927 0.4464528191995272 0.6094965792061298 0.18984506624359018
0.41883382334835656 0.4421660709144738 0.5838620716183021 0.17149125588703393
0.4089605486368831 0.4465842619031253 0.594520165660575 0.16875441604585648
0.4131787455271318 0.448387064051024 0.6071296115446823 0.20183948308729457
0.42277239728659466 0.4441719949214461 0.5971360911486822 0.20102529702922
0.3937461856525421 0.4556273857172356 0.6217620252587406 0.17680085443925053
0.39822718412753716 0.44876967544908064 0.5939600142619061 0.19226091707972248
0.39855372623184737 0.4514613805781845 0.6069574436910103 0.19832107384861367
0.4392529802869754 0.4395848959289623 0.5951496697747167 0.16568086470306045
0.43065172340540736 0.4393820222878636 0.5837515658722003 0.18835604443054302
0.4363503303378357 0.44645907278539615 0.6233792338308772 0.18695528679304865
0.4505804022225136 0.43936406359294844 0.6076619816915229 0.1706572041479605
0.4386606062751269 0.44316215170943785 0.6110498950195964 0.18641364982747183
0.45914612615266326 0.4356542191057259 0.6007580673442975 0.18101714072799868
0.45126373676282366 0.4426900840201541 0.6236211085176373 0.16648293660628607
0.10556249859758039 0.4488295323890219 0.6372788151719219 0.14920823306608555
0.08910392135815465 0.4445729913337026 0.6366558026097255 0.13986604301806035
0.11489828534134877 0.4560093360827317 0.6595636261232396 0.11883567913724362
0.10387235261589414 0.4518510203545462 0.6531433743120602 0.12202171286044347
0.11665026405686973 0.45379966517233905 0.6473711983891799 0.14540813891166546
0.11720451290614481 0.4511771269947321 0.6346601490739165 0.16452768045866017
0.1490357363745907 0.45546230861066833 0.6229575304369527 0.17358309944845657
0.1297552484155135 0.4557801885617333 0.6425817124033233 0.16331573843042899
0.13454879556996774 0.454299080194537 0.6312589116695729 0.1726099677420605
0.1267102216849077 0.4576927124991949 0.6542400575129341 0.13135775831644797
0.14081965029964652 0.46033015904248376 0.6530082728233146 0.13580540336665103
0.1568183523595154 0.45883166794236196 0.6310752569454358 0.14807549921881938
0.15402467293979696 0.46406652257376585 0.6575989902938886 0.12894579602525102
0.15057728701555878 0.4596709203916073 0.640793513751666 0.1651433483198889
0.17318482411295494 0.4615243228402047 0.6311988471342456 0.14232064046353646
0.16583270334806371 0.4622216975689626 0.6393701446707283 0.13197310646292126
0.18502527554265963 0.4612554442649713 0.6219235228415336 0.17318481721181964
0.16970692386464756 0.46589625422089587 0.6534365180861132 0.12219188351194893
0.188684977506616 0.46871852239874534 0.6531628429174797 0.1328747544908753
0.194951223965229 0.46500122799781773 0.6321321784273706 0.15338184330768745
0.18490873881603465 0.4654454277512815 0.6410043258988829 0.1404574818753921
0.2159899316299662 0.46921077615766205 0.6415798563441399 0.13822639757644697
0.19987146015531615 0.46339480886202644 0.621982850931423 0.1708617803015193
0.20706302544311136 0.46640518471878156 0.6325908590974295 0.14911725355861746
0.2241332575928285 0.4676127804325475 0.6311238056249919 0.16157465652926656
0.20009348557515147 0.46809387608667435 0.6429804007641399 0.1436963952963029
0.230780944928354 0.4721216010534004 0.6485037709887354 0.13247475093615071
0.20797366295637207 0.47256026917785615 0.6597787676938393 0.10980667944019018
0.21899844554330045 0.4724116126422869 0.6546108522864476 0.12181436402744661
0.23370020130321806 0.46976790963101317 0.6368292139563465 0.13359199380680736
0.24631787159368781 0.46671181273738005 0.6209312365857909 0.1692473594472351
0.24402764677370062 0.47183118480330205 0.6439548036853109 0.128421279555436
0.2592422213683806 0.47091537743410655 0.6380375419710289 0.13356412661865516
0.2699348466774617 0.47180537806715495 0.640658757880185 0.14018176265377577
0.24234420443721033 0.474516597008806 0.6560868612166114 0.12468569241269717
0.26373437612691064 0.4746160110000334 0.6538811609827304 0.13221753988772975
0.3104961848730396 0.46868234690416244 0.63191801184313 0.166895747898612
0.30814819782025726 0.4715925478148152 0.6444903259470416 0.13381051615593043
0.29858681100560364 0.46711543598388905 0.6230445074960896 0.17438776538207412
0.28619042618790413 0.4674269144805288 0.6224500941166802 0.16605730332434465
0.2822710495111326 0.474610572859581 0.6536862921421611 0.13273444248288283
0.2823926878583628 0.4702873102007372 0.6345444483009011 0.1625897036357073
0.30417685845600106 0.47425853701810006 0.6557001890021712 0.12458320199343101
0.2960882654747772 0.4726673471596221 0.6473279182175358 0.13760322146483614
0.3436340008250546 0.4635635046079881 0.6228644126646539 0.17536561099107756
0.3491328308110313 0.4675097004355246 0.6430501009112576 0.15112846903026692
0.33457357412163735 0.46864315278708923 0.6416991616820853 0.14213143298146808
0.32190346137772113 0.4666000668188576 0.6268970269326747 0.17933499995761232
0.32155188672726875 0.4695723618764208 0.6400181604533051 0.1206007438754044
0.34200728801219504 0.47190668867881397 0.6596033005358544 0.11679725807406148
0.32346168782734996 0.4719661654213916 0.6515516356716049 0.1393992785622081
0.3804429725355183 0.45853331334281233 0.6242761347512727 0.17618810508613625
0.3716880337273911 0.4611792752389311 0.6300448439038953 0.16457506538811553
0.3816477588529389 0.4613711790235353 0.6380777776073954 0.15131221606673206
0.35965861638342106 0.46713795451435314 0.6483837900823123 0.13486687623900462
0.3805509108211017 0.46512667410667746 0.6543994216630655 0.12007398135706071
0.3655469133545436 0.46864638446011153 0.659448958173005 0.12400366033681515
0.3548824806148519 0.4642824116647085 0.6320401737375734 0.14880501174725205
0.3537300380645262 0.4705557783914208 0.6595310352028205 0.12605839463744425
0.4092558281081173 0.4556179214369387 0.6369059067323339 0.1575312870796169
0.41687596587863573 0.4561197269449261 0.6466726767276609 0.15532887926917752
0.41280100306960815 0.45189232445518396 0.6232255702322468 0.19871396664134447
0.3960591039713692 0.46406628203670053 0.6626698467534184 0.11460672526423166
0.3891332894749743 0.4620906274406754 0.6468493849291777 0.13721187960865397
0.3965687222564252 0.4577591310311038 0.6343231544864816 0.150401963187288
0.40500942198153217 0.46042817527910973 0.6547988834578524 0.12892248207724094
0.12253865741515549 0.46160984232541624 0.6763673621428488 0.1159426614964172
0.11809146519607729 0.4641684521129203 0.6930666051251917 0.11474023174309082
0.09703260926031197 0.45306279524034765 0.666589606310306 0.10790254830856298
0.11092050139266948 0.4575932872828796 0.67135296541983 0.11563014135115715
0.13077712252483834 0.4654846568456205 0.685889229700199 0.12178348163881907
0.13850629174197523 0.462356368343501 0.6644300966051578 0.11941813777280805
0.15056929218604992 0.46597628239467304 0.6695385844279901 0.12442911460475442
0.1514631818835318 0.47269596418100973 0.69859282098593 0.11610642463868076
0.15843465862619316 0.47196428162321985 0.6887718277438648 0.11879765126173546
0.14537872005023608 0.46753023985792114 0.6814332655290732 0.11733811699561689
0.13967830531268666 0.46929720422538235 0.6946445356286941 0.11423120118783711
0.18355737549975062 0.4704539884466109 0.6644373105071208 0.1208259626735563
0.1718649340711521 0.4734804897600642 0.6856777289365588 0.11449928357961223
0.16474076615935254 0.4679032287037482 0.6658065597910305 0.12093144255738081
0.16386138629685842 0.4705262614480248 0.6779952256095645 0.12253862181541769
0.1956357018072929 0.47164122675039305 0.6615683574744283 0.11989685341032875
0.1832377904610843 0.47499534156152323 0.6846033102805964 0.11136770817318589
0.19928312538037363 0.47569570361925084 0.6768136290650842 0.10732519427416108
0.22454764533957877 0.4759221453210188 0.6677653030231284 0.11905216539926133
0.21024757609128494 0.47801968656122507 0.6825002904404744 0.12098248764121314
0.21330186769644155 0.4753993699447582 0.6699702426081491 0.11405403514842154
0.23657257542699575 0.4766043623314568 0.6658703036563826 0.11037792744600865
0.23666415409773484 0.4829666214382195 0.6929364049751578 0.12808379840425954
0.23410210930000774 0.47952909255583 0.679333584239318 0.12371982295828343
0.22105358542785003 0.47897196251521096 0.6822625442642635 0.1268827082237928
0.21767486060324664 0.4816430632548826 0.6950144357063007 0.12812507231417994
0.20684841883975147 0.4804856278730778 0.6944831306712064 0.11492161038940227
0.2729601287907466 0.4765132652281403 0.6611269701865257 0.12403263216759855
0.24622321109903667 0.48030318312256737 0.6804266361114613 0.115973934934569
0.26038790870552486 0.4825720302888148 0.6883392725834537 0.10885396081229902
0.2633758373873748 0.4795391962007914 0.6751274798698165 0.11232692016240496
0.24808136920641244 0.48477568605823 0.6991856046982684 0.12186008481978168
0.2881984117103516 0.4790143021261978 0.6736529999883913 0.12698661961095892
0.29279419828261544 0.4760481407731261 0.6617347675507336 0.12910265792331785
0.3030017884375145 0.47738103398624876 0.6690184926404456 0.1226146203375233
0.30442428529389265 0.4822017014851841 0.6897851470249617 0.11643287260020109
0.31280946779296487 0.4754585552723448 0.6623666888568571 0.12310794286537853
0.28956636979616285 0.48164221816774827 0.6850133565033922 0.12217819827684633
0.27774272162038727 0.48418822575977294 0.6938742160870294 0.12444198235331948
0.27548245740932653 0.4815353340927913 0.6822701653451775 0.1289045605633739
0.29222974455469064 0.48420496647263145 0.6963011584888732 0.12479978170400131
0.34104284740850077 0.4774626676382251 0.6833138850043043 0.11289505629024146
0.3309622965482875 0.47373582346031273 0.6627614372027867 0.11180020134325928
0.32974605150972575 0.476888707226077 0.6758974243683902 0.10503813795735674
0.3433426002035527 0.47440950734747456 0.6710828742102085 0.12335986560268382
0.34838475825268433 0.47936213572291997 0.6947505094920242 0.10366654043505717
0.3285995341444854 0.48092227259030407 0.692651498560344 0.10667524678546136
0.3147954454359641 0.4785938221349196 0.6765523382875424 0.10998878049600086
0.31502159908905325 0.4830192096767106 0.6955447915036271 0.10633661698951212
0.38410642034468523 0.47292855015360225 0.6917028403747625 0.1196962573967355
0.3597770074158189 0.4719069688734666 0.6698644534571003 0.12018654036943915
0.37551426805570876 0.46897449116016776 0.6680335314471838 0.12169245278749762
0.3864153695611296 0.46789231881393295 0.6709801503855025 0.12980533583812773
0.3680701510208103 0.4730355207057243 0.6807663831071534 0.11832152000500862
0.36911029502204873 0.4768727370279698 0.6981924302146677 0.11414327032016601
0.42431462104190765 0.46299383519863735 0.685384461554242 0.11768561833576437
0.4143434509645191 0.46385321361878046 0.6795620473794972 0.1265936003389307
0.4168163799798547 0.4606700298292702 0.6674603610344622 0.11917448010826455
0.39158707210174953 0.4692507836194135 0.6815645140844054 0.1234616970812014
0.4097581809666907 0.4685784031084441 0.6963897257677188 0.12292196498664654
0.3931316410286635 0.4730522411215293 0.7000035350289721 0.1246425482823856
0.39922509263956596 0.46930537813414847 0.6892974653816016 0.11538466519759123
0.12978796280266408 0.4755303940328831 0.7319924514666347 0.10836210559846178
0.15029104092279005 0.47514753525763753 0.7106714700895745 0.116560806780759
0.13884246273911427 0.474413523898793 0.7183173238388788 0.11532221109631371
0.15163920248084947 0.4790635434883194 0.7265624637854442 0.11753757115457643
0.14254479382766466 0.47879452688583324 0.734123394416555 0.11186473367320449
0.18334033768824676 0.4802507798142346 0.7073216457185313 0.11415648151122251
0.17592533778879174 0.4811520671236009 0.7163229335496111 0.11612625296376312
0.16597874957277886 0.48063358627949826 0.7208750525630054 0.12140888065449748
0.16295599671060312 0.4827486171506425 0.732154487319363 0.12780558290652835
0.1946087500977469 0.4812009725582406 0.7037444459730894 0.1321219002945514
0.17234091102161345 0.4775619531650405 0.7031437809187926 0.11525403516620386
0.16209936305463304 0.4772221605231348 0.7086759420109459 0.11983015888103163
0.19151809758664334 0.48354041526194835 0.715895888693101 0.1222851930129534
0.18405953708477002 0.48472670227399633 0.7261116363316873 0.11605682790444297
0.19064117856378254 0.48825763960733004 0.73655198783586 0.11409882286959118
0.17027627794420452 0.48583713445845533 0.7403925657566393 0.11601842653016754
0.20437187413072166 0.4888874003538527 0.7311970183950598 0.11318682103071503
0.21016300176060623 0.4834251120942208 0.7056466198148807 0.11732568676900763
0.20911735368106144 0.48670041810216935 0.7199837216973868 0.1211327885461472
0.22085073479024175 0.4870866334773768 0.7168694279644847 0.11845008092701577
0.22703925712867004 0.4843036112239098 0.7025393905125741 0.12209202755733393
0.2353816792064223 0.49160763688546727 0.7297748271474808 0.11506243866417026
0.22087351806152924 0.49165155481905143 0.735976726515303 0.12052504840916639
0.23538724080175807 0.488959627175114 0.7186916415943638 0.11560549874929747
0.24795166202364535 0.48791802234731996 0.7123698080182715 0.1067769638874386
0.27075036761740423 0.49447687397147166 0.7368942961086343 0.12026275453864826
0.2612388248551024 0.48989187543534735 0.7189936687085946 0.11813168954903579
0.27237758853639793 0.48833612075161514 0.7111152448951379 0.11902039866870501
0.2504511217936901 0.4944059363892791 0.7391485832798853 0.12135423764725886
0.30797243755076076 0.49228889548126703 0.7327674677353007 0.11475060568664418
0.28344727018607624 0.4868959288891934 0.7062151486403082 0.11460621017141202
0.3010439316782566 0.4881429110804094 0.7142746935444009 0.11780670631063893
0.3059040465129499 0.48505499545503045 0.702114588209524 0.12048000178948669
0.29700278407274133 0.4916240172856047 0.7281856115138559 0.11712750576616766
0.2876645820957464 0.48915014335714924 0.7163278258653345 0.12106892808384229
0.2805374754190241 0.4924091539001028 0.7287146169406921 0.12294014979583831
0.33497856078181704 0.4828165960255738 0.7035817771503647 0.12466708248188388
0.34672576964289487 0.4831378892130156 0.7101866719172213 0.11138108604371098
0.3466120865233464 0.4876777966229386 0.7294918352360027 0.1128662621546287
0.33529964719648486 0.4854938834813961 0.7151394411055734 0.12138474942080428
0.3235312547064978 0.48518400370191983 0.7085737668835245 0.1224201157066316
0.3133033680799577 0.4869336307799295 0.7113109882578661 0.11346170839463333
0.3301136509560614 0.4885979795339278 0.725948483018894 0.11500057752570908
0.3208973734207314 0.49282991161823575 0.7394920637894523 0.11964471530648085
0.31564489845730964 0.4897052609624264 0.7239983074581394 0.11577499090000455
0.37251044187046006 0.4814240582044569 0.7205444878699118 0.12191894572808189
0.38111647694392475 0.47785310536823106 0.7111525985628004 0.11932434115187328
0.38530290540093926 0.48123581140146793 0.7289880578313689 0.11585039252478044
0.3584455148977143 0.4832251002624684 0.7180316621354361 0.10530743095140836
0.36611671925384764 0.48513299001145194 0.7317943393411543 0.11836222109833691
0.37675274406239495 0.48515863948626314 0.7397019022651528 0.12468703570316654
0.4006096615981196 0.4748783161404733 0.7156578822861681 0.12469185070805029
0.4092921016651304 0.4712379645695929 0.707840121572736 0.13056412005842777
0.4182860243918599 0.4728673722223322 0.7241592815281624 0.1250653306927977
0.42428693115712707 0.46782753396951166 0.7073448253152169 0.12707053932334253
0.4134041948202928 0.4762984680922711 0.734671798411079 0.1215577228093851
0.40327302833504797 0.4769815268224691 0.7275474149384713 0.1254392414589033
0.401094762122239 0.4802830997814918 0.7398269254138925 0.11676366336580256
0.1438227347036773 0.4187110205154846 0.4508374771378353 0.18474095521574102
0.1540101664608928 0.418761788596691 0.4398953351934629 0.17564780727741924
0.16927579048815525 0.42178966462143874 0.44011587786525075 0.17683308793338093
0.13672863320248613 0.41302039392737555 0.430719616916323 0.11718758739611486
0.12204927628466342 0.4127150522371019 0.4466774526840559 0.14934639313886094
0.261091482251733 0.43215986665708706 0.4454967498252703 0.18799390458521567
0.24937410729873663 0.4325427261885144 0.4492213071928716 0.210693654260234
0.2586506561346167 0.43441716967659916 0.457371369994362 0.1718227517109995
