x y z curv
0.06372971833090468 0.3073764227043262 0.4233541967633406 0.17912548341687345
0.1425374149751472 0.32803847857298996 0.42269777232610195 0.20042818739995805
0.02573802527911425 0.2961493210575868 0.4237108771587918 0.10014879605813375
0.1565710688196278 0.391416483325039 0.42068427544942877 0.22373752302351846
0.2515216136541757 0.38995765718392605 0.42073062510643505 0.2099517285486737
0.33100405291436275 0.3876388225262821 0.420804295001812 0.3139452036997383
0.18430056275422949 0.39224178576106405 0.4206580564341251 0.209954044999586
0.17362848980700774 0.3961262866236206 0.4205346499960566 0.1963892997695525
0.30900221815749657 0.3896139905585482 0.420741543601336 0.2421732333860654
0.11030598555152345 0.40079910564455434 0.4203861974682935 0.13372308237456706
0.15260405801830668 0.4015103858712347 0.42036359950208074 0.24252576982727458
0.20841299208627406 0.3978134043944729 0.4204810521032156 0.1797083924514113
0.23612148812495315 0.39680608542049955 0.4205130518373557 0.17181105190289359
0.1387802565923833 0.40343176217731813 0.42030255072155176 0.21269025606154576
0.10586351109263077 0.41108503060801055 0.4200594113448213 0.06756462814104544
0.2251541743175034 0.3999550214967376 0.4204130081312789 0.2027041814783104
0.1284164875940265 0.40645816183779226 0.4202063975009427 0.17138534655399296
0.3470413579014213 0.38990803095231436 0.42073220195390126 0.22066310681937934
0.19308208931910403 0.4064046737730701 0.42020810662879393 0.15617765685686286
0.1801051215074823 0.4090812317739633 0.4201230684501023 0.1936312924203673
0.14819797203498944 0.4128645931474436 0.4200028709621477 0.18506688074463487
0.16664475154100905 0.4144601445089491 0.4199521856317648 0.1782491654212516
0.24532342146222605 0.4057960345027596 0.4202274445447232 0.1955027697659701
0.27353407963845233 0.40292112642316874 0.4203187789424615 0.18572811389460095
0.2595347069567415 0.40413149078944305 0.4202803266409682 0.20643184725884475
0.1410170559804852 0.42377035455537615 0.41965639742821403 0.08904112796638479
0.17568023927099535 0.4207542573520685 0.4197522132728032 0.16800356848411765
0.2040244666474245 0.4188531600168026 0.4198125970050553 0.155134840636126
0.15701365393384825 0.42355355869858946 0.4196632797572739 0.1267071059764262
0.3193838652865944 0.398808744749975 0.42044942229255794 0.23770872005546534
0.23893432681420418 0.41463661718403144 0.41994657061556245 0.23473429139852658
0.2845721255803313 0.40611477124251066 0.420217310417644 0.19763438086733257
0.2189396275450854 0.41886094128727486 0.41981236646099407 0.23180266541543115
0.29853752070133416 0.4050676640235603 0.4202505853622641 0.23081792617686045
0.2620624962629298 0.4168309294596818 0.4198768592187952 0.195249429537656
0.048173046807194794 0.29904529336456503 0.42361887712721497 0.201572713537735
0.1273659883096086 0.31915031524576254 0.4229801490350352 0.22532382311487872
0.15239223809963046 0.32035804878546775 0.422941790234377 0.1989156618829533
0.07324605678728947 0.3006092997035833 0.4235691976503348 0.21046449637004822
0.05935711278878571 0.2967484845716467 0.4236918547930787 0.19629427038510872
0.10175737516588143 0.30599011739836085 0.42339825657390484 0.18883740086808026
0.23954066296363577 0.3441019948772891 0.4221874521016552 0.19639340949171308
0.03427090627145622 0.287293667578127 0.42399223801137176 0.11346196086467239
0.18519693503333395 0.3292754855909049 0.42265848595936467 0.1995779278695436
0.11865335438293496 0.3046175957733426 0.42344185664707784 0.20319574979280244
0.21051783913040467 0.3340399334866159 0.4225071196914037 0.21059470891856844
0.17113013984030936 0.319714125314216 0.422962243676656 0.18195774652796395
0.08316179534148507 0.29204871726677734 0.42384116412960815 0.19788643612050089
0.09457487538363171 0.29545653430171803 0.4237328987738091 0.22565082973293185
0.0713419618648396 0.28955489199782897 0.42392039335216125 0.19425272683484546
0.05459481832559472 0.2859557243472991 0.4240347393761271 0.18116979709726672
0.1356152197439421 0.3080896441692694 0.4233315489581365 0.2038029972773919
0.251499128113316 0.3447952465333154 0.42216542492370024 0.21407641995590715
0.2860532416833595 0.35208862753461073 0.42193371379534433 0.20500732969614566
0.2991787042010957 0.3558722644461543 0.42181350874034673 0.21500084650138793
0.047174009563224456 0.27167177629911 0.4244885264962134 0.19091462198784145
0.195804132844263 0.32516297900426716 0.4227891333038842 0.22669837490378547
0.14711711766372892 0.30784610773698057 0.4233392831858792 0.22608963079989736
0.10876687414857793 0.2941171545342377 0.42377544633914804 0.1768376466735869
0.128485132842912 0.2967735889360729 0.4236910502174473 0.20809293213034713
0.22329755306391771 0.33001390754856197 0.4226350187048845 0.18512413474771292
0.27135411987075403 0.3466174621350676 0.4221075303432622 0.1726710837731156
0.03248089198194369 0.2570815547852481 0.4249520433910322 0.19126561918634719
0.07863436822969457 0.2777768178276 0.4242945683570499 0.19422113930401266
0.20772652717602846 0.32126013989449625 0.42291311932991854 0.17870792917878583
0.3135354926028939 0.3589025266540095 0.421717236908963 0.22785640235809462
0.1777621991410451 0.308707477974129 0.423311910315904 0.2005653143034718
0.02290603755944752 0.249789168269901 0.4251837181463881 0.07003726906815266
0.3368108743621068 0.36625763565475616 0.42148356780427115 0.20780602543372506
0.09056258561342903 0.27214418150328856 0.42447350928835526 0.20318999625786557
0.163115678948907 0.30113753150046524 0.42355240389671434 0.1959737552167105
0.055037165860449745 0.2577422710668513 0.42493105134132925 0.16952211919417917
0.10166462484328981 0.28045038995190413 0.4242096251741496 0.17576958255741604
0.1369498754951534 0.2879278453282848 0.42397207009183724 0.2044062969929732
0.12089571718377774 0.27568625120950974 0.42436098401545375 0.20594743560119463
0.19013125593287947 0.306637944402808 0.42337765993334353 0.19650808763941205
0.1558551867900723 0.2891826209193158 0.4239322104642502 0.21634472078159891
0.045575653514151535 0.2491692883221539 0.42520341420769275 0.17361825576608608
0.26178020335957414 0.33399679856052555 0.42250848173251765 0.21006671360004647
0.20292319462212435 0.309298875256916 0.42329312488218873 0.19467092631990446
0.24356431216111082 0.32654618835457194 0.4227451845217832 0.16709234942123985
0.06915024490044265 0.25968819152668493 0.42486923247436825 0.20309209724892316
0.04873813012836022 0.2374825958734908 0.4255746841613425 0.13479100622361906
0.10925817459610283 0.2681373515690486 0.4246008090173859 0.1867945639387866
0.05953431982937159 0.2467707182884262 0.425279616768547 0.20317859066520796
0.09986462157100301 0.256823272304866 0.42496023340554784 0.1961446669688346
0.13252428434552513 0.27668198766048585 0.4243293463065717 0.1872666276850374
0.1816023600718164 0.29450931643516515 0.4237629722734567 0.20309114254869914
0.15159670702416783 0.2790225163015044 0.4242549739317657 0.23153679590571988
0.08895459561423798 0.25239846185506143 0.42510080819352347 0.20787095682452153
0.035160720193573025 0.22807572188520725 0.42587352697338965 0.1802485123407496
0.21888327727150522 0.3122349451031751 0.4231998418424916 0.19149173240472306
0.08056533877998709 0.24398876723736213 0.4253679766808237 0.2065705315886859
0.17070922748466455 0.2866562469614143 0.42401245464848825 0.21470490196575032
0.35031592519973787 0.3673904971523136 0.4214475751644685 0.1963233175967831
0.11512190863175487 0.2572102667691615 0.4249479389304305 0.20721428555831972
0.12649242615598108 0.26487154052653256 0.4247045431439132 0.2001948663958105
0.28655151386346756 0.33732725560914484 0.42240266750785094 0.19301396164170234
0.25538521226697 0.32206546338584213 0.4228875264458052 0.1878098444756241
0.2367963445438014 0.31651298914299164 0.4230639234724288 0.19589689535365995
0.306211420899404 0.3462478744212066 0.42211926465897476 0.21287229734359708
0.06542133804074618 0.23398809674168602 0.42568569413489976 0.21177866206539192
0.27403464415281964 0.3310115727516979 0.4226033134684922 0.17876080784837378
0.14059490858098422 0.26862191286888815 0.4245853976931561 0.20503400026544374
0.2131842308460309 0.29862079335025393 0.42363236076129557 0.21781207684704687
0.0986785377123909 0.2416194211817596 0.42544327087573164 0.20075073747483893
0.022986510147556167 0.21011896699116678 0.4264440063401797 0.1543337736350329
0.03356784745948378 0.21221987617709953 0.42637727207673365 0.1882547753935092
0.3661638815391334 0.37435223241441773 0.42122640557152013 0.2156674694378563
0.04484757013643515 0.2206817685738931 0.4261084315708198 0.18290100387564337
0.17031706675682598 0.2742786246610318 0.42440570320399684 0.19947742294475607
0.032707919262100635 0.1991472140740947 0.4267925953642562 0.23073493081608515
0.059219308481403 0.2191149049663733 0.4261582317985061 0.21267559932324337
0.1953206521078662 0.2887673742288603 0.42394540214012566 0.18512070134662162
0.15275279524176294 0.267232844768484 0.42462954514713547 0.2128651468882811
0.01698788720976519 0.19140320770265298 0.427038619264366 0.13826419882106672
0.08456067562845128 0.2292105091620586 0.42583749799052134 0.22813769850557242
0.04464254823805707 0.20517462715943874 0.42660110696536474 0.20478586295355097
0.2245995052015642 0.2995863307293825 0.4236016874152802 0.18303930654754888
0.07253411043296526 0.2252856192802927 0.4259621906410976 0.20957146830863357
0.11837152361384237 0.23977188628158552 0.42550196938493373 0.20757516275964724
0.20928969410864628 0.2720909875227382 0.4244752211416781 0.20638166964514065
0.1601534684989464 0.2460235643273092 0.4253033721874103 0.20198011047682246
0.2211407013900489 0.2855928752188138 0.42404626461762235 0.1749452926904612
0.19718115495989907 0.2738260572010996 0.42442009051767915 0.20004848958980628
0.16506630019515894 0.2630160513138018 0.42476351359506104 0.1906485563745861
0.06369507684808287 0.18653773352793937 0.42719322030154194 0.19010935570727225
0.09041615316663533 0.20423371569266102 0.42663102287391186 0.23428204720886978
0.23664657406266087 0.30338182623332094 0.4234811075416348 0.20518628497154612
0.0199137903688262 0.15838026893985466 0.4280877760320499 0.16652774162058467
0.268916764812065 0.31775657428644444 0.42302443061202477 0.18966192031121024
0.23313244377451198 0.2919721037843422 0.4238435991978532 0.1891075464759641
0.1897480968858228 0.26340466092043946 0.42475118038841697 0.23377490106305424
0.03906901971728663 0.16798908013698818 0.42778250870661094 0.18100246073621418
0.053687978138521816 0.17880397794298886 0.4274389208908242 0.20723370330563617
0.18315012067911632 0.27617040840407553 0.4243456016407251 0.19751266726068137
0.3218631991499851 0.34854592340013585 0.4220462632590137 0.20066987847497428
0.02712205393608497 0.17625094517313195 0.4275200180784863 0.17627315124797047
0.07276224136078438 0.196011108806716 0.42689225048064605 0.22583920179882752
0.06991088704335915 0.20696892637290829 0.4265441127151604 0.2328976653519623
0.20890273221573558 0.28649571755186365 0.4240175742721909 0.21345266293028864
0.03978428844730055 0.18680571042965655 0.42718469378305496 0.18671368833553725
0.12491901578331342 0.22030443150187268 0.4261204652500846 0.23314801649058706
0.1477680363422817 0.24359037152475765 0.42538066954283515 0.22551252463798138
0.05532461067693914 0.20266094311298635 0.4266809720831345 0.18324945226287107
0.1107601772847557 0.22097380955866297 0.42609919117753314 0.20912394700194528
0.12856212216555649 0.23341786461790565 0.4257038457823109 0.22442447529848766
0.10386408126520812 0.23161548118995884 0.4257610953980884 0.24272616472420094
0.13462104103307537 0.2474121998225891 0.4252592408288781 0.20410601441049955
0.256817171366664 0.31130049443077745 0.4232295375845977 0.18169720119669697
0.08123811930367887 0.21537148985682553 0.4262771644125438 0.20596501547840013
0.045552061868723896 0.15776227088944056 0.42810736456312687 0.21824086007999471
0.18313648989048895 0.2517769387872034 0.4251205772235301 0.2340116731873924
0.15450457115820304 0.2335326633849779 0.42570019216921484 0.20923722059885771
0.28867513386487836 0.3212888979288235 0.42291221440971993 0.22995461714321982
0.1440394686250804 0.22766416679140403 0.42588663617974704 0.23680346369174796
0.10869030943014356 0.20033980006746605 0.4267547005828117 0.23707656647111255
0.034319332974898226 0.15109722263634162 0.4283191133489 0.22159765367041198
0.11808794269634672 0.20952237067718493 0.4264629879598256 0.23088166764208373
0.25580752209534285 0.29766260090250546 0.4236628020878498 0.17933536312138332
0.0774632717647931 0.18102569177550315 0.4273683064879944 0.22820903037905999
0.33389714102089124 0.34905010464582814 0.4220302446415688 0.21665739164214237
0.17836471017237768 0.2407470809932528 0.42547100718539244 0.2160025223479217
0.2461019195413076 0.2890823806646547 0.42393539529836627 0.18753278257745837
0.30101073399855177 0.32579686348416287 0.4227689918547666 0.2228666947634931
0.09033996433427388 0.17985017496338002 0.4274056893300694 0.23664071150537977
0.03894464806651824 0.138509714122341 0.42871905948907574 0.2031742256807726
0.2588099529524731 0.28518195419048475 0.4240593119347365 0.18331848894839517
0.12870992239571555 0.20266945431063924 0.42668072379393934 0.2113356764799877
0.039872030840393646 0.10678470014760498 0.4297269088524479 0.1802284890768951
0.08265484042710287 0.14484537790638216 0.4285177428914741 0.25612389615021075
0.018646335917668587 0.09981994712265475 0.4299481883205634 0.13174163708375966
0.15642679025021805 0.21461583586720995 0.42630117995535016 0.1671803894460508
0.05881618439605246 0.15509659986084995 0.42819210240401784 0.19067321288819736
0.056411986629251315 0.14209079622974075 0.42860527726586556 0.21497441902507738
0.25174124588857716 0.2753308604230793 0.4243722715884649 0.21552553375240324
0.19056440319085918 0.24046020503000337 0.4254801141000711 0.22068453675913402
0.11486902826535884 0.17784713424674214 0.4274693007981503 0.21503435879349328
0.01457729418641713 0.11051062889822964 0.4296085673837916 0.0904300315660214
0.1082779957582111 0.16381750676426876 0.42791500496047635 0.22086952132172769
0.024741719572602617 0.1317503551450713 0.4289338069891078 0.18781731407565933
0.2842657974247562 0.3101409088608071 0.42326638279279327 0.20350272383472137
0.12050894474102747 0.19301530101112757 0.42698742810031154 0.23645319345520482
0.05728757718711387 0.1274174833413014 0.4290714228458651 0.20728157136168315
0.2301570773993667 0.2651048852901127 0.42469715494673305 0.1947084573453212
0.14027013577627473 0.19716383069097254 0.426855616754651 0.21471463182063777
0.04472154049303803 0.12286698332247167 0.42921599699694474 0.19532220965582975
0.10825951108157185 0.18943803211521498 0.4271010840240896 0.23448510729349087
0.09113435018390519 0.1632064755553932 0.42793443334702735 0.23573204171758919
0.2044812580873737 0.2419224693301657 0.42543364666243766 0.1999809976259364
0.09300729866296649 0.15059799388755746 0.42833498172926665 0.22055774004430642
0.13169003550939234 0.18948937410967642 0.4270994298043058 0.23096971511987316
0.07109060096026507 0.16340065327483475 0.4279282844695963 0.1860106298235965
0.027620837869432244 0.11889243461927895 0.4293422786288714 0.1774966371134697
0.19494487294567567 0.25130749612844744 0.4251355095928415 0.21846643924432627
0.17113669264810943 0.2290798152209245 0.4258416691364031 0.20554087791482692
0.2117875279828877 0.2561475086521162 0.4249817338876576 0.20657703127731947
0.07082593902617909 0.14867083538149403 0.4283962262460931 0.2090264056539253
0.2370806504163681 0.27571903247228496 0.42435995451425146 0.2129294865850851
0.12535143650892824 0.1719189810866461 0.42765762245395395 0.22888794816432045
0.08217875949128066 0.1292631066315969 0.42901278444344887 0.21618194089924292
0.3028059486266092 0.31501754012707167 0.4231114436714991 0.22307290303248992
0.19364403555629506 0.222281586476601 0.42605762653897716 0.199040482627151
0.2418632854962419 0.26247772564553185 0.4247806121556346 0.20031684258778004
0.15058213368619286 0.18899519102435164 0.427115120162037 0.23428066094495859
0.02404332022292525 0.08978196357708484 0.4302670798572062 0.14212677414730543
0.07148453917532908 0.1265119528952516 0.42910018479845513 0.2268749791388437
0.16229368800644542 0.20287492529689766 0.4266741650974877 0.22355180846776734
0.09122181991210425 0.13701215935326155 0.42876660021749796 0.20194182319841342
0.05394864659516075 0.10381250495873708 0.42982134014232914 0.17628232052017212
0.23376544009054262 0.252498592751993 0.4250976489875719 0.1950907882050918
0.03478171725828097 0.08360360743687958 0.43046337559701636 0.25207047369605706
0.12417201661053452 0.15508101309364916 0.4281925756840603 0.22652852579997781
0.10174470282068435 0.1419596028935185 0.4286094257293729 0.2302633282930599
0.2054597001540165 0.22677498110031322 0.4259148813435513 0.22159788540375278
0.04272467930839128 0.09264698627216336 0.43017606639453404 0.18679924797683015
0.16168152941673702 0.19062206192712938 0.4270634431973744 0.23985080545791806
0.27353956199016743 0.28365046014152684 0.4241079717993253 0.22276613934519346
0.14932557926355747 0.1764707408406515 0.42751303244797983 0.22899999834535067
0.0663130714197241 0.10709684544606216 0.4297170113602614 0.2123618739498895
0.13968229166961452 0.16907122169021355 0.4277481106461328 0.22807400518587143
0.023495980654792678 0.07418134322199439 0.4307627168722596 0.11911349519379158
0.014982623401775873 0.0656897513775781 0.43103249392890175 0.06203003548954059
0.18291227707013097 0.21008067685662463 0.4264452478239893 0.20664696227160295
0.3212238968055972 0.32559415839505146 0.4227754341945195 0.22162324331376848
0.16517282190575217 0.17941801368013546 0.4274193945045134 0.24040670449122517
0.019282182773909036 0.04417761246005934 0.43171593042489087 0.07867471186119296
0.35293504107880636 0.35182952270117107 0.4219419455996398 0.2255027181571973
0.049381485612401646 0.07444724671791005 0.4307542772541272 0.2609229185760441
0.06493191588185604 0.09399986927244125 0.43013310127267207 0.23736905519705995
0.07969989689802669 0.10168519997939549 0.4298889373074009 0.2260820239425835
0.12187311041075417 0.1413890039173658 0.42862756301279276 0.21985075769062593
0.11394193193389894 0.1285839422535101 0.429034371353416 0.2384081531013292
0.29839058509273403 0.300278161082833 0.4235797120299615 0.20904823734155203
0.03478950065676852 0.06543010880683237 0.4310407512443104 0.2257425904337909
0.06368045170266796 0.08169322306771568 0.4305240714060585 0.2503804806902947
0.1737173471154704 0.1953003618438242 0.4269148235936858 0.22347098038775218
0.08438957498103694 0.11504041597914876 0.42946465310770543 0.23431120767903027
0.26590411574605705 0.27179393877933333 0.4244846459697167 0.19510125719264276
0.09470685927773896 0.12432218845720937 0.4291697745539057 0.23225199371153107
0.1937688010851689 0.20447370805162912 0.42662338370519826 0.19579569595166352
0.2215688269694895 0.2376233227173587 0.42557023794667614 0.22157063067871263
0.25327901626676164 0.2604873265005431 0.42484385298620714 0.1863366060174274
0.24980554670655036 0.09702703407626488 0.43003692932997784 0.21330624692021016
0.27835382055435953 0.10863428230415044 0.42966817222411985 0.2283701841801007
0.42994094909725594 0.09669711603840359 0.43004741862409174 0.1845675609345604
0.2815406065889491 0.18068031416316271 0.4273792942436876 0.21720820454724343
0.3763106150443574 0.3302876668160728 0.4226263232957948 0.21066332996181011
0.2785761630368232 0.12334683306758035 0.4292007594608519 0.22213733861383517
0.2726853867771181 0.24981934819513213 0.4251827700745192 0.18074466038930273
0.4129932210322119 0.1373041715016961 0.4287573454306599 0.22441802038030786
0.375395525173781 0.26710838524447417 0.4246335077114104 0.21939657038218383
0.395642613536117 0.32751856993357387 0.422714297418154 0.18082183067677562
0.4031394992090825 0.26853325360049085 0.4245882413427408 0.17073935715036703
0.3156127221627395 0.03202723800818809 0.432101953806457 0.1764089842556089
0.3649226563695065 0.3606979533328022 0.4216601982550323 0.18203949986498716
0.2909709070528807 0.2660192357618594 0.42466810591602727 0.2012555555269526
0.23575350763384503 0.10650063654554438 0.42973595555938227 0.24504808559571728
0.3783029518793653 0.2439561055117194 0.4253690479534843 0.20272286264550232
0.3404648757330908 0.2683415749003831 0.42459432815844556 0.20976845460531773
0.13375926056551513 0.14641719573556503 0.42846781546532486 0.22550376415503098
0.16098387871543562 0.10935290562857308 0.4296453366501243 0.23920601251034623
0.29326238651745257 0.1073172428521921 0.429710014777681 0.2382072413029269
0.3898301463441707 0.2022341603439315 0.42669454057860573 0.20341382740499458
0.217550697844681 0.22162987186587227 0.4260783378041592 0.20128397631794037
0.23849027604995301 0.23769335225203872 0.4255680073722977 0.209754572104158
0.18806460341608428 0.08978929329459526 0.43026686720132895 0.21022476819128227
0.3345274761872313 0.3056404410784392 0.4234093555057045 0.19146739736726734
0.27999375990022435 0.2722620214174672 0.424469774240381 0.18549979456063623
0.20683840611733073 0.18863565615186448 0.42712655243319975 0.22526092634635284
0.4066442457298932 0.22251438096606066 0.4260502455512376 0.22341381180880626
0.17601299117718114 0.15575620242244798 0.4281711202295894 0.21364867226289805
0.14928811451815194 0.0796850110788588 0.4305878751350539 0.2138127401078996
0.2659524765138114 0.23602062403370497 0.4256211505891446 0.1907844035127255
0.4189503269570174 0.14956102720336104 0.42836794952263635 0.16555948445484675
0.36641276046577137 0.17209325673375525 0.4276521058870975 0.23031295459753592
0.11611956483793909 0.032273697581720676 0.432094115109632 0.17980174745662184
0.3699166510398883 0.2542944191557129 0.42504060284943435 0.23817440795342124
0.14625176997978293 0.1562913493340368 0.4281541174860376 0.23802834385372013
0.2669412308856545 0.0813370354976453 0.4305353960426522 0.1639323600737517
0.3172840995891975 0.09865975608639019 0.42998506126552205 0.20796158496054873
0.258011134773983 0.15557254690262926 0.4281769585038525 0.21187826775694324
0.39636668408511005 0.2128601287359429 0.4263569574355115 0.23047800347880554
0.03356851751808683 0.037596429285009905 0.43192501009491513 0.17564612029735324
0.41494869191601086 0.21313498526503719 0.4263482261522304 0.21284496028095143
0.3218339715617153 0.30868606838108487 0.42331259639669483 0.19030043825776385
0.3990382882735268 0.1794368210708847 0.42741880475870037 0.23962505815716426
0.25843860442709277 0.03221050232026716 0.4320961290507045 0.1668436661993064
0.3756359806460832 0.04881425328081318 0.43156863863149353 0.18075333631596938
0.1817793322055733 0.056213147234951175 0.4313335697554605 0.18850134286486056
0.2968294300887194 0.20808852719074325 0.4265085452359546 0.1998809465945663
0.2397345581745979 0.15533508961813025 0.428184501639164 0.18969870073712125
0.09224430612795705 0.10477298084719405 0.42979083629672565 0.22412062898668347
0.16705956169492486 0.13605686026585337 0.42879696128927003 0.19734592786474586
0.3220886027962896 0.22823127799358978 0.42586861794916225 0.24567685656918403
0.27890322283768304 0.20002597860938287 0.4267646888965885 0.1990742356682924
0.09361350753475225 0.07713529436456623 0.43066887633011025 0.21440755502284797
0.3927111038807903 0.12084856207505795 0.42928013369868184 0.23694553499712293
0.3979660604491676 0.1590337076819988 0.4280670047389922 0.18322811201472416
0.4007170142859152 0.08633561550343856 0.43037659871645406 0.24283826455022242
0.35594946742928263 0.33190086394647234 0.42257507167331565 0.18338359318274464
0.158143205541512 0.06923701180347584 0.4309198049351835 0.19839726896557122
0.33715739754568097 0.2191456546609694 0.4261572657981527 0.23037379598560695
0.106522258535925 0.07624994442752217 0.43069700416564755 0.21121424924080082
0.29653222996503065 0.19293758760780869 0.42698988546079786 0.21628983172344843
0.10029019848465491 0.036037504212626 0.4319745395480224 0.13855172594641854
0.09027652409048642 0.044452654420443036 0.43170719262591717 0.2150101919113471
0.39153597620469915 0.31469907937918556 0.4231215681268389 0.1893421839788725
0.35198166911380135 0.13374507062765545 0.4288704141855222 0.20650249574348764
0.36452116797391315 0.06861945597084906 0.430939433537232 0.23700404939041822
0.34798878882671685 0.12069552553668907 0.4292849936541975 0.23500081766499623
0.08049969420052205 0.082618410963833 0.4304946789902183 0.22569342787997565
0.2822647817818238 0.21598462725894862 0.4262576881618082 0.22060880365286598
0.3637906131449838 0.34351866819520177 0.42220597829702944 0.21138298950970238
0.2645546288121275 0.05124746798103447 0.4314913313441938 0.20578701379840025
0.3059221097604891 0.22700194749931432 0.42590767265429197 0.213748303835568
0.25236727306774004 0.14547520730902552 0.42849774732760176 0.1927175395492635
0.4076097824536472 0.2372587913644417 0.4255818206507504 0.18354085292874625
0.3495515825060472 0.046137610825644416 0.43165367351375294 0.17353146922350918
0.31519108756730724 0.07254494691745787 0.430814719848524 0.22030954410491166
0.3227637530010215 0.25846787453675296 0.42490801150991525 0.24642027968902247
0.36663714952405635 0.24146027189989006 0.4254483392328958 0.21717902851708323
0.3091696246108854 0.1894951637246397 0.42709925066080884 0.193621965080503
0.15239792066080987 0.12039591191447954 0.42929450368987143 0.23740204370683005
0.3309504713939911 0.24953724688629111 0.42519173489620854 0.19731123755709962
0.21782003344941792 0.050264649587614896 0.43152255310088095 0.22260594141271353
0.11052962798933086 0.10379056562362782 0.4298220480997356 0.21334157513524846
0.3557441384565821 0.07662665173999302 0.4306850472442785 0.23401653516937962
0.17636860991992764 0.18472888400883256 0.4272506679279835 0.2274787301138801
0.2329724126193546 0.07251192165054457 0.43081576544005373 0.2256227459256396
0.26073184195797877 0.06387742234969103 0.4310900817880061 0.22267338200586162
0.38313782514985056 0.07600672386066121 0.4307047433466126 0.23533024989755696
0.2835392596289528 0.05686068785177819 0.431313002076648 0.2041914132308006
0.18033466148891508 0.09945433313460715 0.42995981180765586 0.2229356530078304
0.24591876673599095 0.22159003003894057 0.4260796048111408 0.20867770237303637
0.30342111086852724 0.09497824016043807 0.4301020211754729 0.19824893051787534
0.18544652346289436 0.07673690459695334 0.4306815370707935 0.21395443392402788
0.4368092269902304 0.053325015646748825 0.43142533591926996 0.11462908480170153
0.2630716230109521 0.14194171900923241 0.42861000552852324 0.21596315751002967
0.3753831159403567 0.313223115787283 0.423168458282853 0.20694034838493966
0.10116194150836602 0.0924411771545407 0.43018261393025176 0.22092982330858127
0.039192919117355826 0.047892932293958454 0.43159789391581327 0.20427175630754782
0.3598299605595001 0.1580224990274518 0.42809912882223755 0.21287119258419615
0.34433146899276795 0.3251469735293133 0.42278963998265784 0.23347988499667746
0.385512684976494 0.29489056444472256 0.42375087769748865 0.20228865115554528
0.38447281880995543 0.35011505606068577 0.42199641418859596 0.16010495510832917
0.2752205328399135 0.22857361227309364 0.4258577400467403 0.2121016665043714
0.3660823997070393 0.22893333102867017 0.42584631589282296 0.2208797350190008
0.08375236906828787 0.07083463292604797 0.4308690457848825 0.25039030714791893
0.42551375232580735 0.11342883843785775 0.42951585725516134 0.20153103912692297
0.12578079189228478 0.058376441610164705 0.43126484016437705 0.20571389883032498
0.4441858124993655 0.035130017723481906 0.43200338518731396 0.1096799085788714
0.26837386549027237 0.20820401766132787 0.4265048748932499 0.19997476642496329
0.4050473935649772 0.2006135534814228 0.42674602737991535 0.22155441359633105
0.21352366037355058 0.0827593376770353 0.4304902076369087 0.20405057430003565
0.30649576428071396 0.2014681364536105 0.42671887324006363 0.20805606198366014
0.062058597202847614 0.0358668763471932 0.4319799586590568 0.1534615931480435
0.36257378558326003 0.1007539572256741 0.42991853119059 0.23892177014505558
0.3809887837512261 0.15374077665286565 0.4282351586262598 0.19432148360248352
0.4001590255655541 0.30602149538184115 0.42339725242082016 0.14568552907209523
0.2919213518337834 0.08976624284129152 0.4302676040665919 0.20110674532145784
0.19754621999898628 0.061181297674558544 0.4311757339847797 0.20784122549102255
0.20973380035201578 0.060522747638040095 0.4311966564323454 0.20947335586987803
0.33313777627873375 0.18907352762139193 0.4271126469499217 0.20605225604100352
0.35164451707552213 0.2946945774258871 0.42375710265185884 0.2107960261394286
0.3574576061400706 0.2784895549030387 0.4242719310042952 0.20393869612246976
0.3307124151977061 0.07277286750163924 0.430807479569986 0.2349682285185778
0.36269683556367616 0.12318348473569522 0.42920595267580297 0.2413173860115601
0.3221810050573776 0.10872641307003973 0.42966524718514 0.23351956170585236
0.2898744237369753 0.035074175511111014 0.432005152500056 0.16666145377323002
0.39189956453916786 0.22461877858570467 0.42598338890157755 0.20923919494393856
0.4144650815629605 0.1108798823132093 0.429596836245976 0.17989553028335648
0.199141682264074 0.08710235233321058 0.4303522308953409 0.20844922159232937
0.24849936819100815 0.05359958689179506 0.4314166046151633 0.18062969535311818
0.21597805304324427 0.10524753495147457 0.42977576530586875 0.2255859734028808
0.12159750064030168 0.08134622223607763 0.43053509780132293 0.1929320928832962
0.34622191102036987 0.3419103846526674 0.4222570721510572 0.21467564012609475
0.20099750378496928 0.13754031418915 0.4287498339488621 0.2266388844171925
0.35172195239537035 0.26436198876173217 0.4247207587614418 0.22619011474267706
0.39010175660062585 0.27431957923046946 0.42440441115760064 0.19414865335268236
0.39865772349818296 0.0662118089910314 0.4310159251681918 0.2637089493465131
0.2993150647095963 0.2376543833996344 0.42556924807028207 0.2066603187489075
0.20462121415934725 0.12557850608406004 0.42912985671498016 0.20638429488472254
0.3448955530186896 0.05619379207491306 0.43133419182446703 0.22209562962404109
0.23356947135315959 0.09439392090197918 0.4301205817340924 0.2506078521357483
0.24667545629548596 0.11061504052397322 0.42960524281294643 0.22078828448223484
0.37606319515893644 0.35975719235763237 0.4216900864029139 0.18397627875940084
0.3926117389297261 0.2598924452732274 0.42486275644522015 0.17574561800892866
0.1704295749218497 0.048871967849732995 0.43156679604891623 0.20941013637588493
0.16581767498036054 0.12403661061448051 0.4291788405099539 0.21702552519347307
0.3534962194614212 0.22302985139599057 0.42603386689600087 0.2245408881050673
0.16269345978737496 0.08371987163254607 0.43045968956542124 0.21398470657543792
0.4143335244240504 0.16809789676646184 0.42777903922913535 0.19410972340991847
0.31213753665909016 0.133864940730589 0.4288666042033267 0.19861243055068975
0.3616403024023323 0.19671640074932503 0.42686983670120926 0.20366369548509677
0.3336098772836044 0.1633330892376006 0.42793041201203935 0.21941442237684716
0.3406539333221245 0.28195799309644304 0.42416173915549366 0.22124763231526812
0.38414288299603966 0.040205669844169 0.4318421307958457 0.1985379395464097
0.3626275353557149 0.21474868358557142 0.42629695720381044 0.1943921652000203
0.23239157176599992 0.22777899966086868 0.42588298274075703 0.20742484464956615
0.17638175489376953 0.08703974217425407 0.4303542189996209 0.24498360875954187
0.13801653690112362 0.1145644796215221 0.4294797656945549 0.20419003763471164
0.18630509328437836 0.036880648406255934 0.4319477569182484 0.16966548629493103
0.3846693899830931 0.06506683513073212 0.4310522999871648 0.23170705702300826
0.19060728987672462 0.18278195515552198 0.4273125218258572 0.23794631931855537
0.3652459119203436 0.14098660561540666 0.4286403536450103 0.20014259178567775
0.26681220773796477 0.1305015221267107 0.42897345688724875 0.21766610533024233
0.39110106990054133 0.2481618174986411 0.42523543446480916 0.1847695351995583
0.33301367864135306 0.0501488146016095 0.431526238197218 0.20496011767992736
0.3069565136879314 0.27783648843894887 0.42429267648808233 0.18747517729628957
0.19460017105731298 0.11672815562858868 0.429411028922412 0.225077866317151
0.23114945657315797 0.16927965618616006 0.42774148708791204 0.2339140738080563
0.25589041045405225 0.1280454457773924 0.429051485124514 0.2574341257110359
0.3889690320706975 0.1343329545790468 0.4288517389348072 0.23609977805574245
0.3212198552275356 0.15392887522973786 0.42822918017361333 0.2115878093008247
0.31794222050636467 0.05361642108417329 0.43141607284764727 0.22304032250375483
0.3519440737851289 0.09317820100614374 0.43015920994253 0.226963543538891
0.26150407063288184 0.1945970535645604 0.4269371632493199 0.20247641656576051
0.33122110447362535 0.27432531774638036 0.42440422626155616 0.2509803714075677
0.4292312090430822 0.034181570989732596 0.4320335163633671 0.14257597055292118
0.2935108704934514 0.06690846121958322 0.43099378814518907 0.21431021058700528
0.21076927408718257 0.03596377349470066 0.4319768867989634 0.1681028835458757
0.2476378949726868 0.18261313233223408 0.42731788777408264 0.23224194600429152
0.22894333089773966 0.21378736684527516 0.4263274920424519 0.2090181422639091
0.1584348537233829 0.1493670229122185 0.4283741015347919 0.24698650593959742
0.23205193818082376 0.18542098744649163 0.42722868248026047 0.23318698989636744
0.34272926347718036 0.15060620568130947 0.4283347412083727 0.21326305351534808
0.32781413444375695 0.28755808691182644 0.4239838255009508 0.21686189850707702
0.3762356621671481 0.18951513176809823 0.42709861922754044 0.2101201140459881
0.18293582795865346 0.11288203590457205 0.4295332183360201 0.21542294189068292
0.35326030658745394 0.16832810582619864 0.42777172288338955 0.2337245397929858
0.24320263720281843 0.17022359664384062 0.4277114989473333 0.26036378458583725
0.3167513603657837 0.08723639757565642 0.4303479774872249 0.22474723936313684
0.22604982561858292 0.1123068947344259 0.42955149226996375 0.22194575141691142
0.3951386594767186 0.03704652662473577 0.4319424961926822 0.17991698209948828
0.337217404219815 0.138555001846858 0.4287176036455217 0.21769876132933075
0.296604121718564 0.1480006153396649 0.4284175179090133 0.2186219220098314
0.4449513064786436 0.023759247967439105 0.432364630739029 0.09559550296344768
0.21248773827731232 0.11741698161359834 0.4293891459387182 0.21106301227587718
0.29670960999952045 0.22031720810478791 0.4261200441646006 0.23373005740116412
0.12842632806252013 0.04412704321895027 0.4317175388589924 0.19824201530889352
0.4105775179519347 0.09609551857218739 0.43006653032237635 0.20110384604536274
0.3855213089203559 0.09052297995429251 0.43024356689365634 0.24261783330705475
0.146977446702408 0.049789910111353405 0.431537632303287 0.22271408703534482
0.3107645615042762 0.21463108589091262 0.42630069096568823 0.23446623200187985
0.3713375160226162 0.11222636444063487 0.4295540570695114 0.21385468468698332
0.25735678501487347 0.21408761381301 0.4263179545451822 0.19480534766771682
0.23679443074637554 0.0584411962441323 0.43126278780589167 0.21767945468828626
0.27900321920679116 0.09068265192640046 0.4302384894919895 0.19406147022048217
0.3435942403189854 0.23877081575411804 0.42553378133532727 0.22377435582026037
0.22702270413158301 0.13187455876147955 0.4289298342296143 0.215072177900462
0.2562241398950204 0.043880739908226704 0.431725369443403 0.18721479527203697
0.4226557172129168 0.04856383479774482 0.43157659640673895 0.20894133848242527
0.14032638990851323 0.06173506325038981 0.4311581385268957 0.21705539521026374
0.2571662937811617 0.1703359363699753 0.4277079305652587 0.24471885525300843
0.15964312975106856 0.05354103526642108 0.43141846087904545 0.18483651943850016
0.2554263722905899 0.08611323674231969 0.4303836572352352 0.22817973300686092
0.20502579311707186 0.17231031680831077 0.42764520287560004 0.20578768904081568
0.16398141564360932 0.09788294075161427 0.4300097336953621 0.19755523004093373
0.3480342820430931 0.18175694028978095 0.42734509311455326 0.22995041731416618
0.27018808995368054 0.17468269867382724 0.4275698359654332 0.21108807516091507
0.2090866582274994 0.14832921525098475 0.4284070745580013 0.2352534957539999
0.40541351483568977 0.05073285855657038 0.4315076864967839 0.22629587588818942
0.1982230800618378 0.038777168615970074 0.43188750563445777 0.23461962647283752
0.22884836404928385 0.038856402420261726 0.43188498974792705 0.17470580346878314
0.41991803802330213 0.08763082340561101 0.43033545124154576 0.20528446941684358
0.2458563623780823 0.24750088472742487 0.42525642569851874 0.19397134146684442
0.25140147155615356 0.23621254779933268 0.42561505259696986 0.18802568047033646
0.3772535650180663 0.28135248450639055 0.42418097756608764 0.20361919605923331
0.3178080584517088 0.27113100271462903 0.4245057079832593 0.20933132157010914
0.3031838153529784 0.049476596706981936 0.4315475930231226 0.23098781267959215
0.18804263700464918 0.17044730901432054 0.4277043892588504 0.20146990075888224
0.36716088912041783 0.3228188555309401 0.4228636045082406 0.20575837010350514
0.2915307489479638 0.04814299041260489 0.4315899607334094 0.22079866465682133
0.25211290640775025 0.07367018984136618 0.43077896849090724 0.20797473395676094
0.2786161077652018 0.1466197382567318 0.4284613871181463 0.21748532001988466
0.19802836634566212 0.15378767977035349 0.42823366049662265 0.2258311359373523
0.33599478500655783 0.17636887157807946 0.42751626971070006 0.2206057136412333
0.2871205086499981 0.2530344857076145 0.42508062687450693 0.20212252763542693
0.26250854404071133 0.11461488142239509 0.4294781699125415 0.21359323518262605
0.1576156546423182 0.03991497215141063 0.4318513562170967 0.17928587130965812
0.4037590103692977 0.10560444737994579 0.42976443456353786 0.1988967555392689
0.3632794050769732 0.29930557617000664 0.4236106132885957 0.18140023990342624
0.3035252763308626 0.03489748913838227 0.43201076636587643 0.18024859344308972
0.15330869252322896 0.1320249557034092 0.4289250529328872 0.2166001663437473
0.3774805737512976 0.1764117649162983 0.42751490882537624 0.19622414332281862
0.3142603932600478 0.2882576492370099 0.42396160004682837 0.2094560896344443
0.3801863636124273 0.2108554295448373 0.4264206453418856 0.19970618975041482
0.18651345211174525 0.19294689394093134 0.42698958497103284 0.21589552121187575
0.43389542950776083 0.08047840879457283 0.43056268165388806 0.18511431101587866
0.38374132430998403 0.1661208428449395 0.42784184822182714 0.20363073345706678
0.2729490444142654 0.2616018088916589 0.42480844528573725 0.1757609206396583
0.2085169451508741 0.2037549478140673 0.42664621771277045 0.22115724054398156
0.22185375734004553 0.07430408038679152 0.4307588286735662 0.22156630564386015
0.32618793794304907 0.13290690954241538 0.42889704114781374 0.2227881294439344
0.28829994033600403 0.23003809768338912 0.4258112144137335 0.22427067727437472
0.14577868129107005 0.10111321608537342 0.4299071081388139 0.22030521570901532
0.23668848406333814 0.12363698963085726 0.4291915394455461 0.24997762747351104
0.36386970215926384 0.057191215398789394 0.43130250485516264 0.22991410458444644
0.35175133083960886 0.2493885672225772 0.4251964593122767 0.21922693158915443
0.34414719190493376 0.08006276759867181 0.43057588249376083 0.22818316621376286
0.3537024627084479 0.06509371608659428 0.43105144462857276 0.22978857244508624
0.285207764521628 0.13513050086265388 0.42882639660256006 0.23010719462014267
0.31173415748540545 0.17249509462233442 0.4276393372321499 0.1962052875604169
0.3749079011913457 0.3003163522529168 0.42357850178411 0.20330848366958665
0.32478421167796434 0.040239399434283875 0.4318410566118305 0.18522588838282109
0.39338971793594313 0.19087735995563804 0.42705534245090365 0.20800040491323904
0.06539366504210511 0.051408054494603894 0.4314862208200922 0.2562976796529208
0.22743570653415673 0.20144597057878116 0.4267195739710598 0.2206162162118529
0.2896444433967087 0.2844757482358772 0.42408174868460213 0.19975348733358447
0.3322278966095585 0.32709897672794536 0.4227276249682939 0.20954955635314032
0.4265379815787472 0.06006018546273111 0.4312113613959974 0.2005963636913488
0.19531770305553797 0.04955211046299991 0.43154518924039303 0.16437225546068485
0.2814780034516954 0.07286089482281725 0.4308046808099134 0.1676476745597706
0.13881869898492905 0.12698831075074876 0.4290850648072001 0.21968782477772594
0.17097718912189744 0.03575468074151926 0.43198352785798405 0.17165809325164905
0.33333094252033124 0.1219604468197163 0.4292448068882847 0.21056695987387544
0.21999843716606224 0.18865738780583466 0.42712586260371677 0.2114038170221731
0.30906977703056704 0.15072238932955784 0.4283310486151538 0.2294490828705182
0.2761837545622355 0.04613028185425362 0.43165390313126784 0.17700937379580306
0.3459137897006825 0.3132444967539528 0.4231677777228183 0.212457913221362
0.2987277251866723 0.16925423147357604 0.42774229778967643 0.19746658355924265
0.18606179246766402 0.14540396626306104 0.4285000077202523 0.22663398509183316
0.29839191217644695 0.13540583467427753 0.42881764991916493 0.22507637692363336
0.4024470925453429 0.2799484051677674 0.4242255857990685 0.1798438446651657
0.2918861753970286 0.1255090209805726 0.42913206806489834 0.20871206360054428
0.20095045979297071 0.10158402717072809 0.42989215305198775 0.24134508669212704
0.37805837584287894 0.14045740722421227 0.4286571666618909 0.21832450382701302
0.3311309841825535 0.0862625079587117 0.43037891826309815 0.23581822853403697
0.2834275768235959 0.2418335616362544 0.4254364762903733 0.18604722395963175
0.35408401343177315 0.20688984399346377 0.4265466295105717 0.20823576227727209
0.3086740991848543 0.11006785289463432 0.4296226295015181 0.2016324017551784
0.2157782690229345 0.1699349751913368 0.42772066714933604 0.2225727178967364
0.24006860684524536 0.0845741744347852 0.43043255205106334 0.23400057020078582
0.2271305061013962 0.1577531521838157 0.42810768005400457 0.24014099020690888
0.0892222144966942 0.05780157372582338 0.43128310191786123 0.2424503126749716
0.10433017171075186 0.05981856210056892 0.4312190235411845 0.21435474626851617
0.1151199534286537 0.050456243846289356 0.4315164617065831 0.20926541128723156
0.37333723902415433 0.08409579312883689 0.4304477559152806 0.20006041246055045
0.37969109824474073 0.2247654152913549 0.42597872976687223 0.20747590836710608
0.4197787648242394 0.12601149407503343 0.42911611027975094 0.20720641443845986
0.13372811999888956 0.07938647179628497 0.4305973589441119 0.19429825121956584
0.3473507899468702 0.10575299450799729 0.42975971279463565 0.21454471739378497
0.17304251692940675 0.07622187044236478 0.4306978989874526 0.19966606021639768
0.08796780928907158 0.0919098710686827 0.4301994927659835 0.2059763468301378
0.13215590843272118 0.09070006889995587 0.43023792971284847 0.1903153831100211
0.3627192071558169 0.04534033542073544 0.43167900326249153 0.21355372700282735
0.3040592920338835 0.24844466897184797 0.42522644454712466 0.18536655522241471
0.36412195032389677 0.26791926939625565 0.42460774570053983 0.1942977917469186
0.3194471944488607 0.24046605554281614 0.425479923079048 0.19220061253225046
0.3228064101191908 0.19390296121017309 0.42695921702086037 0.2125335705219817
0.41283263211170135 0.18340530630112942 0.42729272792777545 0.15840260221949112
0.35342721905130053 0.03318403522333392 0.4320652044096491 0.12411167927374331
0.24021480005292986 0.14047391322940198 0.4286566362192432 0.2262492704772299
0.16506447107762534 0.1637288225922154 0.4279178322964148 0.24133832003403957
0.37941360048420325 0.1022039998943803 0.42987246456372163 0.20541025266631255
0.2697094824644196 0.16347401877572457 0.4279259319224325 0.19958198204181174
0.3094361880983363 0.0618585461323993 0.4311542229426727 0.2100585906899797
0.32613012173472616 0.2110196175692955 0.42641542677025335 0.20593527189876984
0.40146437290976117 0.13362000228051146 0.42887438973739234 0.225157525125313
0.3952095470862603 0.09806352194084518 0.4300040068446768 0.22095495696181933
0.10659463328927478 0.12001821238828067 0.429306501065235 0.23135047972865558
0.12472747993556837 0.10720509737258711 0.42971357020169776 0.22922571411234582
0.1473553007766716 0.03315525707757936 0.4320661096334273 0.18274414246664744
0.2405579913870006 0.03538474651669881 0.43199528359862527 0.1883420129003904
0.3791234427480706 0.37229970826748615 0.4212916150392765 0.18826932368537552
0.18505553322939067 0.12661615408751548 0.42909689012897334 0.22901969547753395
0.3264148952388502 0.06165240887846165 0.4311607725991703 0.19146214655815288
0.4156956354935099 0.19724864084045007 0.42685292998657814 0.22719508443942146
0.34488885483893056 0.1946449585831053 0.4269356449843036 0.20663398038742248
0.43047842467101444 0.1622699488281694 0.42796418368711325 0.17006121301819538
0.3993553547914705 0.3406326289552312 0.4222976671322216 0.1877772898273266
0.3963086582977996 0.3575005777192229 0.42176177878004206 0.17953933806353536
0.40723078480451325 0.29520720107397896 0.4237408162978466 0.18423691284443047
0.4365202975140906 0.12447440157295318 0.4291649351272199 0.17260229527039006
0.42401466536042565 0.1857635464908885 0.42721780436893503 0.20434038728111062
0.4186205887336335 0.22408080107296444 0.4260004773503012 0.22481776348348864
0.441474957609407 0.14332616469010886 0.4285660419177719 0.11233431892806832
0.41530736191666673 0.2541220840653445 0.4250460747454972 0.20900598263211506
0.41968455656859904 0.2380974699748379 0.4255551759526639 0.22099690167626437
0.4263642544858359 0.21249556222010454 0.4263685462574336 0.17236692876177206
0.4449670678230896 0.08565096108398548 0.4303983390869333 0.06598501333278088
0.43073519160049645 0.1752481533282486 0.42755187510452675 0.19267412184457647
0.41812969965143093 0.27091175179860727 0.424512680405853 0.2290672844566347
0.4284410614133166 0.24951901958244666 0.42519233548090507 0.17149442036279466
0.44154565689401476 0.210962303336514 0.42641736249299905 0.1241226396253316
0.4278145718309348 0.26249623120727644 0.4247801456400082 0.1377073552362475
0.43853572635145766 0.23209418454430203 0.4257461020539577 0.17168298831341622
0.40940100641007493 0.3301391588698361 0.4226311367357811 0.19522132544341353
0.4228667652637338 0.2854892352881635 0.4240497066302068 0.17936208111272128
0.4297153276031222 0.2762657051415985 0.42434284663749666 0.16598346922303586
0.41934745502411547 0.3118363701927971 0.4232125461265911 0.201010444459223
0.4264851544378565 0.2978104869650443 0.4236580957151883 0.1375141151186549
0.39904863339608376 0.3710177734450349 0.42133234024878624 0.13581233910343418
0.40877068974329345 0.35976821908860424 0.421689728615265 0.13031022813899543
0.41935930822948597 0.335732888588945 0.42245332424216353 0.10218068666262209
0.27468082467104077 0.4184542862821498 0.419825437347058 0.18095988900450985
0.22960977623740952 0.4309390495549127 0.41942886993181233 0.13374451279076813
0.3583553930608673 0.39513334262349936 0.4205661983031167 0.163183362516303
0.24889161937633086 0.43344989361673325 0.41934886055407844 0.10205509078178032
0.28654679420423446 0.41996345739691654 0.4197773392333267 0.15767052253106073
0.3094921557768178 0.4120488156774146 0.4200287937703842 0.21501749509682302
0.2644957906304797 0.43055339302134543 0.4194411406095891 0.1421130684824001
0.32268766124274384 0.41254763052324495 0.4200129604528137 0.1602240889076157
0.27719896582995623 0.42929726048091765 0.41948091606409915 0.12003298093796874
0.3365210106544954 0.40966841703357804 0.4201044196893082 0.13392323787464452
0.30024380179259325 0.4277683825984502 0.41952938359848213 0.0707181974003561
0.3509673330105746 0.410454281839789 0.4200794480255473 0.08249428182624617
0.3721729396853132 0.39830207811903207 0.42046552484222965 0.09734135912104402
0.446155327303859 0.026530152608760828 0.4441227535923708 0.14494713173505255
0.4457770721797779 0.062028713703419266 0.4332725928029384 0.04585269277827609
0.21376364557735023 0.0223046861267128 0.4327824998735945 0.1579770964521081
