x y z curv
0.43885412042415145 0.07551289656093488 0.17289072624662838 0.16847126074150554
0.42143874679788396 0.08976476881630259 0.3009680327821816 0.16502669806795225
0.4446947600516543 0.06231535868724457 0.09370509083545611 0.14446695971884138
0.44453283852435715 0.07374547525729044 0.14352293872181698 0.15462649122266042
0.4243367109119175 0.07975583871850364 0.24678290272375625 0.13731033039209214
0.4040881122884462 0.09767005446933505 0.4014803526764487 0.14964009244401205
0.41305152596278016 0.09911985048189689 0.3733733427822258 0.18412647195765086
0.40285727103456637 0.09954816152706226 0.4142805818064815 0.17074032377146126
0.41359136333308333 0.09503468379621399 0.35372139343054154 0.1683435796743734
0.41935602234468644 0.09030616278180066 0.31127915629956343 0.18651767737385497
0.4084723782522884 0.09708838412085338 0.3821765178888044 0.13692500419831524
0.4152289307840467 0.09223620189155171 0.33540114949470706 0.151435034993506
0.431791318380004 0.07304639437447569 0.1893386275322139 0.1517734681085058
0.4438314392025292 0.054060269191495806 0.06148181853633389 0.14958997755917583
0.44152191375102046 0.05662213049542125 0.0813585011530765 0.15860337517537038
0.4114119755392015 0.10216374254354431 0.3927574769700905 0.16757319593106987
0.282850341925057 0.247327068255504 0.38746445782739514 0.15282240648613624
0.2935492901898507 0.2568521276777266 0.39450255911651516 0.19700911235857246
0.2859317605529826 0.2500703850887641 0.3977098249386394 0.2060757697533579
0.27930071334041545 0.24416690606097569 0.4067676981823648 0.2314313918003609
0.3156409846813183 0.19636895195438986 0.3858334604394392 0.11614815954311973
0.2985148320626816 0.21560575790064035 0.39128475353815584 0.14473144611652727
0.34144939045567174 0.16737987947794064 0.38295887101196935 0.16075943274880686
0.3236190521595363 0.18740765494531944 0.3816594946566908 0.125919973696869
0.30829452901469245 0.20462079711859954 0.39481602835981705 0.1495283960039333
0.30599497032484096 0.20720375899901985 0.4087840987630145 0.19346427960450155
0.32637829321961587 0.1843083638460869 0.4005661364856863 0.161539505837444
0.32986976068819 0.1803866010667643 0.38974947140960514 0.14515873882641422
0.3172938208772487 0.19451242225703147 0.4148108960035849 0.24134112411989223
0.28155307254783507 0.2346579078157932 0.3781519899393042 0.1303592203806603
0.309299430368972 0.20349204796853482 0.38021482568925646 0.14262378720502616
0.3169386766421077 0.19491133306249264 0.4023270180528776 0.16177486529716478
0.34117508278020675 0.1676879952109125 0.3973849558685547 0.1435628148241748
0.33203564895829746 0.1993218256466656 0.42559177605077064 0.2098954305936685
0.3383900906129601 0.17081621698906768 0.4092503673488347 0.16752261859179948
0.34783568133208875 0.16020653468270216 0.39438043233808684 0.14641990434149016
0.3365112384248745 0.17292662456517638 0.42821191819900095 0.22747110012557384
0.3249961876042272 0.18586080240029257 0.41504423244313815 0.2126410605536033
0.33182791109446996 0.17818712766832068 0.4097671385764474 0.16863144270876262
0.3459801810051294 0.16229071247587434 0.4237025990125073 0.22076071426401025
0.34906050065878674 0.15883076792292156 0.4051574315093224 0.18287436100091245
0.3603723105598653 0.14612487643194763 0.4299560019832396 0.2562367651999389
0.36160251342519567 0.14474306295507086 0.41475755188462216 0.18990006835121817
0.3608278215484611 0.14561322954377165 0.4042960391365456 0.16151405951843667
0.3710228730603885 0.1341617237453566 0.4265857824459773 0.23750519365093475
0.36691743150024714 0.13877313325811722 0.3973157046836894 0.16002256192764683
0.3678307272150524 0.13774727753139573 0.38455450993296214 0.1576248618900558
0.36964428103155644 0.13571021886284135 0.41181531933653903 0.16722120210780342
0.3739209361003001 0.13090649660477188 0.4378533673655774 0.2265321159072172
0.376574327316333 0.12792610075164576 0.41803695519004325 0.2209865806737738
0.37577367595300926 0.12882542546672573 0.3995415218022019 0.15584464706119042
0.3804789714733823 0.12354024569332589 0.4318604699818285 0.237416329685141
0.391820409112702 0.11080107411385594 0.2701651680938376 0.11251737378999428
0.43706146686171227 0.059984442879159515 0.02466197769991949 0.14820560729576474
0.43184237984289847 0.06584674100431934 0.010944991416422566 0.16887899989821173
0.43399763478438863 0.06342586371910977 0.07144299179747711 0.1511711308623934
0.423339611539959 0.07539739840728589 0.11353849966040884 0.15033613981621197
0.41118474277769373 0.08905025455798268 0.13109383279529213 0.14973528833543132
0.4225216821312731 0.07631613581410504 0.05106486390886146 0.1689239109892378
0.430481140684488 0.06737574034547063 0.02996436693832208 0.1481977106906989
0.4072973477349599 0.09341673581420201 0.17772957349375454 0.13563864401374184
0.42821649622231905 0.06991948283014524 0.042784453574379315 0.16023254870742223
0.40493861928161135 0.09606615628891568 0.20456982199147736 0.14944281635705417
0.4133817946496806 0.08658243105907619 0.16777216216659838 0.14982198399105442
0.43003390188471796 0.06787809542880116 0.05911346793259354 0.15109765117751944
0.43572312350462716 0.061487724747131364 0.04304346276332449 0.14924414566563896
0.4422481259661091 0.05415856962289169 0.032224191016738464 0.14519335457073812
0.42586311542548616 0.07256289581358767 0.07966932603285386 0.1538879249698622
0.41792488165991837 0.08147945150025926 0.09061404279528504 0.14994892548696953
0.3931055645963817 0.109357534560732 0.25863218185946885 0.16276815846845022
0.4173745354615069 0.08209762099244097 0.12154599098719668 0.1457269201422072
0.4097184700865609 0.09069723242709268 0.14410508292120697 0.14688551660723656
0.41783259568526754 0.08158310682495554 0.14403472491908154 0.14719377031547712
0.441579071221305 0.05491008152892534 0.011561785543435149 0.18763979639872727
0.4236689294733012 0.0750274935292328 0.13604810680474666 0.133671612452275
0.4097497952021993 0.09066204264812025 0.2152891126483405 0.14471141849360603
0.3877500600850839 0.11537305780123755 0.3893073310984643 0.14758060414658716
0.39171768559531034 0.11091645612828373 0.4069248982489012 0.16730599836094356
0.39821888742731165 0.10361403637082645 0.4303348839691396 0.24444217539449828
0.38859257762928956 0.11442670726068825 0.3257207200969285 0.1441763135334251
0.4103315479109308 0.09000859364891134 0.31860276014502503 0.1376944869816728
0.3946315461783771 0.10764348717618706 0.3170768932512836 0.13868189339769246
0.4249303021929866 0.07361066729832046 0.1568772096654279 0.14854332077873822
0.41578036575387955 0.08388825538930966 0.2811185347627884 0.1595362243984238
0.43240706012269114 0.06521246256827554 0.1202960716940944 0.1340871817007601
0.38384273557231324 0.11976192689603346 0.36936940234943616 0.14225769273842417
0.3991880304895884 0.10252545494493853 0.29314094700541027 0.13854369440057016
0.3963076515895012 0.10576081598941893 0.33047662286038876 0.14501014509394944
0.38661041176187744 0.1166531582035656 0.3367927199508915 0.1635534515129421
0.42323562254755187 0.07551420165600868 0.23075301997934022 0.1503449176126223
0.4019867925263673 0.09938176929565211 0.2814752534264863 0.14110565973277417
0.3975583145192989 0.10435601941902634 0.3609866109210038 0.15412194041128344
0.3904148428599203 0.11237986325740754 0.3591778216899506 0.14642192641760787
0.4157261965836875 0.08394910048735169 0.26270264025615964 0.150767493804737
0.3919791614568381 0.11062275583043527 0.2897622165523398 0.14708336516569556
0.39908175936695456 0.10264482291324656 0.3741853154052368 0.15769262792248054
0.4074866751441081 0.09320407271592465 0.36322250480476453 0.14005632489524011
0.4222552229522686 0.07661542729915725 0.16798844641249808 0.162815010264851
0.4127272764323594 0.08731761200099936 0.29222870510901416 0.15468136513778855
0.3940599495205839 0.10828552809883772 0.39743706154398006 0.1495519286037515
0.40274796174627203 0.09852679253902429 0.23245751092197214 0.14097785233960047
0.3811070035228079 0.12283481469902491 0.356166264277112 0.15027407975594165
0.41323167945791295 0.08675104577604045 0.20153428895227832 0.16132386143177227
0.40082009772043514 0.10069224935731333 0.2641488613360185 0.15290267828893694
0.3937330336338237 0.10865273370541563 0.3416653067224748 0.15001029260924864
0.395341218028447 0.10684635415837873 0.3865202384080125 0.1568562343012635
0.41081547921699646 0.08946502195630576 0.3019252253836756 0.14938949612234492
0.40650703224029594 0.09430444832255047 0.34375499140533 0.15529116997803274
0.4117091943836532 0.08846116410507612 0.2462698473378263 0.15075990923958368
0.41682339612809033 0.08271668052794134 0.21196154017363564 0.15371134509692375
0.39371077545648764 0.10867773508510518 0.3071514472363343 0.1459334364088556
0.4014480370135342 0.09998692179722352 0.30561224464536846 0.13641131149404653
0.4328805030669295 0.06468067182877017 0.10856146283003612 0.14942628621854398
0.40323038109409604 0.0979849188989149 0.3330468621574983 0.1532622743335414
0.3860141466615703 0.117322907886404 0.34838292367721674 0.15154437303945878
0.4158221468175068 0.08384132537547623 0.17885415896367798 0.13860179057208474
0.4155580053123802 0.08413801998092887 0.2251546262693651 0.15540920168373948
0.44297899095718274 0.05333763125561608 0.045273469317194115 0.1627055496984733
0.42435312302450723 0.07425897877628278 0.2141357547752429 0.14896382699895358
0.4021883218789631 0.0991554030811664 0.32116506859468924 0.14169780431378973
0.42733224220561644 0.07091270854789873 0.1779456935799587 0.1374398419752249
0.40655345479471006 0.09425230476087038 0.2573839811070715 0.1506927124990388
0.4313727463540824 0.0663742467779452 0.09172575628152235 0.1420729712163944
0.41525786972827783 0.08447514470154309 0.23660851652355733 0.14361727608570754
0.40130868054303104 0.10014345288801282 0.24760806513260974 0.15416500300337346
0.42511553793547674 0.07340260273685334 0.19950945803780323 0.15742113542568434
0.41070640386847357 0.08958753998022026 0.2700889005699085 0.15432910371643052
0.40350640256394704 0.09767488008532339 0.35403639975234263 0.1379672586262619
0.4254831466318596 0.07298968954756552 0.1243678015372926 0.13884095785940095
0.4182890426315694 0.08107040566153903 0.15702471441872834 0.1551039402581883
0.4152693694145405 0.0844622278717947 0.19046845871186982 0.13981130042558682
0.3833648293862804 0.12029873173579518 0.40194734118014963 0.14163870243423748
0.38168846640179993 0.12218169142098244 0.381962222737407 0.13046968597050732
0.38714394465590063 0.11605387340379263 0.429616046159433 0.2639083697319104
0.38688489445127683 0.1163448486161395 0.41603375400023646 0.20517612609236086
0.37544372144284943 0.12919604732656012 0.3644475013605596 0.14105058394429398
0.3763304743372247 0.12820000867188 0.3891502892359958 0.15416596315659
0.3462125447813499 0.19812290952916978 0.4162431282293528 0.2414463723258986
0.35731299482622025 0.1856544271534562 0.41467189600943616 0.2280070483305501
0.3618798831644077 0.18052473625399987 0.39971066706072833 0.14985678678717138
0.3645854044107883 0.17748581136935132 0.4197458177947534 0.22166303030986093
0.36899674893279777 0.17253079736015062 0.398173024229327 0.14364378136927067
0.3667816793254348 0.17501886121456295 0.4094891715035991 0.16791869412114488
0.29658700326738907 0.25386442302734885 0.3812163992124853 0.17599202782872067
0.30150598479368657 0.24833921517093158 0.4016440089097582 0.21144520728443963
0.29478978925231225 0.25588312046610145 0.4068145763042221 0.277119699702162
0.3102631782404496 0.2385027730276048 0.4112898267358157 0.24199196118065516
0.317817781809474 0.2300171330413917 0.40737210810859614 0.20863456167652134
0.32240265394433276 0.22486721332895726 0.41799017621744256 0.2259388114758907
0.33067299999099486 0.21557762100209255 0.41758950913559717 0.2632726269884163
0.3178667977025108 0.22996207923600676 0.3806117680912626 0.13859423466726917
0.32181843977271196 0.22552343080587844 0.39215642890881175 0.15826836322548862
0.3593010719961267 0.18342139037652821 0.384515584997552 0.14792651687869232
0.3295897788760781 0.21679434107100223 0.40086259212971115 0.18805364123804896
0.34514696847265736 0.19931986329382984 0.39710395025497214 0.14924320993316945
0.3384169177023432 0.20687933484118365 0.3900368756220131 0.16149164316261094
0.32832991643924814 0.21820947189571632 0.3824839971339321 0.13097694448238142
0.3141724304189312 0.2341117441865966 0.3948815639561171 0.15949154891861625
0.30486092181451735 0.24457081595099742 0.3858943139023512 0.17172957929471833
0.35215729688599395 0.19144554876076786 0.4072916504942057 0.19148372577401107
0.36949962791951557 0.17196595296047104 0.42745561801953014 0.2586756808310198
0.37358012495183546 0.16738256922419656 0.41807556075959107 0.20877604483737147
0.3744523469829124 0.16640285389833487 0.40678003246593136 0.17433599421542895
0.37510492559489883 0.16566985243619553 0.3902472740195891 0.13828857215943038
0.3854980415848142 0.1539958681406966 0.42487585649647874 0.23713706385717342
0.3778692515799151 0.1625648451528119 0.4283100976942113 0.2232496243980907
0.3843922838980678 0.15523790386729852 0.4108278044416385 0.15258235206366627
0.38546846523792533 0.15402908610929836 0.39889430383605307 0.14104011902296498
0.3906296994317468 0.14823177728236575 0.3849923500415082 0.14985594186381468
0.3996904422390092 0.13805437798140274 0.4316972324599196 0.25648016308569704
0.39468978042947056 0.14367132512450864 0.40669221127043703 0.14328668284605853
0.39317413964136416 0.14537375634309932 0.42398279864025934 0.21728483992978714
0.39467410855200125 0.14368893007296157 0.37322470551609266 0.14784039411319644
0.40074150512152606 0.13687378311428708 0.3878399325606744 0.14924257366884128
0.4031666893692474 0.13414971586326235 0.4226790204185851 0.19474791493438373
0.400841083422419 0.13676193217856933 0.400345696709264 0.1509239104046905
0.40329438741518475 0.13400628073588877 0.4103805447859611 0.1593008551519844
0.44258194488020564 0.089876872061644 0.11474419296551251 0.13957654247726617
0.43585565355649775 0.09743211945885324 0.15380984541656145 0.15668846690243662
0.4601132524435399 0.07018498602699617 0.008353331963054433 0.21774634469395074
0.44435193464464007 0.08788874722101418 0.0998440369957506 0.14597398492421515
0.41413405321398716 0.12183071930866818 0.24741829894334721 0.17586044741358844
0.4334162349299848 0.1001721829422215 0.10044610223055471 0.1480822834033228
0.44702222157207816 0.0848893741862543 0.05740302311473021 0.15264573418562996
0.4502758517791405 0.08123476600961617 0.011142281926390859 0.18136588119346217
0.45346230551992617 0.07765560900011877 0.0006482576267642627 0.23905048275169521
0.42895598878563734 0.10518210801635927 0.18576510839753105 0.14687758740630552
0.44495579218636166 0.08721047847604428 0.021377545436746682 0.17016006141718712
0.45415547282684054 0.07687701180913444 0.022930586981229063 0.1611528474008001
0.41713734494660903 0.11845730043511354 0.212537297295708 0.15093675051681515
0.43272342447676215 0.10095037157191372 0.1431654766726356 0.14889016194128388
0.40828973366341664 0.12839530017482007 0.27729649749169305 0.142885565445942
0.45112795000781386 0.08027764599517821 0.07512376467156645 0.14402172281580342
0.42290587921485145 0.11197784606198818 0.1718021886942437 0.13643936295296602
0.43581799584769565 0.09747442073159734 0.1322989695163102 0.14009867758665356
0.403032860849877 0.1343000357031898 0.3119402503642268 0.14869109275018233
0.4586851272476058 0.07178911206726475 0.04178511729419475 0.16007039739630716
0.4445801586369663 0.08763239898053345 0.07878868772171822 0.13571858774491702
0.4186526272397866 0.11675527044549919 0.22493212781471925 0.14902171594426117
0.4508961051140273 0.08053806798350746 0.040669612634108634 0.14535504271399444
0.4375898007392891 0.09548426080101752 0.08596840227024607 0.1543229968648815
0.45355515451765593 0.07755131126971142 0.049840217236260975 0.1432721688091251
0.4607017363695306 0.06952397364054048 0.030231730437187434 0.15110708532939732
0.4405623141008582 0.09214541193693217 0.06408705429405184 0.15627810619643343
0.4393202567631599 0.09354053766995028 0.22787171499627945 0.1601923524311682
0.4382578662437274 0.09473385714579773 0.20102989001823504 0.1480812175146404
0.3981124039987733 0.1398268959232631 0.35027226155724095 0.1506307499481329
0.41126855924288064 0.12504936288153454 0.3707571823982132 0.14724969953084682
0.4492141987166691 0.08242725225218908 0.1507361650464079 0.14239980479171213
0.4290875226259108 0.10503436920969755 0.3235857402748437 0.14594554218404127
0.4577210256795195 0.07287203157019254 0.07817550755796578 0.13452111045576584
0.41868813621148493 0.11671538693169192 0.31801096995218736 0.14003861065460238
0.404942070082672 0.1321555356067311 0.37623554227628675 0.14457511819751367
0.4182978912655746 0.11715372737772403 0.34712611694223344 0.1456084100498917
0.41278731005857133 0.12334344021922156 0.38506429361182337 0.15256358925760471
0.44844885544237584 0.08328691602165356 0.12300329809514017 0.15175597746228306
0.41863121090660604 0.11677933054986657 0.38052128393824053 0.15998520090244334
0.42075921287816465 0.11438907191984146 0.3938204041775461 0.1421791411227623
0.41652569117811933 0.11914433214000983 0.2758269957666406 0.14687461489109085
0.4303063962090896 0.10366527615774383 0.22954045510088844 0.15162580043499713
0.460506802405244 0.06974293194500247 0.0605621477528987 0.1589533375612726
0.41315334223699923 0.12293229357730971 0.28908891147676774 0.16141506861383395
0.4097206843050056 0.12678799729686271 0.31915219835201425 0.14283788903209615
0.4206505674362271 0.11451110755376233 0.40757092856709237 0.13584894840536618
0.4363773769043735 0.09684610070257399 0.21657576044961466 0.15764303845382707
0.44050873571635635 0.09220558657671607 0.16672676403425107 0.15681969618287098
0.44961237650402747 0.08198000086630601 0.1115723302800132 0.14134745135673624
0.44512901719092435 0.0870158951722035 0.13349103889869599 0.14236361740173803
0.4163416932310299 0.11935100889754363 0.33672119352049423 0.14755737508470476
0.4164883758620984 0.11918624723891835 0.2984055752012667 0.1331142399329584
0.4251144591192991 0.10949707844972809 0.3487475097936384 0.1636149021128345
0.44709063057593224 0.08481253219887044 0.17294062041909924 0.1478946648285057
0.40119339998411546 0.13636619542529013 0.36699296650916186 0.13448231001818808
0.41175830999418506 0.1244992564340375 0.40930025310560036 0.16564240712644734
0.43953061899940726 0.09330424634405027 0.1418639752776573 0.14465567831401535
0.42315476648542194 0.11169828233365174 0.2727750031353646 0.15244681864861273
0.4063157651089855 0.13061254327569194 0.33901768675382726 0.16521675272015285
0.41969516043078703 0.11558425772727707 0.3576581027054209 0.1500760298208472
0.4506542831256466 0.08080968776884415 0.09392074599060583 0.13924339952437137
0.42899350455395524 0.10513997242325165 0.2842775199862369 0.15986537114672958
0.4342097273276755 0.09928089493064804 0.243324089010092 0.15742868287044343
0.41300224047749534 0.12310202038963969 0.3590727359456078 0.14814203891078967
0.43314017667692234 0.10048225499344073 0.17222179853162933 0.15731551621337875
0.4217725802443576 0.11325081015433455 0.26067127347292074 0.143857078712233
0.4244808283187499 0.11020879617220206 0.2943126875665968 0.14766624365096181
0.4232151767461698 0.11163042966165979 0.3316087911345562 0.1534474774322531
0.4382145130068865 0.09478255271165086 0.1881910361899033 0.14188500958873343
0.424352091827635 0.11035339633306468 0.25034288450215897 0.15171348821561284
0.4313664318846375 0.10247460222807411 0.26738302144593507 0.14212611235747394
0.42694717781230307 0.1074384874632363 0.21208053941432156 0.15460324856887597
0.4313057424869592 0.10254277054504445 0.25596632085169313 0.151579408534819
0.4118541724120696 0.12439157939019654 0.3994298576794063 0.15272067577244883
0.4088466735601495 0.1277697233525164 0.34812858656169354 0.14905262160934712
0.4248986600797404 0.10973947090271595 0.3061655567830722 0.1410218447207697
0.4131160024682573 0.12297424133350408 0.42849312245812166 0.20861947169875397
0.4046238654409569 0.1325129539792396 0.3278229903041198 0.14418917561046404
0.4274297592459018 0.10689643166157706 0.2005199930581633 0.1516812184681866
0.42148640745109145 0.11357225023771185 0.2392368775227129 0.14037450765520293
0.3926440399505299 0.11559643649051868 0.4424259255381917 0.22467298648995
0.40956017071248213 0.11814715516567759 0.4447045150503476 0.22155965551531093
0.3778029978913555 0.14565926424632303 0.43806938489066954 0.22674037920479706
0.3726084729028022 0.1567737362758537 0.43624715230534206 0.22448936494888694
0.3614504013472182 0.16098075905473355 0.434412898128613 0.2397850831229503
0.348781070170528 0.1686561033362866 0.43202453832605636 0.24512044711274059
0.3305880387749109 0.1864513073700757 0.42801980395172146 0.21007329177731923
0.3234827608380222 0.20446110334877232 0.42010797564698854 0.28555701278753953
0.3132606791391778 0.20642898581714605 0.419579542323154 0.2593885629798681
0.28888619238084456 0.23868796970376158 0.4170034912493962 0.25478634749208706
0.3061795678169116 0.21418159736758194 0.41890846311466845 0.22774612529605723
0.3037307795533575 0.22953718215974928 0.41807120767634687 0.23682153369217449
0.43561950810556016 0.09704704413095855 0.27797259710849875 0.14772134654155208
0.42531232288925175 0.10926432985217424 0.3700545594861357 0.11336925118092946
0.43157198115681394 0.09894773605151863 0.3016633861768934 0.1603824845099678
0.41942928337729823 0.11551416742683679 0.4194984606661812 0.16029191405637108
0.4276955033270148 0.09839692451117277 0.31414698805557095 0.17224393241017028
0.4098281219726769 0.11010586980496578 0.43301111451527785 0.24900819382662454
0.44458857541876856 0.0850215662121902 0.19184378905049948 0.143999075286029
0.4352488220399888 0.09215005271744031 0.25831545567686304 0.15926456255486193
0.4220836812650046 0.10342727676756212 0.3573027049266049 0.1746583206062508
0.41754993139559476 0.10499160791448851 0.38140890627342505 0.16908152820234057
0.41352627496550387 0.10885201421774628 0.4134432097019252 0.1563326746780183
0.29280743372766543 0.2220165450437521 0.40311746146232086 0.18076616475851245
0.2960689097615617 0.21835312041107632 0.41424839780132156 0.22401949476766467
0.289339708547588 0.2259116372388247 0.3936115063264495 0.15698074342421003
0.2840384760873268 0.2318662005643325 0.4079837995212512 0.231927963267728
0.28146165346290164 0.23476059420029546 0.3931037339556867 0.1629095658536025
0.352642336030206 0.1548075009398232 0.4177298463554857 0.20797732435967062
0.35668091340198266 0.15027120336623043 0.38430530463484514 0.1596491116944669
0.3570109334270712 0.1499005134308505 0.39484949503331174 0.14866850625159472
0.4022220660542275 0.4689970992848661 7.573389468593533e-13 0.22609502701907847
0.39856254071737357 0.4826225997821568 1.8290318431789008e-13 0.2203911188259743
0.3573225812789033 0.4134925044729315 0.2550173471524911 0.18207050764408972
0.3769802740488382 0.4498569517181872 0.07908878732699212 0.13384340105299083
0.350563275197673 0.40773671285105395 0.29095226527655804 0.14646969428592194
0.373539812383363 0.4300770146028926 0.15870190570676196 0.1812847802725536
0.3830890424269477 0.45852677216705473 0.033991484694224985 0.17481936665803297
0.3768383485342426 0.4471259126227088 0.08934243893161267 0.15257228601654163
0.3724576163666463 0.4255345136677994 0.17763288917378045 0.18359397845617922
0.38120065162051997 0.43706110546468024 0.11629782900847745 0.15230536969515104
0.3934631925717401 0.4543454216625326 0.026204771778227477 0.16862727618397524
0.39694081588113544 0.445097513226288 0.05214895471793225 0.17196486677325318
0.36767030396786865 0.4355871313458117 0.1516642781892649 0.13839529858592434
0.3949045212506075 0.45887332580342466 0.006530566598070007 0.2198405058479565
0.3778094726288269 0.4351496792588046 0.13077361738969187 0.1795982669853141
0.39380508939902154 0.4510561712691834 0.03741706521522442 0.16894376864548435
0.37682993631855866 0.4320807546622175 0.14411424391753994 0.18095000199405062
0.36102220466676277 0.4137918036094741 0.24572455204226676 0.1694398164531486
0.3532696683004844 0.40930364582587286 0.2792486240609676 0.15624571653387545
0.3898533500645617 0.4440962645665796 0.0715085468052412 0.1600160738447634
0.3709395889218453 0.4231870617344128 0.18954194723282436 0.1522473593433394
0.38820680882162384 0.4517968008991843 0.047135390463124226 0.1698838691047472
0.3899398795563007 0.447520964758947 0.058853321770694654 0.16427211191944233
0.40454576647271334 0.4543207692673394 0.0017199149802987845 0.1553433492700659
0.38755961921406634 0.44113073997188534 0.08738697817980909 0.1542278538989734
0.3702937192404938 0.4192946751326501 0.20513948858255457 0.1888564195149044
0.35724546983319116 0.3926500070647062 0.3310394952732113 0.1574920309106208
0.35925448351482336 0.40894664175912 0.2672770859854363 0.15484527830552697
0.3848406503831818 0.42190231362142727 0.16339317893091623 0.14994260959379607
0.38588551155614126 0.42471522144413454 0.1508394086774081 0.16403160959005295
0.3906906339704975 0.4351665480506872 0.10214945922002529 0.14841964977630165
0.36493471496533264 0.3999966462324547 0.2872530252633279 0.17367525708421994
0.3609226903111312 0.3993646842356784 0.2984491825059321 0.16088975515313297
0.37872736174114935 0.4107974425151986 0.21736227878654862 0.14932994904184207
0.371897589596455 0.41161091787052007 0.2295462101128096 0.16097178626877834
0.36506600000411416 0.3910624872677256 0.319475596636555 0.13538762901021958
0.37268932996098525 0.40036913427886023 0.26870231877403333 0.16945160118368244
0.36782332964986303 0.40593610744612174 0.2592325801001284 0.16659495039246747
0.3625816741724869 0.4039410994378447 0.2781157998821811 0.16789220776063846
0.37435035648440607 0.40723162133067586 0.24004480810466275 0.1179116036995622
0.35025406242894375 0.40091327920943276 0.3164701265937332 0.15113156271734676
0.36724198011367154 0.39316194715228925 0.30701009585601313 0.13950415506068659
0.3619383660709504 0.38546742846519494 0.34289422499934863 0.12314944743630193
0.35082292536371373 0.39305404437156566 0.3411765392420004 0.13593642589457983
0.3524993427431068 0.38537605997227137 0.3504591240424937 0.14617551932945835
0.3389821336044425 0.38594820819592235 0.3558981154552193 0.16293304065031997
0.3467829074127207 0.3770508818579789 0.358047617365329 0.1650840536223382
0.34997157613696017 0.36635925922908497 0.3600621825133011 0.15203535860845627
0.31891024273467683 0.335488108978954 0.3636308246023374 0.17663173587100153
0.3398800447427136 0.36404269538963535 0.3609574844283977 0.15681430633182547
0.3337973696637543 0.33429568963069556 0.3631212501857587 0.12901976388362482
0.3338407818361896 0.35468252917632476 0.3618009105481519 0.1720505350702661
0.31090062607265656 0.3096355193396212 0.3656186386244177 0.15263080440695007
0.3206471368244611 0.32081188308079944 0.3645116377748131 0.1385922856712141
0.3054195165651381 0.2915340069226863 0.3670054616564937 0.15107341290417267
0.2928324783252609 0.2680660126542497 0.3690194349605283 0.1713240251770058
0.3002726811120414 0.3069203356778989 0.3662131043435671 0.17826576760756477
0.2970883741597543 0.31906518113334453 0.3655530643649382 0.12328338664274385
0.284854443221513 0.2859687337769672 0.3681758938529197 0.17556502401644522
0.29111588277995326 0.29502319622834194 0.3673434847760334 0.16862207255236225
0.3075999502209912 0.3196362853282574 0.365101864580151 0.1835561925100577
0.2829064638225222 0.2743169417989301 0.36900630602013607 0.16570197415428287
0.3281728064479547 0.3697580333244463 0.361049195530149 0.13658988095772448
0.3182439925834693 0.35073908962764566 0.3626706421057606 0.15390138993268476
0.2771789940487591 0.2633083409773598 0.37343301846861376 0.16030809967230522
0.28625690478968946 0.2577771452403613 0.3703434518826858 0.1554269086478756
0.2670563193412982 0.26947611424444884 0.39827208330087827 0.1882839924707642
0.2768756511507494 0.2634931686069739 0.39986807384881223 0.21357294430764884
0.2852998440150542 0.2583602849372145 0.38794466037601627 0.19561119133660484
0.36659809025633044 0.43412471878857717 0.18293406911467625 0.1540968006186153
0.36199922195011824 0.42657697325765415 0.2674565025971183 0.1423057396862673
0.37024257389901644 0.44010612810093364 0.22063545699591824 0.13689821030448382
0.377871709614921 0.4526272227291207 0.20062663363212108 0.15215700555789757
0.3726199775342204 0.4440079660043067 0.1782826283727077 0.15418403750280024
0.3734787018525444 0.44541732050817395 0.16666174344297036 0.14985053638942109
0.3754591301032848 0.448667639015313 0.15462552726860707 0.15608475509408715
0.37947034224901866 0.45525092164779596 0.13592212947776586 0.1513879941076015
0.3702617606927193 0.4401376040712635 0.1361034716878324 0.15854740934187553
0.34896328434484936 0.4051821244354199 0.30408401855539224 0.14652012254094662
0.36587129947346886 0.4329318921443302 0.16863012574481848 0.16898849025986043
0.3827556093836358 0.46064276654586944 0.10788590530582003 0.13728832791066845
0.3813765569844579 0.45837943470462156 0.09528278602197038 0.1281965995650689
0.38131161263774305 0.4582728430526673 0.07307553044177241 0.14760221122075984
0.3802505487988542 0.45653141056339674 0.12077109946394371 0.135515400499872
0.37603535241944996 0.4496133426257906 0.12665107952620203 0.14567271894532055
0.37008203484481184 0.4398426504169316 0.23525307365322695 0.1414409599737232
0.3845959193621539 0.46366311364370183 0.05691390137926813 0.13930877909019385
0.3795199204655821 0.45533227831331824 0.06151768646145142 0.15606338574346681
0.36501544335104485 0.4315272567163203 0.25212459555649824 0.13573173958705312
0.3591248169664415 0.4218594323647765 0.22447425578533164 0.15561743452853877
0.36145166719785204 0.425678309680997 0.23555120224987913 0.1530090723711955
0.37837870221416575 0.4534593071164812 0.1851703790812845 0.15696928266775997
0.3657695998059052 0.4327649847272531 0.19445117692582384 0.16092297101691855
0.3627280834262903 0.4277731857407434 0.20440966486666687 0.1638022202761039
0.3791115358742104 0.4546620466568705 0.17006375151041508 0.13930858342867294
0.3764362832063526 0.4502713752988438 0.22857862773159932 0.13856761532519093
0.3723044629206682 0.44349013153477657 0.14609674819590437 0.15698123719051252
0.37243369665101855 0.4437022270457948 0.11176879307262678 0.14633699573382666
0.35305011422602367 0.4118895168540209 0.31214714005736527 0.13092254063281605
0.38394889584036485 0.4626011991898726 0.021076360495731538 0.1761569479589807
0.371630381943951 0.442383825140507 0.20413051090885656 0.14852629571737022
0.3745180451032869 0.4471231016872429 0.10043862874463944 0.1358640835836369
0.36245200682354023 0.4273200849368075 0.21616784108569956 0.15686301548848527
0.3721633559764149 0.44325855094941324 0.18957625765285016 0.1514610302254424
0.3578709077259588 0.41980149885674617 0.277730861423875 0.1533138892702923
0.3920683240868426 0.47592698415894785 0.051558849872307785 0.1606452971131021
0.3853677565437866 0.46492986726955066 0.04467854094407091 0.14520495306138206
0.3831355839393382 0.461266403693748 0.19334871626479067 0.15959759256914388
0.392717507326638 0.47699243024172994 0.009351321359583697 0.20646494144023883
0.384524370479696 0.46354570182319216 0.14653632128528457 0.15007396396981038
0.3858844075210765 0.4657778001241931 0.01141870508812862 0.20065754002597902
0.395080010921341 0.4808698322385031 0.06759844352173967 0.15710306613395836
0.39271024130679655 0.47698051020450744 0.038409115372663394 0.14366121589375175
0.38741541982777694 0.4682905400907075 0.06607943450405815 0.15753083639546092
0.3869068364763899 0.4674558307213623 0.0011181834975870753 0.18364381353096304
0.385521684886061 0.4651825133742898 0.13334900573126462 0.15246124842775935
0.38766102035580347 0.4686936191128603 0.03281456903407359 0.14620484678813414
0.3868145706841579 0.46730441665934974 0.08379650855157539 0.1296600405545432
0.38978785871959365 0.4721842462293393 0.11362878309393136 0.1448812900410713
0.3929417014457196 0.47736039661966106 0.08987941231814171 0.13477115197224473
0.38496272444779556 0.46426514098355065 0.16468691046027792 0.13660141371425846
0.3908471536084218 0.4739227773057225 0.07669553664014098 0.1388128973753712
0.4001196590837511 0.4891410019453618 0.014530267953324747 0.20595827761991836
0.39709125975201287 0.4841707296175719 0.02499586919720943 0.17597299169320998
0.3825931165404513 0.45800973298169123 0.2181515188625048 0.16248096583418234
0.38654057040534895 0.45811231483065007 0.20621920873350072 0.14065816617363677
0.3919332072475359 0.47151989268016553 0.12679027404440568 0.13993122705127284
0.39258837940295654 0.4649428482489209 0.15618524207969647 0.1448768061244847
0.39838630430154576 0.48429275108028835 0.04730699379825411 0.16025228586309895
0.37845431213492786 0.4434544171198995 0.29919816016944306 0.17036691093932382
0.3855296043816352 0.4532009609293395 0.23251727051025023 0.17555090704731924
0.3863913799908142 0.4488848849708733 0.25049957014643287 0.14475580056180914
0.37626821179340963 0.4364648603300848 0.33867083343050025 0.17965658788794645
0.3783756963461923 0.451511192758403 0.2612086538100196 0.12910283257424499
0.38206363481969813 0.43520346503654406 0.32790686487343346 0.157332186356254
0.3659288973146586 0.41804919338896884 0.45590805997512535 0.11983613958585274
0.37674024644057563 0.43193366178661874 0.35880089699137685 0.1631108803412102
0.372808099582984 0.41852315180995814 0.4337817066105291 0.18342797221730783
0.37377191395092585 0.42861451743133483 0.3831239052880162 0.1655963506184056
0.37237620104379143 0.4238873308574121 0.40958238420952775 0.16203044289723056
0.386965074950501 0.4439214989102422 0.2723860230004869 0.1801685261739524
0.38093487505996815 0.42253186725869046 0.3912810610889101 0.1476200092702527
0.3772008756019991 0.4132733186757761 0.44599252310188964 0.18641784838743208
0.38664683639015496 0.4411304069777269 0.2865462343158324 0.177853236469477
0.37912387246162493 0.4279433893057758 0.37084283673899826 0.15128054722876932
0.3925859070638443 0.4433865209829784 0.2585637688244728 0.1355675693428129
0.40372295891581744 0.45859805640449247 0.15400845237459224 0.15922700513282145
0.39475224492325794 0.4537407394173315 0.20320281155702266 0.17441723700956102
0.3954756268956392 0.44498898954440425 0.2425379116131719 0.16082401187660367
0.4034912443679536 0.4534185803502816 0.17921424506281894 0.1323985370247551
0.3875025950161566 0.4338511353506798 0.3185632065174545 0.16556823529512046
0.3956570454390808 0.4471960334778043 0.23155598973122135 0.12824621022273186
0.41051238001435264 0.46786280936983216 0.09030956011489834 0.17122025721032658
0.3823766813327975 0.4146479751520411 0.4244722660897032 0.13830284219266628
0.3874044758967192 0.4380129114621046 0.29914007796378844 0.1684171940966846
0.40357984546703407 0.4501785396822201 0.1942999507750238 0.13168612615419817
0.3946343664931516 0.45141559870279235 0.21455851257951988 0.1424996633258379
0.37287020197033804 0.4420685940364508 0.32191080781823705 0.1475645820414874
0.36856662959267994 0.4336398369758423 0.37433010345387513 0.11731202403276811
0.359500198661521 0.42004797963707013 0.46500572379376964 0.07449900986633463
0.3663929764749276 0.42933571903871426 0.40102862281989937 0.13772674787964484
0.36860661854534416 0.4358297041879296 0.36382705978042307 0.1447496468855197
0.337810041584288 0.3868771949915363 0.3777058824794636 0.15478130060575718
0.33382657833655915 0.3803394563920879 0.40981936820006803 0.2444731304671231
0.34574275829916323 0.3998965296776671 0.39967826223406994 0.16328984827092
0.3440261032637522 0.3970791175112162 0.3753589488161193 0.1457296801739399
0.34685031346942846 0.40171427335610477 0.41109999616846005 0.15927051917826698
0.3456332767758801 0.3997168499364594 0.36461192508133106 0.15870198479248102
0.34523141913517674 0.39905731381249854 0.3473191981233336 0.14686812022969484
0.3487854818600967 0.4048903131151177 0.42398370979667943 0.21863698774518378
0.3505802059738876 0.40783585756579016 0.39642007576206073 0.15786794806711915
0.35477246516334765 0.4147162842745719 0.4357081489783661 0.21311857095710401
0.35570028714358515 0.41623904378707405 0.4497959573056029 0.16024365948437255
0.34119675157960283 0.39243553520798036 0.3876900381236683 0.14582686644165635
0.3590255595388108 0.42169654123760614 0.30342895029828465 0.13861369746721802
0.35426757392885616 0.4138876382529767 0.32574037473036066 0.1470934593886819
0.3536562889133863 0.41288438669869254 0.35065391552222214 0.13811151788274037
0.3627001219942074 0.42772730884791627 0.2955414803576651 0.1365727882471131
0.3577273975769262 0.41956597342714846 0.3338172088967667 0.1426387718873051
0.36124321288431466 0.4253362037616938 0.3475985741184366 0.15534899908319283
0.36112539725140314 0.42514284613426956 0.39271954171451495 0.16503043374193396
0.3540069048632499 0.4134598309408949 0.4218625817002827 0.16472423387336121
0.3693828661242782 0.43869516663121055 0.2862484848621932 0.15212846382901965
0.36626821730236886 0.43358334326621706 0.32178145572554046 0.14379135782606053
0.3600930811400772 0.4234485808603962 0.3149646310075894 0.13805315800287687
0.37179111469181547 0.4426476322440972 0.2628074737833379 0.1288784282490573
0.34590809316782267 0.400167885443665 0.3348613795327412 0.14178880714111597
0.37696727082645604 0.4511428456105209 0.2431362162903259 0.1477338522187324
0.37207549944795604 0.44311437419577504 0.3072284113390086 0.13819233605764106
0.3607657799582804 0.4245526387707864 0.43989504648992966 0.15581221628151706
0.36010959386447217 0.42347569117960965 0.42420669782624 0.13316032015114476
0.3613456174050981 0.42550427311328887 0.35845500327462265 0.14888058492555506
0.3613617230582724 0.42553071066012177 0.41269655716591713 0.13455465035533706
0.35719027106417467 0.4186844332318349 0.3691092601655128 0.14376096067695807
0.3596717193688077 0.4227570385880619 0.37874038385492415 0.17289737624851767
0.3676580291975115 0.43586433406556807 0.352680210285781 0.14993593371544572
0.3669468593251707 0.4346971406048008 0.27410636612010497 0.13979760172295433
0.3564675782774007 0.4174983374785711 0.40050026536653094 0.17005665560831523
0.369111800270285 0.4382502885626672 0.29618680372109085 0.1490373483879929
0.35260717375669465 0.4111625592971403 0.3765225293781944 0.1372979536467577
0.3631105367918238 0.42840088913982577 0.28372911888747304 0.1515769395823637
0.3664198392757705 0.4338321896767248 0.3367834273705941 0.15774301008640607
0.374738239302852 0.4474845158000677 0.27909378760178055 0.19468197136056922
0.3401073672276472 0.3906476181414098 0.4116037464457303 0.2259173703380112
0.2734576520770156 0.2812607480695271 0.38356581873633855 0.17161765008275867
0.27818639131689177 0.28902165076254754 0.4048060035002537 0.23569102352688562
0.26701555691737217 0.27068785091090103 0.37680171930028344 0.08945071568638675
0.29137241271909137 0.31066281637125553 0.39270148577391073 0.17715910079516384
0.2722983311963066 0.2793580471404302 0.4002868931993995 0.2282058374264506
0.2851828069177955 0.30050430986556165 0.39315461155599596 0.17218779471750828
0.28780220775070176 0.3048033236083314 0.40262001583704543 0.2440402373557486
0.29632984396814144 0.31879905302536715 0.40261814993794887 0.2492060439074119
0.3329076738499729 0.3788313297473239 0.3629951085011588 0.16326068221049989
0.33252030149721357 0.3781955668695042 0.38355523719748696 0.13686960146236124
0.3328410084982932 0.3787219185691312 0.3968731457311769 0.18267558745679574
0.3267522994285534 0.36872900526042135 0.38718191579120426 0.16518591855759637
0.3291568255442005 0.3726753609696737 0.37258878533945894 0.14746250780063613
0.3260995661168311 0.3676577311718545 0.403088153196696 0.2402066874494129
0.3195432420222185 0.3568973502969315 0.40182823721277583 0.2376854953142532
0.31428333756969024 0.34826470932726133 0.39636243507920277 0.21775054409877123
0.3201888705859597 0.3579569769377958 0.3869270119987114 0.16626374425199664
0.3230147043275505 0.3625948395677168 0.374934446408058 0.16924276460195664
0.3078500876052146 0.33770633278437656 0.3996073205291025 0.21769056424851357
0.39574791737396287 0.4358410063377858 0.2340572248935913 0.14661189159760096
0.3995340666891174 0.442054906475084 0.1433808090020272 0.15204921279894215
0.415132185377756 0.4676548596942173 0.0026921728442081574 0.1732230548847093
0.3956307134179938 0.43564864524280766 0.20161661323380534 0.1516128912203567
0.39608967884860796 0.43640190780974586 0.18863090238908053 0.15633327177511927
0.40147058248792966 0.44523315916629547 0.15544650130063453 0.15032511428277268
0.4109074308404359 0.46072111376976554 0.11736473515495897 0.1415593382561107
0.40286585895165894 0.44752311808505946 0.16632661460473408 0.14542898000635657
0.39540233153748056 0.43527382822893745 0.2793710987227227 0.1392692036385874
0.4093510737756675 0.45816678871566763 0.13302721406446483 0.14515944957807914
0.41514148434551756 0.46767012465293195 0.033746406813126295 0.14392789672360135
0.40287442094909826 0.4475371622899955 0.09154034902225504 0.1393927566655148
0.416697126536825 0.47022327611824805 0.015036945164536967 0.1821739902441439
0.4058140668302108 0.45236176964857416 0.06573210810215734 0.14795259677535288
0.3884594154346031 0.4238789728756753 0.3548106163110614 0.14988056647201722
0.400238079878637 0.44321035187594565 0.17922518930871315 0.157499874479067
0.3869362399828612 0.42137910613371643 0.36985644007336455 0.14935098180686676
0.38439910300774294 0.41721510332105544 0.3793062727383823 0.1294569771023303
0.4096506577684627 0.4586584696079532 0.10657101897324386 0.15404549773134857
0.4112873838972322 0.461344694902998 0.06075836519435649 0.14351386175270722
0.38784387073813953 0.4228687251946148 0.33146031292341105 0.13795138433200094
0.39646572949514164 0.4370190967700296 0.25035729933967316 0.13779036909607717
0.3912156944518622 0.4284026306354882 0.2917024346294694 0.154775443977788
0.4078033092226088 0.45562655563163346 0.052064713122170383 0.1609847252740404
0.4042405553668276 0.4497792942913398 0.1178477486580049 0.14265292195211304
0.4137132664893785 0.465326103882153 0.04427787656865754 0.1800229870307398
0.4090234812463395 0.4576291243937021 0.01597016813589601 0.1647888196464793
0.39027238844266293 0.4268544619376647 0.3429035582344237 0.1490066155686953
0.4068403877192186 0.4540461911096334 0.08013179002198352 0.13575172051380355
0.40030157106470776 0.44331455801574743 0.2078831858559627 0.14028193335808642
0.40139443373789013 0.44510818902879035 0.21986378665121495 0.11713635944191339
0.39464084280837464 0.43402405058034854 0.2232020516027651 0.14514003829968894
0.4095269979751871 0.45845550918310923 0.03762437829483014 0.14809054919541428
0.4134404222217406 0.46487830382713863 0.02381111565816798 0.1584392617601049
0.41542468693544765 0.468134926972066 0.07272323105104289 0.15013336664835691
0.40425080953080733 0.44979612510997535 0.13165516574338232 0.1589627931879428
0.37835354529643533 0.40729300602059826 0.3449976716079206 0.14381618815719022
0.3913966628580266 0.42869963532656474 0.24308559019010942 0.13540733229807356
0.39339136903781824 0.4319733809779972 0.12171368908299904 0.14423729602162036
0.377661793570965 0.40615769081365916 0.37862973897230257 0.15248437614886684
0.39284410514529544 0.4310752032165592 0.17148816891430949 0.15590137443303434
0.3797444333350035 0.40957575565818416 0.26950565758455086 0.15257401995808242
0.38858870205538776 0.4240911499151778 0.2148142324476546 0.1567714353000298
0.3859710951149171 0.41979507652989556 0.17552589898876908 0.15008727919150688
0.37537492556811125 0.4024044370058961 0.40256802345057985 0.1622426933352895
0.38975255645718726 0.42600129094134237 0.1986384528321754 0.1498550620434692
0.38342148451556196 0.4156106077573565 0.2577209592628651 0.13596221158533167
0.37505183695711053 0.4018741724529189 0.3257533444638942 0.13823060985511507
0.388539739901717 0.4240107958348635 0.27271276959794744 0.13933593879856557
0.3957936025822454 0.43591597915921904 0.16245187231050234 0.14124504423228026
0.37107179576454186 0.39534204777730825 0.3523938676781569 0.1264524688137457
0.3778807253837599 0.40651700861571105 0.41632788210918537 0.17007727337455975
0.3690797071527917 0.3920725898003433 0.3406450103878529 0.13441302175316425
0.3822098685427107 0.4136220878031238 0.4073785915798751 0.15636886688767848
0.3834623624933631 0.41567769439498303 0.20740784349870794 0.1561046157718601
0.38297106873821524 0.41487137998121154 0.3210009164411061 0.14275186086554748
0.37628282674673674 0.4038944938204441 0.25122149110956027 0.1321543987630631
0.3904433766609581 0.4271350831668505 0.25848670878884517 0.13524331243255522
0.3857619888008494 0.4194518935908832 0.2824137102648538 0.14444227516259323
0.4039867175453247 0.4493626821569619 0.04103814590782031 0.1500234857251375
0.3804863630272122 0.41079342990679846 0.33044358637405646 0.14858301443236643
0.38418247489785046 0.41685955672068986 0.1894768101580453 0.16563033233300237
0.38420954261877155 0.4169039904049935 0.34249425658073707 0.14225757144917303
0.4033783042175637 0.44836414084749415 0.02972523627134026 0.14547748097038254
0.38454109594586894 0.41744813514913925 0.22317555285669538 0.145720404324006
0.38014423790344753 0.41023192404434805 0.2825613593558057 0.16029436872040634
0.39316412933974626 0.43160043230129186 0.1511041031307379 0.14841697968805082
0.3962571740369486 0.4366768004857831 0.1339874577107567 0.14901011077348295
0.3750275296024118 0.4018342766024276 0.291969926049022 0.15962733495350667
0.37439811167235976 0.40080126757359924 0.3680540633267475 0.1306000082080555
0.38980906098838464 0.4260940236963051 0.14022643961036757 0.15732400141015848
0.37734576576095924 0.40563901494588306 0.3074357984584509 0.13935477762755163
0.3827436986625141 0.4144982175913861 0.35463060801332624 0.1461174752862271
0.3892521378871427 0.4251799928898441 0.1875905510873453 0.14556529447009747
0.39880374613216957 0.4408562860607712 0.11024168334483855 0.1460260297314615
0.37944447399641745 0.4090834621327928 0.36498880819671137 0.14917496250002082
0.38192806264248946 0.41315958143068415 0.3966626579719638 0.167966715457854
0.397524689659473 0.4387570702168595 0.08193831228321895 0.13886964980358657
0.38804069024681986 0.42319174256532965 0.23115044424862263 0.14793104853134054
0.37180414066933587 0.3965439898383892 0.3904035880247786 0.15289962721048317
0.38804824710597136 0.4232041499457316 0.30952913330080484 0.15437786295316575
0.3845531706112962 0.417467957236679 0.3013874718566524 0.14762274153414348
0.3754298991316337 0.40249466305715925 0.42691957262915614 0.1900517679764748
0.36937828480049417 0.39256262625011906 0.38087515533940014 0.1287797541829334
0.37484444271158335 0.4015338047425268 0.43952814334271423 0.22142633479797458
0.3530291949866602 0.3657301756314819 0.37227558901947044 0.15585103885484541
0.352376041180732 0.36465819627995344 0.4079091024578574 0.24104429851149997
0.35672483398294536 0.37179553412892113 0.3843940597141421 0.14586455225024336
0.35685395683964727 0.3720074505066073 0.4135294136720061 0.2318967895102259
0.35639611097171675 0.3712560252295196 0.3967326975994634 0.15977245516744856
0.36135502615357956 0.3793946961604978 0.37764998235072966 0.13877787461425295
0.3638198684658751 0.38344003841394236 0.41647713694215044 0.24274043548647747
0.3635502888884508 0.3829976006830455 0.4016132633054188 0.1633774851270279
0.3688353174309737 0.39167150123626937 0.4261461704374167 0.26013397911069097
0.36458940144173646 0.38470302092069464 0.3607287350166195 0.1535589296382807
0.36587986125740174 0.38682094794829913 0.38966983523506327 0.14562221309369883
0.35842831134678693 0.3745913163954734 0.3681188507775841 0.1575455622298571
0.3581953913468154 0.3742090437416187 0.35615374174543973 0.16225187737155125
0.3505881445247621 0.36172387165637854 0.39527064301121206 0.15887287216085283
0.34606477710602546 0.35430003622403694 0.4039300823020204 0.22838729558738405
0.3410798157598712 0.34611861706252817 0.4145328148232322 0.21776267233274502
