x y z curv
0.01040045298270794 0.4605559864959602 0.028730143792232012 0.17143825659516745
0.029705344716525757 0.4525056885351007 0.22527210762457459 0.19737984927906468
0.03421472240074433 0.45121251745307817 0.2584375106397082 0.22187115387316972
0.027162229804733463 0.4551715024096098 0.17704987671438044 0.20855337220408982
0.03201047731029346 0.455005911543598 0.1940386325273954 0.18252942609592757
0.023552384408210808 0.4599061104199044 0.09411052938999478 0.2028265711277149
0.031774562701103896 0.4515224408175925 0.24643318795223404 0.21179573322306558
0.03040143976886909 0.45721142318514096 0.14876838504205528 0.2198532869817452
0.03978516877021433 0.4502032502505886 0.29003946365667105 0.20198208097082068
0.021470908992327054 0.46392249973396443 0.013291921308507617 0.22225296748582538
0.00830641606199281 0.46154042009308277 0.004994922865051826 0.22122028563988141
0.021015372519875626 0.4558070220666475 0.1436036218315145 0.20765030342157334
0.018928138387493715 0.4580404943500809 0.10588049824330784 0.21544578729365965
0.016297630755778912 0.45877066101799824 0.08297366905171427 0.20613453739868556
0.03814764707426697 0.45337550213218514 0.07653107528913414 0.20203956581485183
0.03478507898194013 0.45436009921123965 0.011337416963924032 0.22123106056575667
0.035202029124457954 0.4552530350420102 0.035058603060988375 0.17814171661207356
0.025913767839669827 0.4618524954605451 0.04366864617001546 0.2125680605206884
0.04280950028133198 0.4491346168512981 0.3033671181253965 0.18747132874123978
0.03154822769398575 0.45739947395208425 0.13618014272372003 0.23482659171815404
0.038374473225747066 0.4535140184457014 0.20616935394176616 0.1869990264534217
0.03164864210819296 0.45805827998779336 0.11724564948433644 0.230471980139922
0.036940089759577084 0.4546048423760345 0.1838117459722584 0.1972034502548814
0.026828069932806033 0.46124950389646674 0.0553455343119209 0.22225027412749557
0.016731101853381423 0.46230630010888973 0.03830677598920028 0.19467841159168936
0.016620798963029038 0.4614611777279317 0.051247296069808594 0.21853365437487193
0.022398107656640284 0.45733966776804713 0.13070210401291624 0.23765497240110117
0.020323140238794345 0.46114306802689276 0.06580871856616151 0.21976097026006644
0.04058971314223027 0.4356865581715945 0.4718494753841711 0.2298388571260222
0.04979293498796723 0.4268907717664273 0.6091626659537557 0.2051333006150572
0.05089621647555996 0.42642861072323457 0.6221359465806523 0.20509438442911812
0.04355388961082025 0.427706798333052 0.5463839902022619 0.20299566156598944
0.04597102826331013 0.4290767331577203 0.5607767550678614 0.19760241267402756
0.04907038303554606 0.4219716175646155 0.6314167245951662 0.2264710571587496
0.029753988393986984 0.44182748881904155 0.33500102787418173 0.18403276662897525
0.03431331582534271 0.43493794972412797 0.4181635166421617 0.22599266154603526
0.032373135105756706 0.43536543317621945 0.39786031657694493 0.18653199597685785
0.017755307470622782 0.4439183067884779 0.21273170305293332 0.18659756398831856
0.028258416217001415 0.4415236740259669 0.32312774949173834 0.19170511742379698
0.030377342328889452 0.43883232172570463 0.3587177794982408 0.1844726316275277
0.032264280280361365 0.43818353576231683 0.37986928943273135 0.1930805364333852
0.012558577249897765 0.4483113583076917 0.13876039895243394 0.2105365585613548
0.008586991496652617 0.457249419422683 0.04545769947966798 0.2126475306510934
0.019756993394470262 0.44992005786596245 0.19327793742089333 0.19317898502515082
0.00986213838765757 0.45504118955181766 0.07258333326620567 0.214314289587213
0.025567459767227532 0.4457530525409351 0.27282044057580296 0.19814472414599482
0.0071977677498576385 0.4532645381355302 0.06012268305426801 0.20494154258356284
0.010097609439652207 0.4515881710504417 0.0965667228035227 0.2251455756907765
0.02399881014114927 0.44632380363656826 0.25534273550591335 0.18424403554070748
0.016901904878444316 0.4491628579854412 0.17341323791428503 0.1866243355801438
0.037668959163776154 0.428450617771398 0.48715270790869925 0.19059587062201971
0.03328556428216034 0.4311106375178001 0.42997045682066526 0.19711958274357588
0.010590713887289598 0.4480733627537028 0.12175842185114502 0.23673143351283915
0.006643773009846619 0.44753888397294367 0.08142908920182881 0.2034639082747204
0.009526585477656283 0.4483947858611118 0.10911207185565132 0.1968975413888842
0.0029840803701038946 0.45363193269219326 0.018938083911408582 0.21303390777962466
0.023069944558590256 0.4388557391848578 0.29081737169572475 0.19892234925672223
0.027349502639798202 0.43574564591003306 0.34859944576781327 0.22507644260260767
0.01600352603785092 0.4421418766703577 0.20245144946154664 0.22415400976811187
0.011749530248657459 0.44297733346682355 0.15150221955502785 0.18629841286259297
0.02859356252981972 0.43326600467314946 0.3709477624510201 0.1998264482381407
0.018628715978520352 0.4370429983763249 0.24454706355602854 0.24597841056634664
0.01686946855912961 0.43641501471426414 0.22389870906686196 0.213686985286524
0.002758325448924765 0.44574444763865984 0.03861291710037522 0.1642503978982065
0.0440790665488321 0.4226591464141918 0.5753791051180785 0.19669879908692964
0.03411250618435958 0.4239136680156508 0.4518149990135084 0.1793018655794075
0.013145252144010409 0.43887625015800735 0.17499939264915765 0.19820977982363697
0.04508227602197844 0.4219598302288422 0.5886010527771692 0.1943345861424251
0.03805072152884384 0.4234420340012891 0.500607516744613 0.19158444464630486
0.03377111869448013 0.42860747155662127 0.4412171734299803 0.18152843540123337
0.04682855255572292 0.41685407860720036 0.6169382913302125 0.1868115558612643
0.03537980330038588 0.4243904764400913 0.46665587498512967 0.189861008464612
0.03919073265825355 0.425444692054194 0.5118038962298762 0.19449253762463212
0.021029263943873586 0.4318348159068969 0.2800177318863993 0.20379689564760398
0.028592105618614288 0.4262329083579236 0.37988377703434106 0.19518008241640514
0.02497321249484805 0.42899048401119905 0.33215592658650067 0.18677815890662275
0.036053011010903954 0.42071338014693355 0.4784090389345735 0.19474868035566187
0.007614805992698176 0.4401046500829269 0.10160487603217 0.20636846589350596
0.019211514034145546 0.4318916858767386 0.25502629952091826 0.20291421649341146
0.03953248767376018 0.4188252370005887 0.5248831252845275 0.2155909173559752
0.01427217061355656 0.4348592942633335 0.1892734791077034 0.2066465162667572
0.004453894453191728 0.4410360069607639 0.05819143769529485 0.21616137856938808
0.0017093278927778116 0.4414980990157489 0.016866144505767504 0.20458196987647
0.031129901001261222 0.4237945637691785 0.41288751118435085 0.21152967233479394
0.005746494725103069 0.43888749600578664 0.0705414356146336 0.2121345578268275
0.010920767706348556 0.4359001110306194 0.14065556782773844 0.1911096602703137
0.013186659177132009 0.43302012230307807 0.16285060619235286 0.21757490588726205
0.027096071971078148 0.4248494658045993 0.3515862642437451 0.22445521676383257
0.007340991584685639 0.43631035885529257 0.08257384378186976 0.2114034979327773
0.020857921660571984 0.4283455740363407 0.26581941653870533 0.2254855993414054
0.009881011122528316 0.43410544614364704 0.11238947486806235 0.20429546398878692
0.04061716827471089 0.41291220311421023 0.511114049635755 0.20972640766857226
0.04464444019160933 0.410526692047923 0.5657095431485338 0.21515710869750493
0.029206733572399404 0.42149068968134573 0.36736302585758734 0.18263400992840226
0.034248541838981406 0.4177234968859513 0.43102073309582745 0.18568855603013432
0.042120605226022734 0.4130471505328115 0.5376573279960895 0.19636930946791983
0.03794804799069919 0.41706384500521404 0.4903766906271072 0.21825209248952523
0.010996151870513768 0.4327471826848436 0.1233143215974834 0.22368250350324884
0.017934463781234564 0.42818816396972764 0.21467409358220593 0.2266196080265764
0.03158962062618203 0.4205087510683989 0.40224753471687985 0.1975113404830667
0.046570716888072225 0.41150669153670316 0.6045678086836621 0.1790480864737439
0.024087707915530228 0.4252670483630173 0.3024387639723585 0.21898232931705877
0.019025960024308255 0.4283634422206803 0.23440905293219105 0.21697871140408234
0.04483526402288901 0.41247309276606237 0.580671238389024 0.1897117099580475
0.04206613453869404 0.4154545022185335 0.5511904118919835 0.22567598969669317
0.046910295046220615 0.408289261430204 0.5910469126813658 0.22264431239716245
0.026669261533203578 0.421244992614447 0.3189682639932485 0.1962926936370892
0.01739270660458941 0.42797999404095527 0.20339388161303862 0.22559234958930788
0.02383367124989314 0.4234399423780365 0.28550057520556565 0.20345958641022588
0.005578917767831558 0.43600960413363815 0.04873340606828744 0.22227544489124693
0.005665635843053105 0.434517677522495 0.02983838831694418 0.1939948605130663
0.018037354205490252 0.4259129134866192 0.1815805502543091 0.21812103649009806
0.017263181227594338 0.4263940410300482 0.17050503138327713 0.2174482887791614
0.02462906448010248 0.420996368448312 0.2458153794675786 0.204040288816278
0.041094086979520925 0.41049823476859304 0.473165545412806 0.19765998513357572
0.04133680980364111 0.4109717360294689 0.5004387408980899 0.17760427303284504
0.05097494412911764 0.4043127066933926 0.6139618503119741 0.18907895336411254
0.0352014266050642 0.41381831435981126 0.3751565451239645 0.20416314959628828
0.04763313972913058 0.4060026797078238 0.551035303423556 0.2201945128346049
0.032953481647424954 0.4164016563705564 0.3879059074775992 0.1953198581206408
0.022035278125352498 0.42301830015905956 0.22401701770702145 0.2173099970904539
0.03929042833528271 0.4118800313264598 0.45708574189940876 0.18566252237608882
0.026777864209450747 0.4193266844687039 0.2611211159043804 0.2001633485810106
0.038179093744694165 0.41174372901518114 0.40892776350208815 0.17670127038680114
0.013302528348184493 0.4284253798000483 0.09471779471762745 0.20906674319165172
0.04911768804041744 0.40436318548227845 0.538770482488751 0.20349211787656976
0.038572042648704154 0.4114112532081772 0.39569093162505536 0.19651050730995231
0.02268235358160855 0.4219753347978472 0.19304769566418964 0.2044298668117342
0.051869016641151094 0.4025204584442197 0.5770085242575359 0.20061579609101973
0.018155814186402056 0.42506985427957555 0.11551777117718452 0.22092010839005147
0.031125466102223963 0.4163205524530107 0.3103744658499233 0.21790373885466877
0.012945778847481056 0.4284926344656385 0.058626404069406564 0.21179960613620155
0.008821625038296903 0.431190622995561 0.01624788045552294 0.20693169259019165
0.017747984355314984 0.42523444840942476 0.13510951262072324 0.22179196386049468
0.0312498161374843 0.41664249803161424 0.27697125342658985 0.22288757286087246
0.014865615042017511 0.4279020432693137 0.037744546015678955 0.20278645580317464
0.041176741791854155 0.409796126646008 0.42303159874546675 0.1682850257686208
0.022770255519604807 0.422311187031854 0.16042285499131131 0.22540176435263712
0.032799348536600825 0.41577439134909644 0.2905882693957208 0.2227124078550341
0.04499953523419019 0.40815949729650214 0.4352320049566323 0.17412609940980806
0.03687434722873929 0.4131165667376679 0.3438287078312299 0.2110116705426547
0.04019728175516967 0.41168586312595906 0.35520198461329877 0.18066128641315157
0.03927047665994566 0.4125191546913763 0.3330986496336211 0.19931523299530968
0.018377292352541968 0.4258890181689539 0.07089457821131548 0.23456275133133572
0.04960044937923126 0.40476631312547423 0.5125459972975744 0.20669252546164296
0.05833080441843741 0.3995353781632934 0.6066007498887563 0.18799893433050388
0.05059813694421424 0.40410053005815366 0.5262589439857488 0.21016682235917772
0.05729512099320862 0.4003494796308114 0.5870050003500674 0.2290755760904268
0.05388890294912131 0.40214175200277796 0.561147319770237 0.22791581700444977
0.033014226753795936 0.4166123585769631 0.25067231891063163 0.1824717316877103
0.06176865786644672 0.3980614382980951 0.6180952100473146 0.2239719536063324
0.03850902135702612 0.41374791861765914 0.3011241207657618 0.2285059779274107
0.051945930433268596 0.4046639779003968 0.4828360666140179 0.2123605663943386
0.0219277417782294 0.4239117240577703 0.10485927219701298 0.20249323494859117
0.053589922695509884 0.4036272485503517 0.5030711391502786 0.1762251060658223
0.03216888817700545 0.4176504291989119 0.22564549919968335 0.21257940639949982
0.049767713299514404 0.4063772203368642 0.44724394400310763 0.16454269134263758
0.035175338324626035 0.4168234856544669 0.23862600375871892 0.21496089529022636
0.05308422113326148 0.4051494983003847 0.4710682499325 0.21994343697978735
0.04891442791587649 0.4084336151947155 0.4053014952971649 0.17395997128547372
0.052666025641426514 0.40571287317743254 0.45961857166172365 0.19495797950055282
0.02818079982296041 0.421604105636723 0.14328151485237617 0.20688301225553216
0.01715406503207526 0.42835172509949854 0.009148780927438614 0.2155374139332796
0.03330191516476036 0.41853808176918894 0.2041474129708494 0.195893734218262
0.021751778373863592 0.4263491974623841 0.04797293556763389 0.20728955080564448
0.030056737849788843 0.4223077030581235 0.13113659888205645 0.22211184473699339
0.02637490491774555 0.42418454436430353 0.09193508291017788 0.2138024949868934
0.0208300118503956 0.42757287891113605 0.02366357316224769 0.2085556533894331
0.04007274392640789 0.4158680924892228 0.2597034025684276 0.2125939080639017
0.046534844946102424 0.41366773494951853 0.3140050490118568 0.19463614027501686
0.03494663296489908 0.4212136497629738 0.1622954119719269 0.20049396643106776
0.029628764870650956 0.42567096011499217 0.07983052077579456 0.2256014447278654
0.032300691726211084 0.42390328552138257 0.1149825975297463 0.22559649350434743
0.02968852476522528 0.42731552875847645 0.05887125384122681 0.2168226209194203
0.039033401778461395 0.4214814312097093 0.17831499334669879 0.22098447096458357
0.04580363935069168 0.4163945475769773 0.2752313446347427 0.16582229238048082
0.05159146337978033 0.4139555751003643 0.33523532281281077 0.18443586438884185
0.041989740162006337 0.419357499756296 0.21947051955202476 0.2077920681090483
0.032889338612275165 0.4252292703964938 0.10075413268509782 0.22669323402949645
0.038050531153555264 0.4239950053930187 0.14473924866364568 0.22151891281843417
0.05174932854750783 0.41725941733180166 0.30277629787542004 0.204633866160499
0.03411307198058186 0.4315388177229589 0.046998147744192344 0.2017837341353832
0.030638285150438024 0.432566233637208 0.011946509584753028 0.1753146170104542
0.037495916079098565 0.4300760506532146 0.08562369858123986 0.2219099386793428
0.05395356287594762 0.4212743558291789 0.28850964626991027 0.21383853043657913
0.050006965186491 0.42428889338993003 0.23403924887035776 0.23111792365181627
0.04140629901322703 0.4283228363310536 0.13165384235767053 0.21704587625641097
0.05017344805418895 0.42269939166839654 0.24574930802894232 0.21468082095049248
0.046613267636205186 0.4273517227395301 0.1836837793797907 0.20679536568266244
0.03476198855388135 0.4346154947201597 0.030753403661591537 0.18582865313173366
0.03718658618805354 0.431929690702359 0.0704249138336147 0.21021681018883343
0.05277405346313833 0.4240812544187429 0.25965043412327504 0.21743598243591009
0.040866941052147665 0.43269782587318695 0.09874333783801033 0.2181412866459119
0.04932244624190499 0.4282869249418426 0.20435099810800436 0.20632716409590654
0.04963847161243824 0.4264042852699746 0.21653415525061173 0.20014505497254392
0.043559056729434345 0.4338294490503038 0.11896930316699833 0.21629863441487646
0.04707245185938526 0.43132906940969107 0.16643211941403874 0.19692819124997102
0.03929024134287111 0.4379873990583407 0.057813461668993586 0.204375524810139
0.04138930664853642 0.4386013512776119 0.07982976773530008 0.180406407694517
0.06299833758457622 0.4014122931215875 0.5549623954274373 0.21928652214252872
0.05899888762348862 0.4022168834574556 0.5323760817406048 0.19333433659788626
0.06615281783499424 0.39965730188670207 0.5925767429706719 0.1904562581735455
0.06810791449744281 0.3979330933523685 0.6271378370178275 0.26297853095803364
0.06412392041994532 0.40033738016825593 0.5763134758360348 0.19486356793355158
0.06573856539352932 0.40625529975738317 0.5068616356341562 0.177917701416656
0.05988569966436798 0.4079160309801106 0.45039028061767894 0.16369924040103112
0.07202789737705358 0.40520940776560943 0.5591170838381592 0.1940068384558437
0.0745166478709544 0.4019657993946558 0.6094053902419937 0.231592122843957
0.05839241598350518 0.42497777041354734 0.314770734211455 0.1860176772528783
0.059883451991479236 0.4322208152678456 0.32825315815011996 0.18576579037857813
0.061265760647151946 0.42776245874623875 0.34047903373143024 0.1670855159180654
0.0555230293294095 0.42675316593143553 0.2758601544224312 0.19835672083832256
0.046744143827389 0.43496742687315226 0.15324384163663768 0.21300092851960853
0.03621590889345034 0.4444921936836782 0.005824636123394648 0.18999713742911156
0.03759148108110564 0.4472033401747958 0.023314729974877036 0.18584058611606188
0.05177608397112839 0.4347296798043938 0.22290891366663573 0.22350978632170584
0.04509234157100887 0.44144735063775553 0.12886890440385135 0.21664572887419703
0.04246255857022632 0.4442185483082912 0.09186920025861922 0.20638324370018846
0.04966974523683329 0.4392120597958803 0.19329581440833327 0.22713002093751028
0.0540755878959155 0.4375464411161082 0.25531273155509404 0.22219495957133628
0.05774319037424057 0.4340850872242672 0.3069179506719489 0.18329436124233292
0.048131814849557406 0.44207144750334887 0.1716699691683905 0.24434724960860252
0.05328030085917971 0.4339381108049816 0.24408019646289236 0.2181483367269836
0.08215973229385885 0.40707032667201837 0.6376247785571136 0.21989139536121255
0.08299794081208006 0.41557727534623023 0.6276950001329432 0.20194286144324955
0.07407278448211246 0.43057736307767247 0.6354264752058353 0.1630020389688259
0.07773453622123891 0.42791975196353094 0.654354704969353 0.17355318074432347
0.06121018381493332 0.4279569068312852 0.6763607112844519 0.20132212998088345
0.0652873257974947 0.42743640420134454 0.6972480905435845 0.1446127928092919
0.0683707232425158 0.43077688573957174 0.6670834972665792 0.17905140211044082
0.0708383518855987 0.42941790862955315 0.6807566683673666 0.18489777609592742
0.0774804890044179 0.4263891716658976 0.7032421558562156 0.1017126490310639
0.08324702469510226 0.42153930680986407 0.661657138587096 0.16612768933583366
0.08071970644245165 0.4248654055914012 0.6410746370635817 0.16293118230853437
0.08106993920379085 0.4244504155217966 0.6912588385299037 0.13205293274245183
0.0785791775053219 0.4268371951782963 0.6709662193268219 0.15738890943303765
0.06337627063191285 0.4315868892501677 0.6465579754603836 0.18361102839682997
0.05643640118426001 0.40006412362952604 0.650109294261586 0.20506175166445614
0.05425980495033264 0.42024558823856073 0.6823050021500136 0.14915829801837852
0.06839431221517527 0.39735812927863196 0.6413696195236886 0.25787194329451135
0.056564490974576366 0.39960378923776474 0.6288653512693702 0.24080317536464896
0.05445608533810163 0.41254816882904743 0.7015321716156053 0.11321393593867285
0.050714927905516426 0.4160407462581256 0.6627939945721977 0.16747001714612247
0.049982645784007323 0.40951720561251126 0.650778632163926 0.18653125546295635
0.0530456119381421 0.4053090497640803 0.6688917167779362 0.18639070529358648
0.054279118236018845 0.4048160046605 0.6815260303037974 0.16047761519865844
0.05540878865613114 0.4254201143477975 0.6664546679157307 0.20365445014626293
0.05597737061781907 0.4206108968492486 0.692609789849721 0.16148073356195078
0.049015133870093236 0.4180857491603255 0.6425010230895185 0.179238003918461
0.002370860581211043 0.45306072462122504 0.0014736786687147413 0.19226659322123468
0.017979699064936638 0.4627066719930745 0.0003537746525186283 0.19886320499217497
0.02460781992285203 0.4319512338154649 0.00043143205664308956 0.17673264483531187
0.025648393791733205 0.447927560266802 0.0002485082542115448 0.24365507603900124
0.00511618764913443 0.4381116384477647 0.0006510416435879802 0.1566110099419514
0.0127680376259231 0.44858628516476545 0.0004269091123343888 0.27095534043505504
0.062166511035681785 0.41495587669406336 0.44056289584407526 0.16731159308671747
0.05871144011581573 0.41630368239130494 0.41350504459112375 0.16954511300353525
0.05941105813559294 0.415619479689323 0.42448449657068255 0.16151519699985478
0.06739350586168456 0.422341563822742 0.4342042040563437 0.17228135424126825
0.05906253398059216 0.41935888526825293 0.39198466842858837 0.17125963193685773
0.05175563485412439 0.4131329809152289 0.38359485980850777 0.17483924255397676
0.0515772724108878 0.4164357033123315 0.35331317870438356 0.1669761180116327
0.06623997899836528 0.4260884316480399 0.7107839083315901 0.10152972445001732
0.06038669387026205 0.41521770812407643 0.7135290970905296 0.09827348282374128
0.07847912231220969 0.42129037004848724 0.7124758552952085 0.08827619254657025
0.05834852480122928 0.4034069417399397 0.7103401956726385 0.0955470883717412
0.07207898664078372 0.4009080078499195 0.6575180229196436 0.1951325868770049
0.06278108227079392 0.39765767569238014 0.6687777400083736 0.18055656887631163
0.07198604659982001 0.4068380849021921 0.6871841077971773 0.15938597181428893
0.3781824491009396 0.44826972037478885 0.7636886938846328 0.02573126039075919
0.38380543705259335 0.44991273046983216 0.7823393019756213 0.029384351790593302
0.3807743376327585 0.4353722560740964 0.7071367588260713 0.0266850307023595
0.3794383498548441 0.42757252770993787 0.6673544682636555 0.026912598833896666
0.3872716763931034 0.4396355970628011 0.7399917306317318 0.025402482653492268
0.3828416654611475 0.42250343197206186 0.6497741808660618 0.034721619871020196
0.39061426357829354 0.429531684801141 0.6984068825062286 0.03602555042367659
0.3890532505321486 0.43606624571794345 0.7264737119201999 0.026378509716739044
0.3894847168641914 0.4334463604636153 0.714841587602424 0.026925963299598895
0.3931576010909682 0.4254880364674365 0.6845843730228166 0.048481023285116526
0.3938446159523513 0.4446157148126466 0.7773227700739194 0.02844459709653771
0.39449502275814513 0.4410119869207947 0.7615286197816971 0.025603266112658018
0.3935176729087889 0.43916032048557957 0.7505910097742887 0.024936853430030024
0.4008862131897387 0.4297312660333643 0.7215478562566933 0.044502764412811265
0.40227629363208967 0.40790342015703124 0.6206214053459448 0.15767964562517758
0.4015192429368667 0.43199646876491415 0.7337146719819636 0.028855331712411184
0.3968068720085729 0.4130910063266996 0.6334135723777895 0.11041141039660207
0.396082502260366 0.4215340145404448 0.6720452694405206 0.05524557284301559
0.3943617539219201 0.41884861908957044 0.655508026050136 0.08373385676380637
0.4056644744300547 0.41346592068315324 0.6549049796685854 0.139157255627342
0.4071542816811709 0.4375145455905718 0.7731734095583037 0.028993262688495686
0.4042915988953459 0.4332472631086536 0.7460460155878365 0.02442661161161022
0.40605373130188804 0.43570921539043483 0.7619580914033331 0.025860864403731487
0.4033423879004472 0.42091005476945414 0.6849359302802835 0.05992206134587648
0.41417416181585504 0.4172972752006737 0.6934959999251894 0.09297310796603048
0.4103444643409242 0.4153960754889322 0.6752776322349004 0.11174454685075991
0.4101942749812758 0.4220988898302611 0.706835045454343 0.05028281700606646
0.4063454225720551 0.41004210796720353 0.6402129054918615 0.15672591201848007
0.4177042054523855 0.42064071984462437 0.7184227537406666 0.04971083556812762
0.41683505776848356 0.4356274085722866 0.7876844380596081 0.03447721435962958
0.4179719288914532 0.42443753459813005 0.7372359991653652 0.04015631727629324
0.4189307607462374 0.43161104938477485 0.7739563194266921 0.02954145810806306
0.42553769869059654 0.40853217423683175 0.6813872600047446 0.1483169234266728
0.41896917426320057 0.4095643990091905 0.6688702669011432 0.1646482159865489
0.42099786143563045 0.40532684721369294 0.6540981179713172 0.20120237959592494
0.4279276279587586 0.39559800811739243 0.6262114009785019 0.2376728214402937
0.43011518001400495 0.4264001722404419 0.7792125399407283 0.03646098704954569
0.42730659080746325 0.4240730225335417 0.7602305509628882 0.024021116878387084
0.4282737024233191 0.41873433285438716 0.73742862776197 0.04302509470887212
0.4362545850200378 0.3935368540922485 0.6400731700199415 0.23498744300961294
0.4350849736625133 0.42089181838375084 0.7668149726704968 0.028924335874548956
0.4397228731472276 0.4123599220636766 0.740078934850317 0.05076259258913507
0.4414760101869989 0.41398498500195235 0.7531625495669074 0.028473147859539673
0.43924479764665214 0.4100750042568111 0.7277217016893054 0.06141279973730833
0.4430240521799028 0.4015997734159974 0.6987623320015981 0.1104807359290492
0.4415443059534032 0.39761265866720163 0.6752373584559626 0.15308478075128115
0.44794540758104306 0.4034156876860362 0.7226252262385935 0.06330569746894468
0.44740542131256605 0.39623875749570914 0.6868113042407408 0.13742360596553005
0.4501800159041374 0.3844311933864179 0.6394614903862508 0.1906667868975008
0.4511412745282084 0.3908204069595489 0.6731821219367154 0.158577200801743
0.45004295165228925 0.4044829811262734 0.73470762528331 0.04218163634963822
0.371579950153614 0.4265652337245857 0.6486071065649295 0.023907264182179998
0.3739365127320242 0.4316839901717571 0.6770982741653496 0.026560627391499992
0.3737437331004591 0.4364515824628571 0.6994687059140587 0.02327951140239214
0.3712876221784377 0.42300258842283167 0.631129082107719 0.023594654211466153
0.3775454474001061 0.4392431061404648 0.7193974480835937 0.025656448690378256
0.3713949522760279 0.44737460178650884 0.747466254979601 0.0238302716014223
0.3673535001159962 0.4551781327728372 0.7777278467671465 0.028412665347830462
0.3739857236142579 0.4549414919659201 0.7880231237872579 0.02926173879886801
0.3672463953753061 0.45110050655916994 0.7580929851084153 0.024938462593845145
0.36645108366024126 0.443693414913594 0.721391052951126 0.024713310797187363
0.3587190185523932 0.428034902368934 0.6346715740710708 0.025763406748595688
0.36413876883567947 0.44156218122940916 0.7073961287586483 0.027262020174415928
0.36383902121831874 0.4467632656262626 0.7316983974933526 0.025939559376632604
0.3639091617893701 0.43565156266168104 0.6789030389314793 0.023443206072015735
0.3629638976334197 0.4230552043249423 0.6174802622339572 0.024981886025752256
0.36095831168386827 0.4298341059103149 0.6466755895285183 0.024415904657816033
0.36485500049399244 0.430935826482584 0.6579034619764533 0.023785076107737894
0.3563938256328052 0.45373565894464263 0.7536499722578737 0.024313298003618145
0.3516372433406383 0.45264048271022955 0.7412689612436559 0.026554728112440227
0.3547488157400521 0.4364414688104215 0.6686568282688747 0.026914649544246057
0.35612816442568995 0.459788562141489 0.7821315133905191 0.029048552008619787
0.35362693246281307 0.4492797947116038 0.7282267049044939 0.023801164077245657
0.35691044812187533 0.4402983648385185 0.6903116373094862 0.024029021211117378
0.35919317678388885 0.45569431424875073 0.7672067362950068 0.024443873155767827
0.3524368223555248 0.4274001095599415 0.6220625486298044 0.02793369157546465
0.3457408417044986 0.4425176950854799 0.6851179970941819 0.025067523992800236
0.34477726425957866 0.4346963861625446 0.6465676125775126 0.022831377591821415
0.3507303781262346 0.4476123782998259 0.7160685324474468 0.02557114407910468
0.34699055576477456 0.4586701967871749 0.7637928725451265 0.02530132586097286
0.3424532444357679 0.45339691224658485 0.7326545737978281 0.02651569016409809
0.34022364203933364 0.4395905536850623 0.6638507068656905 0.025598386117807723
0.3440190532561318 0.45670134836636733 0.7504829266739843 0.024915974416437746
0.3381047112027412 0.4467333581502426 0.6952648032464719 0.024615342881681247
0.33529202672924974 0.4385185890577631 0.6529470341279361 0.02382270232943531
0.334921910190474 0.44287589935384236 0.6732757802017926 0.02422944368623369
0.3313556046434254 0.43071231797877935 0.6112965661992484 0.031152204749669794
0.33781242006999246 0.4640513658656517 0.7774013525597305 0.02360967866317809
0.33496254871977743 0.4347463140685565 0.634608626528052 0.02210403242603984
0.3280991700966068 0.4339165377298194 0.6228517636292645 0.027677063293776758
0.3346168572756218 0.45073712963736795 0.710364310316144 0.024799752951238888
0.3275553956469356 0.46776323346569204 0.7837251017365504 0.027465395013604288
0.3314653036556495 0.4571475591226859 0.7374090581819539 0.027095776831216434
0.3283264192001474 0.4422801149940324 0.6629981422621706 0.02357025552402301
0.333626328453744 0.45978875090305904 0.7524045467359008 0.023196103153036184
0.32892194919800877 0.4638976347798138 0.7667961708813655 0.02388343588894689
0.31722145738709395 0.43542466961351145 0.6194459348076731 0.030166203427012064
0.32537921020386784 0.451036146618347 0.7015515915562541 0.024554269965299153
0.324664822573805 0.45355428051408136 0.7128578305325658 0.02423018839011004
0.31454358019269585 0.4387160461133308 0.6325595911787115 0.027541037822798185
0.3130778811495407 0.4416861670099719 0.6453698528169429 0.02498842559352791
0.31984679949288136 0.4594029221108158 0.7361398686249769 0.0249372953066331
0.3151245674602911 0.4448800094612746 0.6624949688393923 0.02528760214961503
0.31577972742186217 0.45062699555803587 0.6905190408148218 0.025772119041410173
0.31111166502627163 0.4706293283862863 0.7816517954327843 0.023780753522667165
0.3166904336858341 0.46641257384238033 0.7666750521046832 0.024622100909175212
0.30867277020049316 0.4653234404906218 0.7545508189332824 0.022890052786064603
0.31030327093301585 0.4586968684321703 0.724199391325039 0.024868837005238096
0.3117517485358702 0.44879581333885143 0.6781180007575223 0.025709651555974666
0.30691630374218587 0.44434416890545014 0.6533331572306815 0.02217759550237942
0.3015914477819221 0.43707707200849816 0.6147767352258704 0.02982032380605112
0.3107819630136407 0.46254055549063644 0.7428601017928841 0.025408529186505376
0.30283750307837837 0.4401274119714579 0.6302277187408881 0.025199408269725672
0.3028462648589501 0.4681760408667267 0.7639412336373799 0.025328445355338132
0.30313030877717406 0.4524516920619039 0.6891583602870284 0.024756651313003836
0.30137113229881324 0.4578888247258558 0.7138167434911997 0.02354658301256556
0.29828280432613613 0.451038057510537 0.6789150050143605 0.025927437612462592
0.3038779998125539 0.45527971603858974 0.7031850980437498 0.026221314595369076
0.2982727706294564 0.46374942586676565 0.7395271795409639 0.023678135270166482
0.29335926819728175 0.44033226665347175 0.6251763980224265 0.028177919940479898
0.2919984341362811 0.4486845854150408 0.6642147033424499 0.02459094439570426
0.28978756680530715 0.4464946730823451 0.6525650907818483 0.0244191572237172
0.28787096197644013 0.4565945913859727 0.6996400137827885 0.02412371802247585
0.29172150693010257 0.4680865024907636 0.756510991352815 0.025205770710407662
0.28754286732322515 0.47327292822623424 0.7789669239714204 0.023023960230623586
0.2866890831820032 0.4591524974300084 0.7111920986195078 0.02394554630874926
0.2863612369140054 0.4526278707879093 0.6799115631042121 0.026739649215126567
0.2808451081059886 0.450846212709526 0.668834460976385 0.02492087939198567
0.27992113257461404 0.46255365142314686 0.7244160154931643 0.0225925169880779
0.2756151556450841 0.44511309430494117 0.6399417000959913 0.023487260101478533
0.2669149481887159 0.44007464735555246 0.6134783550071041 0.0289740012489126
0.27553042060625915 0.46536936292965164 0.7362759026761833 0.022561959773763966
0.2795004838026163 0.44126736657415677 0.6227621586625837 0.02527160180430665
0.27523872716885556 0.4608767396548362 0.714820948131665 0.022781914919920092
0.2742769484293293 0.45634615707518816 0.6929932130222195 0.02596550384583046
0.27405062067270164 0.47093098602285144 0.7623079194404063 0.020685178239663305
0.2752156590785866 0.44904383969282535 0.6585255541730353 0.026048201439622835
0.272094697436321 0.4734445474595662 0.7737327260579101 0.024945228173813408
0.2645984830093495 0.4636649718128215 0.7259197249150038 0.022122011795377986
0.2648848118603658 0.4445166558761312 0.6341945641938256 0.023817904443138197
0.26257963688659347 0.4570677463317813 0.6940496200381109 0.0252948372706871
0.2551431552520501 0.45318475284250614 0.6745014064711009 0.026431207300567142
0.2683501225312917 0.46880204760345984 0.7510117101714122 0.02548552700061326
0.2593540902517254 0.44880756569175284 0.6540578126637708 0.024786762029577542
0.2650869978716601 0.45483439753552246 0.6836641710385564 0.025755493219519504
0.2651947738679149 0.4518520563447476 0.669386009870605 0.026118414653899153
0.2569833123185926 0.46547480536393826 0.7333816499490704 0.024176764893506956
0.25924911644252896 0.4705401536048342 0.7575734949595276 0.02378803100131507
0.25134522508540136 0.4726917011294563 0.767250476109989 0.024908159911426912
0.2553263721481711 0.4747330794640029 0.7771999738270838 0.02617047612223542
0.2551013888784141 0.4772097973063946 0.7890154360789616 0.026398098430922404
0.24661041408309897 0.46736749314143156 0.7421298047769855 0.02395673362382429
0.23846878477278804 0.46469744583628225 0.7304025591089969 0.020866274620813998
0.23907869043149366 0.4713315919387073 0.7619950562040307 0.02154023643474763
0.24527685692040094 0.45538648006934473 0.6852489183569577 0.026227002730681282
0.23757606137225745 0.44157119138804113 0.62014194638089 0.028353262519229584
0.23651412982587353 0.4688560949445971 0.7504546447788887 0.02235608660120494
0.2359915831093054 0.4530152440114135 0.6749196997769831 0.0257149613867084
0.24252040461721008 0.4504585198371125 0.6620260554680768 0.024717158215009496
0.23595561194400078 0.45996285722702857 0.7080766060095052 0.023086529785439673
0.243191199877023 0.46200761095201065 0.7170655507526744 0.023624322628165384
0.24983708699335783 0.4581178004712151 0.6977981646339159 0.02357631837665868
0.2326791439653439 0.4443997844111607 0.634768345883861 0.026916406555276846
0.23494967238385334 0.4475139980374415 0.6489873741060449 0.026332840467169917
0.23569030783489406 0.4576922071642887 0.6972703955475096 0.025995621606465007
0.23172587713395792 0.44994101489631555 0.6614223516942934 0.02493486129807308
0.22730044243642625 0.47019658702546785 0.7592048912366058 0.022714037687785855
0.23316608971935812 0.475505124907472 0.782824637735611 0.02663250361174893
0.22640059152577113 0.46348370838461345 0.7274579099686095 0.02486125582259979
0.21850223002315694 0.47270374305644847 0.7746116376792025 0.022707023966009546
0.218554148921229 0.4650261059140206 0.7379846168037091 0.024777511357121678
0.22445716665678242 0.4549384035129215 0.6873000003816554 0.025756690796383548
0.22277289648100468 0.4446740124839677 0.6391020383495485 0.024064259529004633
0.2192587453802089 0.459278096615773 0.7102710019086969 0.02570352046511991
0.22049699252781566 0.4494017350751273 0.6626366092455518 0.02262451743456124
0.21184580168247763 0.46197848844235606 0.7266930822932052 0.02189587763929035
0.2119079290741181 0.45379996966197717 0.6876952270821328 0.024376242782242655
0.21323449562238023 0.44537648470679536 0.6467940697956891 0.024020325998330577
0.21347284556026636 0.46814465422065554 0.7551206449652146 0.023297593589902164
0.21316956482316504 0.45135880031081926 0.6753310566752646 0.02652946477661272
0.202840176059777 0.47139205921712485 0.7767742952303662 0.02483667228732228
0.20293561791599327 0.46596344083055047 0.7508374294166337 0.02424125109928925
0.20751221077809529 0.4578229687265519 0.7094135588489829 0.025119805337776233
0.2146610412324041 0.4380031803869118 0.6108373689153944 0.035711852947250565
0.2030236812823565 0.43854016237431936 0.6200393320744505 0.03258479619599274
0.2126660901340032 0.44159972962045035 0.6291234550604379 0.02611196913369113
0.19919728449166674 0.4681174333433339 0.7638892929278978 0.02179968636854583
0.20131199689266535 0.46280715215709345 0.7369603077104344 0.02412266658509824
0.2025885634641051 0.4420732445458412 0.6371356136379757 0.02542901061097607
0.19939112716458557 0.4500067724368366 0.6773963632913427 0.025171637902709668
0.20140819813692978 0.45992896567353936 0.7231648267986587 0.0247189281253927
0.24849323587472683 0.4430199526317872 0.6256748739651955 0.02664643362783863
0.2484047845349829 0.4479544603805522 0.6493258557043211 0.02608735968124655
0.24165154623440482 0.439118935932589 0.6078852395292526 0.030686455154439924
0.19448770800226672 0.4388949707607921 0.6282128036299116 0.027271531736754895
0.1898874092747637 0.4523267975872709 0.6957536480489306 0.024700551817742975
0.19816809662036547 0.44618633746850034 0.6601194138791016 0.022702900110002852
0.1885994155644596 0.4484965338360024 0.6785329802231166 0.023225469785386837
0.18823141286231745 0.46864277714959846 0.7749359765746477 0.02664529199887793
0.17996932190606058 0.4688110454089771 0.7835004115594973 0.02391406176427875
0.18473811723961436 0.4567209992029626 0.7213748625405122 0.022843391761685202
0.18687760612861196 0.4419174457709242 0.6487815153804655 0.02378974250809975
0.18582064517797303 0.4629640129888434 0.7501245226997924 0.024504332376889284
0.18770659070677953 0.44608532954830304 0.6678751591585856 0.025327475322502693
0.18159763033350199 0.4361926602276736 0.6264246076213069 0.025658332415788167
0.17998858803695708 0.451018000930004 0.6986330191135885 0.026882212098672996
0.17341553775731944 0.46104017936447106 0.7532918888612105 0.02374923844126168
0.171812228935114 0.46561445416953623 0.776820750434368 0.025761469484468537
0.1748818652590427 0.46382999465572733 0.764993763428613 0.02728872076871075
0.17693037393336947 0.45762852798713677 0.7332306425525252 0.02206059708422503
0.17075308731179317 0.4418408103161907 0.6646619645407922 0.02420963292029873
0.1758246121180893 0.4387141839883001 0.6443103577241598 0.02297276578068365
0.16863149390882276 0.44683679274003163 0.6907573366821091 0.024421511910226353
0.15926025023444318 0.4605548510342603 0.7678213882150734 0.026447509259056562
0.16449970503616113 0.45204962528683235 0.7205786156556242 0.022263965969437294
0.16466958182240465 0.4433814983960333 0.6790302639745336 0.022931384632985958
0.16199598514029726 0.45804333662179797 0.7523538567919243 0.02526684132908257
0.1590727433873276 0.4628256096928357 0.7788882050029396 0.030192190487253155
0.2526390587669336 0.44567598363733396 0.6385954313316401 0.025802520388203923
0.16247468804625242 0.4381167551823259 0.6567408727188028 0.023831868680792866
0.16386191447126291 0.43598531839026416 0.6448011472792076 0.024608236503101972
0.15317466137716526 0.4294491493748519 0.6274142772302806 0.03189123008136721
0.1611914727871501 0.4282318871920716 0.6112986702914527 0.03125454311797547
0.16407824259957982 0.43234542122271846 0.6271815692616735 0.02880126350990428
0.15841352223829286 0.44732877215478667 0.7058548231603686 0.02394093177778533
0.15227886848941913 0.4373577635171295 0.6664137630285434 0.02136878173986457
0.1468750313901722 0.45032288118391 0.7361814520024139 0.023873992667506744
0.14555548147050743 0.4588105487394628 0.7785920994445233 0.025951977442077997
0.1526656430919795 0.43281099217847835 0.6441656372647173 0.024016346067203632
0.15326650506125683 0.4482043911716451 0.7166778798949236 0.02185029861840534
0.14111053595197273 0.4534133851181386 0.7594006138034356 0.01926487024951193
0.14670150948024013 0.4409477567045641 0.6917372406825375 0.02315251393602357
0.13572688759494048 0.45683098756292034 0.7846701184229979 0.027454863326235868
0.13944309243743225 0.42546313247664136 0.628849290582897 0.026045913057179026
0.13678362044353476 0.4424349726667393 0.7142495134056769 0.023515432205939234
0.13941244358896615 0.4281956058712613 0.6419296315637267 0.02541501017006986
0.1300519097326247 0.452301353553696 0.7726246014571341 0.023186756967198668
0.13507785827136112 0.43646403181444127 0.688650565064803 0.024919755260573866
0.13079991081595527 0.4325890290996095 0.6773862022871678 0.024451008526934857
0.13936394278079267 0.4217673189284769 0.6113631567302971 0.03404103724785456
0.1357709514439507 0.4317045248927048 0.6647921878779198 0.0245234646701559
0.1283433885143717 0.42265168539185927 0.6341512551297814 0.023549465030711154
0.12768829599971707 0.4430289174696591 0.7324096999707413 0.02458949740709412
0.12672011093280747 0.4398375417091384 0.7190131690982127 0.023875435879335154
0.12463972109754687 0.4348437334176748 0.6991128811061339 0.026238861401746152
0.12007358974242952 0.4469140715712678 0.7652412088835477 0.02255071325994339
0.12486921360844289 0.42766340973227834 0.6644475356395514 0.02601355732681646
0.11949898673445428 0.4178330559002716 0.6277480432101794 0.0408010878879512
0.11793956944313363 0.4404822398338515 0.7386084761297544 0.02416423948440501
0.12362804620889217 0.42501209437411713 0.6541552740668015 0.027678816870398693
0.12731206668242354 0.41777159127233865 0.6126990721503964 0.030288574589503042
0.11772732566378628 0.4286170399992013 0.6824759001741225 0.028409704407887953
0.10823915965181874 0.4442360931028664 0.7761784050932931 0.024441151002560724
0.11618432976817471 0.4351124039785482 0.7164705934131432 0.023280101553486605
0.11370144930240673 0.42990515324121303 0.6967361488553714 0.03288268424476612
0.10633605500005397 0.4397584112018235 0.7587289194713999 0.02217664118363695
0.10831934849732751 0.4223812582322136 0.6718736773806248 0.06773665898497191
0.11217457025903618 0.4205594152466068 0.6553230976881957 0.05932671077187487
0.10051718086700287 0.43510747942893374 0.7497418424510716 0.025313118568409076
0.1047903302762675 0.4109742633995807 0.6247802119823384 0.11320292585084266
0.10256045362496208 0.4274309030674336 0.7084334448807215 0.04639655644396375
0.10218381774031227 0.41670724224035677 0.6580929411456241 0.09859919717761272
0.09755061639575183 0.43862224106451997 0.7732846188385101 0.024788463616594456
0.09937565671047431 0.4307243068695121 0.7314168050850479 0.0349376282533696
0.095241437281553 0.40603709935811294 0.623329071804229 0.14286406590349204
0.09314756003301043 0.4087618620853046 0.641140859583987 0.1324173196875464
0.09900597965761483 0.4193032451309305 0.6777769684008774 0.088944614331078
0.08634278639604867 0.432145480970761 0.7694210972449551 0.022974235057907275
0.08492967680638162 0.42319343949446653 0.7303277431780941 0.053164017964031356
0.08704245336110958 0.41386000351931007 0.6804481437150504 0.12523294890778003
0.08789683958425301 0.42874452706733646 0.7492512958617281 0.027158973994693983
0.09044275595808811 0.42110242962192856 0.7063351370330658 0.07644753340013118
0.0859011178845294 0.40690800753059664 0.6501788422988928 0.1734854200754053
0.08578259175205308 0.399708179330763 0.6161289911072253 0.21211220805104666
0.07684303043907452 0.41313078890123756 0.703659177770726 0.11375098871500558
0.07560574502041338 0.42782181166244326 0.7769257987838496 0.02661440087337086
0.08041909548169521 0.40701134990382326 0.6648078892585383 0.18896679304879463
0.07689095001097007 0.425475956578112 0.7622655686539195 0.02433575444200327
0.07659171371742675 0.421446289223221 0.7439075481471515 0.039030653809854286
0.07811544544736368 0.41791822792337585 0.7229731391604672 0.07526981976922834
0.07946971887587602 0.3992462985662735 0.6303283958726623 0.27214063297490915
0.06762278530834526 0.4071147327543638 0.7005172669938251 0.12203688017005121
0.07062681914923041 0.4152256465360709 0.7305028082366589 0.06313390135125141
0.06592722949053151 0.42129370209488215 0.7731195620736115 0.031713143251977056
0.06483226145557924 0.42318918025427815 0.785386265568121 0.03857212297070044
0.06657643831156301 0.41516235935817797 0.7419533388133475 0.03926271936733606
0.05808418118478264 0.41203526240613564 0.7526538362053855 0.03096585388362449
0.05518212593851294 0.40390245544974634 0.7228727627933521 0.08348256425025834
0.058752035065609685 0.3876195466303682 0.6343210867426246 0.19244968376167243
0.05589715224867056 0.40813940172777946 0.7408347498687468 0.0485188302835153
0.04997132464576685 0.3961817207103985 0.7033569468078732 0.106387865274531
0.05362949731536257 0.39358354860296585 0.6787938163417675 0.1903813704898496
0.05445929967563771 0.413692953485878 0.7719186096067318 0.03418558084820751
0.043874600692043665 0.40049444171377435 0.7441244762517508 0.047976633245532516
0.39287389605872 0.40189319000033197 0.6153469577877612 0.06563969971466799
0.39035665440655626 0.4248939522808215 0.7236157315249017 0.029886959854299153
0.39755810979918516 0.4084300890685528 0.661170034230014 0.06687821586066281
0.3997166400040111 0.4018541501057784 0.6346023632441007 0.08440821280498687
0.39099953213406896 0.40780712764673627 0.6434633282160966 0.060444929111271216
0.38054586225060305 0.4344811623542254 0.7497243474166284 0.025834135816189947
0.38804456309840835 0.4361076792581681 0.7721695552080005 0.02833066291054644
0.3887712480919148 0.4290774988005377 0.7401830087859278 0.028078571455759493
0.37857573387157967 0.4434664744791982 0.7885630736446663 0.028926164742510134
0.38504765010680353 0.4240773567368349 0.7091118226578318 0.02775097471866737
0.3837384356315826 0.41585075959668105 0.667230783548008 0.03149917934052656
0.38288612080635603 0.4071793306986624 0.6240466040694893 0.04249214109925951
0.3807956236176685 0.410876555917586 0.6374651727899626 0.033020887625950006
0.38072698563580054 0.42083163942703466 0.6849110699802428 0.025573465937967096
0.39935321392864787 0.4184414757359325 0.7127972646238268 0.05058562232221014
0.39776707197604694 0.43277993206695164 0.7774204738625232 0.031159837028004345
0.4005371512301792 0.41086882529539326 0.6794171152491709 0.06205612062934177
0.4092371207724776 0.40307620840931435 0.6631771487860696 0.11301240973978653
0.4036205607056411 0.42532746723141024 0.7554910151521934 0.024709849271257456
0.40424731360958244 0.42089668508822464 0.7358746647632851 0.028758494923818323
0.4122042851263591 0.39907832626124107 0.6515070816002837 0.1294870065374339
0.4118912223175336 0.3969996746303884 0.640780079736506 0.14397847643020012
0.4115288370637995 0.3949169539087254 0.6299097860194987 0.12914520197377577
0.40628308421759773 0.41219162283601535 0.6993544222500772 0.05274547387690977
0.41178884346398015 0.40524375532719414 0.6799434079204787 0.11664085010985073
0.41337765495529155 0.4205155996323614 0.7564143136976247 0.025361445906074764
0.4096705135402481 0.4264880407512582 0.7757705686920063 0.03151930976270741
0.41408005073555254 0.41012014339948444 0.7087088070172844 0.06698482853547899
0.40207999712783427 0.4329704989751535 0.7880865412852122 0.03244072920873508
0.42117440071998824 0.3877035805682618 0.620439777951314 0.1151849131000254
0.4167680106414685 0.4139183845747025 0.7333364231500336 0.04321683733938688
0.4204864888776618 0.3982070347363881 0.6686542705082563 0.13982384959167962
0.4208706103961596 0.4092432118849548 0.722375599955046 0.05647761614933114
0.4181375288047531 0.405650817769947 0.6976755738880887 0.0985054257174922
0.4172313659096373 0.4210595944743716 0.7686921146788679 0.02758731223142364
0.4221813498340976 0.39033806832191215 0.6357951480334442 0.1186004580847459
0.42169622401101603 0.39476936293693154 0.6555972750552567 0.12090725688559736
0.4281541478959473 0.40706590905408013 0.7321327904754192 0.04717060054118938
0.4281878562628351 0.416401153617128 0.7767698168382502 0.03369147351968372
0.4255344757917928 0.3990726721066724 0.6867464241442169 0.11683064789280061
0.4188789854054489 0.4235783019568036 0.785267578470587 0.033325276875795604
0.42190445159603635 0.41438878086890374 0.7497876178195549 0.02263430838295849
0.42946205030030155 0.4118480167881375 0.7585686434260347 0.025776660407759954
0.4256405882077464 0.4031339092059807 0.7064184169658869 0.07133322537581654
0.43265631709249364 0.38403282608824174 0.6353815403700692 0.14364581335927748
0.432214348828185 0.40266803070637947 0.7228014088770173 0.0624065528352145
0.4316768057330821 0.40820990211913266 0.7475975648703594 0.027208005562792355
0.4322429539573418 0.3917438584262707 0.6708730336795814 0.13502162434016335
