x y z curv
0.1876277887141945 0.16707118979958013 0.3863176616872377 9.448612173867977e-07
0.25677957605360063 0.16727861688886164 0.38630240892214224 1.2893792264415717e-06
0.21079433648857832 0.17082208151130635 0.38604184230502614 2.1611957763525725e-06
0.22452766857227202 0.16280449650780052 0.38663141043704147 2.649563300546369e-07
0.17537348894014515 0.17016512662840044 0.3860901509390326 1.935281627315639e-06
0.23772782691583189 0.16107885567715827 0.3867583044012896 6.532863134780021e-07
0.1575644427126534 0.17060172191131137 0.3860580461130607 1.7651880262097944e-06
0.20165411286380952 0.1612585493566674 0.38674509060594275 2.8907024811585064e-07
0.22273239677958426 0.18060169692486142 0.38534487214882696 5.7380362352821714e-06
0.1839594399337944 0.18015732355925498 0.38537602957481293 3.8753460023523155e-06
0.20084725917953197 0.18877310932529234 0.3847719275300485 8.879465413909927e-06
0.2517883905256254 0.17725663524207425 0.38557941369143767 2.0404650535029325e-06
0.19933564962403932 0.17715634248585507 0.3855864456062481 4.5058659218053e-06
0.1688203985292606 0.17947796488300147 0.3854236632506168 2.497589779690301e-06
0.2139600363295795 0.1912242184129072 0.3846000662744922 9.371684064306397e-06
0.23557565694026816 0.1746060323157127 0.3857652625921002 1.6787674901223164e-06
0.38068383622718327 0.3890694439000093 0.5229068872293516 0.0013423437315904173
0.3583709010662783 0.38676461035464343 0.5131084972926698 5.313174773139259e-05
0.404973786399187 0.386830813093731 0.5134737195666211 0.07282891899391224
0.05915910371043662 0.2650938274028014 0.3828359562506032 0.0009189805331091473
0.029681679281622173 0.26525006641284754 0.382818184949825 0.031257420241538776
0.12613610707240855 0.26551620384378377 0.38292153840124266 0.0006854323499019141
0.15062144714022085 0.26167485596585127 0.3827204778526595 0.0003516182076671154
0.1353259717503465 0.2582633909244954 0.38250817074798077 0.000550810125857418
0.1706707315119021 0.2703693530758975 0.3832443165966193 0.0008744894739324582
0.4166000294289958 0.3578490416434969 0.432003536773618 0.07393204939224708
0.32220355784430077 0.35627926326957576 0.42935411568570725 0.0024768230131628445
0.4018294735597285 0.3565636756336579 0.43000206388418877 0.08349944496755683
0.37039869706730616 0.35311690674833507 0.42465698341926206 0.002937381178032747
0.2836063292698824 0.35620173596983895 0.4291321235644361 0.0027802570251558765
0.383552896718506 0.3541831369917017 0.42631965706740815 0.013295195950591632
0.2132221563043783 0.21017690225964036 0.38344723556686705 3.893520682174498e-05
0.15005206695676174 0.2174505935395929 0.38302895219765515 4.871893555677609e-05
0.19151962668013833 0.21549510170343172 0.3831414052712915 4.170519332369043e-05
0.19876060280576222 0.20404361884204913 0.38379993854676564 3.610013372958766e-05
0.23022039003571865 0.203260469443311 0.3838449744959733 2.3352891167004655e-05
0.17580915353629162 0.20859105460931238 0.3835384320842621 4.8516462278414944e-05
0.36088688000538793 0.37195378492213294 0.4626422236619274 0.00043621430323091936
0.32951808916611214 0.3725299736082028 0.46406623858274204 0.000822543396849658
0.35237620766822597 0.36933514162107567 0.45581127948383066 0.0008710229667757407
0.3936633673913139 0.3682385756342777 0.4530574159191388 0.04347595740613462
0.31207153317974534 0.37108779371332196 0.46027386375863655 0.0007259761591954275
0.4125564754229422 0.3710208246346708 0.4603385555932725 0.06443006535658792
0.37797781577294953 0.3730147097073355 0.4654421636536043 0.000522660716037604
0.3725942171035787 0.3694294321133773 0.4561045768667077 0.0011134509731562186
0.3666527928547155 0.20692956236179494 0.3836018183074646 3.3137852978944616e-05
0.3141206278261116 0.21153747800692674 0.3833562750186955 6.038357527846487e-05
0.34053839981414136 0.2110483796662801 0.3833765542817731 1.3317594222822033e-05
0.25702612155468907 0.20706045785500993 0.38362484973422695 3.584366892968305e-05
0.3307962541210668 0.20384954440107453 0.3837856377395504 1.7195021259481846e-05
0.2919809996474658 0.20981354928551754 0.3834597357738309 3.249543988241903e-05
0.06429900633794575 0.2122196359327393 0.3833092102438308 6.306857433834484e-05
0.00788364113899123 0.22516572352163403 0.38272056118957193 0.07600763878220028
0.03352988722480317 0.2096338629384312 0.38344454595392674 0.02257501935385468
0.020200977713130678 0.22498749160824255 0.38272378884062475 0.048342551731863685
0.09357095056461943 0.21488265245608112 0.3831708527180506 6.009026247796975e-05
0.045455800735232234 0.2170270216367646 0.383089732080362 7.083713016303081e-05
0.006434756620255117 0.21162576930506166 0.3833617565580332 0.05590574095953087
0.31817115942593727 0.22779066892616817 0.3826452590683518 0.00010022311595805077
0.3318510747746256 0.2310414374411492 0.3825226236394573 0.0001476050485360178
0.2820297860027218 0.22980270736280065 0.38258908596115665 0.0001424072541318694
0.22207198656896476 0.23688667885570452 0.3823615490873512 0.0001953609427307251
0.3424415004629791 0.22287128607460538 0.3828109510469938 6.092711987515243e-05
0.3062500376565691 0.22264273899057627 0.38283515575330507 8.314634324729465e-05
0.34423372151867243 0.3788010521850326 0.483184657289031 0.00021288196962044952
0.25447331551471797 0.3821129767545112 0.49480837988929993 0.00014537743591938317
0.2826485597632007 0.3784718009125605 0.48218727395590877 0.0002433459371290666
0.3204389147040322 0.3792703087126642 0.48485643673821377 0.0001665727567795612
0.26654493228375553 0.37837561385846846 0.4818916646620243 0.00024147457517699998
0.35896389458451267 0.40036028285264413 0.573418932450311 5.358902671185777e-05
0.21890396535980933 0.4002963831133705 0.5732980199673134 8.585493020615267e-05
0.39848660156135635 0.40029388281734 0.5730940112087639 0.057930383743239375
0.38298109859936313 0.4011896513523113 0.576919918135304 0.006300461511299498
0.3113282319296147 0.40075168485220414 0.5751346442393965 6.752055361113358e-05
0.4193203961170074 0.3983778484110392 0.5649237376445115 0.09250056683678554
0.41610914088803674 0.40173492770345876 0.5792030056677131 0.09644506688926474
0.18419354546934522 0.2681319635334783 0.3831231158358322 0.0011933531287293365
0.1754115684630445 0.25838222712405007 0.3825159533307549 0.000689046180402829
0.2330569433695338 0.26742411746249073 0.3830790369062831 0.0007368939823542416
0.20359188685538243 0.2586715011385867 0.38253396893760405 0.0006902172846524251
0.2138929729391478 0.2714513718353144 0.38332983228206086 0.0009329745642311691
0.15707866724230393 0.1860173936379748 0.38496246497024367 7.394207242814198e-06
0.08129123423533591 0.18498066161372545 0.38502626220984215 4.649654024698438e-06
0.13561801337310453 0.17997476578560986 0.3853857712522323 5.344243870124753e-06
0.09594188431451009 0.18120604979387872 0.3852941218840218 4.193512005934705e-06
0.12549022284724595 0.18902854824538692 0.38474634601154056 9.999038960767516e-06
0.021094200295718627 0.1857332563326456 0.3849658420188672 0.05061635632995088
0.20851864865519187 0.28521904520575436 0.3850595884051113 0.0014644212602481666
0.2387167888560502 0.2863150663955156 0.3852183835184656 0.001408647365731882
0.19718449306772534 0.28650681546597057 0.385246166623321 0.0012773238146049487
0.16866736172815722 0.285061896456014 0.38503682160683683 0.0012063469730761727
0.2244735894131348 0.2822966015467878 0.38463617140013057 0.0015761584908633114
0.20571036749484525 0.2967866449464377 0.3873598952506495 0.002614392388512688
0.21888770666187662 0.29567396234324106 0.3870722835846966 0.0027607673463855616
0.24772448766535876 0.2974521863914035 0.38753192410582116 0.0038435389455556083
0.1775836171444858 0.29548974099596353 0.38702466825482434 0.0027025695177366853
0.2584595503170573 0.29257500251028784 0.3862712490164054 0.001509854577029582
0.14986730678666618 0.29130107200409516 0.3859419660428416 0.00152236848100095
0.2797461115826999 0.29162018668719547 0.38602444281793713 0.0015906415678407732
0.2307143065584979 0.29597914313763474 0.3871511671118465 0.0020240439752792876
0.2904299127327957 0.3007017718862395 0.38829894509536556 0.0022023586017881113
0.30463002121861116 0.30265186836410335 0.3887666430963758 0.00229116041010946
0.33985437286368214 0.2951965052931619 0.3868455673895703 0.002052328689647041
0.3888706305739368 0.420263757650957 0.637669017859261 0.05960132299502051
0.28809271687826904 0.42161151556216303 0.6413126646143059 0.0002851565173430643
0.3728676611147149 0.42186771016606006 0.6417065005682258 0.033829111934771554
0.34922479464551376 0.41994893886221174 0.6369995569716229 0.00021310339621416588
0.3613796389864399 0.422560593483147 0.6434637844098445 0.00673942356686731
0.26440459598935717 0.420360459750557 0.6382674784141036 0.00023811622920812163
0.3214608741780002 0.42335326891987685 0.645551136206726 0.00017064125857649712
0.3058752686082098 0.4222564886514625 0.6428665755863756 0.0002852144062674894
0.33436209228982666 0.4179903888524944 0.6321683818249685 0.00026594468557373987
0.40064051180756977 0.41895624816259885 0.6343814105807144 0.06013736238487768
0.276923124948777 0.4204849818179559 0.6385413665455762 0.00022046393897497867
0.1922030128230668 0.41261865180007284 0.6169918220690089 0.00021132709801572358
0.36756468200023307 0.416386403862952 0.6279961592834172 0.000323750605011342
0.2944465785189127 0.4176368623039805 0.6312725920876507 0.00029086028293546064
0.2444353023666494 0.41439844395995606 0.6221024298374194 0.0003105774152881259
0.22039234458369342 0.4181801681594048 0.6325751639139805 0.0001980097958909826
0.2736393546899749 0.4160616787447944 0.6268222448179153 0.00029798469960940264
0.25071402884619576 0.4181440177711592 0.6325611534896618 0.00020559619892890327
0.31132200203609983 0.4154345857844389 0.6251820481649114 0.00018997514014144426
0.22455732319295718 0.41376130691357704 0.6202695389102396 0.00022371305068682873
0.2337292917040573 0.416811565823838 0.6287983559069903 0.0002631182007301348
0.3446202188260347 0.41498155278516863 0.6240144972930982 0.0002497202126632945
0.3768183618888519 0.16208979613287922 0.38668581674403574 7.711993010915722e-07
0.28978722931008893 0.16948831552280352 0.38614014104842165 3.6906532610149625e-07
0.3118129107479766 0.16377720117063868 0.38656071351380783 7.475365339521032e-07
0.2553731574173801 0.1548257758489524 0.387218598236626 1.1714488973668709e-06
0.26935121879848617 0.16634927481751188 0.3863708354884289 3.876357847899393e-07
0.33574273079432604 0.16444951137519867 0.3865115851669235 8.063799648385993e-07
0.36272018611041523 0.44247223210926717 0.6856322836024463 0.04315890500597024
0.3453191816656826 0.44041288272308504 0.6817435499981602 0.04541473587454267
0.33064754181923 0.4420883877085181 0.6849461725428682 0.01729963049285707
0.2763415855657851 0.4396531655238666 0.6803929605762875 0.00015947266135625483
0.3169203210723547 0.44219720808040963 0.6851713302655628 0.003171726684643116
0.28764694827862164 0.4389265748107043 0.678997490284035 0.00013471530089107525
0.35277636755113567 0.4455482471114813 0.6914890755642576 0.056673620791019425
0.3043665083309933 0.44306322207444826 0.6868333364435437 0.0001519296100969567
0.30595259945788467 0.4375996140683486 0.6764194775130487 0.00027459732125929446
0.2635221324979879 0.4300108314154103 0.6606532840408732 0.00024774300079020105
0.26081294965585455 0.43845531997797305 0.6781126933382189 0.00018053833455819728
0.24299347579999486 0.43614679179746113 0.6733082539578247 0.00021559273772639456
0.2207329972674506 0.43746168063603585 0.6759898597323867 0.0002481891305561957
0.36666811703375607 0.4360751589232079 0.6733696100832871 0.040501823799888315
0.273748438122835 0.4330330220108335 0.6669207820742549 0.00026039496836368557
0.30088690961108044 0.43199457417723564 0.664819145478145 0.00016012359999345853
0.24314347945108128 0.4308105079569345 0.6622725699416914 0.0002256877461841551
0.26481160597757136 0.4604743183148349 0.7166617855088402 0.005618142587625391
0.25242431638617374 0.4636305938038006 0.7214003966721754 0.007290931689081286
0.18201896296124748 0.4585678424901947 0.7137997104122352 0.0005647364175719589
0.3015495141161997 0.4662643882443317 0.7253544765395893 0.0281301362667282
0.21954899725939953 0.45984565179161224 0.7157180417382566 0.0007676060070121517
0.2400044386877936 0.4592728613639565 0.7148580591152622 0.000854356309139474
0.28014843209004425 0.4618170377097366 0.7186776106662114 0.011327971567192218
0.28389969209421917 0.27810288311545917 0.3839604023939058 0.000902108497141316
0.3147350960767744 0.2828693818338868 0.384641874865142 0.0020263786242902333
0.3808612684023251 0.2822236409065467 0.38446568723687835 0.0018275931469921465
0.26907589935747395 0.2832582496376385 0.3847549396228853 0.0018594047369711443
0.292139835168117 0.289050597895595 0.38560026630687716 0.001437617149221617
0.2520993927232138 0.47963868449379904 0.7414044851250393 0.03885201973103572
0.18386161654662908 0.47832540777472987 0.7401310184802281 0.05419220033490986
0.20256083031894057 0.4799505368079719 0.7417070211319078 0.060531134341378905
0.2280875716649413 0.47927707992959556 0.7410538529646785 0.04763618412452842
0.21591753070995226 0.47640855184976394 0.7382719948150669 0.03808897170713108
0.3569073173395646 0.13615883243046709 0.3885295184384757 1.1639087224041332e-05
0.21640873779579098 0.15030389113750864 0.3875455027079389 4.452588778396798e-06
0.30319258064063087 0.14215501544708276 0.38811328373159504 5.611025748043258e-06
0.3409995942269619 0.13409426689706974 0.3886675585610464 1.1234455189034858e-05
0.24095032073449069 0.14581235794289082 0.38785488327608464 4.469943042562257e-06
0.3350357359095772 0.1438935008357589 0.38799987451587176 3.184866248382706e-06
0.27080580144568 0.1361715125969696 0.38851545345148086 6.190210222662908e-06
0.2496758627156263 0.1369996506571441 0.388457532533107 5.19685899042573e-06
0.19909644713906494 0.13060128190478154 0.3888963394302684 1.860771938072738e-05
0.21886097664381227 0.13452528418725357 0.38862722760378104 9.766427696543374e-06
0.22931112941411344 0.14410411515238813 0.3879703035682498 4.8158106755289835e-06
0.15873467543345984 0.13243577668561599 0.38877052979149934 1.1556763631185005e-05
0.197186220462427 0.149392840291519 0.3876086191115915 2.2272285445511053e-06
0.14985157107009417 0.14464322109970534 0.38793928973928454 6.675377106643369e-06
0.10961024183283533 0.13730239896324567 0.38844550970610775 9.880019915061606e-06
0.12323537102737253 0.14096977117023726 0.388193564145516 8.68503496989317e-06
0.08078208090813811 0.14306414720257418 0.38805708577373604 4.690076268006378e-06
0.13564769263092497 0.1459583912319125 0.3878517521062026 5.550034194444343e-06
0.0985506284402077 0.13979941539570792 0.3882769638901704 1.0590485469732235e-05
0.1722513003446479 0.1423407739607119 0.3880929040172986 1.9565152276448344e-06
0.06479659122282967 0.14345382102231877 0.3880328848189432 6.687222485240031e-06
0.14218888218792033 0.135798560430245 0.3885431973090059 9.727414460883364e-06
0.24346655427854866 0.46786925238399246 0.7275937600101373 0.011270347891993363
0.20088161137547894 0.47079281150556973 0.7312850438452666 0.018875615810972513
0.2811050733719979 0.47467215517964273 0.7361828148477515 0.024382164966278683
0.2630115318891247 0.46882707613173985 0.7288030376353277 0.022725732569306413
0.2907911696129134 0.4693867555487693 0.7295096133989601 0.027366586742265823
0.24062372441034852 0.12484740447785962 0.3892453941305192 1.508989189527657e-05
0.18577807232443605 0.12289681156086464 0.3893537036011033 1.4069193147438244e-05
0.2033527214526056 0.1188045668308729 0.3895809224577018 3.0721838300421036e-05
0.16957501219675458 0.12649299244603923 0.38915402837288254 1.0619862644496513e-05
0.2239767929120563 0.11133856359559713 0.38999546752354824 2.7981706473652882e-05
0.255493451873906 0.12515061348262912 0.3892285575895733 2.1789027269728458e-05
0.267186473466935 0.12481102175100944 0.3892474124818173 2.275646119155233e-05
0.14739956646813407 0.45224241351371597 0.7028544496858893 0.000388391822336612
0.15532678602690925 0.4572428839634317 0.7117471216822279 0.0003971666344160118
0.20929323033762118 0.4566856623831846 0.710756361181798 0.0007954178447757455
0.21847876825454896 0.45240618449167136 0.7031459321861033 0.00022710512381908456
0.1727101645110982 0.45057812358507804 0.6998948250404624 0.00028655535143872905
0.23848112563815194 0.45102100383123656 0.7006826469804779 0.00014815429018052905
0.19951827271499148 0.447414630755464 0.6942690803176059 0.00013995645086046856
0.1095563271757034 0.4546637362791653 0.7071603105306663 0.019177709157131666
0.2636174714996693 0.45109727637281366 0.7008183714787547 0.00024304805849282112
0.2131187340849923 0.44452941505786303 0.6891381686944461 0.00021417819501653524
0.13135446609107831 0.4545498614517296 0.7069578730211613 0.011376672401952462
0.3002551071580476 0.4564951362602379 0.7104178419704543 0.01810139747004324
0.2515265507995141 0.45602448253954386 0.7095806859194009 0.0008390405208658473
0.2531029834151201 0.4472550689120393 0.6939855014037911 0.00016456142316543802
0.1962903455514789 0.45606511121514853 0.709652753095793 0.000643979568880387
0.22826679289580465 0.4552452203493337 0.7081947978117888 0.0005222015743570843
0.188459707737065 0.44603067064906815 0.6918078614954111 0.00016335397258006366
0.3136506360788628 0.45636907540803795 0.7101937051114913 0.018545957714437674
0.2765966077901611 0.4550969109643441 0.7079312122105728 0.0003311212119600307
0.05147288140667803 0.30039254837320384 0.3881044541492849 0.0038220701227999004
0.16504961952776578 0.3026309148498718 0.38883143554742483 0.004045625128297445
0.07221025416502262 0.2957822968427388 0.3869712816392154 0.0014963284088312472
0.09758665765423588 0.29794970849886493 0.38755424586914256 0.001933339905038673
0.11054247088553407 0.29936942144835915 0.38793086040073343 0.0031157777530799718
0.20262233597679888 0.4053891980820764 0.5934503126586935 0.00020944175644024417
0.1820375826967 0.4100987111972207 0.6094605905557521 0.0003228471962496344
0.2543523441627278 0.4081373912527212 0.6028914257926865 0.00026377310250696925
0.33536618340028956 0.40716058350094353 0.5996892550553687 0.0001850790033937393
0.19306517908157547 0.40775264229780894 0.6014861801830983 0.0002143952873863628
0.22654993949639468 0.4077817897838306 0.6016371895528806 0.00016022682330740632
0.2744718721347394 0.40607860732777756 0.595909642235521 0.00018471063697969903
0.16734180774841279 0.4081745239499696 0.6028835061930203 0.00022348924565867648
0.32029676712615585 0.407125478549118 0.5995463988770742 0.000157510863932337
0.23997044818249874 0.40592905078078284 0.595346911490594 0.00022432888569997385
0.28549687242891886 0.4086814332374597 0.6047927119667998 0.0003267228874367088
0.23109147247606382 0.19202741681146962 0.3845430164873325 1.4835814482629591e-05
0.3525997499242512 0.1829245491319212 0.3851700421265507 8.773862492844393e-06
0.25776985863643187 0.1930692215314322 0.3844660861927157 1.2021669778736302e-05
0.36484237265449837 0.18674727127816917 0.3848986671650624 9.001823207574662e-06
0.33968913141632473 0.181233700506947 0.3852910299903526 3.2371232080548354e-06
0.2922332623252649 0.18347579192652713 0.38513882193097526 5.578287986329785e-06
0.2645595535817689 0.1813274305941292 0.38529398209939075 2.6131788984566805e-06
0.30879354424943245 0.17750809311204507 0.3855579258476737 3.0801012892267823e-06
0.32028156175168737 0.18477678026768116 0.3850434234462131 3.293611870488476e-06
0.32612390859042645 0.4559419547983321 0.7094568079803628 0.04422148458683681
0.30507579600503837 0.451024740430587 0.7008126171756771 0.01152784521373019
0.29232687864233586 0.44484694884687426 0.690059346294389 0.00015414987884992943
0.28218628173800775 0.4491304691887875 0.6973671675983433 0.0002580357290488939
0.32284702791023223 0.45045125736772784 0.6999624106494291 0.02141844343382229
0.2347390090970168 0.44094925949988745 0.6828880061651619 0.00016184764917972163
0.3378182576343649 0.44673767055681035 0.6936751725475654 0.043513433282609947
0.15604888025117314 0.3573368647647318 0.43121645640610734 0.0023780029715144
0.11998668612294497 0.361506517995026 0.43861423346515305 0.002316217294565451
0.08157240270218533 0.3578060272093687 0.431826340602431 0.0021817221712889397
0.09719106433134278 0.35747425509256947 0.4312779958846138 0.0032135263481050287
0.1432900084756531 0.35950666280029475 0.43508508140136526 0.0026009368725088294
0.028473452345628703 0.3598259489700412 0.43529749819322655 0.041416993029523654
0.06491698014546413 0.36773648659921293 0.45183138469579126 0.0009541492527443557
0.1508701979909598 0.365899516351441 0.44787847877433457 0.0007207103351012461
0.11603405757636172 0.36670026764661234 0.44960931127147485 0.0010366084586540037
0.13534216034186125 0.36778862986588 0.45215752238250134 0.0008299880082016405
0.09743190600601277 0.3681276877534531 0.4528224022482663 0.001132285423354368
0.20330953267690635 0.36772999358236697 0.4521620230691148 0.0019352637627525246
0.23165803007634178 0.36524783698713115 0.446413899823224 0.0013547797855230955
0.21642245055654297 0.369057334005898 0.45523587225886625 0.0008707107328617455
0.2866321918463278 0.3633350415438324 0.44198431822602724 0.0015626609347875685
0.18771492129964368 0.3665102527710572 0.4493373496294063 0.0012464778540016862
0.03643331626649656 0.37662546903255567 0.47629379819774814 0.003966711007512885
0.055158923180573624 0.3768139561275353 0.4768307816553885 0.0005125836707222589
0.025553300015876086 0.37876129343458703 0.48313584971681567 0.05186461966489997
0.10392501850106474 0.37752559776254596 0.4789326466046637 0.00037291512677953373
0.005390595456673383 0.37442898282418213 0.4694007871803204 0.0891931748834211
0.019270109389536737 0.3753488560903634 0.47228454846208306 0.08477799758990934
0.34022175515897846 0.4249760778691905 0.6494047644853308 0.00018370523662718894
0.2601388635539069 0.42492452390614627 0.6491300487937175 0.0002482463795078348
0.2471622109736283 0.42611123785067057 0.6518885849280762 0.00018338288986105434
0.22991986265934564 0.4226181826267873 0.6436624532864346 0.0002599708687192397
0.032053225861784065 0.38496577374464963 0.5057270296571674 0.016567970018767725
0.11100205218909698 0.38624714649298475 0.5110287549300554 8.785685654415337e-05
0.14799997837753914 0.3860333435711168 0.5102291070247709 7.31397816606412e-05
0.08677761163804455 0.38610183630652556 0.5104016651252221 6.42733460726682e-05
0.04648635000937576 0.3854183527750647 0.5075768100756863 8.814145098479292e-05
0.1349899517448729 0.38459615837617445 0.504410634535756 9.430898820913896e-05
0.18381740572055522 0.38330680866576555 0.4992931381822593 6.408336565120607e-05
0.17469166150246102 0.38511427460143327 0.5065675336104363 9.097684632719961e-05
0.06328873688112391 0.38633216235874673 0.5112908328167077 6.992673425348308e-05
0.07530950731948279 0.3862334589395592 0.510913101664534 5.722509245987793e-05
0.01671182924182142 0.38736481353660446 0.5157343057188934 0.08648947725315906
0.09898147147056623 0.38819756883506623 0.5191242653522746 4.157178985480611e-05
0.0028769368254097996 0.3882840846716811 0.5196489225374795 0.09365159696744134
0.030064093692665647 0.388729985759092 0.5214918788512808 0.01907109787053969
0.1415781505042807 0.39462740004404223 0.5479420857719133 4.348054958574476e-06
0.12370649155610583 0.39464320966089744 0.5480134267534313 2.401171488534345e-06
0.1642666182908882 0.39275069806611346 0.5393427449137814 5.438485531534099e-06
0.21655037018668566 0.4107083960880076 0.6113978050088056 0.00033181026223261115
0.4094870217413419 0.40849203738572487 0.6039506982897545 0.07840194355818929
0.3609212826437243 0.4082913571575505 0.6034895336023326 0.0001931448423878894
0.4006501762347092 0.4149706610075769 0.6239275459763497 0.05939522933077381
0.38202879384321586 0.41157128362233786 0.6135206270742287 0.016521466040010993
0.2572363316548473 0.4118830464344356 0.6148833530916918 0.0002690453356950098
0.2338963364454422 0.4114814001732845 0.6137219759725051 0.00024658368957775756
0.3807219964741584 0.41511281692170626 0.624429577908403 0.017458168166837495
0.3181117114955946 0.4115620240346367 0.6136984132139165 0.0002012319756454402
0.35402614608366334 0.41115241258038926 0.6123212622148893 0.0002176553256338314
0.3292143920405607 0.41367620474206535 0.620172350993272 0.0001943111343772507
0.3967966891501189 0.4100705779829129 0.6088521407204901 0.05485549324878338
0.2936577805588017 0.41345813794219655 0.6196156633571264 0.0002022266693516786
0.27668150914200806 0.4107309516975469 0.6112731780672733 0.000185077974868733
0.3668404002573369 0.41258614242876634 0.6166944999284738 0.0001970208350280227
0.30125759908580274 0.40955663843520995 0.6075780295774601 0.00028254332136336984
0.08733938298416694 0.4083418498189073 0.6036432429585565 0.00028540647577296365
0.0462051939657104 0.40697239600172996 0.5990753379262368 0.00017895702620079117
0.13937818362050913 0.4098097727716862 0.6085175168269908 0.00023956276033695604
0.1449763946993482 0.40568692519135885 0.5944058266593546 0.0001510530993729142
0.11773799991593005 0.4096227191799789 0.6079381054591696 0.0002575606109656546
0.07207671953033153 0.40774465580891384 0.6016438288483245 0.00019116136419607642
0.06875017302723098 0.4119148909329824 0.6147899104323038 0.0002699315431904944
0.09887371407696591 0.41010869785085435 0.6093842227972768 0.00020540635458480137
0.012493893101639371 0.4074499668306543 0.6007943860014754 0.0708628144824505
0.016753022893714425 0.41094027471773836 0.6115427182684416 0.08548746309244531
0.03674495582335567 0.41306755336067646 0.6181778168190915 0.023613278268863197
0.12742265967553001 0.41181094052743505 0.6147543528521993 0.00029973318366293506
0.15320463042588303 0.41117040468412314 0.612910388553953 0.0002883328531580749
0.08086950528160261 0.4112521712626211 0.6128116430374053 0.00021269520508425787
0.05676838392667486 0.4101937293670133 0.6094418074500808 0.00028481311551137865
0.13687492234618998 0.012902511029935998 0.3780252128294789 0.02607228067212039
0.09995037966561383 0.01405283601461896 0.3794551789505113 0.03136760466760505
0.1625694645305613 0.007866861271811514 0.3731948710352475 0.02588223212721929
0.172801767115701 0.013721983170445299 0.37838953918225304 0.028965633693293715
0.023645946411291942 0.01223164040491214 0.37860828300557126 0.05206490711462448
0.19392633269661233 0.008717997938162657 0.37363592501928933 0.027943150190000824
0.18587736330192314 0.019003259308656213 0.3830346491293537 0.02233138270738086
0.1540944690630856 0.017957454278218342 0.38242178770723756 0.026165192360268527
0.041299360661527985 0.3446720212009139 0.4140877577591914 0.0036080124825204154
0.056227328436072074 0.34283448484191764 0.4120460675143739 0.005567215928131429
0.009417595480140517 0.3411686572555737 0.4104140864805449 0.11759069219928517
0.023345966920873894 0.3488110321917887 0.4186297647226762 0.05002893988544978
0.24184573855144337 0.006421653604779665 0.37190567850400985 0.030420157040192044
0.36579929727141935 0.013884823775433491 0.3797974451121823 0.03162147070982316
0.3201533360183979 0.011810666344373267 0.37749202822122185 0.028995812730283576
0.38023729622644775 0.01334640019804428 0.37946227206500566 0.01810977324618179
0.2062815203843929 0.010387717088508792 0.3750835638732628 0.03370991287386435
0.26965523906574007 0.009804159894750475 0.37519829651545245 0.031003269694239922
0.2878227329283489 0.012846293182088084 0.37809104352622913 0.01964058035450555
0.4002804430100956 0.013009057595342804 0.37936241772360213 0.06158683863391579
0.22554086820453229 0.007446978663791846 0.37265602233716866 0.029000851310170966
0.3497388962571132 0.011664025687923777 0.37765767833269054 0.03433957179854608
0.2572264592675255 0.01012901326040755 0.3753632848243288 0.02253980248399444
0.22430526882695095 0.018235524267106226 0.3822571165778891 0.023487476257215086
0.2481953596434481 0.01856156921104616 0.3827869240453594 0.02444326384407278
0.08607130085478527 0.04598949288594082 0.39003242463692356 0.003369666903597796
0.1390310992636245 0.043756890117287894 0.38969442261187 0.0031914108070627443
0.1254672134042776 0.054539715291373456 0.39081276864299885 0.0017175360626485265
0.12594053641368927 0.03977378835132393 0.38931973264196634 0.004468576479066042
0.07391166917329245 0.04620057098496003 0.39007956201835703 0.0017329894766033903
0.17329383153262726 0.05177690701496407 0.3904320869047361 0.003662724979897163
0.10831277180264844 0.049877783342756436 0.3903781114986205 0.0031054257794292405
0.15817419046156583 0.4699265007821565 0.7301913309810539 0.023332938085718197
0.13621677597068205 0.47219021906814446 0.7330492070240038 0.036656416103456387
0.11834639209156322 0.46924652959808905 0.7293327930738638 0.02944368818561616
0.2394565924320427 0.4758712599296816 0.7376966937992486 0.04246257178238221
0.16661640703711186 0.47587729053900496 0.737704158634117 0.03960620596852747
0.05187340569565855 0.31174206033062984 0.39180009105104 0.005278955376777125
0.189589898594201 0.30643669005669133 0.3898663320195327 0.004103660929840156
0.12070830978387524 0.3052739240717047 0.38957549666924873 0.003344573705763918
0.08674598224857422 0.3059574598757431 0.38984641146872334 0.004572866913974432
0.02159526349246567 0.30553424420059677 0.389794357290685 0.10344657066082394
0.14361196888651795 0.3054031470699271 0.3895873490557297 0.00381811393118201
0.0659144924947014 0.30498654276249454 0.3895543167887011 0.0037044093274532816
0.03937961965637787 0.30951348765681175 0.3910822235473133 0.003781664850936031
0.24559392691386495 0.04124756361091352 0.38943595535262765 0.00784794237540483
0.2098977590679424 0.03933480544072829 0.38925826178960826 0.007489037746069608
0.22721900492496264 0.05198795846187357 0.3904338588742566 0.0022139094014230684
0.2151259981402765 0.04937647947726509 0.3901912329507238 0.0020542032229390298
0.19926501477943387 0.04612908988076777 0.3898895266666293 0.0046835949013972755
0.16739985794734427 0.46102530119821733 0.7174891749716815 0.0035345611092534473
0.14470998529175216 0.46472328808311303 0.7230406762762955 0.010972582726764893
0.22448882623542685 0.46680945744946645 0.7261726572667967 0.00796016016426622
0.13185524550003988 0.4619386189087601 0.7188602110358732 0.016891563900851607
0.20821902364904132 0.46366537764945664 0.7214526259755334 0.0020859543085572207
0.10852800361069248 0.463182039492672 0.7207268321301599 0.031191743001773884
0.1202900171409096 0.4591313688388116 0.7146458490399553 0.020672823754277696
0.18176361073388006 0.46555543891281603 0.7242900002404689 0.0013902395553067784
0.19431254849578383 0.4635398174163295 0.7212641041420551 0.0021480849523071474
0.13100443216838034 0.0257357189499887 0.38569381383976464 0.016401998623307375
0.1435553256901972 0.0280977121989979 0.3863053153027036 0.018917386619228503
0.16646974839861628 0.02658712289814699 0.38579637519693705 0.02172792564196184
0.11261437770258462 0.036027302161210015 0.38863658394097916 0.010799517206875265
0.01092783297537481 0.07325332087636412 0.39122138517991967 0.07825873533741141
0.09665220704544764 0.08023736914328047 0.3911377501125752 0.00019207429433940116
0.0615844238867596 0.08434224963798283 0.39103394086394216 0.00010918635311632803
0.03149679361610078 0.08373352107790981 0.3910267660543631 0.011164277022405203
0.005595635613574424 0.08811652712060235 0.3909233055370016 0.08878415650035269
0.04257595046723858 0.07634328676436697 0.39118036645141185 0.000316345125049502
0.08247562747680524 0.08044416032950207 0.3911245834917974 0.00020731875652879817
0.2468861200150924 0.40308797704488275 0.5845580110941282 0.00020508909863876682
0.1688470526230635 0.40391720871695797 0.5877882453561286 0.00016545021553976565
0.18282872140118941 0.4044718038447269 0.5900355144266586 0.000105587165680122
0.23501969648624205 0.40180260198502316 0.5793765178956132 0.00011242489914468254
0.3479736835877774 0.40284401359725314 0.5837102231519828 0.0001288585222387448
0.3005785250788077 0.40273061791981873 0.583192269804343 0.00013760420776187375
0.2675285332982107 0.4017955335405174 0.5793907849353788 0.00011374427664233331
0.16081108898963037 0.40134563323025946 0.5775473738172798 0.00012331733672396358
0.14707919765047153 0.4023892565513124 0.5817243208665221 0.00012617502314307848
0.12340257715881371 0.4037534219261599 0.5871940054465576 0.00015349655667720253
0.0724054504732744 0.4024366157410503 0.5820407847450573 0.00012797799177939023
0.17697133760740733 0.40077111200308335 0.5752331972083787 7.389523734437885e-05
0.18102473614020728 0.422290738785045 0.642935505780426 0.00030436384566529613
0.11201351867706988 0.42343124861636483 0.6457256470334956 0.00023482053537636602
0.05855539888772719 0.4248805501125321 0.6492224280921484 0.00984548170411748
0.09786546306733188 0.425849090546236 0.6514523377019871 0.00019529698872757938
0.13348507920558342 0.4249862401080727 0.649365103002024 0.0001901130296612481
0.18562519966159052 0.42765854940896497 0.6555979230505586 0.0001624834877465196
0.23396460705942432 0.42700509665395503 0.6539867783148126 0.0002475604392492053
0.1956118190337143 0.42240714599486817 0.6431894611282506 0.00021586591104751353
0.21118906974196391 0.4214732055853663 0.6409630012693189 0.00022536838930918113
0.14326089593603641 0.4227016262958073 0.6439590842901822 0.00022627566807856871
0.20523722546639697 0.4262382932046572 0.6522179233787038 0.00024687355950046743
0.16757568411280854 0.4228902871633635 0.6443697093040812 0.00025265798127014385
0.11226823881901742 0.4291423416547936 0.6586889392367943 0.00010577903776803534
0.13686672970522762 0.4307511519538808 0.6621469189508391 0.00010545240702699954
0.2186331981840704 0.42889840407622304 0.6583101492309418 0.00020799646305279265
0.053266980509754126 0.4351264801908793 0.6713523199987456 0.05636461315122739
0.06934103678528268 0.4271261960940542 0.6543394370711366 0.0068330102945901834
0.07055997303083977 0.4349231217063786 0.6709421899233659 0.018774461447198496
0.12332782292246487 0.43178962078014793 0.6643401205856574 0.00019179759335862678
0.15560305868737295 0.42804918153965305 0.6564186754532999 0.0002643768562421752
0.1684693373546097 0.4280425606912384 0.6564215858277496 0.0003321638600327838
0.04724248939449184 0.4283380794057899 0.6568905565682039 0.047678634889654375
0.08219252302962915 0.4279392392251973 0.6560875488235522 0.0002215144794109019
0.12223741748123783 0.4198972594487121 0.6370192669887343 0.0001769403051305133
0.1556966804885321 0.4211751555490797 0.6402948622469395 0.00023318234088198295
0.020085229661467207 0.41914233436034753 0.6348477508853733 0.053171937407062164
0.05369748485439588 0.4174868160187466 0.6308250698121098 0.0047227111925935965
0.10985831373190066 0.41866358768938716 0.6339142051718945 0.00018461634350364672
0.04540244820731144 0.421622706001922 0.6410918944729382 0.045720111597009665
0.040346041308925495 0.4164584933843323 0.6282281527387267 0.03678666835903982
0.06729208406561848 0.42115719054894685 0.6399964523288495 0.0002800385271113953
0.09562883892608531 0.4203028295647106 0.6379520145596509 0.00016790763639660706
0.1936676283070604 0.08143842980330676 0.39113320789305983 0.00025802260051954675
0.2509022737943695 0.07690839355658946 0.39112655469599195 0.0003089374005772315
0.21179503111156436 0.06696169038452668 0.3911119120701279 0.0007127284003815282
0.20583565256424396 0.07951182946681115 0.3911303758081263 0.0002291390386637281
0.23682612904774095 0.08021210503505641 0.39113141252474354 0.00029100891677583265
0.22613575522409693 0.06671830128086459 0.3911115569361265 0.0006752709538692408
0.3312279437730803 0.0923166912167322 0.39081236836542377 9.700409950236613e-05
0.3672399991658353 0.09588178496537945 0.3907118689269975 4.654650559745344e-05
0.3782170391791595 0.09056163446529372 0.39089028285513827 0.0001156161962517412
0.2296792292681732 0.09994981067643241 0.3905186838228268 5.600575076588131e-05
0.27381411752478635 0.09013182119291588 0.3908584278716659 6.746683405007973e-05
0.28771401617979403 0.09679011322669495 0.3906472840206274 7.337089243326932e-05
0.30766590071746636 0.0900553280726706 0.39087579972561504 0.00012208120449893752
0.3162564229317306 0.09907154702040417 0.3905853863719454 6.733455727626312e-05
0.11803944353735044 0.45057428038508385 0.7000106807984382 0.004751893241182467
0.1533252490455305 0.4430606467547438 0.6867781651021183 0.00013855577550980533
0.19545091384759475 0.4409485777009406 0.6828068071177011 0.0001733636517888793
0.0655262790998825 0.44803014637089394 0.6960339318334038 0.052621733117354144
0.10683396241418423 0.44836898782815626 0.69629538898433 0.015705318243371985
0.17019778047875375 0.4448020954290113 0.6896492986039661 0.0001686166100495055
0.09050034814656605 0.45160563985440344 0.702004426324028 0.04380764651413703
0.07835982694736801 0.45000035299318436 0.699331109984024 0.05085019911413593
0.1233700024636241 0.4419971756798703 0.6848185684641549 0.00011811063492528638
0.09023225470593997 0.4440757213906299 0.6887224643795654 0.03146974439336091
0.08612796090862555 0.4376914179330391 0.6765896281464792 0.008080178865950789
0.06440371488920453 0.4428183138260871 0.6862993306352695 0.03903661241453892
0.07742994862626905 0.44428159019808877 0.6890963640514466 0.039678640993286135
0.09851675035063168 0.43790253932167866 0.6770072700033221 0.00017350086798525845
0.2545814165344749 0.06302464467576477 0.3911339438366393 0.0008746785394259473
0.3017058135445705 0.07709262514231623 0.39115203962534423 0.00016947390050455578
0.34633877833848753 0.07029794989959251 0.3912040817763745 0.0003240697036442886
0.325195069564966 0.06871809755242039 0.39118775305733766 0.0007134775677530803
0.2682623288593342 0.06319121817439477 0.39114599367317365 0.0005345572542988631
0.313632813703714 0.07583083295395222 0.39116498559545676 0.00015250108044622798
0.2726104133673474 0.07620031203184097 0.3911273465046355 0.00030585810194086097
0.2839161279414596 0.07184190787224841 0.3911451042658747 0.00038144502715202
0.4120764297653889 0.03562131819196008 0.3882518568813037 0.0741360953993373
0.33294486703521925 0.0389455496093232 0.3891053383183421 0.011068488133036977
0.3984086966964539 0.04381781867440184 0.3897360785219587 0.055751006935376456
0.38322833875983947 0.04238243757334224 0.3895362284564508 0.0083417446476707
0.41994873759932116 0.04476732534638805 0.38982897798928234 0.08039651043392654
0.28976057222528306 0.03889953220871047 0.3892448745124666 0.0075818402157691875
0.34549199107769135 0.03891320823798801 0.3890567793911571 0.004015509159297796
0.07863330133400925 0.4166460846036242 0.6286283454347611 0.00014484290711877051
0.15317572291041068 0.41644661312369236 0.62780968626807 0.00022406402245666085
0.17746146082403677 0.41721272833806805 0.6298849987552964 0.0002545708238422384
0.16430847193934228 0.417056014359827 0.629488650675792 0.0001303133114693379
0.09063389915573918 0.4159500431050506 0.6266256125200339 0.00013561795600056605
0.19395309938281402 0.41673059480330127 0.62846959721184 0.0001872329607281873
0.11423662621859247 0.41325923862282743 0.6189617479947878 0.0002833589780365557
0.1731522192762731 0.41364125015399067 0.6198354787102269 0.00028226352081343176
0.13645752947115228 0.4141307553834784 0.621341186387413 0.00019480559605878131
0.0650961033092582 0.4157782750728064 0.6262294672260347 0.00020326467973399585
0.1026744383591947 0.4135249903862682 0.6197504245188445 0.00025823834368016006
0.2014893626192243 0.49023885713603377 0.7494358444950382 0.08051329565453065
0.10627158124212861 0.404458262336937 0.5899577546160844 0.00011757813261169846
0.05041194590120556 0.40327560948112257 0.5854039020047214 0.00015294651187833385
0.09479877275223442 0.40402679551265963 0.5883159257481754 0.00016198540728157293
0.01464679280315051 0.4026358182931441 0.5829281850160808 0.07688873855179726
0.031944833455653604 0.4066474062254702 0.5979969956736462 0.03273372667671223
0.24565085360708955 0.11455381613353254 0.38981773795301927 2.7220868553645174e-05
0.3029899584667492 0.1158189753928826 0.38976304240209303 3.28836200478992e-05
0.36689266877179083 0.11654160905093586 0.3897409538880671 3.34458847646106e-05
0.31004352632717075 0.12629875987526742 0.3891725060318807 2.17048079031072e-05
0.2830702838397299 0.12555198152197025 0.38920680987512934 1.6425589923596165e-05
0.2956196103317086 0.12615785240300595 0.3891762362448392 1.814074108877269e-05
0.31975545176744197 0.11771304652226572 0.3896608626086557 2.182297296979461e-05
0.3327868022257686 0.11692451596373588 0.3897092809289795 2.5664644250799668e-05
0.39026170766670376 0.34470448607227255 0.4141533419164477 0.02804471046093565
0.3588158201751621 0.34744412274919456 0.416990392204544 0.005302941903717553
0.41955555697101166 0.3449665801858345 0.4145544111768666 0.10090905529983613
0.40516241180459334 0.345684269575252 0.41527291268099487 0.12479546649573015
0.3687951340455291 0.34193963600706656 0.4110766379909324 0.00666267820253197
0.060326112861048616 0.32437167369636 0.39776743314968893 0.005959420941228801
0.06886097207343198 0.31730589664117015 0.3941550317799186 0.003958320325890391
0.012353560406391623 0.3204279445966632 0.3958790666706282 0.10899570082904199
0.08158917712766033 0.3190471682278189 0.3950092982303948 0.004849606047055073
0.07299726818203248 0.39981917959144253 0.5711307980789708 6.347357001234342e-05
0.10181534866269591 0.3995893695771091 0.5701845741984799 6.001457452331428e-05
0.08407225520632829 0.40150340714550176 0.5783048163321558 0.00010876470040112137
0.03991894985184249 0.40061909826513575 0.57449679276826 8.944420882596342e-05
0.11342073857063091 0.40052726380186443 0.5741854188122052 9.830482318173431e-05
0.1293214084952678 0.4010158942710152 0.576280417199747 8.843263219591428e-05
0.03032351961077429 0.3993342362465703 0.56902264948273 0.020691998817588465
0.003775909857557559 0.40103664085307444 0.5762334523453329 0.06742264475111776
0.159651704543251 0.39843832894234044 0.5650943807029285 5.4419272702274535e-05
0.11182717123995932 0.39789839956654943 0.562732461085016 1.5734648914736207e-05
0.14318760659745944 0.3987623429375474 0.5665513448796831 2.2281175569430073e-05
0.053371318111432885 0.39851713210271744 0.565538326858998 4.244852671792567e-05
0.08367009014943655 0.3984363698926326 0.5651522226239685 7.07142001026305e-05
0.12778782775378952 0.39840425455196904 0.5649705927038746 2.733925458695437e-05
0.20619844116986286 0.39634305658087776 0.5557781321521846 1.601349805230583e-05
0.15016707191009684 0.39628193983311194 0.5555069317370999 8.019912299142156e-06
0.2758111008530973 0.3962932507773675 0.5555570995916551 1.6404473915340108e-05
0.24825381361489468 0.39815450555135756 0.5638166143052556 2.3259526933676772e-05
0.1966146061818278 0.3990038932788459 0.5675858700553396 3.815891922769828e-05
0.2353358233989653 0.397863651025755 0.5625259201295734 2.1134814333413325e-05
0.24854670743535323 0.3731498009413097 0.46605445599434675 0.0005432535903396314
0.27230639633143483 0.37251255779123504 0.46412933130088396 0.00037037400128361056
0.34591629455631084 0.3752409064032362 0.47189972076285236 0.00042677072453563004
0.30049102888266355 0.373723506636525 0.46759021424936675 0.00036437734614399735
0.23523544483035444 0.37160916259328114 0.46159062657346334 0.0007465244764160037
0.3949675593707424 0.3740624162536737 0.46832571855937877 0.042262092903181864
0.2826894983637233 0.37402167937835873 0.4685089939672325 0.00040361611271154906
0.1775045149510147 0.37556687726357485 0.47308232062364647 0.0006109358883845257
0.2344212803620066 0.37602499143095125 0.4744074060259088 0.00029456928063988574
0.1621784935370962 0.3771085844398725 0.4775416941305718 0.00031162781050298236
0.2062774322030049 0.37359454432174793 0.4673773653173599 0.00047817733836087365
0.16751968043961257 0.3715793981061624 0.4614583139434422 0.0005305646441012034
0.18488359531040724 0.37132324651040743 0.4607570658388328 0.00033875897402582705
0.11716609267835412 0.3758920504246689 0.4739437108472438 0.0005128430808837229
0.1509388066394079 0.374837404722965 0.4709506530981116 0.0007019506499780755
0.06527565934640644 0.37472115557900504 0.47036995146059285 0.0003827204702729496
0.10112026757052839 0.3725480583367441 0.46410808094997413 0.0006313063855372295
0.19370764900736032 0.3789022949604726 0.4837304666635602 0.00028293220473358567
0.22918304327872135 0.38064401712864504 0.4897844372548921 0.00025656242005271614
0.25330027563440666 0.37865416848029615 0.48286800584432465 0.00029153813046028134
0.20436324375732073 0.3804122948273034 0.4889790075333753 0.0002769734370553209
0.21839035102726662 0.3789291697168363 0.48382387578904756 0.00022615591111222234
0.07753422719108005 0.36271765705311626 0.4409689270404261 0.0023608287552730907
0.10648065579371749 0.3638774772687536 0.4432260504526111 0.0021069797954517736
0.058457515284896316 0.3625845013535297 0.44076931991454665 0.002133198835525746
0.02417882293054154 0.3656803002704543 0.44721552824144756 0.06366348391586592
0.0938495794082435 0.3634586062939176 0.44241911285829033 0.001939720172834589
0.0491627693275235 0.3653185751054141 0.4463830569934429 0.0017620344698586637
0.011155755483097211 0.3601904574077052 0.4360632397448199 0.10609292475760763
0.3289677106379546 0.361850789372924 0.43917180631236763 0.002254261255384863
0.2342214154594609 0.35591623256690175 0.4287553582259746 0.0030929687528429978
0.35115927604755376 0.35909409246346996 0.4341152086326983 0.002911015160598989
0.24573028032039518 0.3572366109295247 0.43110442750044814 0.0033096926175786813
0.29998247781221726 0.3572739328140763 0.43099325764479807 0.00243871899325355
0.3661386746766879 0.3655800459079565 0.44687908578009583 0.0016470512499496938
0.24364161437294124 0.3684791798933922 0.4538701546816957 0.0009678195761086449
0.26552721728529116 0.36693124271722977 0.4502701217946977 0.0014510625803847055
0.33473685549497323 0.36832216738317103 0.4532339609297437 0.0005032689919742283
0.2983945436168326 0.3635653212424497 0.44248690366141913 0.0016123929048814417
0.3102193337807777 0.36553656981077653 0.44695037723396774 0.0014381313806942594
0.28926202777701526 0.3691990883186369 0.45537428175734096 0.0006347981093728706
0.1833150369780045 0.3606683434997574 0.437241853108787 0.001955911217194378
0.16755289893961905 0.3625025572268875 0.4405009580371061 0.0013583541029106284
0.25504159262010545 0.3619005583623761 0.43943123938935086 0.0015686704481901613
0.2749993704786181 0.363197118540281 0.4417349960856837 0.001407545084916445
0.2229463401589752 0.36147602189312317 0.4386769331312542 0.0027086379324974224
0.2093292239597352 0.36302329770077735 0.44142619543604855 0.0009735069207535749
0.08271402301354135 0.3954667320095052 0.5517800618283725 8.040835167187658e-06
0.0356460733261584 0.3964552159733088 0.55625436870328 0.014098964231638261
0.02313195093735403 0.3963372838381466 0.5557112448761633 0.07434454938900713
0.055561557076840885 0.3950699512613633 0.5499604098487976 7.063377138357587e-06
0.06479772312276205 0.39690756340792205 0.5583279254229505 6.690043714675346e-06
0.10520114076009258 0.3956999049366644 0.5528527562822245 1.4806635277227062e-05
0.26703986350018294 0.39456368823923726 0.5476513379111394 4.059152075443979e-06
0.3952656785853289 0.3940538405593865 0.5453062793265824 0.05165727693711576
0.3055196256042868 0.3954667749824521 0.5517878502098343 1.3098901724249444e-05
0.3718977366226544 0.3937241771957084 0.5437968899671931 2.8625402030116238e-06
0.23512439945340727 0.39256840494133116 0.53850866102561 8.826523535362318e-06
0.28245535969894836 0.3940507686585098 0.5452995312113518 4.3838359812464335e-06
0.3867887399397957 0.3979825969035388 0.5631743101264151 0.01102987388012028
0.3137542909581169 0.39754622884318114 0.5611633402220073 2.310162490145132e-05
0.37016073657015935 0.3984446736322285 0.5652180544801476 3.521824517777254e-05
0.2641674785785001 0.39864410783806026 0.5660100162125576 4.916176517152523e-05
0.27859301098835915 0.39886567339807966 0.5670104195373387 5.105318890716705e-05
