x y z curv
0.45938089617473576 0.33456872084998474 0.45187468148058496 0.04658244034291573
0.46180425091858496 0.3539267557130473 0.44962363259629123 0.08024658755244336
0.43884054953517326 0.3489504947548011 0.450203939349678 0.0037294837685743825
0.449582690236094 0.3552631011551329 0.4494682478490247 0.029258759785068835
0.42038464946188825 0.35062938097363233 0.4500091549207452 1.0350606364676363e-06
0.3651626606228898 0.34428304598730275 0.45075037841083937 5.060619063810113e-07
0.39068153889941387 0.346041212965339 0.45054476526299264 1.0483503548791242e-06
0.42584488826466577 0.32148897924436676 0.45336100225885634 5.871828788724526e-07
0.473666312296849 0.31755196205464326 0.4538002136234604 0.05684139265588913
0.4525181642582944 0.3182979985815227 0.45371802369870984 0.01302824800949987
0.4135757398798407 0.322346775567648 0.4532654657838483 7.268444116490524e-07
0.4362712106982123 0.3135567369973341 0.4542532942223863 1.5647294995340521e-06
0.3349770429413704 0.344592502624593 0.4507153146149299 7.649498758093625e-07
0.3178354714756726 0.3457300851355496 0.450583343357603 1.1209954818716991e-06
0.34706824604842784 0.3415693814497507 0.45106731832918295 3.968658933664498e-07
0.2974462418808156 0.345458327998471 0.4506158142993423 1.2440575778476996e-06
0.3238422663781241 0.3204120791569793 0.45348409507395904 9.595475675964795e-07
0.25717854007829904 0.30986375486310225 0.4546571702167448 1.5809458044033233e-06
0.29324227397619695 0.3211547947273952 0.45339718300127535 1.58238497116332e-06
0.27910586142098154 0.3233893571412005 0.4531452233348515 1.156626257811231e-06
0.30755703134863854 0.3169014475455339 0.45387523257684736 1.0942465900520746e-06
0.28317149713328504 0.31258041310693785 0.45435613050272966 1.633893654218714e-06
0.34682089636570707 0.31977694428585596 0.45355802824254327 1.382889501834073e-06
0.27131763672359205 0.3087939282640477 0.454778700448475 1.939099828319978e-06
0.31385175922848 0.3080724299996055 0.4548598280585101 1.9819133150674494e-06
0.29339119422544113 0.3078355205341692 0.4548865782652647 2.4404405884129606e-06
0.2380645739594736 0.3114685907783266 0.45447888335250086 1.4239889703689767e-06
0.24746068949225775 0.3188026940348778 0.4536581464274445 1.3545058170215817e-06
0.18119928595591 0.3105698386587141 0.45458487526003055 1.1330704522474797e-06
0.21981565510632234 0.31953075864962877 0.453579448686909 1.1581449595703182e-06
0.2008222875048638 0.31252640061697196 0.4543642587429926 8.698040076216245e-07
0.16401989389809324 0.30518206542958204 0.4551786776844798 2.1181033302143956e-06
0.22570197293253463 0.3050749424406919 0.4551937243102787 1.9438912465721495e-06
0.15301855661227395 0.3008624153289103 0.45565073831346975 2.1039847838752684e-06
0.17558730571106582 0.29749114133568516 0.4560196852891581 2.4642245145278415e-06
0.19554909894040381 0.29558974167278707 0.4562243032582813 2.8954742203614676e-06
0.2484863560047541 0.29284686296150353 0.45651830522749476 2.2982060269958455e-06
0.2723280227517538 0.2889694249554879 0.45693616200725573 2.0976208839204157e-06
0.2936929212568973 0.2954951744332822 0.4562294184167806 1.960689842789688e-06
0.37194111236149385 0.4298362061671653 0.4402956301352517 8.121371276162061e-07
0.33815985180664193 0.4136190360732629 0.4423569368616705 8.325582990044282e-07
0.34751374993501394 0.420446045712129 0.4414888235150594 8.930186876076336e-07
0.3994652016496051 0.4176634996241696 0.441846732467035 1.1116421494645385e-06
0.4407409135375323 0.4226329694461347 0.4412173457306904 0.04274124303973163
0.4196006439123391 0.4215199303311203 0.44135744166580854 9.49026431663972e-07
0.10332860009525918 0.43881742595398976 0.439136213982142 5.382008181383427e-07
0.0615525821335918 0.4416587980677896 0.4387690937221649 0.06933328636368108
0.15974214488451674 0.44368897656407025 0.43850033460384374 2.715136717957542e-07
0.1336800527971767 0.43828082182331185 0.4392044146534823 4.885998024902718e-07
0.14614341468800618 0.446500775189425 0.4381356379979543 3.27029733687707e-07
0.11840704578300887 0.44150487696311674 0.4387862313559448 6.041895069780678e-07
0.08944643140734579 0.44836677354528187 0.43789376742409913 3.411965077318531e-07
0.08259364223708639 0.45790024750171177 0.43664551104087956 1.091742411906371e-07
0.05183674667331955 0.4536143900750562 0.43720597995190524 0.08245237007409378
0.16490788332262077 0.45360690780938634 0.4372092845022559 9.776904541426522e-08
0.07318071056009827 0.45182298137834886 0.43744094875164746 0.03792413608671142
0.10829099643149473 0.4564664105649276 0.43683375632066657 1.1187729653079742e-07
0.12450398921817764 0.45118936534653914 0.43752495661491075 2.079302656432084e-07
0.05681724731578523 0.4637059907512233 0.4358846285109772 0.07034925430719698
0.1420960898602116 0.46246821423053286 0.43604751818454124 1.0992722341210045e-06
0.1166415171147534 0.467096785591315 0.4354405172771505 0.011457648278607105
0.15443752815583503 0.46176647292615736 0.4361396071336606 7.023143862667369e-07
0.12755910379439978 0.46528410729568404 0.4356782426797745 7.454026059361204e-07
0.10368719388667746 0.46925252848035537 0.4351578005577078 0.03616417440076478
0.20276929133031318 0.4262959256459581 0.44074520288619323 5.849577946445719e-07
0.1589809949447372 0.4221509859354778 0.44127192020183975 1.0372130519310618e-06
0.2303502097289185 0.43069418711394075 0.4401862252374341 7.39974685292998e-07
0.17105776712132165 0.42834586585243717 0.4404845106888421 6.206561570673596e-07
0.18348079390659672 0.42542042097142707 0.44085642048974066 8.643386267703961e-07
0.33636527230697594 0.28449335679099336 0.45740763878867946 5.066715028871999e-06
0.30383932417572074 0.28432969237062733 0.4574227745189988 2.6762846317458184e-06
0.27727830190194347 0.27601094673219534 0.45828220270186404 3.7308160074132564e-06
0.31296639783893315 0.2770633498154185 0.4581784170259319 4.036460712468021e-06
0.25435348573892635 0.28310876789730527 0.4575441225677807 2.52704884734814e-06
0.2965362145737446 0.27049820528886986 0.4588556653669734 4.7885615394350655e-06
0.2649612044124175 0.2757722992688022 0.45830512692613057 4.355744616593832e-06
0.32792219129621236 0.27104734688542825 0.45879964238539483 3.682780433118368e-06
0.27073141059171046 0.26175039095859415 0.45972481117734804 5.393014284649552e-06
0.3170624762957315 0.2636806188734573 0.45953816486563726 6.412046293523041e-06
0.4356365229335878 0.2689897112998251 0.4590077207661802 5.307162187684443e-06
0.3747320221823149 0.26505837962013234 0.45940052054712865 3.220845033688203e-06
0.3997667939198146 0.2701134019495442 0.4588935352555161 4.607683196118182e-06
0.38594334851863904 0.26997204653470397 0.458907241371127 4.299683702899164e-06
0.3561090300237325 0.27306994593390077 0.45859492152256526 2.874039704411557e-06
0.4852151643328485 0.27221559763141606 0.4586815534662065 0.07403357320827886
0.46890171514501694 0.27216860381050956 0.45868632149507055 0.026263380758098392
0.4971874952316284 0.07422546893554798 0.4514207095048405 0.1150641618300074
0.4971874952316284 0.0816815859968093 0.4406971322063965 0.11417643594048266
0.4971874952316284 0.09897576102672825 0.423261414324664 0.18292348351528157
0.49718749523162836 0.09105061217860273 0.43255259775814486 0.15909905038707212
0.4971874952316284 0.09007072332733071 0.46213142058276857 0.07441244787341905
0.4971874952316284 0.10218465049273655 0.4401965129229401 0.10916248560365309
0.4971874952316284 0.10528132512756014 0.4594991222996793 0.07441515408346314
0.4971874952316284 0.11489074672774102 0.4440204236252901 0.07774146922002695
0.4971874952316284 0.12734836912582248 0.42864707328771257 0.15883828805159916
0.4971874952316285 0.12899641635160938 0.4599168150366886 0.08647501339695712
0.4971874952316284 0.11309749945415544 0.4217632139953159 0.2065430329973468
0.4971874952316284 0.1253799924736506 0.44686932658543 0.07362160923247524
0.4971874952316284 0.13917567915565426 0.4244472596692035 0.1882743456346287
0.4971874952316285 0.13984609548675944 0.4528301364019781 0.08441980703290386
0.4971874952316285 0.14252376763973765 0.4637782304230503 0.07901899242864255
0.4971874952316284 0.15405448159325355 0.44992078904168886 0.0927853571418179
0.4971874952316284 0.16706363109974978 0.45608437162298465 0.04787092561416855
0.4971874952316284 0.15067803856297132 0.4318560910227035 0.14587372485963312
0.4971874952316284 0.1803189346603573 0.45301674024063776 0.06523411531644425
0.4971874952316284 0.1687090261359092 0.44054157371470193 0.10056273045207273
0.4971874952316284 0.2035593016163571 0.4576159274189931 0.04781439412669754
0.4971874952316284 0.026061294549224387 0.38344951938753785 0.15082522376389668
0.4971874952316284 0.21895774708051924 0.4604165726170255 0.06720129200504293
0.49718749523162836 0.01074760240673275 0.3819423445405499 0.10197119809478539
0.4971874952316284 0.04057306658473308 0.38684714045912605 0.15933810635375611
0.4971874952316284 0.28632391257454987 0.42611590316325354 0.12885670551424275
0.4971874952316285 0.2598715950554845 0.44574333987751746 0.0792177116098526
0.4971874952316284 0.24537311874907647 0.4557676233776006 0.07968293239672204
0.4971874952316284 0.27043682099795796 0.434228565645978 0.12896137991316423
0.4971874952316284 0.1586276020007732 0.42081122450143393 0.17423432067487904
0.4971874952316284 0.2340792590688193 0.45127682391181395 0.10254886231746387
0.49718749523162836 0.275945217073447 0.4200691746628278 0.16510607587277673
0.4971874952316284 0.18168185993896796 0.4388864901378172 0.12356515500112344
0.4971874952316284 0.16889316340757804 0.4266416361802748 0.16409003279607395
0.49718749523162836 0.2190865410232958 0.4476100292740123 0.09681790055523905
0.4971874952316284 0.2893742682139298 0.4126169164731203 0.16854995890359525
0.4971874952316284 0.19058185665006072 0.4224073545160868 0.19073392864107724
0.4971874952316284 0.2591643969371945 0.4296982183528774 0.08876519618329198
0.4971874952316284 0.24618730273143485 0.4268156837203667 0.12985496348481157
0.4971874952316284 0.22488312900993032 0.42341997886893024 0.13775052922160982
0.4971874952316284 0.24078511557458276 0.4388344139759448 0.07505550466221304
0.4971874952316284 0.2051932455925833 0.42883968613626455 0.13031317427398867
0.4971874952316284 0.25270337777046015 0.4160536594407278 0.16482246139599263
0.4971874952316284 0.2024711807584452 0.4395025611155219 0.07347841317679683
0.4971874952316284 0.22420577582363208 0.4346059721108517 0.10648339091034334
0.49718749523162853 0.02457643632169486 0.3998270888928129 0.1130485895578224
0.49718749523162836 0.25824243101159144 0.45968070782583764 0.07763954223991251
0.4971874952316284 0.04393234669056751 0.40081090646319967 0.12720658508335284
0.4971874952316284 0.285356865666996 0.45376333514955464 0.07812311211302196
0.4971874952316285 0.2938739275854052 0.43747006834017776 0.06863003271565504
0.4971874952316284 0.30104056986780303 0.4256187292363672 0.09916680970576058
0.4971874952316284 0.024144710407157925 0.4240410592703992 0.06561677101486756
0.4971874952316284 0.03756789816311148 0.4156751209491347 0.08428168758781615
0.4971874952316285 0.038282319540371715 0.42884775472616743 0.09331152336028256
0.4971874952316284 0.049056125651424795 0.4174695181116778 0.13746543165900482
0.4971874952316284 0.06866290673394462 0.4141793412384215 0.14667978309460208
0.4971874952316284 0.05081788531946757 0.4348244627735465 0.13218134797261008
0.4971874952316284 0.06636149466076043 0.43013136101098026 0.12311466703325954
0.4971874952316284 0.08299502834771204 0.42356908434407153 0.1629114950862319
0.4745595564859102 0.1374361298754002 0.4684476581637508 0.03269667353653369
0.4906653101565943 0.00912644915486871 0.4024780740998536 0.07084634371946853
0.4956582346799562 0.019569903737727126 0.37248037258087474 0.18859279098516743
0.46935812238533064 0.01591613605926961 0.3747815113767601 0.1437765582870362
0.43704359039430496 0.017254268847534896 0.3740955143418164 0.13460426579343604
0.48233942726859286 0.15045465630080385 0.4681212467040271 0.07051490375218597
0.4727741244134813 0.15591326667467315 0.4678757094429227 0.04046792952801525
0.41250386438257836 0.276183728564197 0.4582747441105173 4.3929794727173516e-06
0.48095346863558375 0.20990245288971546 0.46430338528244675 0.06759592289890279
0.4328591504785668 0.1507109776358677 0.4680971248017102 0.00019011773914896405
0.47234404722221934 0.04726823275024494 0.3886751361584477 0.19918640842588636
0.4598717919712955 0.1840500727704115 0.4661548990934027 0.008763290093753007
0.49084921593000985 0.18027796333704127 0.46640270126106576 0.060806355304288975
0.43896423203908636 0.18219914218469627 0.46627488193693817 1.2364820906843926e-05
0.4089050809351552 0.17638886128872538 0.46665377138005604 9.768756565432189e-06
0.396874651290941 0.17624845717060741 0.46666250831933986 1.3246791053246197e-05
0.3764532705093098 0.18083640192843195 0.46636161288472555 1.5520286705714627e-05
0.4220131783266829 0.17850454986348424 0.46651585510370197 1.1545595961558639e-05
0.2610601237513254 0.186026980497757 0.4660219612445966 8.558097053611363e-06
0.3214149104429273 0.18308564312680306 0.46621412805353346 1.3572593242377504e-05
0.3343125094334322 0.18492287913183048 0.4660940555012945 1.5303861564171737e-05
0.29565667602634177 0.18273910073831168 0.46623679484105063 6.313532754938023e-06
0.3091548215977763 0.1815015166478376 0.46631765953782467 1.6778543183458463e-05
0.3617749051098877 0.18194906415647916 0.46628837080629837 5.91881693312944e-06
0.2734347416366993 0.18603921267530965 0.4660211520583706 1.0529778355998253e-05
0.3507300306075103 0.17730880080338043 0.4665916181140285 2.6275837922620797e-05
0.2774611148428017 0.17208204241154293 0.46692930221053675 3.288001376875137e-05
0.2659957495476191 0.16919889940349625 0.46710654292786363 4.809989368930763e-05
0.3268665176085047 0.171911538939383 0.46693933870355764 2.880633708912764e-05
0.29398119701979786 0.1678334936636999 0.46718635603061237 4.5673387488792946e-05
0.34744440216076516 0.1887162071886627 0.4658361254687773 1.105971827896619e-05
0.31620522025419145 0.1945318513557431 0.4654288012661153 5.687499499304352e-06
0.4487845894298226 0.16252587158146725 0.467512168412493 6.362073308570002e-05
0.466841852968166 0.21417594248051489 0.46396969349766104 0.01313662857461618
0.4274448428071692 0.21299830965663 0.46406283654596936 6.773977535611566e-06
0.48366174571942533 0.19745013400254827 0.465228346952294 0.07535434058696827
0.39665515770815407 0.19916823337316417 0.46510481616451316 8.647235377628613e-06
0.4720207054651009 0.2014882507534169 0.46493520451754317 0.032755640344600635
0.4541540285980721 0.20532461449064257 0.46464716007654205 7.749375992418647e-06
0.408825462501193 0.20350482331831443 0.46478250180341746 6.020694957529651e-06
0.42147226087224376 0.2032686137666923 0.46480099335425046 7.056761682819762e-06
0.44115429755322083 0.2082909825202589 0.4644222117458764 9.208305032977705e-06
0.40996273437989694 0.1625825301891069 0.4675046398281939 7.288581172570806e-05
0.48522852288262697 0.16961845324450173 0.4670844220765318 0.05054983200875346
0.4290308504813162 0.1680595684584097 0.4671752562272438 1.0628401365329358e-05
0.3851917335413886 0.168274890878916 0.46715974633227836 2.907140312488973e-05
0.37491533369863694 0.16239015609909757 0.4675142347910578 4.757067641823042e-05
0.45661718348936053 0.11313209339810143 0.46752169043492303 0.0013753876131592634
0.49713818378692454 0.1140325558331596 0.4676669442263434 0.06084141343223321
0.48704384122886885 0.13123016001636567 0.46845410674186355 0.043244300573522416
0.29691075471879474 0.15302688236809647 0.46797672078078656 0.00011352838937140833
0.3469110838946405 0.15085839096817447 0.4680720041004849 0.00018560021392084893
0.3207206750261138 0.14826173631119396 0.4681835833799375 0.00029927545954752676
0.2736714917133794 0.14591481012172494 0.4682634813178571 0.0003431319021965684
0.2600772467533619 0.15143253726645944 0.46802920250979174 0.00014401808802623082
0.4639366606616677 0.14549908653812674 0.4683023077659347 0.022845172675587205
0.4198266420794553 0.1457509839514759 0.4682994958176858 0.0001848539230117007
0.40223177649469777 0.14609025100628148 0.4682913280806683 0.0002671089872771221
0.451361294966381 0.14450876074985536 0.46833284732827607 0.00021507603777908184
0.4577466687748538 0.17272197960069544 0.46688934957858 2.142994766010019e-05
0.47380994500458656 0.1746982738008402 0.46676405859776204 0.04518087744066691
0.49305328949180044 0.16066050547691546 0.46761906530425723 0.07346082698393373
0.46023020650780894 0.15707571807355836 0.4678184851401931 0.0009208513570381399
0.4210142037378535 0.15937972131401437 0.4676939991934548 5.476113755567252e-05
0.44584146643706885 0.3029244183743558 0.4554291981086182 2.6525076391619606e-06
0.47621914503842433 0.30571858363800813 0.45512238105291136 0.05434195899134455
0.4624239300980717 0.24499685073599925 0.4613298328384239 0.006039031105914055
0.4734469731894999 0.24915406503364512 0.4609424469252454 0.031314939473971654
0.36402959071657726 0.24747951167465732 0.4611003725047567 6.9057500491181395e-06
0.4484119033121981 0.23978317207464062 0.4618008075777002 6.787725700837087e-06
0.35459133108576124 0.24109797176945505 0.4616771881796002 7.678157634181043e-06
0.4110267500943603 0.23797798066692383 0.46196187606136185 8.587637528671831e-06
0.39260216181095464 0.23848882579426312 0.4619147848332852 9.469060305091387e-06
0.4747752638969461 0.23636058193023612 0.4621112547493208 0.04159362530855024
0.3723023852349324 0.23580573236705102 0.4621560215014827 5.863951982770271e-06
0.4645466340724459 0.22751513816945995 0.4628768563825765 0.011281758110791294
0.45193455848821895 0.22368049861746758 0.463199921525923 7.66150111432287e-06
0.4857067792775693 0.2272947385064879 0.46289560585748346 0.05754765070750962
0.4729847127182959 0.260785539110034 0.4598249594694349 0.058056942044945874
0.4089632997113326 0.26284906547818626 0.4596226975809631 5.234924027785532e-06
0.4505436784261383 0.2634431267602163 0.4595633067348247 7.84808827099321e-06
0.42958195416365086 0.2571428062752574 0.46017648855514653 6.955263319571471e-06
0.4654487491525278 0.28470855283280977 0.45738689062290583 0.017704672719216174
0.48271413465994323 0.2855175610181611 0.45730105429734924 0.07360199413193022
0.44943811097494724 0.2835630171552833 0.4575083081459149 1.794373496320415e-06
0.3826364274093208 0.294493611438959 0.4563400078146398 1.8855729025902627e-06
0.3978166655160192 0.29242318843948356 0.4565634472269619 3.649701821406661e-06
0.4179412083128401 0.2930060089748084 0.45650147209998193 2.1419687842084563e-06
0.45005814204580064 0.03220935209418288 0.37157193221955553 0.2174234459431981
0.422309556016248 0.01033336693016779 0.3814197721405932 0.12455080593815405
0.4197834002322458 0.018877022946229848 0.3731890653846055 0.13181542714964414
0.3935880805558679 0.0174071577560057 0.3741718430945821 0.10274791818427667
0.3717611124684179 0.020725611517258907 0.3722729961280628 0.15129959212719882
0.3387109727529548 0.018728744382119213 0.37348166629044327 0.1316279029748773
0.4024638905444634 0.011415570408112904 0.3798726324589936 0.08943528233204699
0.3642480492819624 0.013354731715923288 0.3773938913366731 0.08584918653736615
0.3701884197103012 0.04266246064303596 0.3814867356816376 0.11025451525491207
0.3530531246532128 0.04237116420630292 0.3810037664264241 0.10740005145653408
0.3935634446832506 0.042674600462909947 0.38154706585755166 0.0760795141394516
0.3165351282732464 0.03937197727306764 0.3769707250407587 0.17984469274220502
0.33452799517506493 0.040242043890471965 0.378096715940629 0.12442806540974313
0.42485650419275967 0.06171490742926666 0.4036818677371799 0.007293031855481775
0.4646473154455435 0.062234848989607454 0.4040351932831312 0.100541907035883
0.39397252257338466 0.061788329884526476 0.4037938293552664 0.010014068542516966
0.3815902050700783 0.062305478075646084 0.4042336053167524 0.009348298243668823
0.4582770261879322 0.051295663888873105 0.3934454361502291 0.05418471176596664
0.3697094472307852 0.050355029904033385 0.3924362525399435 0.0062046881566133055
0.4255828281527422 0.049698057080583516 0.3916486831623214 0.012362196101719508
0.4367147063119987 0.05454056560256753 0.39677091247439356 0.004772437935790125
0.29919833987370165 0.0468971666265873 0.38819679979973815 0.02097149966085778
0.3467791750687744 0.04917631164759881 0.3909883023739269 0.01610138475787793
0.2744814523558048 0.05270957193368673 0.3948442362887872 0.00268101437567989
0.35769737610479546 0.0537349938902749 0.39579357024554473 0.004975829179558595
0.3150847397375159 0.058353529071266466 0.4005021329677012 0.006208865639203292
0.3354430546892665 0.05580317019455224 0.3979146254015695 0.0053553005218090095
0.35264366638837413 0.06114868464548251 0.4031008781297465 0.005140694108755277
0.2865252214782378 0.05463600311201373 0.3969611004007457 0.0029838758264248643
0.4652714746991824 0.13269203118751335 0.4213434315324885 0.07617848656913825
0.4462280887474443 0.13263947547773952 0.42134131722376933 0.028709908023366325
0.4811496525074884 0.13691286527996877 0.4215132350868945 0.23412663958384888
0.4310745053852907 0.13536631856395176 0.42145101773276916 0.0012062859584737885
0.41655898470525043 0.13410076345800048 0.4214001046310978 0.0012897097083341775
0.40139036109746495 0.1381334099766423 0.4215623374262111 0.0012451830151157337
0.4613206734807566 0.03908230675165267 0.43982378525541876 0.00732823331079288
0.49526471192216 0.04055268982347796 0.4409948143966272 0.0779765654662348
0.3854708071953077 0.040280655840577204 0.44062825772526615 0.0021895163444469734
0.3963191069935235 0.04308564946648451 0.4427798996231639 0.003461098236457501
0.41607184290684357 0.03839716428816135 0.4392363470882627 0.002969708186665868
0.3691334580097998 0.03987577881929646 0.4402970726817148 0.0020990078929455746
0.41138490739867134 0.05703858504581345 0.4514702923224786 0.0026430669895098017
0.4866755372135694 0.05080910775851008 0.4478656079277805 0.07685162352599263
0.3642577560897589 0.05023128451271991 0.4473650990977422 0.003362062080224682
0.4725866982661966 0.04872976402270162 0.4466095982831565 0.03752530988676939
0.4071960055385142 0.04717389591587533 0.445603831189961 0.002279040984519215
0.3888169423262712 0.050546241769249836 0.44758290638166753 0.003170674812501767
0.4599518712048207 0.05012341813087509 0.44742114592916626 0.006600009734229012
0.42091840163356875 0.04875983502674918 0.4465626127814382 0.001888226879441995
0.37671506135638805 0.050234460610430846 0.44738261737604307 0.00316897599825713
0.352154264176179 0.05237820184265023 0.44863623517851314 0.0025279369125111167
0.3294101209792949 0.0570079134897525 0.45139639449238933 0.0030627299189657452
0.34034622144244525 0.057194773690738956 0.4515075498175122 0.002980989273942701
0.29453761496659137 0.04563101008490654 0.44452529993153866 0.0016406535058841893
0.30876134795665783 0.05012711747657118 0.44728985920520625 0.0017113737350999165
0.2508329309930619 0.049464815942724956 0.4467869082767903 0.0029491052381029133
0.28157157550440276 0.04968495046807503 0.44697376628916446 0.0016529832154446287
0.33463268654598716 0.0469505575630928 0.44539824061197164 0.002462313884650629
0.2690121212182291 0.05512334870228581 0.45026669445223105 0.0027647435146722294
0.27316641573917605 0.04174928610008667 0.44179529403413503 0.0034844029759539723
0.26185976983239645 0.03994668937649556 0.44042353496799513 0.0032118131662723154
0.28516809439876933 0.040246301336841386 0.44061137905109987 0.0030420606664190086
0.2815849240970947 0.06119508486770268 0.453493649577642 0.0015030538549704027
0.31026630335165223 0.06109806925480073 0.4534499830716878 0.0022529717981188487
0.2980166693839216 0.0633169336346643 0.4544614072103782 0.0016918133647370564
0.34848513445704066 0.06839471301745231 0.45677756050356955 0.0021307200984456535
0.47800578086809986 0.06653989639813984 0.4560795469031218 0.06297193663433007
0.4374648130262467 0.06182231662091567 0.45387146765442477 0.001510353451110303
0.4520806747850923 0.0768173570084808 0.4601021725059341 0.0028631517515661418
0.4122543326473378 0.07704762504251955 0.4601549636224497 0.002684184732265704
0.3999824027067915 0.07680463256073325 0.46008263021952395 0.002589068979969264
0.43401720322577003 0.07441151954431574 0.45919100562465887 0.002013134746958005
0.4751455456064341 0.031958179295652304 0.434058376162744 0.028135539168919255
0.48887577252642705 0.03268730704729969 0.43467303078016367 0.06912729870530565
0.3589720392190909 0.0075521941924296485 0.38974040201976934 0.11580740830300372
0.4034803385673485 0.007706014014005112 0.3959985244088989 0.12786092298895144
0.48133161124267304 0.007770220779536966 0.39688578056263657 0.10498496705719658
0.4339117592026918 0.007628079426952542 0.39498988450434014 0.11400026347518723
0.4608688827960762 0.007465370232017236 0.39228056865794275 0.11119043009727858
0.41749592544888964 0.0075969632734815 0.39426567776721627 0.10684537438211059
0.3771581200563792 0.007653992272090542 0.39401123862725695 0.10750315651698493
0.49304312079650675 0.01583497031686602 0.41576556159878 0.07993780825398843
0.40135320490204507 0.014091566152247149 0.4130990044745061 0.026566151719018893
0.3578263418504319 0.01171019464486003 0.40838835946218444 0.03165407245434558
0.43563919996920286 0.013576077116795593 0.4121434434878579 0.024020566681096697
0.34469059507442 0.013600574972865332 0.41221527355306237 0.03180969553185243
0.3330505739224137 0.011732076229490952 0.40850301605526546 0.033539506212048154
0.26706956791227404 0.010849798802074328 0.40635823966958684 0.04027082105501119
0.3037737029146343 0.010738880130012425 0.40632829648088903 0.05144067684537947
0.17867160797365958 0.009848784061237608 0.40429182615471343 0.07042274412843921
0.13354500154191634 0.010029686810244406 0.4049715736061394 0.053123273498751844
0.24681592818355896 0.010374628778345033 0.40519724264860224 0.04693334121265276
0.19268285919330008 0.010752379220113115 0.4064013014990036 0.03341420101240291
0.22380523347277403 0.009920902718226276 0.4042237995850719 0.059903827769258434
0.16244827216196855 0.011708255930954979 0.4083208374159626 0.03721560406919626
0.21335171025331048 0.014855608306835856 0.4140871363101469 0.01579051043061822
0.14685102311614717 0.015510036108835437 0.41537607205831656 0.022653902538598412
0.22978849880072738 0.014984417183838639 0.41421663490321914 0.011140306344244372
0.16375757164853022 0.018339662338072965 0.4191253926047791 0.012386286409051202
0.152924691874338 0.02173074560759259 0.42341259671049425 0.007662283899713139
0.4541901650888698 0.018178174689560785 0.4191838114397853 0.012677602055269544
0.44067312499292294 0.019869603578143415 0.4213617973017453 0.012142536180863242
0.46869362349527816 0.0208879049364442 0.4226486636165894 0.021277876695834325
0.42219128145336576 0.01846670830751715 0.41957534905546495 0.01292879068265205
0.36932283080084444 0.021432220512207247 0.42317375521105427 0.009713645948382922
0.39967387285572387 0.022572973183641078 0.4245152746240616 0.006120532632482884
0.3813874777767444 0.02201103543166976 0.42385032019856567 0.007757537375376346
0.30545018386387857 0.02533138408175397 0.42767377458595707 0.00640653283455211
0.3478212001233416 0.020156118622556285 0.42169056115459524 0.008967787097680953
0.3773453328743096 0.030683954012478056 0.43276644543378623 0.004540646768330545
0.3629326132031096 0.02848379185053777 0.430691377635701 0.004584918283991127
0.3339863927339956 0.0257281940565615 0.4280866946879379 0.005937727683673672
0.3500898497971289 0.027743776957711165 0.4299892109035374 0.005463151064734225
0.29231729954110813 0.025876439229681372 0.42820396847032344 0.005392584737544804
0.38395131935144705 0.010272628805599059 0.4055074313130329 0.046955616694443064
0.4536905481397794 0.011563043175108825 0.40821334710256607 0.031756771593618324
0.42371252704897866 0.011483228479595134 0.407946592076604 0.0327036127870671
0.47603786418222677 0.011517786007217246 0.4082144602263736 0.058693987064753754
0.4408766101874189 0.04536311185255225 0.4444128184754389 0.002966298523605826
0.47511727130362147 0.008982936564119056 0.38433431774996746 0.14451418662304433
0.4461912116627966 0.009359246267128094 0.3832847109755562 0.10952806478133105
0.4851912173397887 0.09044192459405882 0.4640948161119316 0.06430467315987347
0.4209871020646572 0.10305131834393577 0.4663651509257507 0.0014506310675118364
0.45591163067301477 0.09732871769413826 0.4654753933980087 0.0012445033752490988
0.408076245837029 0.10507406560584343 0.4666791046841792 0.0015575825380987908
0.36071008509826896 0.10007012556360731 0.4658832812855853 0.0015821294293002748
0.3962636551562254 0.10380400012599698 0.4664647964489253 0.0008935986938372935
0.3731014571819253 0.09639914376115974 0.4652611054556804 0.0015111179484426172
0.3509246154209096 0.08158878054828235 0.46170021100474845 0.003005469343365962
0.335841487290877 0.0759489157160735 0.4597651690850535 0.0024330175933974132
0.3767185864682829 0.08171779879279709 0.46177885939330415 0.0022853656386765168
0.3649971103884365 0.0753117233658572 0.4595882401440441 0.0018820747585192978
0.3552706643664766 0.20434974867697678 0.46471686457965994 6.337903905801325e-06
0.3389779128823266 0.207448260572754 0.4644854768092769 9.247731207995792e-06
0.31889605908200913 0.20807007383525503 0.4644404655747906 8.900273772674842e-06
0.4638530190833233 0.2968120835979716 0.4560930397403643 0.01782926364185623
0.49718437493501955 0.29909874057162555 0.4558472276805308 0.0712967681920936
0.43360136829992824 0.3003473710153767 0.45571125066795815 1.7322283844063202e-06
0.4876839516452207 0.23985631839424992 0.46179640468058497 0.08053816014172445
0.4302555906934875 0.24455042802011895 0.4613695393017888 6.815474901015762e-06
0.29275998692851557 0.08788371653341731 0.4633915065909173 0.0012500469323674672
0.32699450368831756 0.08688253454386892 0.46314731483720223 0.0020482017335660668
0.31143130265757624 0.09026533188263469 0.4639723908206294 0.0019877738812049913
0.22554893299838122 0.08668420922054655 0.4630565833046149 0.0033427224026662795
0.24363448026526735 0.09171901811173025 0.46431587417085235 0.0017868146168249694
0.26651883196719395 0.09016609287856069 0.46394526581098483 0.00230369089356349
0.42360878244056294 0.08190807264135105 0.4618199645722 0.0023959421818231684
0.20396210318051014 0.09327623554107634 0.4647060225174463 0.0018986782822659576
0.1639453968666441 0.09087844024866915 0.46410789484273607 0.0018345507535525434
0.21403680821229987 0.08747725626661329 0.46325456136777005 0.0017637145514057238
0.3131215513692378 0.16744725912464062 0.4672082855123523 4.288292944123888e-05
0.33395557802787945 0.16124502072784186 0.46758330693778144 3.705568940214903e-05
0.35693768187406855 0.16005797900412 0.467655082005232 0.00014828097605565054
0.27659993553770146 0.1608915718510217 0.46760467839968306 7.38742990734191e-05
0.3314779952785649 0.033791253164049226 0.4356758917276744 0.0031008635764886144
0.3050785072660296 0.03825650661473462 0.439060693586532 0.0030409640784074972
0.3455091807735994 0.0380189688968127 0.4388806325624377 0.003133636557031358
0.46097180423299317 0.02711671742980975 0.4294603886563383 0.005047819475740974
0.19458288382088892 0.08306108065050166 0.46215019325382833 0.002906097830205644
0.18363656597947808 0.08503178035712786 0.46264393323177677 0.002936619706310598
0.1316990811504427 0.08378791820764958 0.4623330057833621 0.002236418944694133
0.021516621535701188 0.08901169605519196 0.46372995749837903 0.0317237187197409
0.05696881481618031 0.09093316379269131 0.4641804110729071 0.0019974493769140435
0.10542461667277198 0.09198456851419579 0.4644005198567872 0.00249757846028492
0.06887277643020104 0.08731427157189096 0.46326061572610006 0.0022243675501904966
0.09226521773449439 0.09173182441755115 0.46434898027898863 0.0022149724435649725
0.01110870427189806 0.09568793454101757 0.46518038521107724 0.07806777693931796
0.0 0.042308158109204574 0.4257289825514166 0.08091553582899247
0.0 0.03786094398365425 0.41330533114469825 0.0994874513419644
0.0 0.2977011151444562 0.4256859754851694 0.08836646735463687
0.0 0.031216931255815962 0.4224670186722871 0.06809171795782408
0.0 0.0507047120773523 0.40363077031691846 0.12196603302209896
0.0 0.1176831336028531 0.4529497818873051 0.08304754983142043
0.0 0.12221629509000832 0.4680737514921142 0.06438755790130818
0.0 0.2979171381794881 0.41464840151721966 0.1341360308175031
0.0 0.2814583521541143 0.4390388074401829 0.08714413375240233
0.0 0.27723122085833973 0.44944739636424524 0.06765273792116232
0.0 0.28387024957609475 0.4244911244854633 0.088346246787159
0.0 0.269774270510769 0.43398345536205224 0.10858741609191842
0.0 0.258644457324066 0.44617512894190126 0.08085646622648494
0.0 0.23968169107437548 0.4511184452639157 0.09213724426025081
0.0 0.10647269724522479 0.44766081840748134 0.0994415977141829
0.0 0.1853510853741078 0.45225386653242916 0.10779708834799345
0.0 0.19665083702430686 0.45883565210963007 0.07834518404761015
0.0 0.1538334764309074 0.42913677014615587 0.10804636691112528
0.0 0.20978921150987745 0.4578755812649832 0.08348879040770109
0.0 0.23826298813430696 0.4320912798637607 0.07468133558976332
0.0 0.21788596184911102 0.4267890983739376 0.1130098245527108
0.0 0.2534122166932519 0.41692859815759403 0.12368875819454056
0.0 0.2796131409574081 0.41284872561650343 0.13701258019339196
0.0 0.23322314904195762 0.4189903623225564 0.1257011159808675
0.0 0.21565050400888638 0.4405766966404626 0.07456232037886569
0.0 0.2309699061912735 0.4410540694683577 0.10458072045161572
0.0 0.19647220078772046 0.44464064324146796 0.10141489931900853
0.0 0.1718011599869572 0.4214646373896698 0.15645056261742624
0.0 0.2582457989570519 0.4290544536326588 0.09326543389453362
0.0 0.2680680476155444 0.41349964379165394 0.12543523819526073
0.0 0.24727912151117024 0.4416585419883716 0.08810911289579045
0.0 0.17637364114989929 0.435157602060447 0.09702273930573092
0.0 0.20142711144240433 0.42897252603006963 0.08142574980426524
0.0 0.16998441041985332 0.45267888407299495 0.0720602972001757
0.0 0.017565069002176803 0.37977951083498657 0.1405834260826105
0.0 0.1781914724786534 0.46199894352487675 0.08271328813584265
0.0 0.09736652343480728 0.41871268876752643 0.16092942759929446
0.0 0.10393236467327979 0.4291428569806477 0.10682885028894092
0.0 0.09319940012134872 0.442701643152668 0.10125009154095621
0.0 0.15448780604393658 0.44490919193346823 0.09658879990501906
0.0 0.15732728028742837 0.4673662690436104 0.06494256665160018
0.0 0.029770602088698066 0.3840732814004601 0.14337746058313508
0.0 0.0895117629776877 0.461046839638359 0.08718789987552994
0.0 0.08231645049412611 0.4495735505537267 0.10570501796387032
0.0 0.14522037452769335 0.4650751353572049 0.10271936383910493
0.0 0.008529939730432565 0.3899955724558273 0.07523190189022147
0.0 0.0738098172047618 0.42864402476184427 0.08767071351921808
0.0 0.06390820450006188 0.4546293251337268 0.06187512791391325
0.0 0.06800380190212293 0.4427538929870519 0.10797173840282856
0.0 0.023886354367614257 0.39350661591284164 0.1173562143858153
0.0 0.039428693832003946 0.39261939303727283 0.13757644683462694
0.0 0.012216361405980921 0.4031598887001975 0.07598540842655481
0.0 0.06688984313356831 0.41343316085555126 0.12270832699546112
0.0 0.05687491317969423 0.42523856489105427 0.10810266971043607
0.0 0.1183606126959138 0.43447762652772803 0.08613219161715338
0.0 0.13402351011517527 0.428185521458747 0.1412659456229052
0.0 0.13589911520157316 0.4461158511365635 0.059216812366832045
0.0 0.13040932924019322 0.4559652531559809 0.05843299084995699
0.0 0.024938138387984053 0.4060670661218768 0.10198335619208816
0.0 0.05077769472042008 0.41601509484950494 0.12409592546076378
0.0 0.03895976717160816 0.43896461388691455 0.07104374225615075
0.08367206038697057 0.0830316708760948 0.4150457722637794 0.006557723059716918
0.05518717439415447 0.08412976360782455 0.4153238083719973 0.022750704339537693
0.022066229015557114 0.25887420278635154 0.4600131854683407 0.06703059534335358
0.10545401455005021 0.05061737478114053 0.39271951171694847 0.0031453460788631207
0.0786176366604164 0.050688828666502705 0.39278203155593905 0.007600188923124724
0.052496448591856516 0.05011569063388227 0.3921111501733536 0.05301553408677127
0.004759582446579453 0.23846335333783183 0.4619222573758758 0.07464138637220318
0.09369051024252995 0.016321991871471923 0.37478921468594495 0.11895143279800868
0.021945100380365797 0.016196480339691083 0.37458719973847393 0.1117840117684884
0.06107528446827267 0.01796612050596577 0.37367611794944433 0.12588953621102764
0.031102534836842916 0.2069084507360831 0.464530899051787 0.020871122438631873
0.001584023814318664 0.07747149162275155 0.4603827401618175 0.06925128083448126
0.048702637139974234 0.07962902326597403 0.4610884185839715 0.002101770548118007
0.015047810046938956 0.15264163098857522 0.4680239269209911 0.04623345608934723
0.0006239381062063062 0.04249060779303861 0.38121387229226156 0.14787649558527294
0.020164994173122563 0.009372464889874983 0.3831855284538954 0.09270799820471444
0.026234830856914915 0.2703752692302417 0.4588656389586455 0.040824050841018304
0.005317417895664946 0.27041976373015686 0.45886282399502426 0.07925854409707285
0.08783248873258485 0.06587928249815833 0.4065760536927031 0.009366081137424003
0.0663041406627379 0.2936389242666819 0.4564368439570384 1.6761761721102283e-06
0.03072481751547909 0.2949656102717414 0.45629330899090625 0.025767873817537604
0.04412067243867608 0.29400018086518714 0.4563975530763045 2.7310093689012035e-06
0.10274699472153173 0.2831781986309486 0.45754132425009975 2.106366454077792e-06
0.08464841781262694 0.2866879352570796 0.4571717719135059 2.5686796769541378e-06
0.14500823692229337 0.28752606379326995 0.45708165753494284 1.4090700795496469e-06
0.13032884317252788 0.28801999178049975 0.4570294439057212 2.009182173154105e-06
0.011333178245229105 0.2799980634040715 0.4578802419083158 0.07583533321752055
0.047526643359275075 0.26445612794098594 0.4594634167626192 3.546903094445621e-06
0.09068236344159483 0.26829122509057524 0.45907251944647925 5.9489227292296125e-06
0.06303715858956396 0.26858707751820676 0.4590442572149356 4.872577939758189e-06
0.10694180559920569 0.2658085422982064 0.45932286919232107 5.006310426828725e-06
0.07555929836213077 0.27287930701665725 0.45860895253592726 4.72695101265582e-06
0.08273756956667283 0.2590080078878368 0.4599970151331334 4.852693917274743e-06
0.005711946249822311 0.2581634273517828 0.4600825537122545 0.0820422214701669
0.03744011348598274 0.2569734527159629 0.4601947331538646 6.857779296152265e-06
0.0522780892669664 0.24939092059215917 0.46092106775558706 7.407893137510583e-06
0.10776501061975574 0.252876941634987 0.46058370000054843 5.988058646428588e-06
0.13370518409207663 0.24803506205744327 0.46104674918564653 3.203266134102209e-06
0.11957440332172173 0.2552428898706168 0.4603561188409039 6.560854393066315e-06
0.09319785105467038 0.25394412095362384 0.4604821167046226 6.939207672165051e-06
0.22662416457266765 0.2556874837862543 0.4603208386531774 5.4693578200043414e-06
0.17495310986586662 0.25076042368665397 0.46078808518707104 7.386802388968097e-06
0.19901306712966893 0.2536193329745153 0.4605164318889903 6.613483261659818e-06
0.18375568862441913 0.2580451066354629 0.46009115078256063 6.472534176282508e-06
0.03008640844268272 0.12546173708237543 0.42105286657360486 0.15390466083307214
0.11180120866299893 0.13822154687712296 0.42156592025845924 0.0010197578162517542
0.04253283391515771 0.13228359475539314 0.4213271637044394 0.07512983589861544
0.011274380135389948 0.13452188109199326 0.4214171619936949 0.21288110905471327
0.08861196851471705 0.1391994767979344 0.4216052414205669 0.0011095858122520956
0.06939202808691701 0.12940844230814513 0.4212115579406148 0.0008124634648763538
0.10358924995604035 0.11317991338389684 0.4191866536001692 0.0006671736758872375
0.09694271618449884 0.12726365995333688 0.42071256999787493 0.0007909846119213494
0.02265361739754216 0.10841487815271611 0.4198343790197352 0.2569928756582115
0.14316669034531487 0.10434598690672939 0.4177340640244897 0.0007164597390448116
0.0814034291742539 0.10818231468575773 0.41898863257373964 0.0009838107025899382
0.09195103907393617 0.10127264954177029 0.41813803543896666 0.0024169662502628113
0.07003037870133022 0.11096899514318857 0.41943129848314786 0.0014758609274899367
0.1474617086122418 0.09044452816129228 0.4162595987026658 0.005120597219142322
0.058013170993305156 0.10808289846746014 0.4193058171552619 0.05310813837458786
0.11477760484662694 0.1249509962770004 0.4202277112355978 0.0008490399812286788
0.1327919978553671 0.11540336035863198 0.419004238564032 0.0007671453821232978
0.08457018406614358 0.12615763850771092 0.4207731695158085 0.0008015919664748494
0.12432186816134652 0.1057705321392268 0.41814269562748757 0.0006858394105984569
0.05147736564561436 0.12252848534843894 0.42086699856751497 0.05095129334535664
0.10350302194380859 0.10195011555087904 0.4180453156702185 0.001711192465132932
0.038752098501045176 0.10701282224344896 0.4194664650253043 0.09212230086892279
0.12970551763718813 0.09438575967695628 0.41690905035068665 0.004871622502744591
0.12707589380740145 0.12552677332315798 0.42011420236043695 0.0007845788955706452
0.046363804800331435 0.09529059630665387 0.4177646896172759 0.07682701899441946
0.06070227567174039 0.09499845860985054 0.4176396280996647 0.022029758739202876
0.08034700245153671 0.09669867141471286 0.41778146601666727 0.004340724817110207
0.11653260640544284 0.08892896022347414 0.4164173059053079 0.005365587109310598
0.022181267829669046 0.09151941053239954 0.41733986153479674 0.1992873082666997
0.015781030779018098 0.24785956518479826 0.46106292060591847 0.08280472625328135
0.10623465918168515 0.10450141230360273 0.46663840879833174 0.0019373851416490404
0.08977968101560928 0.10466582438318424 0.46666604057537564 0.0009487404015573742
0.03051042539139816 0.09983754484223972 0.46590671819254775 0.03013211812803171
0.018090615547992163 0.23181463551561518 0.4625086389318044 0.05924708835095332
0.10875875480695131 0.23352593531030466 0.46236097618077987 8.600475427120553e-06
0.05114590179477863 0.2345001108544015 0.46227505002732117 1.0059981315137204e-05
0.03175426800086365 0.23513755956791757 0.4622191375356291 0.03551025412543851
0.07144201710229106 0.22973621139262576 0.4626863893618179 1.114228528527476e-05
0.11617406318137034 0.22107608484968583 0.4634118509327652 8.897718059184285e-06
0.12992392256466168 0.22345954894691972 0.4632107731683958 8.880608029955184e-06
0.1828835295733752 0.2255390106388642 0.46303916582821747 5.479625537506429e-06
0.1499871442829153 0.22308098706023338 0.46324397417041024 5.129657739725653e-06
0.1632231584273168 0.22483708978009995 0.4630968885396355 7.07918304156989e-06
0.21295720901230178 0.23080235334578508 0.4625976115833847 9.370942769534215e-06
0.24127350250607674 0.2336668863515239 0.4623438083810809 1.1128123622635174e-05
0.17483078639477595 0.23767237406826186 0.46198874127816786 1.082950057545846e-05
0.19045593199521715 0.24274625091242397 0.4615330795553395 6.372410393691288e-06
0.15475361463877296 0.2373764686297789 0.4620133400758987 7.557253341527987e-06
0.00016977936336661187 0.22586152762969378 0.4630164418237226 0.06598024395151547
0.05870373152879747 0.19772629067608938 0.4652088379890986 8.017228155125787e-06
0.07029202153338311 0.2004899863535388 0.4650084441392312 9.366331918469084e-06
0.12857621478593836 0.19493990147378165 0.4654009289284907 4.1164658037128435e-06
0.04588690448058737 0.1949768143518323 0.4654019839616536 9.009115362856281e-06
0.0804366664494977 0.19382491136663887 0.46548095158735436 7.740244821402394e-06
0.09383831120302483 0.19704252967458305 0.4652555402246374 7.582589667360151e-06
0.03319100255370587 0.1943243517331824 0.4654481310070799 0.020124226589418964
0.15659384725774153 0.18934203375043882 0.4657920781652579 8.791899221763658e-06
0.14363085295922726 0.1917534458378286 0.4656233042510335 1.2494396687036024e-05
0.22169624084742318 0.1928527992166818 0.46554649255467695 8.385326316190644e-06
0.24647111883766323 0.19676598218232827 0.46527228161955553 6.574173258268775e-06
0.16992163199378285 0.19815805214327836 0.46517520337335705 7.27346869283235e-06
0.23369074902880202 0.19944137975909965 0.4650849701317312 5.998416146619025e-06
0.21047670846637226 0.19521510374404405 0.4653811011608392 6.124393562616744e-06
0.14393879682738359 0.17760172059705198 0.46657241279953726 1.82545948525297e-05
0.1732489301411364 0.18340395445010213 0.4661934513872872 6.373552381378211e-06
0.20362800472483528 0.1824901908854209 0.46625302535242563 1.3369737441658928e-05
0.007550682185987364 0.19067908315702192 0.46570431948363633 0.0845981964812704
0.021596007176951083 0.1832676288977067 0.46620693595290336 0.04791142908531771
0.008587503030642778 0.17317531924705068 0.4668603316751204 0.06751794601700094
0.08828234823318973 0.16729473642629678 0.46722042191056684 5.280290432067101e-05
0.056033586505676095 0.16734798756822278 0.4672190545109235 3.3147542943209726e-05
0.07612743020659901 0.16636188899023974 0.46727732015505286 7.857924303241949e-05
0.11955357375923395 0.1711872551915974 0.4669841112363426 2.132147782282902e-05
0.09984473118845757 0.1703584980759702 0.4670351692402786 3.9528363170433564e-05
0.15082332368617965 0.16751257250195595 0.4672043827334745 1.7333103520839817e-05
0.1959472857060791 0.16202722072536885 0.4675358923562021 4.7164133629779515e-05
0.17569481252843128 0.15396949280956296 0.4679349657525857 0.000125549894738083
0.13656577388752394 0.1539386573989117 0.4679367859479211 0.00018730208906319118
0.22191766911979943 0.15625209721705818 0.46783467372065807 0.00017518234039951515
0.15984798625124308 0.15541965114693476 0.4678717957918188 0.0001371985189965271
0.04417159828136005 0.16143742499933916 0.4675786353692426 8.364809925093894e-05
0.019651497988854745 0.16683372951561593 0.4672527848020995 0.051729724237374985
0.030400891273681643 0.1601233009457756 0.4676503502020137 0.02278621158978824
0.07490935380104675 0.1366461934233317 0.46843075786810784 0.0004775715074138412
0.03750658719336998 0.14064761739795667 0.46841289956141824 0.0006996747139068174
0.10870987244796172 0.14074275585087354 0.46838383759615765 0.00034287276871786056
0.13394271584198875 0.13945140937629452 0.4683843724507091 0.00042104109046093213
0.17423345479167907 0.133106558054313 0.46843934505710605 0.00042548390957258353
0.24889351245044344 0.13573796360644844 0.4684342813793247 0.0005000148730267065
0.1617533242376643 0.14384914034445362 0.4683442149983483 0.00019736072429743601
0.198501845404661 0.14341267294370857 0.468364532182727 0.0002843529744230731
0.23221559364609193 0.13470853660145568 0.46843232717665173 0.0005399579308798924
0.22068069979303387 0.13554608898746145 0.4684218028069107 0.0005484672784175227
0.26969101100772597 0.1328642902406848 0.4684511806235071 0.0005045111071061806
0.28324450691563385 0.13512581243646266 0.4684378276606091 0.00046429596516829244
0.30271196469928585 0.1303537450501097 0.46846133275705854 0.0004654223901654207
0.34063243930271964 0.12998632241795716 0.4684458029792482 0.00035331795885435813
0.35498881241169217 0.12123542585731417 0.46806756818158207 0.0011129664357800988
0.3303956718906087 0.12062325758235923 0.46804086795692135 0.0009406630883263805
0.3434601110776786 0.11752166966573231 0.46790688491193416 0.0011266164097916873
0.37522574736725295 0.12873450569004125 0.4683954310844301 0.0005869442968361623
0.39919865185950576 0.11718862621243982 0.46792335617354147 0.0005688885073108606
0.3874578392947079 0.12329387774844296 0.46817354321103344 0.00041606131604873245
0.3663104014017472 0.12131554512949154 0.4680774748703944 0.0009740305323673013
0.4336025151809698 0.11835984324252793 0.4679933850296454 0.0011061114449963522
0.1877443683074292 0.12126345318678225 0.46806544789171417 0.0010604918886523407
0.2008843658178097 0.12978416025525974 0.4684377788018076 0.0008149228937293525
