x y z curv
0.061162075042472126 0.021045929865329487 0.44904150551545663 0.115780560696355
0.04490220372752447 0.08377168822894179 0.44775210411983624 0.10832244440764587
0.03584655429902786 0.02465837838196267 0.45144361647367776 0.20531794945328305
0.03493709629254643 0.1524958479329457 0.44554204732530406 0.019994293853495375
0.055607735908199965 0.07871325859286309 0.4469018382393424 0.15321661303685918
0.062048233139640405 0.03727019302497887 0.4481907803671602 0.1349158453191848
0.044783833712336345 0.11009717025248716 0.44652979793083053 0.040423116537275504
0.030965641084658768 0.07458696629100528 0.44959839264988777 0.14392208745466467
0.04689651334620523 0.035524182559252666 0.4498117207371902 0.17891940209251384
0.02607169408687342 0.144367968291428 0.4469422577640579 0.02100121810252509
0.02033211121065135 0.11556962166693098 0.44917188632974797 0.024915921408247672
0.23162575670635638 0.10777676636926771 0.4330102902762071 0.21607761965659544
0.21403256840931217 0.019752165733269437 0.440220184338143 0.021774674110608017
0.2184769698331953 0.06186322672028892 0.4368274977140626 0.10102440736086807
0.21798018929044544 0.10830040220705864 0.43316310026644755 0.20355653951982375
0.20050538906944643 0.0009603592585050504 0.4418984484596524 0.023540282973895058
0.2258760175252319 0.0930738157017321 0.43425458444479004 0.2014824298592653
0.2429842578050764 0.1856486532337353 0.42669183648118586 0.2532118023037917
0.20493518757526621 0.03671174709924652 0.4390087852572457 0.030825707205694823
0.21244312279877056 0.007424576502805097 0.44121746372896964 0.02539285569868732
0.22794636897293266 0.08269526439090805 0.435045678831108 0.17529163312306523
0.21583734150447104 0.045693717906853455 0.438143477949778 0.050474040472191804
0.20549325774479457 0.05993563027164697 0.43716468992781715 0.09133561554621332
0.24099281852451915 0.09835534519894513 0.4336218606816443 0.21912964493891474
0.23371551629283205 0.1381470376393668 0.4305793794843729 0.22435573032241538
0.21912261604255537 0.029728532020659636 0.4393589777133891 0.020415083177416263
0.2320710190680628 0.002184992900946763 0.4413523678927323 0.027471508436868543
0.22996662677907945 0.05694071619778444 0.4370531604240826 0.08883979587769986
0.2394333082657114 0.15530774847043624 0.4291412218229407 0.23800646622771077
0.2333674005307128 0.019750015778738774 0.4399451716992392 0.023758101922424238
0.18896077197582653 0.01158100783877854 0.441223055409442 0.022726561537918168
0.13698687382423966 0.13277275410578585 0.43454737409516164 0.20383532441846428
0.12453540846887326 0.013461461691843209 0.44409108491575905 0.023120310444649038
0.13417000588196873 0.11584105507109227 0.43597827292692504 0.21175516447693654
0.1118414833897709 0.036945392242802015 0.4433166223421519 0.0267609488543822
0.1095949621701198 0.05455619819362016 0.4422056778606985 0.08616469349978174
0.13804089820642976 0.06379366677531907 0.43946340380434223 0.11600041328398601
0.11503354353819131 0.017221917821391035 0.44451155898819683 0.022539773820649273
0.13470614354597382 0.024800034527958037 0.4425289491120973 0.022035570458318252
0.1290170105975742 0.0818343349226403 0.4388153996655275 0.17791566725840538
0.12787725290880894 0.05523915102195361 0.44082350629489564 0.09693432373254676
0.08834590837950465 0.02093674698679269 0.4461881396296596 0.021367772963524694
0.10825616069302145 0.025857325504635598 0.4443805641894252 0.019066934338705814
0.1455951862494376 0.11510906545380471 0.4351983860830031 0.22678645838544317
0.13602328668499808 0.038691078223795417 0.441427466503086 0.02871602839892832
0.040403727408686585 0.1418388919593439 0.44544714345600084 0.020676531865528425
0.04510543653300371 0.189135813070774 0.44223476681591256 0.020951039183318
0.05633527509946949 0.09000022681554365 0.4462880992222774 0.11623939872924934
0.05394337426199487 0.13262375097375115 0.444235694090878 0.06731038682591313
0.03663259856447646 0.18000945482695455 0.443816219192206 0.02019210692671079
0.048836077820455404 0.17623788464404594 0.442473653300047 0.03375712945325205
0.07701391999894246 0.028880962976360926 0.44703876675424203 0.061249847021278815
0.05499799807928188 0.1181607355725493 0.4449012301975203 0.06171821099300868
0.013430080250305372 0.06306578631477192 0.4524813572076415 0.1904162632161594
0.020878286373269793 0.08311021516116641 0.45058824966056943 0.11755633245485834
0.02287260929189296 0.022464424672271166 0.4530326661738689 0.16337309000902034
0.22391191795111018 0.2435128697403057 0.4226113747391664 0.22400267821892045
0.19347410653152022 0.23640246327224013 0.4240609907711643 0.21565705240179855
0.20673625301022988 0.42302229637446587 0.4083056769585284 0.0212245850523825
0.21275455690493975 0.27650356402698284 0.4202092562128131 0.23774519862071444
0.1911251996050935 0.22482950355815565 0.42508134689028737 0.2284079556426112
0.16821354143682038 0.2115883199247413 0.42682263782619323 0.22689399987168662
0.1860428801996734 0.2556078741626609 0.4226891652252939 0.19746488794687336
0.20138292748699194 0.2657766772988961 0.421415904953941 0.1919483163470599
0.17994352460441135 0.22295130278582861 0.4255534014049871 0.2603986509929064
0.19645061158933086 0.38269334276278805 0.4119209645171419 0.11010774710109963
0.20850339694680747 0.25450747479056124 0.4221425393882998 0.21941158674984018
0.1871037702367141 0.2929224419600759 0.41958403626431884 0.22337451657756205
0.20513273424314213 0.23505240089987373 0.42384143830201143 0.22496058009285705
0.2083009149289594 0.3566832544677838 0.41372816186775996 0.18863132562614163
0.20913014129613722 0.3987418100693888 0.4102386627347968 0.07343572718643443
0.2064781174228598 0.3882870153597363 0.4111754736968056 0.10683815678965525
0.21918863073762557 0.3579951045405623 0.41331112026831585 0.18529242801521092
0.37020064608869147 0.2811500684024322 0.3893644914039217 0.14437763198998677
0.3389431893905601 0.350052264427845 0.3841595258388112 0.13552186442481573
0.33104633226401514 0.28202932891056487 0.3892980708697212 0.2217088306860616
0.32889615795538296 0.29451382835659856 0.38835497480801834 0.22150134532882057
0.3052291324409693 0.31412948743410307 0.38687318125244424 0.16788819911864497
0.3483371390483213 0.3367869502066347 0.3851616057102032 0.14828789673463816
0.3422472150490623 0.30020372611855095 0.3879251521952668 0.22228029231919996
0.28198880802018994 0.32781723549647074 0.38583919015436297 0.2405792715921458
0.35619114892902015 0.2717241159252494 0.3900765406692892 0.16381039624885416
0.2888451836264239 0.34876627518847264 0.3842566712143456 0.19241906933792172
0.3514153771687421 0.2590332470216974 0.39103522616038666 0.2091559255810175
0.3046226410878784 0.32752662862656096 0.3858611429924163 0.23552912027277356
0.3623953428882585 0.3310066737849317 0.38559825564978834 0.12069219457155617
0.34037326054373207 0.2888346789870523 0.3887839854725943 0.19067054244932613
0.3495487239443441 0.32447303055644905 0.3860918159422125 0.12325219449388905
0.3151114835789831 0.3350769644796995 0.38529078035686093 0.21193131068377286
0.34197024027106554 0.2748975188352308 0.38983681749900617 0.19427162993577132
0.3666762583579958 0.23403162878678144 0.3929238823932995 0.1731630668820751
0.33723377743715427 0.31030441125456065 0.38716213270750527 0.18392500086483152
0.2643965015881373 0.35610256574413157 0.38370247785157147 0.16099038448460912
0.31432843349731826 0.32228852619146026 0.3862568363719301 0.19228432797125727
0.3705795413083325 0.2532110476025414 0.3914750430201967 0.11937046141740405
0.35858165778373136 0.34821670558888757 0.3842981864490765 0.12347493344459305
0.2948502858069388 0.32152208024845896 0.38631473474050126 0.2333849964109823
0.31613945642340135 0.29878527813887906 0.3880323036841304 0.21237953554553257
0.3258774319278448 0.30807365082737137 0.38733064738304984 0.16580764632137512
0.316667583110893 0.3474197318762551 0.3843583909268703 0.1511518014271977
0.3627638209752202 0.29658781562075454 0.38819830299035335 0.15472746452760291
0.35838164908889947 0.30861130142582804 0.3872900325258689 0.16690495162002955
0.328125831147547 0.34526258150407374 0.3845213449987815 0.16632661577996455
0.3015992766574217 0.3522461629679012 0.383993795760337 0.18220177673688542
0.28035640213374974 0.3398429220418317 0.3849307534429651 0.2032526101253141
0.36221315482050376 0.2608142566350402 0.39090068627278773 0.17737123448723766
0.2692358326628162 0.34364391413089673 0.3846436213328427 0.21816285258174276
0.3251859500540577 0.3300074449428242 0.3856737387550426 0.15753860458341526
0.354666695352743 0.2850778046396212 0.38906778486853244 0.21867567886824224
0.3343172881994139 0.32141637974149306 0.3863227195005047 0.15091483907162556
0.3843290740973379 0.10131423793389821 0.402949511884206 0.07370934570615348
0.255503531514514 0.10279413905509588 0.40283771732734264 0.2371360990028483
0.2670982726170064 0.2861480031210798 0.3889869359523093 0.23737943036414252
0.27645132045238063 0.2561064380348445 0.3912563146899388 0.2516323875706589
0.3319899459071191 0.190601599757646 0.3962046386017246 0.19973679012351098
0.26032858399917425 0.21036531916473422 0.3947116549587316 0.2436980479412856
0.32653499588785906 0.2345467246748536 0.3928849677849582 0.17487450395357163
0.2514007940027807 0.2617765135936699 0.3908279874635963 0.2652085607066956
0.3071676944779069 0.18851710692180967 0.39636210129301697 0.21985457847183992
0.322660481312138 0.16682060892600578 0.39800108374482557 0.18975737259787592
0.29661475939179643 0.24855492682205926 0.391826767444394 0.18963767564572143
0.2749925515207057 0.23877739779939058 0.39256537213564424 0.20998195862600175
0.2673568523997471 0.30051197287241116 0.38790186355492295 0.257702717145079
0.26937100527162866 0.33079296353856313 0.38561439946565157 0.22160175251290104
0.2878170391927568 0.1802803212592728 0.39698431651577115 0.21195413186261539
0.2609168871856618 0.23449027783971255 0.3928892251587597 0.19563343916438689
0.2553068663793797 0.20027280633028233 0.3954740556179478 0.24909028970163657
0.2504774551089657 0.169227379568039 0.39781926588868805 0.20525581285455882
0.274700768688522 0.126257877305125 0.401065238851374 0.182361150584123
0.28320704873948893 0.28090377272524814 0.38938309338514776 0.22584432938281332
0.31307579211084635 0.24377497638575907 0.39218785261839767 0.2158114679644604
0.29654721986912025 0.29829586796502094 0.38806927389635965 0.24426743995379543
0.2710912757479706 0.11255854113639953 0.40210010364646076 0.20101302100607146
0.3264336886097787 0.20271576145134457 0.3952895189546516 0.26572314176883843
0.2768185906055673 0.26686860251642464 0.3904433272245601 0.2523779255173992
0.26313799774908 0.14761241533788227 0.39945208888800277 0.2351433249606821
0.26233993338782524 0.17713699816609296 0.39722176451574615 0.23973762005556318
0.2492430420369218 0.235069100233531 0.3928454989933468 0.21574934813182192
0.36755171330737135 0.2142230749273905 0.3944202461483242 0.10875254005786146
0.27383576339580773 0.21389924963229653 0.39444469876352684 0.20608284410426564
0.36190352853442975 0.22326433950111382 0.39373725702289614 0.13685979249712743
0.2905429927870392 0.25715915387066496 0.39117679264261096 0.2035784263420716
0.3341267010439904 0.24940713165728168 0.39176239463969087 0.18631890487996347
0.2817311417803809 0.14919882237216942 0.3993322515922693 0.19268519421433034
0.2509258907074152 0.1548637749924224 0.39890431077233784 0.2037229554725772
0.3157557687658913 0.20354748953551371 0.39522668807540573 0.2504441486152295
0.27162697518172685 0.16214910561347098 0.39835396980328286 0.2626488974416937
0.3033412880802726 0.23440319731588435 0.39289580765780824 0.18502171047589705
0.25632018728980166 0.2828334200729673 0.3892373226446064 0.23180867133363406
0.2813068864553252 0.3156136334630606 0.38676106645566316 0.22423667843714007
0.2922051074131603 0.2674753454992073 0.3903974946620757 0.22480741062878734
0.3224133564969881 0.2471822794402298 0.39193046159277145 0.15076428602805572
0.26069059584183246 0.12069180277462391 0.40148570572539494 0.2094051201156431
0.2880658381805672 0.13748185576097707 0.4002173667003394 0.17115427117398946
0.26649998298873434 0.2626462052740411 0.39076229139496255 0.23291248066572287
0.2466666996102331 0.348082560425439 0.3843083191562902 0.17963564528496992
0.2715632691852181 0.2253445846539758 0.39358010346317795 0.22695056343350728
0.25355039422548586 0.29597861471155346 0.38824431775032753 0.237973999280772
0.2968840829877247 0.19266908748769943 0.39604845438640424 0.19729723968854818
0.25697619750835715 0.19016555878574287 0.3962375700381048 0.23712778741176258
0.3134231976257306 0.2804460246820829 0.38941767533199834 0.1778577046280421
0.28693159422349546 0.29041232475917855 0.38866480573035206 0.208488371246082
0.2661794060489191 0.2730179980236185 0.3899787930333066 0.2215345919909719
0.2688009215032502 0.24788160710284834 0.3918776280303838 0.2009660990160175
0.3454026439431035 0.19555315204087956 0.3958305934537775 0.15754686363304668
0.3066681732818056 0.27206803913074 0.39005055825720447 0.2107031755725002
0.3322102067335661 0.21749155699349537 0.39417333727938364 0.19436732025728834
0.2493491761324182 0.3089805331395924 0.38726213597605114 0.2275790369368172
0.25932587305114274 0.33814576567895543 0.38505895847741234 0.23517245995072042
0.33584760581112405 0.20737602590822937 0.39493747764936826 0.20454370718821208
0.35202221064304456 0.21451743414922336 0.3943980082971567 0.12859706641604793
0.3443438049438727 0.22267563276151808 0.3937817268831675 0.1665661700002398
0.2803722936831029 0.3043986007988199 0.3876082640979018 0.21220979633773912
0.29514762085154284 0.22129357397669014 0.3938861243331818 0.16800167544640376
0.28009820144943404 0.202917174965288 0.3952742991982357 0.22343820408011894
0.33023788408702875 0.2610123828341669 0.39088571890609963 0.18495622120560923
0.27368279290096126 0.1395589387075209 0.4000604597634634 0.223931183467653
0.35433346015548556 0.23910872166498748 0.39254035160304823 0.16686987380937415
0.31953460595305333 0.18681764181368815 0.3964904822956655 0.22828381438647855
0.3058429362262447 0.2616999365417595 0.3908337777426214 0.22230010447445883
0.32178714413594905 0.26908873071719386 0.3902756205208576 0.184825209661202
0.3014472899244375 0.17654902182321713 0.3972661849795851 0.2194112123701536
0.2965190074429699 0.15899600746067802 0.3985921613600341 0.22361323044016496
0.27329927401070053 0.1806206944586046 0.39695860281377776 0.23670216739824546
0.27017906392587754 0.3202856175330276 0.3864081377412441 0.21370745422319373
0.31952978156324846 0.21440570140012793 0.3944064454167622 0.21461857980566357
0.2942516673397153 0.20683041701723937 0.39497868939259506 0.23419029486562934
0.30574629073915083 0.214954392725669 0.3943649951751849 0.20351728432101462
0.3422902681267573 0.24008359945463192 0.3924667068749581 0.16080795980804802
0.256163250492446 0.25211294776878734 0.39155798592148605 0.2338240702347353
0.30434910296282425 0.20160056340611884 0.3953737601719415 0.27761505520934493
0.31659439185273563 0.25783905367061005 0.39112543480928297 0.23361124996223298
0.2846697675957162 0.2201824229690365 0.39397006101574344 0.21917513820097617
0.28707586394701556 0.24094095199076637 0.39240193575060045 0.2229040908868378
0.25517359950621926 0.13988767383908038 0.4000356248087858 0.2563615747716373
0.31425721534707013 0.22340602273374902 0.39372654923372663 0.214177565004947
0.25959813415345534 0.3145758634772398 0.38683945869784186 0.23015158895500776
0.300158739933683 0.2856901449741413 0.38902152650658905 0.18205059878275395
0.3742513304867794 0.1724007870023841 0.39757955093494757 0.12644042116410126
0.3366158825467157 0.10687362832342898 0.40252954904053634 0.17423534160762708
0.32688247762719125 0.10078833248843229 0.4029892393958402 0.1762822517114104
0.3795110250287923 0.12979478481763562 0.4007980581059132 0.1099587790237383
0.35999577982709285 0.11973495876144226 0.40155798911657514 0.08609025560336342
0.3784813663028747 0.08653957787178027 0.40406560696283617 0.1577870416523683
0.3577008259959584 0.19063756387550873 0.39620192350848926 0.12867305687098687
0.2812890564428881 0.08896753213928774 0.4038821964614973 0.14361910388788313
0.31116483944126694 0.09389528085479587 0.4035099485676722 0.1908267911728782
0.2895115023959051 0.11670889055162237 0.4017865818437431 0.24779874058953688
0.3429712244472778 0.15566052577653794 0.3988441298214057 0.12321449766609417
0.3696533944213353 0.15330665696976326 0.3990219438205053 0.1449284828475432
0.3393075980132296 0.09392712551238516 0.40350754298504177 0.15204957303485547
0.2847133444744868 0.09903232033733785 0.4031218906048434 0.19012382554522264
0.31175973527687095 0.10734140505814473 0.40249421263960944 0.2053407150975569
0.31573246480753214 0.12069785708852684 0.40148525065223406 0.1953489091675451
0.37118278668155125 0.1382324704987132 0.40016066547392803 0.07686350148471631
0.3182472263055942 0.15425554759979007 0.3989502635139616 0.18142825168878465
0.35850084557416145 0.17843425057184822 0.39712377604952465 0.12990309000449107
0.33023097540049623 0.12376491687664759 0.40125356137336105 0.24514002742692306
0.29956660695022563 0.11266591127644575 0.40209199322059086 0.20711795352409076
0.33398803406375344 0.17371150921068532 0.3974805374483438 0.1850490605425963
0.2655611284847477 0.08908428094601238 0.40387337712026894 0.19711518058829075
0.3568268945996682 0.10941074922506652 0.40233789196414327 0.20208648977329735
0.3073680476902002 0.12891303377066207 0.4008646666099306 0.20423618510270777
0.32641871031238184 0.11370861203587918 0.402013226387297 0.20563363533125026
0.35478594526305063 0.1583254990124141 0.39864281463034634 0.13688262538677423
0.3405079481092006 0.13699002136434305 0.40025452153278074 0.18379607943439163
0.3709015750425313 0.12266102580558183 0.401336950594269 0.07964105964575575
0.32727488157581025 0.08826805286509556 0.40393503594289637 0.14464219301962739
0.3549963643396348 0.14469181430070338 0.39967271909829083 0.13036179607485018
0.34839329712461437 0.11789545657318885 0.40169694726050587 0.16443446774767195
0.3604334928090954 0.13074411456232768 0.4007263446281347 0.09776151791111064
0.3592191859632948 0.20152953550035835 0.3953791312495836 0.17358799743196557
0.37437866228551575 0.10433745111003172 0.40272113482961747 0.10208083103995241
0.3029468337519304 0.1392079295810618 0.4000869781554626 0.2208526024189117
0.34933042903624745 0.12978247824011052 0.4007989877591541 0.18068777608317946
0.3657787828532729 0.09395538709467126 0.403505408072105 0.1315985152121527
0.33162953299504183 0.1598296016183476 0.3985291929626275 0.21710828885155461
0.2950487411362487 0.0876952696834184 0.4039783046534795 0.196517820816386
0.2945903438167868 0.12572717409326387 0.4011053301712038 0.23355552718101985
0.3324151757428354 0.1463362871249795 0.399548493700319 0.19412651378742518
0.3636316335544999 0.16660685414930898 0.39801723139027056 0.1589778252404949
0.2677195191201127 0.1011779783696699 0.4029598050908457 0.20761794284622376
0.35107859882744413 0.10046680264701266 0.4030135281356239 0.13565895881756973
0.343680784736675 0.18392965940979472 0.3967086464469954 0.1838580284318836
0.3206442777470909 0.14035461882759556 0.40000035591038946 0.22629128369875323
0.3695898579931455 0.1951876120865588 0.395858207551944 0.13999548658270297
0.12807734890962388 0.30481449408656003 0.3875768473023222 0.11564697871987302
0.11295713101970836 0.2569453834254457 0.3911929438987266 0.13273973756419005
0.11117682506638123 0.23574483740007818 0.39279446148001146 0.13935371465930008
0.1616620892195097 0.32663934123614585 0.3859281691797356 0.2342442144634473
0.14297169750694905 0.35729725675252716 0.3836122292673257 0.11489849928544532
0.11554676997025486 0.2677104416840912 0.39037973701036877 0.10764551448698144
0.12952091626489518 0.35458018750254566 0.3838174803098322 0.14533303863480262
0.16522637928721956 0.31018480698229633 0.3871711666887555 0.26640079913863723
0.1356811250032709 0.34628035203794577 0.3844444609735578 0.15490222680444102
0.17594407335506992 0.35361900448833744 0.38389008935934654 0.21833000088737586
0.1862813865053021 0.347719272111167 0.38433576302811 0.194664074866662
0.1548810571938502 0.34227566136866683 0.3847469806589839 0.18073465970380825
0.11095867981659446 0.3029941076252487 0.3877143617285561 0.0813110182371533
0.21062771878714048 0.3252769813977363 0.3860310836627229 0.2614924040275541
0.14428962358578007 0.3150344808857465 0.3868048158404999 0.22067715259620846
0.15713136087018392 0.3173407660802627 0.3866305959745562 0.24334835017796191
0.14892145621799716 0.27382812684562446 0.3899175988969807 0.19174297986588584
0.13336431663428355 0.3142175230334652 0.38686652992852544 0.2016982882370489
0.13287471447864888 0.29471683893758716 0.3883396376677912 0.1730943199591469
0.18518856299586442 0.33528552298758363 0.38527502505461053 0.2167867116098867
0.16321240601309525 0.2988386328022575 0.3880282718504767 0.23273817668939784
0.11822533594429631 0.31145057669343523 0.38707554875307487 0.10827687204743452
0.11815352033177631 0.3235114826835016 0.38616445179518505 0.11762419404299951
0.1561922438904962 0.28352236326262437 0.389185283321694 0.18954952204550934
0.17370407060118553 0.29710038865461974 0.3881595811365526 0.23289225747465622
0.11887438910931344 0.28926771936004114 0.388751271443427 0.1737955086583738
0.22128034532657553 0.3349435250713198 0.38530086003428526 0.19067024165732202
0.13807712559044735 0.2783924487235351 0.3895728039221074 0.21157920516230783
0.14730252353761375 0.2920732389694279 0.3885393387425572 0.21085630789843407
0.142500936972379 0.26438718448026927 0.3906307803010785 0.20235345227195023
0.1277125062955442 0.3331534226483036 0.3854360867637917 0.14102060763084298
0.11483310840254247 0.3402015698508202 0.3849036603042652 0.14108313362086378
0.12805029647536129 0.2713123355412669 0.3901076451344668 0.1591297512931349
0.17218485221634972 0.32188140164720713 0.38628759029526993 0.2432528774298282
0.15293648778005445 0.303649578879468 0.3876648465539751 0.24544876895516649
0.204525611915085 0.34778613007511294 0.38433071248815787 0.22800808798247532
0.118133953866487 0.3517995481154572 0.38402753352545727 0.16008194469076534
0.14518545348374529 0.32744514503083716 0.3858672976841278 0.2342583766343161
0.16546397347865816 0.3510461713142877 0.38408444461590563 0.17861315791074373
0.1826873633609954 0.31239465458314497 0.3870042318475262 0.2272376054496925
0.19445665502765697 0.32240467562859737 0.3862480614793601 0.22975981339430254
0.19718331168867678 0.33996072132701405 0.38492185432364756 0.21448513866177132
0.23357044819036776 0.3481679833425151 0.3843018667819914 0.20964630031167283
0.16696787426635795 0.3399931971118586 0.38491940105945655 0.2152309925599786
0.12177020690665301 0.2483527419038546 0.3918420435233325 0.16434117032486095
0.21059745433470767 0.3385123408170754 0.38503126692312883 0.23614466674171503
0.10583761536650389 0.27400984706535875 0.38990387150871286 0.14473441042746057
0.22880584073010324 0.22489062910484137 0.39361439466511944 0.2375934230397777
0.13768962537850948 0.25370522652044547 0.3914377095474339 0.19390437076092013
0.2225496467089796 0.10961857822998426 0.4023221917333575 0.19331915824241447
0.2369175260481049 0.27154250524829077 0.3900902523432999 0.2246356955723809
0.18135560222289632 0.2698883517479894 0.3902152128815673 0.2110110478209237
0.2276028594563682 0.30545868824803296 0.38752818156137125 0.2592554110286121
0.22898662288050303 0.16103664775357268 0.3984380052409764 0.2289937408555734
0.18673268607638244 0.30080681584719693 0.38787959260499016 0.245055910863006
0.15789838505080464 0.21874097631333717 0.3940789519297581 0.23147222175623544
0.23527373178540303 0.19790628863128212 0.39565282547618297 0.24493578976115693
0.1743294613232088 0.1979953857826547 0.39564609901067194 0.24170441837402404
0.18657517010368982 0.17204510189360467 0.39760641549467735 0.2412525278871328
0.1685120484017037 0.22587441908834388 0.3935400819272387 0.23987469684092555
0.20964838115938472 0.29721636812918173 0.3881508180495965 0.27047772982997953
0.1573044513570269 0.2386078812565171 0.39257818081907525 0.17010151217043434
0.22534134671008613 0.12925409226325663 0.4008388999601681 0.23510380326968897
0.2381138054680756 0.17386432318437794 0.3974689857936551 0.20510089170752818
0.21262529430383087 0.2402870315860164 0.3924513320046907 0.23568440981481945
0.21945243404990084 0.21677646847289814 0.39422734925243275 0.1998322312390139
0.2061849845112536 0.18459684949886612 0.39665823928866806 0.2315058905192684
0.16151445689289612 0.19012839390334924 0.39624038238732107 0.2202641665370647
0.19989392270918324 0.30170718730107093 0.38781157653175424 0.2214051836134793
0.16458994452931544 0.2515662692048793 0.39159928730497084 0.22232413649221436
0.21155792499903614 0.25489267978082997 0.3913480029207512 0.26292127994710435
0.18379183886663988 0.16117337270633728 0.3984276798654431 0.1884199190362525
0.20593828190301072 0.13001827803524435 0.4007811736876952 0.25354261858332255
0.22067475778063433 0.29707413569819774 0.38816156173545113 0.26715340085548966
0.24145350487065234 0.1161972694206625 0.40182522781742464 0.23633760697442363
0.24445461682847502 0.3180294005146348 0.3865785729239435 0.2116026125869886
0.17775237924808357 0.21021390237507015 0.3947230965718801 0.2437380489239766
0.22460755917564013 0.2706736069211312 0.3901558908401842 0.195365763406526
0.1896932534118138 0.21262066568347743 0.394541285831941 0.24057832993707773
0.22538952425616954 0.28440633349292477 0.38911850323795405 0.26994105284878794
0.2174983563297417 0.31139846008870364 0.3870794843478528 0.23169092133452532
0.21209674981220186 0.28054744400521764 0.3894100095175639 0.24610864043157582
0.191966953727424 0.2741697977910947 0.389891786322843 0.2031693715173007
0.2410950193750223 0.15672810260446055 0.39876347739210816 0.2540314057222833
0.23105463083609457 0.18428919784479406 0.3966814780329926 0.21358372251500868
0.1615338827073073 0.26544961003284157 0.3905505223659651 0.21801146385492504
0.14675125636446162 0.2412240740712501 0.39238055100248276 0.20694735339876363
0.11172015497416847 0.2138613710531833 0.394447566554273 0.15752992534789453
0.24549948946213695 0.19345835752568105 0.3959888271439135 0.2354503907913512
0.23097295390689315 0.14282588075264208 0.3998136695024559 0.24527109980103
0.1901816403048619 0.23567907916914124 0.39279942405378143 0.2195471090077025
0.22055282040367744 0.3224737506253853 0.38624284267705117 0.21186905496922281
0.23404920877950366 0.33583327326124923 0.38523364652849035 0.21128714454310774
0.2350683111133766 0.2920981040741447 0.3885374565081993 0.23630123556085403
0.1934867739184544 0.25707892716479874 0.3911828522254104 0.25183957278182867
0.19426810549993132 0.1910364424963794 0.39617178507253187 0.20320279273047517
0.21424480860888545 0.2668217669021793 0.3904468643994753 0.22681702519967076
0.1481779983786069 0.17717787154197764 0.39721868212675093 0.22333076427242063
0.19881891199993967 0.1511513587587271 0.3991847544888649 0.2139961878539977
0.17596749781195575 0.2570532270272699 0.39118479480944146 0.20878494906433326
0.23561108592872174 0.255915149766869 0.3912707626467077 0.22342595475299126
0.2465639491709818 0.20752828915261365 0.39492596662617524 0.2244683303359143
0.1778426848756884 0.1803863893845401 0.3969763046576267 0.2421452182503771
0.2431491289732323 0.18333311917326103 0.39675370062324244 0.2196614541524906
0.22133582227056497 0.20088815639547658 0.39542757233568987 0.1965088974688251
0.22195616433701534 0.14989774524811234 0.39927945250439645 0.19467168511239877
0.18596313766440614 0.20062586045411382 0.39544738885155317 0.21489991381328813
0.20515182612010086 0.31388739939315363 0.3868914675415846 0.24254615554072145
0.2187409173075551 0.18860981966773951 0.39635509360826193 0.23602184452950917
0.13282489609446202 0.19484568079775239 0.3958840344681247 0.1830210463636301
0.21443988808805695 0.12232933939273141 0.4013620052822166 0.24108023423024072
0.17829500511956725 0.2849026655145873 0.38908101281531177 0.21260217214518032
0.21285561395540648 0.16694015292560527 0.39799204805761934 0.20706816199324668
0.236241788133365 0.2406347097427316 0.3924250663886841 0.2344021905121926
0.2097431527789123 0.19554664012803857 0.39583107800631656 0.22898933807819083
0.20115742016584154 0.1722155168499607 0.39759354116501844 0.257013447765701
0.23776988679009245 0.12599411346082268 0.4010851620607744 0.20571452017408254
0.18308115125702218 0.22503823098022047 0.3936032476682627 0.2209107204210994
0.2448567690764363 0.3296980451036809 0.38569710871295115 0.22109793056919413
0.12229534436570462 0.23264434260826217 0.3930286764024243 0.1900772756058477
0.11838521969397378 0.20482609579957958 0.3951301022427326 0.11354140606008191
0.23461311728416603 0.09913330035406781 0.40311426209715107 0.20377730337766803
0.16604969341911538 0.20744577733974373 0.39493220501832677 0.22406837496972107
0.2080768162124475 0.14214758479425252 0.39986491035792543 0.2157155077026428
0.19848894346041676 0.21978880918211924 0.39399979461352397 0.2234414155845001
0.24528267396509718 0.2881544359777843 0.3888353655105916 0.21543439064884473
0.1970781313661134 0.2043258536408243 0.3951678859442601 0.24578954340430437
0.24172054395469494 0.21770934175864556 0.39415687734506477 0.23645201713668224
0.24550097898029014 0.10639245424175081 0.4025658956998309 0.21396773120796353
0.21777918051886053 0.17692102531658654 0.3972380799949436 0.24287021032815828
0.24365052261807207 0.13904902936218871 0.40009897679616824 0.23014437341395672
0.16908544260219852 0.2421946094588387 0.3923072340478762 0.18769905495909278
0.2400609681468825 0.3024879752475654 0.3877525921551351 0.2422647326849204
0.22924801887690163 0.20759436253257504 0.3949209765090133 0.20660198386613635
0.14567113347723765 0.218059656280272 0.3941304205193483 0.14656341326860808
0.15363128472496088 0.2290955669307204 0.39329675332931696 0.19405298242180127
0.1874149060103249 0.14645914720869427 0.39953921084661964 0.24908521450396315
0.2011848539830277 0.285814286761832 0.38901214627255915 0.25299742512667844
0.22306717974619045 0.25653125696149215 0.3912242219620502 0.2571059568215717
0.12975865745298767 0.22476490608240965 0.39362389851714813 0.19549996277340145
0.11539861661601976 0.2240737189674638 0.39367611262019114 0.15021475125554712
0.1580584748014673 0.1723179557156017 0.3975858056647683 0.18837370139239576
0.15124216728327833 0.2572983110017426 0.3911662824972608 0.18681491079844242
0.1341194977608377 0.23962849434683323 0.39250108395342914 0.1974772855935521
0.16670653132261906 0.27380582101297984 0.3899192832664842 0.18050000862183102
0.22482343882688638 0.23610079807715154 0.3927675645737181 0.22570616727455425
0.20057178460211553 0.24467210770512754 0.39212007860355613 0.2591982654919356
0.15239309262148618 0.20080485558842584 0.39543386956122567 0.24306458200458417
0.1321778025006435 0.21093944968384082 0.39466829083536303 0.18713035108980913
0.2131041688545415 0.20849588670907412 0.3948528753032191 0.2328219928603605
0.20061435752122386 0.23320282725127822 0.3929864825658634 0.2511223993256523
0.18150394192665978 0.13714590665040233 0.40024274454756875 0.2139028793064845
0.189670672111128 0.11300229191826425 0.4020665819761926 0.23444239402488964
0.11387463077778333 0.19437428983049637 0.3959196442835248 0.15698848624179287
0.15017304473972223 0.12705355502376714 0.4010051328164218 0.22132640764144987
0.22385674480822232 0.09069620069412121 0.40375161068926 0.19866094832915915
0.21265417551670546 0.08620720753237776 0.40409071458219636 0.1804182432376257
0.13383273584553002 0.17264167642169836 0.397561351799012 0.1874543584670221
0.17551445618433048 0.12320012082568965 0.4012962258278522 0.21218885440802485
0.17003855998292708 0.13474393429250076 0.4004241924018964 0.1957971341117477
0.14884447978852441 0.14031883391953148 0.40000305784050594 0.19617226623455997
0.19910251045505592 0.11923026782124678 0.40159611325465083 0.24619407338434704
0.18361896726954754 0.10101977172561476 0.4029717558310215 0.17492657560960337
0.20043600674940965 0.10682719092490485 0.40253305646405085 0.2247196084395175
0.16020032352798874 0.14593538773733847 0.3995787766719053 0.20843622022079236
0.1611714273252541 0.16080065143511502 0.398455836937356 0.2558072773171884
0.1629751289535091 0.11635930246847985 0.4018129893987059 0.2138065632820375
0.14597902065898904 0.1543005518459046 0.3989468622064431 0.18519281863390682
0.24409237804027517 0.0891239014719996 0.4038703840461958 0.1771086306744523
0.17016299202561497 0.10318530581030101 0.40280816880561415 0.20196743737421727
0.19528889779942546 0.12955408830527013 0.4008162395524709 0.23224183807871587
0.12673672190417273 0.18322149001474108 0.39676214007231186 0.1908652216276573
0.19274280931174015 0.09553140296786536 0.4033863537474284 0.1765452465016445
0.21073751983399416 0.1014128948456118 0.40294205884205525 0.2237203011229557
0.18669238972957877 0.08668768222242065 0.4040544189515326 0.17323843108577397
0.1711945179080547 0.1536525713090218 0.3989958114283926 0.23163853081699182
0.12110487102926057 0.17042570632408363 0.39772874882094017 0.26626018057595285
0.1535055031337358 0.10268617462900978 0.4028458737698597 0.1924779487540689
0.11765801024782857 0.14586060280035681 0.3995844260151655 0.17540867260593335
0.12029821421327522 0.1311597764598132 0.40069494395579075 0.1625824704670296
0.13197452313345548 0.1299059701663385 0.400789657977351 0.17312337712496229
0.0979719171171086 0.11944045827978783 0.4015802352169302 0.1203998234775592
0.11385736856157856 0.1003894038507541 0.403019374571493 0.11656644893739407
0.0987840358595972 0.19657036818133095 0.3957537499078532 0.11566489339493771
0.1292237425930494 0.14583735944091133 0.39958618184623695 0.145228872114114
0.09817616319657384 0.1348020389408306 0.40041980310751873 0.13178104147094424
0.09568888994533481 0.16107508988751884 0.3984351055296152 0.08092404043070021
0.15123768043095664 0.1153412356598169 0.4018898953786546 0.2358944419890443
0.1006607271785708 0.09357328561886519 0.403534272265445 0.15622930303400506
0.11427441729799931 0.18243381058502198 0.3968216423151043 0.15274554792939657
0.10371577053762245 0.2060594063659771 0.39503693665537193 0.12287296381513564
0.12729655041498916 0.10592217577908858 0.4026014223866653 0.1867603755323449
0.14224287722108453 0.10854194809245374 0.4024035216641514 0.19201289883836198
0.11069043739787157 0.08983405038321828 0.4038167385511634 0.16878420206478262
0.09895722457071167 0.1496300775569449 0.39929967539999905 0.08987009975880847
0.09945364336072905 0.17309704006050886 0.3975269530870829 0.13515897931019308
0.10524130878470614 0.18775813914263562 0.39641943619090114 0.1674648999848582
0.1567925515796821 0.08875014829875724 0.4038986178063013 0.14241671991639918
0.11838638515500062 0.15950588607845106 0.3985536450553602 0.18046630684753037
0.10829620170662428 0.16369469764703337 0.39823721723769523 0.22773583877530118
0.1287777823271222 0.1617396745231815 0.3983849020142569 0.2550200531116663
0.10955618109077907 0.12471868318728563 0.40118151181739825 0.10898487204316558
0.1429928224290033 0.09725480600551742 0.4032561658281981 0.21639493457579903
0.09673386307279236 0.10365225103777222 0.40277289520667603 0.10711583897909045
0.1212529445326878 0.11543873657225048 0.40188253004353836 0.15126330852292463
0.13948038836227272 0.11841325702584561 0.4016578312237608 0.22134791523283368
0.12495593817329659 0.0907772633718108 0.4037454871179855 0.11142052934635154
0.10955699002470515 0.11316215091478157 0.4020545060370929 0.09623496659224365
0.3575478793031072 0.08436561024210276 0.40430366572157284 0.13572952850821152
0.3064099112217249 0.08330034503995665 0.4045286684332031 0.11728911148462255
0.3171863460293084 0.08149488586629255 0.40492970947702156 0.1187601349225214
0.1699197482805113 0.08281240202858138 0.4046454221652299 0.13698924337721402
0.1417843091000954 0.08199129209422472 0.40477810247202534 0.13935273663625558
0.09698402436298886 0.07929448786516907 0.405918755273901 0.15358773025116632
0.10755465329996913 0.07874998196463413 0.40622283228306494 0.11997442367462781
0.34441075648130204 0.078545299590164 0.4063354841757093 0.10901165045507483
0.25790811117168677 0.07744501412666904 0.4070947065519942 0.16091973517817046
0.32912025519990457 0.07736422434480542 0.407107232203027 0.12656033718616255
0.372511459748442 0.0761403839947311 0.40815073533539753 0.10728272570625774
0.2419209139745442 0.07579380547014543 0.40857439269749335 0.15623384988351963
0.19678729529974642 0.07831499054363582 0.40648752615493955 0.1595339106938543
0.2996949714170614 0.07621412438882846 0.4080504822846285 0.14056361816640398
0.27742664957465013 0.07556045843138079 0.4088075485075121 0.15118682030658995
0.28704719273830953 0.07192581641746472 0.41502933087088917 0.1835303189858437
0.38595723593779724 0.07178471195995581 0.41545325470518735 0.17598743135199568
0.2529352439368585 0.07146585313176229 0.41710387103266616 0.16318140680977553
0.27049629865359054 0.07141623017374242 0.41866375208002504 0.17490780935852632
0.19055991163220753 0.07194456258551779 0.41497884156041887 0.13549907142634746
0.16409139339642106 0.07221248669830946 0.4140743807968556 0.1497744719482683
0.10888911405739632 0.07138854285212363 0.4176479501183731 0.1371989275847454
0.12468901925489904 0.07135187254422778 0.42024610554466224 0.1689380102236581
0.0933515362103982 0.07137169286758026 0.41817265454714336 0.1888754334647577
0.3180554589488828 0.07144652779023056 0.41749675774751754 0.16132786185273623
0.3360235353956046 0.07135278376723156 0.4201507803467557 0.13213157491143365
0.3574877988586084 0.07135473277185994 0.41994689035369104 0.14421417029538122
0.14753000478489378 0.07380905773744874 0.41108815111320707 0.1141476148239348
0.1367182726436415 0.07256391250776995 0.41317836456082 0.15676144133944606
0.11954053020461242 0.0739821993988436 0.4106899771653786 0.11045440186753677
0.210696110982716 0.07349162096015083 0.4117633695811753 0.14930648905485802
0.2337142286894458 0.08466117846233111 0.4042785388857417 0.19048045411297435
0.11068805381565996 0.07259320880645669 0.4366895239791422 0.1908678949150399
0.10009653631642654 0.0728071722163013 0.43952193033292153 0.19744771247915038
0.13279251207698017 0.07251594470786732 0.43566674174847647 0.18234530181232753
0.09764815812905853 0.07199156800520319 0.42872506051013815 0.20562261729012143
0.14670741849950603 0.07189070834121983 0.42738991002126187 0.19201059621610875
0.12031088917490174 0.07204744882979464 0.42946483046540485 0.20452197385216866
0.16247161236217172 0.07190554052885015 0.427586242220543 0.1823384348877759
0.18046182950424927 0.07173173260081059 0.4252853738855553 0.1750028771873923
0.22920203177881307 0.07146062333041214 0.4216964651560013 0.17749239075917372
0.21969847292279263 0.07188520163161143 0.4273169766542393 0.17143925292383938
0.20286532023391057 0.07137355136365235 0.42054381795531937 0.16082912170099403
0.19546693932897025 0.07193243403620715 0.4279422329906319 0.17091588138038274
0.24331936790868466 0.0716856189176424 0.42467494114879406 0.17766427350295855
0.24667811677000256 0.07241601853936638 0.4343438965647967 0.15573400239549395
0.3137989655343941 0.07190835529435884 0.4276234676662781 0.19864098391372575
0.3241895848960518 0.07197352379169508 0.4284861313368707 0.20289404112094162
0.2931326228456549 0.07189615607678788 0.4274620175005357 0.18444478144333398
0.2811517601549178 0.07170043011898615 0.4248710132784836 0.17909226467196565
0.2621146890962015 0.07208174603691653 0.4299188422143574 0.16441817563833433
0.30368873156798626 0.07141020486743724 0.4210290351343733 0.1587041085851675
0.3558488221591175 0.07257033870916099 0.4363866830624584 0.1712496334919328
0.3840737300375681 0.07205427582964405 0.4295551555660857 0.21938253536579702
0.3692173973803768 0.07207470954703848 0.429825629127554 0.2022418822638074
0.37482169556964906 0.0713772137568761 0.4205922984847389 0.1529772800700577
0.346895555706921 0.07169603062099976 0.4248127321217733 0.15226026367316656
0.1054273861109756 0.29438583848841615 0.3883692861701663 0.08211125040212043
0.10611201997337533 0.3152268739135375 0.3869163275225464 0.11917981429880681
0.10067289786621378 0.26246990784858193 0.391044224614413 0.10012639282537754
0.10054029608289212 0.25153087882194286 0.3917793274016048 0.08873399577692391
0.10529892723270909 0.3450914482767451 0.38522619123247903 0.09446130068439854
0.10593913684687528 0.3615817913578499 0.3842244348846101 0.12122287244351174
0.08575562347631253 0.12552623479519542 0.402407983306398 0.1154781042342896
0.08841065709220801 0.14472859175096164 0.4005251364420941 0.10434603581602338
0.08334132763749245 0.09400440570331586 0.4047294945255614 0.14448595147581322
0.08998271037484291 0.18586725726955886 0.3981521293906676 0.10816037358191034
0.09037779642685134 0.20385878868471174 0.3974696298204787 0.09474817610202761
0.08259884942496931 0.1371448811520492 0.4042251705324925 0.1103094659289239
0.08122298414312078 0.11378492236677798 0.4055614707225565 0.12468561596986559
0.07767043224479184 0.10143108199836466 0.4092198716351494 0.14441408484899626
0.08132150313686326 0.16749913240366693 0.407112829514251 0.09935823847670472
0.09108327549827161 0.2735744169652321 0.3971061538059252 0.1400638763743484
0.08854917915228572 0.23332119429485507 0.39914733804028246 0.12760802519560557
0.09022799879688 0.2552226725931648 0.3975875108090494 0.12735238103124039
0.09614832914561375 0.3461880672633069 0.3928277132860013 0.14509510445506288
0.09299332512792921 0.30904266279803394 0.39593734873807457 0.0957625952375653
0.09660700344952203 0.3358163152876046 0.3915438978342624 0.10668477431093067
0.0948293205774139 0.2937958472260825 0.392764983930348 0.09801349158520911
0.08499096005691038 0.2173512367486809 0.40443721443125297 0.11596258972613722
0.0970503153045014 0.28386595477136867 0.39125354416290425 0.1207598601665847
0.09856423406150994 0.23836054156688524 0.3928890474479223 0.11995448553729861
0.09615560960039014 0.21546089761144027 0.39473010074869397 0.11552585114349953
0.10190781665826056 0.326275956820124 0.38730692258575194 0.1216450204059936
0.08341105116616078 0.1963418347502164 0.40565564466051796 0.12728417696918456
0.07440327361990501 0.09144711928857044 0.41524772656568365 0.20963029604527847
0.0793248744328523 0.15630106493164436 0.4124116096732947 0.11851376173785677
0.09535171429877239 0.35775904818722715 0.41456571000173525 0.24582580086040712
0.09425822521667783 0.3440776508285279 0.41354439610478677 0.21945676330268335
0.09278071089105676 0.32602415140828256 0.41789496011961863 0.2050627609709473
0.09488460661760278 0.3511192699113779 0.40359867858070986 0.20373581026268578
0.09044764877383926 0.29708986299426726 0.4191111516392602 0.22438571439628474
0.09103610567095705 0.30384015096670675 0.41155440780677843 0.18587940690215637
0.086384685806068 0.24606625568822219 0.41281881170264734 0.15665032899016393
0.08892212128416657 0.27775883347417823 0.41445694179754217 0.19088219752100738
0.09247887868956306 0.3212160540999286 0.40395619236880326 0.11204421058829195
0.09120095451151808 0.30690056522760323 0.4249179207594669 0.16311219763268772
0.09351275313223967 0.3340630857744866 0.40374910405819303 0.16531981953686287
0.08770758932238719 0.2627964868082002 0.41641523810074327 0.1793355859240832
0.09021230175237788 0.2931651337056692 0.40591667883253413 0.1456785853741656
0.08596354377381699 0.24185404506195882 0.4264180771059417 0.21350864060606173
0.08475590745308263 0.2257735052082776 0.4124383716134356 0.13099855224808585
0.08505529597376246 0.23023348531480675 0.42217093064651845 0.21324756555965163
0.08255609384368774 0.19897043950083054 0.41992227798654275 0.20202298484075276
0.07521309101692283 0.10773751133079404 0.421551692021809 0.1665628507731522
0.07620520352175092 0.11987290623972421 0.41880204664560766 0.15155741614083992
0.08149201219494552 0.1860632750874835 0.42430834879157453 0.21323557812359073
0.07912106152470656 0.1571311447655533 0.43179338926533145 0.20703088375954748
0.08138557187720928 0.18385597657340041 0.41261854118740127 0.1595241478758762
0.07709007959764139 0.13072304616306007 0.41669971919871385 0.14566360918396998
0.080664285960544 0.17527288632958332 0.41778925449475973 0.2031313358745002
0.08008288192956617 0.1689128021727479 0.429349986285863 0.2257523533552318
0.07717233542003753 0.13274692530033486 0.42994453567387475 0.21406210682110982
0.07815543538733738 0.14461198532569544 0.4251005361200013 0.1899283801930507
0.08355364006603005 0.21086328176647154 0.41306680961058384 0.1498666801126868
0.07658087073259799 0.12613482233295217 0.43982585668951324 0.19542823880019902
0.07456329624028837 0.1007797727936598 0.4364642344806629 0.19297780429726036
0.07355396606929725 0.08730364897289825 0.42430113615683335 0.24157625186113893
0.11995073707194193 0.37386317416067943 0.4030800361699876 0.17796172515075961
0.12971482830386072 0.3747852850568864 0.4152867635952242 0.2085814065319602
0.11281335386121749 0.3748242234792507 0.41580221753201907 0.22712561520403438
0.13275843282407224 0.3738496420667775 0.4029008901190881 0.21305181260557382
0.18295105838068046 0.3745519320294257 0.41219765721358365 0.148955678566776
0.14956195027063748 0.3742354234410678 0.40800778894447565 0.20300611919473247
0.16194433291920024 0.37465300733204265 0.41353568652643846 0.1757147308546154
0.15794643843474251 0.3737892360967586 0.4021012449202967 0.19823621488048326
0.18833618697322546 0.3737533894287688 0.40162671419875096 0.15870134006365857
0.1737071883634056 0.3740522649421125 0.40558316596825916 0.19060884158554822
0.20108449875472345 0.3741999583127167 0.4075383000337227 0.14656422662567278
0.2160782665788194 0.37409540028641153 0.4061541995481902 0.16507865881567757
0.24640629150675233 0.37417533131541836 0.407212339695911 0.15839499913867244
0.3478832073755166 0.37413466912645826 0.406674060980066 0.2200933469797073
0.3244772972425391 0.374648177680567 0.4134718077955305 0.18484810473648558
0.2717723311732493 0.3736485195242622 0.4002384770661751 0.16941215172543836
0.29279227353776693 0.37430506824054394 0.40892975949407573 0.1797294286510964
0.3343382595980773 0.3737496833500452 0.40157766692301633 0.198915252508601
0.312015187831978 0.3740135487592937 0.40507067321159895 0.19478222070545514
0.3593605070575521 0.373919072103378 0.40382001934999523 0.22199606765235141
0.36475361218791247 0.3746758219643876 0.4138377071907429 0.22305757125009326
0.4010372600661406 0.09311722245866592 0.43393825002499187 0.20431618531243456
0.3978516267795131 0.1327107973616933 0.4334138498132166 0.20217609455929733
0.39673487098625193 0.14604153317380508 0.42595974492302835 0.20199899965069593
0.39880017816295055 0.12040250838374772 0.4267003269566104 0.17390502998937016
0.3961067643469305 0.1532366429222744 0.4177612383980062 0.17934874103944096
0.3979499435170879 0.13060832421691138 0.42177374657611477 0.1458813395166753
0.3958385696829834 0.15733182271520055 0.42780243695904946 0.22517945830184105
0.394961058726162 0.1681218069590152 0.4261167749988834 0.21100779175593018
0.39397319674259124 0.17972679193398858 0.4170455483601038 0.18415094507248658
0.39341508045962825 0.18723926527149395 0.42457562607796295 0.2204045352807088
0.39018923025338415 0.2274595117209207 0.425722532570537 0.21847401722698104
0.39172418879901183 0.20764080118970474 0.41616621124960684 0.18877715274230902
0.3941754246492899 0.17831606672106057 0.4316767457269377 0.19958137910833929
0.3901192571209441 0.22742946344189505 0.41380080553774257 0.18542330026640494
0.3892848037001103 0.23838346253074028 0.42137754684207596 0.24718162739588836
0.387016999615468 0.2667155018629545 0.4229363780260645 0.22522715291327416
0.3859702200131847 0.279761637047373 0.4232395895068346 0.2528649444562542
0.38531003120771307 0.2867698454285984 0.4072834821036809 0.13473247161827914
0.38656671393169145 0.27159424158269874 0.4133606737671992 0.18916114474357976
