x y z curv
0.21025940826728373 0.3541145228357381 0.40338746244111123 -5.4624532273749845e-15
0.13504009855118587 0.31051023442035164 0.40710314634347355 1.28673752349751e-14
0.11340731415114105 0.4120829726620352 0.39844776988954866 -6.78515613345166e-14
0.2056782584150465 0.3822899863590929 0.4009865302734874 4.267306685377065e-15
0.12259349610232625 0.31893337414331707 0.40638538128517365 5.256366209848743e-14
0.10198855585282207 0.34085444685212163 0.4045174094659166 5.411012276489778e-14
0.22402267689239086 0.251907910656222 0.4120968541741208 -9.881803760671734e-14
0.19282423061180404 0.3689850200527284 0.40212029525883186 -8.438959572206756e-14
0.1870999512943798 0.35765776549091227 0.4030855317720402 7.471221598961442e-15
0.16657447145789203 0.27951962097150296 0.4097439654912217 -5.5434325419957866e-14
0.10711304078383367 0.32150964608537497 0.4061658490782537 3.8552250268782785e-14
0.1530927243229302 0.41650970561178274 0.39807054902546424 -4.920117800297406e-14
0.15216367587650212 0.37687785402196083 0.40144772161998415 1.2520790440221505e-14
0.189106687454215 0.32700425873325634 0.40569762710763063 -1.1317009306972055e-14
0.19399955884890088 0.4120764997438866 0.39844831529994296 -2.222805257071103e-14
0.21836005265553537 0.21791566277707258 0.4149934562283406 -2.8708075642425335e-14
0.20895252963369748 0.31590767072464687 0.40664320573707624 3.459226343611476e-14
0.17297093581177292 0.38453030648929354 0.40079562704688004 -2.6659737601239032e-14
0.1786519710723914 0.31456458487729017 0.4067576572294479 3.57635601197467e-14
0.12271468993377682 0.40106042828710625 0.3993870398016682 -4.4480985566872534e-14
0.18313158790838283 0.4188633946336671 0.39786998042419897 -1.0090935472052628e-13
0.2536637241099517 0.18782006096827347 0.4175580079287035 -6.836561185389672e-14
0.16871225574730164 0.3716287643207641 0.4018950141533367 -1.09902926394434e-13
0.16891592895766383 0.2681609338090901 0.41071187987178437 -7.770535536306977e-15
0.1324497777092114 0.2992481804713106 0.4080628266381765 7.755668755248055e-14
0.24282241538333893 0.21349107934899098 0.41537048901273693 3.5881958070792487e-14
0.15246686764345924 0.4274213286799576 0.39714073045191334 -1.4779394448861934e-14
0.23038915951087774 0.2800032180850839 0.40970275155725283 -1.9333937327310045e-14
0.09113071423367006 0.3281302536725001 0.4056016845328187 0.026887393494087523
0.18566074651269376 0.2710871412323679 0.4104625259375301 -9.353112692569843e-14
0.107226778724025 0.37791177734186093 0.40135962073806375 4.626502969790587e-14
0.10190450655218171 0.39727006209664506 0.39971003212178297 -4.217357156323408e-14
0.17233357234051386 0.4642862590166999 0.39399933571267254 0.00016950179150065453
0.17482526493670028 0.3472088464133921 0.40397592266312193 1.3923340776701683e-13
0.1572263806968703 0.3905717284840726 0.40028081696934126 -4.507130191217998e-14
0.19552136147340435 0.3921240825380172 0.4001485323688488 6.367984277022372e-15
0.18207194858865364 0.33674170422693195 0.4048678649162395 6.09980876182123e-14
0.23736237173655653 0.23529269966447752 0.413512695001755 -1.2619950907314118e-13
0.21424973260440905 0.3271288401172713 0.40568700915513584 5.675413949863321e-14
0.2046813526008191 0.36383963482081455 0.4025587511207932 -2.014099484277124e-14
0.2625164035147719 0.19975231770945606 0.4165412167657083 8.913581696257843e-15
0.15442568803587842 0.3048348010923303 0.40758676893247736 -6.139379876500298e-14
0.07978666193481314 0.35572963642921124 0.40324984279571224 0.10012093378701316
0.11860276818493617 0.3057189667979563 0.4075114287373699 1.1104104661475611e-13
0.19259663370858732 0.44844646504346275 0.39534909993900524 6.920035057731248e-06
0.1674353028449311 0.4188778843562334 0.39786874690458257 -1.4018819274982513e-14
0.09736786388649747 0.3164075905453617 0.40660061431532224 1.182909084825597e-13
0.23340014726983993 0.22151511403105986 0.41468673289793545 3.239390441853235e-14
0.16225672638062663 0.31688596020395704 0.40655984574934184 1.1190540890343074e-13
0.19837919821216976 0.2589038702632283 0.4115007052736056 -1.1614774224468767e-13
0.1729229793530645 0.25651660714297797 0.4117041344936165 -2.785616999646132e-14
0.2359748334466205 0.2901342758397716 0.4088394472841017 -6.022193264983479e-14
0.17549278520084474 0.3613843155742873 0.40276797993369184 9.728825487429722e-14
0.2681694605339294 0.1735071374375952 0.41877766247735687 6.952382488711608e-05
0.2022278317245646 0.3420733744157994 0.40441353259257984 1.2009921968435464e-13
0.18149509346417877 0.30128088485066973 0.40788960883686737 -6.192979541938846e-14
0.1492694447251119 0.3519664921297252 0.40357050852772863 1.1925485877567066e-14
0.0865392714953884 0.3908343221385177 0.40025844583208053 0.0333538658703099
0.13600184057592435 0.3417610329405426 0.404440153402672 4.410033276253327e-14
0.2066106875724765 0.2401604069249587 0.41309790252438966 -1.0872046675736302e-13
0.21627362114393986 0.3426874480686234 0.4043612040940872 8.11835845200112e-14
0.16312276220143343 0.29625359205712387 0.4083180039320923 -3.9961687063932147e-14
0.12266675604556583 0.4178115368025474 0.3979596176399498 -6.738996511480002e-14
0.22137067679414502 0.3069422730573199 0.40740717854604047 1.662816707524145e-14
0.14730359779652677 0.4006880598100605 0.39941876877545485 -2.7417963134807565e-14
0.09775567429538859 0.3842865077595577 0.40081640777149014 3.8634745131663996e-14
0.09007738412140084 0.3496914539705003 0.4037643772382899 -2.3734460757781523e-14
0.1346192884547856 0.32273669867656174 0.406061285410636 3.726104839959843e-14
0.18155451491185015 0.2411741732292466 0.4130115177721311 -1.5022885913516046e-15
0.17142679519660062 0.4325411237769631 0.396704452857941 9.307091705728634e-14
0.07875052963254478 0.33985236613929104 0.40460280214438 0.06093601813877495
0.17026424549559288 0.3971115727544025 0.399723532334603 -7.374609167960987e-14
0.1648754894634954 0.44959368947075146 0.39525134294442815 2.363079750781364e-14
0.2207249766189866 0.2709476694282706 0.41047440814670877 1.4304208964069978e-15
0.15211460389804332 0.27405327746702934 0.4102097733760698 -1.502034041976065e-14
0.19478576315721347 0.22634602632925263 0.41427507645353595 4.877079200964811e-14
0.20297908384010002 0.2920506089318803 0.4086761521796045 -1.3511804833565892e-14
0.2665837326082296 0.1606446550765452 0.41987372095258085 0.00024836471591946894
0.1510206934825106 0.2864953147487962 0.4091495427424201 -4.1097349932866726e-14
0.1507720953014492 0.3387454986834498 0.40469711678467757 -1.2519841786644552e-14
0.19067886235493348 0.2955225140971387 0.4083802996030643 5.433595386808091e-15
0.10991082516117008 0.354049975128218 0.40339297046606676 6.237821630954545e-14
0.09457287141541584 0.37146321880823924 0.4019091265576711 0.0008292810873411944
0.22341436437088474 0.2382208846486337 0.4132631749023053 -8.17229575303519e-14
0.21578790323482025 0.2954687579701641 0.4083848784334858 7.523552589433573e-14
0.10628757763144567 0.3649190887099756 0.4024667745081294 -8.640561345306921e-15
0.12580804343338098 0.3708594164348922 0.40196057633676335 3.3260058363454274e-14
0.21246793923498053 0.2843292333021797 0.40933411762360317 -3.9116357360645624e-14
0.10795307326149878 0.30883762307192414 0.40724567764217884 3.129443643063614e-14
0.08177731531654307 0.379442063572701 0.40122922149643825 0.041855384555654684
0.17667963520540692 0.4524422650939362 0.39500860467315607 1.2397625378377007e-06
0.06654500757460376 0.35622482079579826 0.4032076473697809 0.20630624439799766
0.19381360740006767 0.23769824471620885 0.41330771319574566 -7.07090901456797e-14
0.11546557139045721 0.3909008619756942 0.40025277351876165 5.45862001337584e-14
0.20924217996238098 0.265791828833258 0.41091375673466823 -9.664401495650975e-14
0.11718326225335213 0.3351096145521135 0.4050069461116238 6.303149821402827e-15
0.15716519965127868 0.32736621117722353 0.40566678628438235 1.2253779028902504e-13
0.23329775700730837 0.30321859808513524 0.4077244853613373 -9.620669058178823e-15
0.1854986888663941 0.4701952469814083 0.3934958086014909 0.0007447866700253666
0.25515194552672854 0.1639448392835805 0.4195925012696221 0.00016358983265785186
0.14655350323284833 0.32100847898435214 0.4062085523086819 1.1033165877677706e-13
0.15225970814710232 0.44142553241526483 0.3959473819319461 -1.7592268634195318e-14
0.19789967001408867 0.2753023036296275 0.4101033358620066 -9.192191384538662e-14
0.23444196514492138 0.19816405668882991 0.41667656034539735 -4.220983441427205e-14
0.13469714965088914 0.3903147801934734 0.40030271418159835 1.2738984997638136e-14
0.12885149843206434 0.4327235625722313 0.39668890937618995 -9.229112755872862e-14
0.06704306054467402 0.3758353499597393 0.4015365626617896 0.07381436322016215
0.0644207234552051 0.26459230296231345 0.41101598117682314 0.13731322842353508
0.03669722851824908 0.3091821090446141 0.40721631898265837 0.20562151897216968
0.10260798567352662 0.21623249523469615 0.4151368821083249 1.6865565488510205e-15
0.05045335222663503 0.3272516310305674 0.4056765402273517 0.22300097980749345
0.13074693739661303 0.18053395664497526 0.4181788802649372 -3.2343291906939926e-14
0.09752336173832568 0.23781341146866009 0.4132978910883494 0.0036572555907302988
0.07213089328874084 0.29073437525574086 0.4087883077398758 0.0686044926849739
0.05271225368833396 0.3153488765972794 0.4066908142244559 0.2507376687129766
0.07228733561416237 0.30410815196197993 0.4076486873767893 0.08228824739681295
0.11390834676073919 0.22362491346755864 0.41450695090530176 -1.00756428716235e-13
0.06570560367374834 0.3137266388884156 0.4068290602817325 0.14835937255541215
0.05351594518655807 0.35596257154489475 0.4032299952817344 0.18485333511149152
0.08561640002416178 0.26750866397918505 0.41076745475547294 0.026505286316731633
0.04775210681303092 0.34504993124775674 0.40415988923533924 0.1627377027799468
0.09852019023311176 0.25709669356414366 0.41165470311170993 5.895188832416267e-14
0.0803764416827399 0.277652444161972 0.40990306710754887 0.02832478950784682
0.14434670296088153 0.18081561471726534 0.41815488325605815 8.234973437337158e-15
0.08453438608586358 0.29729240664676865 0.40822948639508383 0.03233351516692016
0.10611193252212617 0.24835745966542033 0.41239940523569363 -2.5629916752255465e-14
0.1680466645064156 0.23391108349891598 0.4136304317284413 4.195171390796189e-14
0.13523488896484964 0.24459116306555895 0.4127203446076535 -2.2297866453182487e-15
0.11880351572130363 0.2836092807777483 0.4093954736471271 8.849376722284457e-14
0.12700210679665766 0.2753890828322817 0.4100959456083904 -4.87017403005149e-15
0.09863327292972857 0.29159594821808177 0.40871490164107527 9.927726288034369e-14
0.20180784487736844 0.1829878753146409 0.4179697772949714 3.336424434527346e-14
0.18971496735684756 0.17097392189082436 0.4189935284957498 7.351111872019881e-05
0.10983186229784211 0.2939232507463978 0.40851658401207447 1.0013531363024095e-13
0.2149807382544591 0.18364249211954375 0.41791399509602095 8.876411515599855e-14
0.22936448397755482 0.17504565685644213 0.41864656164701547 4.7797258790757633e-14
0.14679139520174816 0.25982961152450856 0.4114218228507003 3.968108957225413e-14
0.21716594524415386 0.14562298580402433 0.42115377086927747 0.001278163505455452
0.12122294596058793 0.2374789378368436 0.4133264023191534 -4.5440780758435416e-14
0.16275789201648624 0.15930041076118892 0.4199882694119725 0.00036802206637823545
0.09372954393157767 0.2762293072925393 0.41002434712870867 0.008937094717790445
0.06268190197020929 0.33899185655359415 0.40467612969326067 0.2606458473366183
0.15959470417321994 0.18284867067517363 0.41798163941161043 6.744459792867601e-14
0.1272651795905429 0.22572979642026644 0.4143275879579698 -8.644675930970327e-14
0.19800434031218678 0.21375053510107145 0.41534838292256926 -2.904912713160458e-14
0.21266137896704557 0.20048603206688992 0.4164786978513795 1.2541195843503811e-14
0.18709968589665776 0.18456662577827787 0.4178352464185928 2.9668794373026836e-14
0.0695239504054029 0.32969401167487905 0.40546843173767894 0.15504489095602547
0.15432953825979714 0.17063389905683732 0.4190225030366279 2.943147367467958e-05
0.14040186980533997 0.22863815773399762 0.41407975626741855 -1.0699068062794232e-13
0.22201477035808811 0.15994496335652966 0.41993334481969485 0.0005250410854251217
0.14723139132200475 0.2471859442173968 0.41249923418494416 -8.372263520143248e-14
0.1459219782676989 0.15960061201815276 0.419962688207647 0.0005339680919389132
0.25439159715080184 0.148157471707632 0.42093779841661005 0.0009477900291207026
0.174415989176037 0.19456652776164318 0.41698311962052803 1.1697898055205183e-14
0.1191220261364411 0.25138546252994365 0.4121413784680543 7.64048723225865e-14
0.15513674463542215 0.22144746838017954 0.4146925001828229 -5.914092081149687e-14
0.07746523476026371 0.3170565515719286 0.4065453141342376 0.05925449248795618
0.21020716732821737 0.17292156911344808 0.4188275626298508 4.5486838637883935e-05
0.18259740917434736 0.15212427774448994 0.4205997729307248 0.0006795849556471376
0.16593069121741563 0.1401523891259121 0.4216199396415893 0.001071178339493222
0.18376085500500433 0.2286231179118367 0.41408103786353045 7.927065516928837e-14
0.2296261231042332 0.14867994665912904 0.4208932764894723 0.0007346981952545554
0.1563428677021052 0.23517110854350132 0.4135230605653529 5.97200822559034e-14
0.15174238539058854 0.1475405561315131 0.4209903679613345 0.001110377848275983
0.19920162008448694 0.1654132850424917 0.4194673699074609 8.384881994322378e-05
0.15377340047253119 0.19417214081709078 0.4170167267183595 -3.3167428768525556e-14
0.09565330509233944 0.3034805713940423 0.4077021711253178 8.494562857035565e-14
0.1623249616011527 0.207493894536505 0.41588153325742205 1.2756625592450591e-14
0.13006031613702285 0.20411594961470142 0.4161693798178227 -9.92920737334318e-15
0.10634012285946111 0.28007243183329544 0.4096968609778518 4.0264492763749856e-14
0.11167021059741708 0.2610067282652939 0.4113215165956048 1.167353908917757e-14
0.18195846798809645 0.21443716280320346 0.41528987296254627 8.18287241647344e-14
0.16772750003621872 0.22023950244761242 0.41479543520598633 -5.206938733272243e-14
0.17431004099407182 0.16389764798558024 0.41959652266860625 0.0003428925673111263
0.19956121161089407 0.2025656792345253 0.416301483806181 2.873829345216419e-14
0.13416805653495456 0.1926912994372251 0.4171429144175556 3.2306569366777786e-15
0.16069832298094777 0.24874944861114767 0.41236600247977107 -2.4408316174304743e-14
0.20333378937438545 0.1473279065981882 0.42100848857554085 0.0011991676178214668
0.14879639690148308 0.20832630378266923 0.415810600739604 1.9335456135930586e-14
0.13163867560686346 0.25751287947152407 0.4116192397323425 5.6568626003619165e-15
0.06723403485638176 0.27630052969537705 0.410018266069925 0.07857928643326205
0.07719113371950181 0.2560487409628063 0.411743994966433 0.0868892655674286
0.11266270228182992 0.2069611214300115 0.41592692651676416 -3.594099149972962e-14
0.0970143721853234 0.22603584268945742 0.41430150195444404 0.0028679519287579526
0.05479802895042535 0.30351194396091663 0.4076994817405778 0.20064773504193725
0.13931077863298472 0.14834322411429535 0.42092196917922564 0.0006454342573109598
0.055090649231914576 0.17148739913485375 0.4189497709552857 0.1870570934990202
0.07042266556635095 0.15159513486005408 0.42064486219262975 0.09590497068496426
0.1070239927807852 0.1880857193272808 0.4175353685160191 6.410761569340025e-14
0.08414912341428787 0.200444591127653 0.41648222469071766 0.04467907050114507
0.03986448532649507 0.156052854539232 0.42026500389885657 0.1877803657024905
0.060306236391487994 0.24935097769734832 0.4123147359534264 0.13836430609762757
0.1321001314087354 0.16078964146270686 0.4198613652835522 0.00038216638042795924
0.06819954789793088 0.2150061805466998 0.415241379391005 0.12951199349368425
0.082451342688609 0.228629700105054 0.41408047039109763 0.05176997309417699
0.07334658779505318 0.19552673182139182 0.4169012931336749 0.057512802973677814
0.11854044180095788 0.17136263497406604 0.4189604025572374 1.1522864261330935e-06
0.10954692186977649 0.1626212340350146 0.41970528870640583 7.386114113334651e-05
0.11835458947325395 0.15272211627656088 0.42054882806110105 0.0005732389068749977
0.04234860336378045 0.22058819012452283 0.41476571631960063 0.20984123800046856
0.04504232563869319 0.14514633979140715 0.4211943871668248 0.20756845302544444
0.07952878730941819 0.2159613825176408 0.41515998320259384 0.06543031224566992
0.04666966273265928 0.25636575076297957 0.41171698196266665 0.21227522786824773
0.07493273695381167 0.1844165667171914 0.4178480301794638 0.11614160454317592
0.051999102919627144 0.22713642173014287 0.41420771800118666 0.2000808863564203
0.09520526337757314 0.20182581984244696 0.4163645252343425 0.00693484883820532
0.08374388423938785 0.15166485505723468 0.4206389210843841 0.06354257162202681
0.06920105896459897 0.17422302453711971 0.41871665849589057 0.1409135085215104
0.09084944511171611 0.21356551579749344 0.4153641436052038 0.029949997089802855
0.08901269513514548 0.16189946748760048 0.419766793024518 0.03255764593051631
0.07396701649912071 0.16403893005000278 0.41958448174049046 0.09725093569331715
0.09898932167187979 0.17866996103449473 0.41833771907574246 5.139291565227164e-14
0.04393309323606673 0.1781185398672902 0.41838470765259334 0.22112547999217932
0.07085807076826375 0.14049270670712438 0.42159093994503094 0.1050647677366293
0.04872764166858906 0.20842058728341917 0.415802561430369 0.22588314943873714
0.0485378664714644 0.19606588788885643 0.41685534970999544 0.22813542295120992
0.03198872006360163 0.22635523059767867 0.4142742861014812 0.1984037250506418
0.06228862878576946 0.16044107147700967 0.4198910681831414 0.13299149978574012
0.059094207353526454 0.20176754776759212 0.4163694908069945 0.15770335810786168
0.05700164139217671 0.18499893234762224 0.41779840471383367 0.1680047348092794
0.11990046635628701 0.18535396627343625 0.4177681509987064 -3.8742158151854376e-15
0.07587094252715844 0.2434731494231302 0.41281560679772045 0.061230466263324665
0.0962575891165538 0.14290541859722095 0.4213853441050279 0.007742324505005477
0.08711348352603675 0.17807391720879195 0.4183885101094863 0.03465330297310793
0.5046680420637131 0.5253592548302978 0.42060110190455763 0.17016371994268117
0.5046680420637131 0.4024279986791049 0.4432766667575279 0.06738383980921583
0.5046680420637131 0.4088122511444939 0.43069717301166166 0.10797509875963261
0.5046680420637131 0.4060259263281585 0.4149809149160028 0.12468863605677023
0.5046680420637131 0.4296680769008684 0.436245290226152 0.06966213008928343
0.5046680420637131 0.4170642066205664 0.4042366709425881 0.079696544390842
0.5046680420637131 0.4288870660770703 0.4042995333784669 0.09356172307768232
0.5046680420637131 0.4511278283855735 0.4238233648042746 0.12036703068271198
0.504668042063713 0.4015035269158684 0.4001772934097983 0.07669652500720005
0.5046680420637131 0.45144865441550963 0.4079642720258827 0.11520365396343338
0.5046680420637131 0.4308201828071587 0.42002452324453193 0.12595900611546
0.5046680420637131 0.46314808510544486 0.4140948939249074 0.10647125702244138
0.5046680420637131 0.438697373677672 0.4297208769320545 0.1368159004819912
0.5046680420637131 0.4404350746234982 0.39692517616912304 0.055944718746451835
0.5046680420637131 0.4499490380654096 0.43697155642955704 0.07919896721135486
0.5046680420637131 0.4719511515377243 0.42137939598987684 0.11609434089048105
0.5046680420637131 0.47590441822633295 0.4096057062595274 0.12421888785378206
0.5046680420637131 0.46885918265349213 0.4336349046943434 0.08305869188402118
0.5046680420637131 0.4892591206707251 0.4077448910892032 0.1235198458237875
0.5046680420637131 0.5006807438725486 0.40550493238177265 0.13595787021761152
0.5046680420637131 0.4910134706041291 0.4217622753449718 0.1067283459895887
0.5046680420637131 0.5445520213121355 0.43076519528913226 0.2126286056398654
0.5046680420637131 0.5249047079579658 0.43564811699164707 0.16824579562925676
0.5046680420637131 0.5130510810264945 0.41413118598504983 0.1665115105267852
0.5046680420637131 0.5135602276880558 0.39987003879693717 0.08845887150350773
0.5034836171540741 0.5261594732989001 0.5648904481454636 0.14933518632604004
0.5019665788885198 0.5423110972681073 0.5374261637141665 0.24614426745018644
0.5027525173667995 0.5320471535358526 0.5512384430384051 0.20801762125813517
0.5043404895179794 0.5127993199031229 0.579473005914274 0.1118381363108671
0.5041477608221394 0.5298942829023195 0.5792861490744581 0.19321828076092468
0.5035918552852974 0.5379489056629705 0.5696910007158893 0.23416715756793288
0.506670154643232 0.5357496321913562 0.6033424252280781 0.23130568784008737
0.5075556199713844 0.5437958615290677 0.6118891126385344 0.23478333466355383
0.5080861782501577 0.5331989085074054 0.617010167426433 0.2571786433660521
0.505510739347815 0.5104045796625941 0.5935317097260554 0.16482492494931075
0.5069665521889698 0.5036291047899479 0.6070336531527334 0.21822297242249952
0.5054151110689329 0.5241739201063056 0.5916988189389527 0.17163048692714375
0.5067291086146225 0.5172321727517857 0.6039442081048325 0.21070823125693333
0.5031826528368658 0.506462330461568 0.5630898933373024 0.08130158508251195
0.5019822713247534 0.5034849548739894 0.5399862088145385 0.09271625734426953
0.5018601628316025 0.5150635004866162 0.5368672767094762 0.09095341425077219
0.502428977572413 0.496572386772088 0.5515367925406112 0.08558364399598305
0.5020441014918977 0.5262153965148691 0.5416789776984612 0.13213163800469746
0.5042458364610148 0.534053275066255 0.4498007803792669 0.1633661466704166
0.5042555544652229 0.5159633443468759 0.44964549669070863 0.11892729682528913
0.5030319959241217 0.529041024083973 0.46918035071889275 0.1568945778051648
0.5023611842448881 0.5360281966695267 0.479614917978486 0.2380851766274349
0.5028172645867124 0.5142059048451076 0.47051262118541026 0.09676991531673967
0.5016232341544947 0.5283901558535211 0.5259749613025191 0.1377941624237648
0.501596925070113 0.5036659042549642 0.5111052459871396 0.06987438817476344
0.5016218040054254 0.5086997576713334 0.5270963753153104 0.08568155802758179
0.5023028208877977 0.5067761567830499 0.4799318654892549 0.08283297174641653
0.5019408777028977 0.5201486558570618 0.4889370498254212 0.11775853457912328
0.5017768207584162 0.5350550439087436 0.5047193672515216 0.17404107478145395
0.5016587532137312 0.5066233248537013 0.4983988127718672 0.08469782327738472
0.5018338606654298 0.5307088259841001 0.4937763859144244 0.21814350995237142
0.5016504902606752 0.5182284554108383 0.5084797675792854 0.12765250271852477
0.5342979033800603 0.5286638901320473 0.7178436475167416 0.07856056886580048
0.533411900806896 0.5583735168126833 0.7114766950248802 0.09698046801459381
0.5318534055999578 0.5320383764650187 0.7012772113975725 0.0988048577744188
0.5317169401908892 0.5471700012596918 0.7032724077240616 0.07676094502669636
0.5334328860848556 0.5434075074262874 0.7132402402660719 0.040026322684880766
0.5299812335662951 0.5375994188771491 0.6906755410179738 0.09590983891146844
0.5290562775395553 0.5490936060078995 0.6870817775393862 0.1340507865951804
0.5208741297404325 0.5197490402655471 0.6527411283035991 0.1761352432434979
0.5193086087041827 0.5097292899916714 0.6475747939725837 0.20700480208410985
0.5195989000551019 0.5408461392018888 0.6485328428023633 0.17984445742510916
0.5246702752719475 0.5162796698270146 0.6652686781612062 0.10566459509415269
0.5102139448158929 0.5038317399563936 0.623763616403529 0.2393047375260317
0.5113325227902803 0.5171138666505181 0.6265765255807725 0.23905746338464914
0.5245065898261543 0.5316986759691904 0.664728926850515 0.12191104236009365
0.5227064181178356 0.5480826945956432 0.6587884337681859 0.1940578130310128
0.5160047678789041 0.5231090927497042 0.6383259131022836 0.22280495595998143
0.5155136329665072 0.5356072269449745 0.6370908099643557 0.2371266026139092
0.5168996283175477 0.5489999573166497 0.640576135300739 0.27332900805899424
0.511537046018817 0.5436595733578224 0.6270908334642712 0.23732908355652113
0.5293724106685627 0.5256374780387564 0.6857503302828538 0.08081258778060786
0.5268645034067283 0.5474601383152726 0.674014014554582 0.1305233568747606
0.5213764350706432 0.5992374176370449 0.81989219798653 0.10946657504811123
0.5185371821810354 0.5686964565373251 0.8218870789797462 0.0710374393171501
0.5106292663883135 0.5829231711575886 0.8259384007992139 0.1082073200612049
0.5110028942196079 0.5983865599514355 0.8257538689328313 0.13378810877312172
0.5226112588992138 0.5881022099840834 0.8188372028432346 0.10595675221047043
0.5259714480400615 0.56076609700773 0.8153039473119902 0.048619570694080745
0.5336570163712315 0.548387330399646 0.7993255700569971 0.07213214799308845
0.534074317065884 0.5664088376278507 0.7966507528672171 0.08304306486602585
0.531899446905071 0.5831844478728424 0.8053066183608734 0.09179410433375634
0.5346056924663043 0.5802409248255376 0.7932072123766044 0.11789336688735111
0.5292849598043352 0.5959358427034629 0.8106524408251569 0.1354387034837493
0.48128895411087763 0.6016924028176419 0.8288724833173019 0.11123947405946032
0.47818965570341465 0.588579892571524 0.8290514539461191 0.13556065441691345
0.489299199157048 0.585158517918159 0.8284098955099959 0.1189422652255981
0.4948289893736248 0.5979907506178818 0.8280905575403563 0.15308919978592003
0.030478668769101457 0.5630043175987895 0.7968202590901009 0.10070920947485304
0.03338592148166592 0.5603535016239909 0.8071172059730939 0.07994307201489473
0.03130304183794924 0.5736998835010779 0.802088408674855 0.0794337538490158
0.03361063201947335 0.5882338371326499 0.8078182771366658 0.10551938623098156
0.042462700434083143 0.5662944776487712 0.8192586617128235 0.06670262816762211
0.04199303627655361 0.5877922160889109 0.8189860226188388 0.10694300085081028
0.05665491607912485 0.6003231727890065 0.8266503885507481 0.1410921889385506
0.053332437723037834 0.5829289497602252 0.8257547612430249 0.09156727432338949
0.038305519751475677 0.6123922391019689 0.8152453853008225 0.16071864586354148
0.04502383674043693 0.597948367001823 0.8213639430364514 0.13674089012583074
0.05756426563924154 0.612247873055187 0.8268582210167374 0.09071857454590371
0.06503240929520986 0.5812750135021948 0.8278299187293342 0.10283124458006666
0.0741234654786146 0.5951735995099675 0.8283549098770222 0.14212116966480132
0.08597766286185476 0.5940295997106657 0.8290394450382981 0.12053224860137692
0.07555052394456277 0.6070805032025477 0.8284373056776684 0.1100231192834386
0.060827536583529296 0.5315030598263744 0.4613072165189295 0.182074815388855
0.059897574587754375 0.5352453782128703 0.44793722925135226 0.19209367940475733
0.06002588364672755 0.5211743187849891 0.44978191805861556 0.1300374889811297
0.061845043297448624 0.5123221501126671 0.4737831950923938 0.0874737723342404
0.06105706760999674 0.5019718095502876 0.46246257298406246 0.09071518959699171
0.061991026904765795 0.5350588406928108 0.4779816491193051 0.1880480557248929
0.06085398423010277 0.5164918279047412 0.46127957950482357 0.11545311941733515
0.06010772042498287 0.5073835720149503 0.45062828811841277 0.09357494888994268
0.0629107206764454 0.5134161027619865 0.4955687422805902 0.09098461232682159
0.06262574329121882 0.4986078290600655 0.4899327083486374 0.07563508691571033
0.06239029530434368 0.5243277623191883 0.48291508656891224 0.13340843181506076
0.06329969184042315 0.5201044946779805 0.5256351552809865 0.12920424553491533
0.06332547532603414 0.5020426325061063 0.5286484134738303 0.06844247298582352
0.06321382437876426 0.49973810627422555 0.5141077994851073 0.07671475510413268
0.06323516972725726 0.5117336941153549 0.5171016123921051 0.08412964369247589
0.06305299300328798 0.5401913192746697 0.5117611385479282 0.2126726290512061
0.0631059661856181 0.506068469736018 0.5038652772219392 0.08274965475379711
0.06316643108564267 0.5242893469701703 0.5135173657013055 0.14509081339913335
0.06325868511882181 0.5353121774117725 0.5227664743897087 0.209052052036706
0.0628276079790685 0.5437953674240595 0.49913335927005903 0.19874960716976642
0.06280452051734506 0.5309355217122615 0.49352083307566175 0.2258663509878755
0.05867317487494712 0.5333830261601418 0.606882693966633 0.1959122261239623
0.05845752988202284 0.522093291348686 0.6092731113549832 0.2054428859744179
0.05797480299707629 0.5058239965463405 0.6146241224030605 0.19753592984802307
0.060294064496905914 0.535617763521801 0.5889152171488363 0.19978084314171965
0.06163661342536814 0.5316637779024668 0.5717983788529458 0.16072776143299325
0.06125643389218477 0.5224559982138628 0.5794541801829628 0.12413461029294316
0.06212057107552447 0.5301220639046158 0.5585649933370658 0.1802875190704181
0.06139429751065781 0.510418324075051 0.5726343621424856 0.09610154158899524
0.06176762319177943 0.5206889012019522 0.5654397166960063 0.10759414495360889
0.06266775951993289 0.5326098895024035 0.54477308965682 0.20140517960910737
0.06232109240785037 0.5066570128503709 0.5586794169170016 0.06188774651162602
0.059122209100337775 0.5081398073121748 0.602451406252074 0.17836740719690702
0.05953607917648923 0.5198484827662823 0.5973594027267448 0.18885506945793842
0.0606857459870695 0.5121359590612057 0.5862221721484995 0.1523411727926607
0.06306837760090811 0.5170276152363665 0.5395644341093369 0.09511778873572146
0.05005399645886663 0.5149649938939018 0.6341483982746271 0.25517572553668183
0.05671134367931883 0.5343577045740884 0.6177645162884475 0.2018836201480457
0.05433715551585723 0.516679309219042 0.6236074470227252 0.2539619104195163
0.048740670667247764 0.5282721819010343 0.637380355071606 0.2567738843954797
0.05064244078762463 0.5382770127060946 0.6327000419320732 0.22668720089000588
0.04252996230320732 0.5522820327370069 0.6566545685467526 0.23347881123564207
0.04157254924944031 0.52530628916554 0.65976288493202 0.1644697405225683
0.04670131656009159 0.551090402827335 0.6431119669771456 0.26974127609730275
0.044465569728603285 0.5328583138089567 0.6503704332391478 0.21121745166999936
0.034943560490593814 0.5269829952036957 0.687718952307238 0.10530613534208036
0.037718259903045934 0.5473421766434716 0.6748404712060633 0.1395750693688612
0.030735860603973646 0.5659626838563901 0.7149907712839255 0.1395283219837243
0.031116293011184685 0.5453578815659993 0.7125105862889207 0.06652714313555529
0.03236796673990794 0.5603860247514626 0.7038377851739827 0.1565985788774312
0.03244300586667783 0.5346562233104579 0.703430822775422 0.07681520110974381
0.03025919464135597 0.5221629712561254 0.7179565384119948 0.06617551899337376
0.033225947482408355 0.5201148496196264 0.6976643097223963 0.1034274134041559
0.033815822598340685 0.5554288365366306 0.6930126581092344 0.13227328205003938
0.03624844364266495 0.5138584995204927 0.6816623211118839 0.07948955210766376
0.038178422707537754 0.5257316387958605 0.6727045957913754 0.10321442517577502
0.5063972188122328 0.38734890042679176 0.42729383342881344 0.10739224113964668
0.5059784565244747 0.3901129013801415 0.44210809200012635 0.07249042439694617
0.507736121646893 0.37851559773065546 0.4172223955170773 0.08263197735947904
0.5097237651651805 0.3699543604146142 0.4482806846034899 0.07793204268487172
0.5060122718799208 0.38988826938782345 0.4015509041947494 0.07008950197592595
0.5052410542578551 0.394976808712847 0.4175663840497498 0.10123253355640088
0.5086388590346985 0.37432796175135485 0.43083932716104983 0.11528816420843001
0.5084987257338164 0.37489616526124747 0.4052260645303473 0.0774671668044397
0.5120428765054658 0.3605718997261915 0.41203131558729444 0.10061552498646324
0.532897388109676 0.30410765852309346 0.4477306995083003 0.07141423594207272
0.5187018755660074 0.3409533464452199 0.44671451544821306 0.07119498175983241
0.5275697363192775 0.3219527933843218 0.4370615629719854 0.06329317643510456
0.5300356955767558 0.31703053235902684 0.4497512842851027 0.07063733896360104
0.5223147274853432 0.33242610010332035 0.43719121966120833 0.07033872151876118
0.5323402277712477 0.3067484893687263 0.4340548195033649 0.03511209602803948
0.5325335875224305 0.30586346854216007 0.41227180821227416 0.145891319590025
0.52192798162416 0.3331862487610684 0.4199965811884759 0.10564423942601876
0.5304375994328803 0.3157475221187035 0.41890022672340116 0.10197879479426296
0.5161448455250032 0.34797319683372807 0.4237583682359164 0.12059176235334229
0.5164590026408744 0.34710299662849803 0.435143410138703 0.08556789385201552
0.5157157457160276 0.3491594189952543 0.4070885153929746 0.13586862837935035
0.5133617723443827 0.35557474591392263 0.4444838866048744 0.0658474403571285
0.05970694124698639 0.5003093942721322 0.4249925098122949 0.11220722787791236
0.05970694124698639 0.5003549644546619 0.40892992618621926 0.14555074847146166
0.05970694124698639 0.490207453858221 0.4016667164935469 0.12792139942880423
0.05970694124698639 0.48752444198499756 0.41264789763361287 0.11109302656159675
0.05970694124698639 0.47699482415301275 0.42572702436341525 0.12231622164611156
0.05970694124698639 0.465897030665612 0.43240793047670006 0.09332455983931094
0.05970694124698639 0.47735183782437907 0.403875089174226 0.1154323538381905
0.05970694124698639 0.45507027640099934 0.43568576299745226 0.0648150960024143
0.05970694124698639 0.43976086903208556 0.4165274936754574 0.10379200426455161
0.05970694124698639 0.45509205020425036 0.4188271122084693 0.07678203121842986
0.059706941246986396 0.41998016221600903 0.41226290729685733 0.12984005042217298
0.05970694124698639 0.4651382686997869 0.4103867621420653 0.13631582132658698
0.05970694124698639 0.4335486104127573 0.4004025505845478 0.08590280895684749
0.05970694124698638 0.4802684190751081 0.39309504632704173 0.07833908065795563
0.05970694124698639 0.4423251688286204 0.43720254491539456 0.08529267907899293
0.05970694124698639 0.42722109934770647 0.42837025561353675 0.10742282071748241
0.05970694124698639 0.41879876300086105 0.44108373689387387 0.0751954340755265
0.05970694124698639 0.4082705856113119 0.42312455212369937 0.11670126519679817
0.059706941246986396 0.5438754400320961 0.42953623247875833 0.20378917165362997
0.05970694124698638 0.531563855089551 0.42628934205595304 0.18251450167659483
0.05970694124698639 0.5180362393319016 0.40834199138309507 0.13786992363947845
0.05970694124698638 0.516646450526755 0.4320720691818686 0.13570087371663384
0.05970694124698639 0.5292089030583633 0.4382471195125944 0.15995422030473577
0.05970694124698639 0.509581963727257 0.41762786374855265 0.11282620641660279
0.05970694124698639 0.50211837821095 0.3925925889761318 0.06275110466366458
0.04371269568567911 0.33609852716328575 0.4092594135005468 0.18814108640983662
0.04423688923413169 0.33721154524773733 0.4250828515727015 0.09624102120715762
0.03348117303646049 0.3128547073591966 0.4546693233472583 0.06837242843331687
0.03763877118125547 0.323220739980421 0.41013621950729967 0.17818686930331504
0.05007635600973878 0.3532534689522202 0.43859051854379694 0.07488735006643629
0.046976524428283484 0.34423750920317153 0.44929906149667376 0.04669244297875063
0.04163008514033731 0.3316866989941455 0.4425357263911076 0.06165539919114416
0.052954020926120685 0.36271131796571654 0.4251751067848121 0.1054191787506949
0.054712914796025976 0.370179327866034 0.44681563519020806 0.07585920406925988
0.03636815043381582 0.3202104681430523 0.42928052290420043 0.0714222368344649
0.0569260865984996 0.3799289541405422 0.41759844746852776 0.09474622256377412
0.05869499784988718 0.3919059209274493 0.4353397487014065 0.1102668737086109
0.05528195026651461 0.3725983483639403 0.4293957089159041 0.11654393367429189
0.05575423969386258 0.37460089815582226 0.4055776163947436 0.0939109936281379
0.05872365090700257 0.39210064251664595 0.41142257954463085 0.08504302415658978
0.031192286754477598 0.3070168234471833 0.430521733492822 0.0576241626370763
0.032311140337689614 0.3098697855857956 0.44168106260207074 0.06631349566253437
0.0485361003494687 0.3487745570048911 0.41581660374938406 0.10787185799899802
0.47348414813309003 0.3065705673292535 0.45934499664875705 4.897234273966398e-06
0.5086768958464054 0.30362594724336467 0.45975585848504363 0.044387350790192064
0.45456396513666475 0.30812320820892725 0.459128393347683 5.5096307174100945e-06
0.523129978296461 0.30763201839542764 0.45919074749605193 0.06479455160982973
0.49500537916388365 0.3073191061010714 0.45923754953930757 0.008745262625463606
0.0 0.4283249020349289 0.6086717531203428 0.1911934794371269
0.0 0.5083990321582041 0.6032389097286496 0.17318490707953735
0.0 0.5634801273240914 0.6006510114556658 0.1770047118162348
0.0 0.49787150093399085 0.6088928098822688 0.2027658664152401
0.0 0.46149424126758776 0.6029927621482687 0.15323888316037518
0.0 0.4736580252834662 0.6032990000944388 0.16023184841118604
0.0 0.41609174604282206 0.608026231628311 0.1963728964320228
0.0 0.5748168875170971 0.6056372092318516 0.19162943414791228
0.0 0.5376250041411232 0.6071405571561348 0.18037537046478314
0.0 0.5495435148434167 0.6100299194893455 0.18181492099733335
0.0 0.3644556207118403 0.6134176679196413 0.15932912456664025
0.0 0.32003153870739476 0.6204845056445483 0.16802676837195285
0.0 0.5232288777061426 0.600355526996498 0.10565058255454712
0.0 0.48617777025362907 0.6075885763370397 0.23135776897937738
0.0 0.46730517210162936 0.6361542571477973 0.16928295954049044
0.0 0.38812975347097206 0.6426196274235498 0.17615707080349588
0.0 0.5635562911393552 0.6194817499911813 0.18972563480484614
0.0 0.48481865521451023 0.6344672269718474 0.1882490830489593
0.0 0.284649704926938 0.6515719880265618 0.17821034644563105
0.0 0.2688996409209232 0.6540271915728677 0.17040374084857068
0.0 0.32498589482128376 0.6504377803029212 0.14432084143559445
0.0 0.49849812299050483 0.633353792247472 0.1631129652061151
0.0 0.5768647969875835 0.6183268022101435 0.20884770894403296
0.0 0.5392899090087424 0.6187673326936083 0.14864800454372254
0.0 0.18816813396227772 0.6243073531705494 0.17583537236731756
0.0 0.19840154557398398 0.6383481742417882 0.20756061404059167
0.0 0.24124375719812677 0.6561600524121932 0.22722861140705125
0.0 0.2313435039102318 0.6262091978036479 0.14573770303348046
0.0 0.25047908140662295 0.6379546610603395 0.2094058359425976
0.0 0.4051208186448261 0.6205947323894271 0.1789082156367272
0.0 0.3604467728221066 0.6251964032982482 0.21767207610363942
0.0 0.3746267089460076 0.6211755954736088 0.21325419727020303
0.0 0.37621198099268544 0.6340588200754401 0.200808006998438
0.0 0.27519779350994034 0.6340275426845061 0.21170760057839266
0.0 0.43975885437311324 0.6218166276794959 0.20032315101876114
0.0 0.21318392940090655 0.6567987657079585 0.1768035217656744
0.0 0.5091318261277 0.6158316251828706 0.2033310477997733
0.0 0.33387666491089396 0.6314660225591227 0.19955734220829374
0.0 0.45662682283788725 0.6176254449437013 0.19208609376973737
0.0 0.29682034607179997 0.6244519113346219 0.1705269214967852
0.0 0.2697081171635721 0.6238549523521023 0.17151834079680944
0.0 0.4215159533857429 0.6297540291620491 0.20600739004088817
0.0 0.393334275652448 0.6275739534400073 0.19417488798947777
0.0 0.22494998989463874 0.6367558524803288 0.20531688952977925
0.0 0.24513990572798441 0.6253541819312457 0.18892376260253343
0.0 0.26542317463958154 0.6410775080619507 0.22343724038094565
0.0 0.2332003879692619 0.645930171113033 0.2057130813437504
0.0 0.29111705716245584 0.6361104231525506 0.20874030439669936
0.0 0.4944101388834002 0.6215765396456369 0.19312321846297145
0.0 0.3047117560120849 0.633374424963685 0.20450605952741158
0.0 0.34878336085962286 0.630816059740207 0.21565648464203016
0.0 0.5270706405161651 0.6170298166412529 0.18018501847260202
0.0 0.2546120770995725 0.6540170807497361 0.17629774327844233
0.0 0.2578675485356749 0.6263274301550357 0.18668477554687227
0.0 0.3213307059157537 0.6346613385131815 0.1873430297613996
0.0 0.4686520966372234 0.6246033660183566 0.22985821343405502
0.0 0.05880643890406443 0.3093823936739171 0.21011046860680893
0.0 0.07043078723462853 0.40168892159608655 0.16047112861081933
0.0 0.06113987720313862 0.48068819310738187 0.2100201635677931
0.0 0.06638603804803236 0.45862383391330713 0.16893206090577095
0.0 0.048352993370959926 0.3205387235661167 0.21901876546234383
0.0 0.048801868544793674 0.28962893049069033 0.22792393996418214
0.0 0.0456745533953486 0.47804949453963164 0.1783937571866054
0.0 0.050690241014777905 0.3644995010917241 0.18107684078074585
0.0 0.05772036350301371 0.39602614644166545 0.21082503508329745
0.0 0.0645447959050101 0.3274851570526221 0.14140980537579484
0.0 0.049584824725987256 0.40878884763209977 0.18919460345517472
0.0 0.04412577802589905 0.3428435985787628 0.21804942214162182
0.0 0.042399055922750395 0.2635674540499724 0.18533336819648782
0.0 0.05891697175776161 0.5037593456483799 0.22816217026560956
0.0 0.059302455329648 0.4208435618492611 0.18633890206265816
0.0 0.05075293486780763 0.45483360950222956 0.1873496876044966
0.0 0.05368965436106883 0.332872577945434 0.2152562473051776
0.0 0.051643230128298884 0.4881230086165496 0.1942020208168744
0.0 0.04202982288632981 0.0871300338973963 0.18447032001475233
0.0 0.045174551008894545 0.24095421693845834 0.20743306539227546
0.0 0.0379736081211472 0.027532284758566214 0.15332638553256794
0.0 0.06319614285172431 0.4320931369184342 0.17405125801736873
0.0 0.06318120420429155 0.3652803604985164 0.20351004476801587
0.0 0.06958535673438267 0.498489985975883 0.20342558903068506
0.0 0.04668948347997248 0.3928535763468727 0.20714228087305336
0.0 0.06073406125689744 0.4694904463863228 0.19522354427565533
0.0 0.047791112487954465 0.3788249040553969 0.21950565290146595
0.0 0.05372570569724275 0.20756034826371045 0.15586446784275446
0.0 0.04334389180871455 0.18044688061183545 0.1802224181628996
0.0 0.07295625534440923 0.42203463117439044 0.14678793320463954
0.0 0.04471967996298445 0.21444996834330876 0.20989322884932893
0.0 0.07012442946354543 0.44238356670084145 0.1519337745715533
0.0 0.04962341945297108 0.27530681798944723 0.1976147621911037
0.0 0.07798368528265734 0.48705996419641084 0.14740096407984907
0.0 0.04722738979584595 0.4344822235325826 0.18897324573785282
0.0 0.04391029870944431 0.22676473518426138 0.19925575682605898
0.0 0.03340155973869544 0.15671551995434785 0.2122952390872839
0.0 0.027846181859772962 0.19496611555614207 0.16715635219091532
0.0 0.028867477720365443 0.14309740932522208 0.20168845724727336
0.0 0.033698987849103156 0.1110664544806395 0.20227583666519627
0.0 0.0356782697069946 0.0022532475908640572 0.13670021419899966
0.0 0.037380254987154624 0.28206982181182694 0.23388432634778616
0.0 0.03391583578493102 0.32474044345431224 0.20470164093235083
0.0 0.03894355174496991 0.2987661173278869 0.2002710636884629
0.0 0.038718070112568156 0.20250434603162953 0.18259938577220333
0.0 0.03293392991163628 0.22906568697309726 0.19000707402883163
0.0 0.002803214101211227 0.003738078195967996 0.1637265472990591
0.0 0.011107912985569726 0.09992007541365344 0.16316186099653932
0.0 0.02888755969595986 0.2085565314424104 0.17054628705514746
0.0 0.011327015526764541 0.014665244507533095 0.2149264773355071
0.0 0.04030730816621523 0.4246828771673678 0.17307184570167272
0.0 0.018872016209230815 0.05682822855541871 0.18088302646354404
0.0 0.02036042819248295 0.07977898389455677 0.20064649798715772
0.0 0.02181357216438999 0.02572142401967965 0.21255426640019837
0.0 0.024210667586658255 0.09836563804804468 0.2148854445120618
0.0 0.03587536286300137 0.250291995906372 0.1805303011361447
0.0 0.030730057278637018 0.08562504488201862 0.20671541901126664
0.0 0.02682016530861712 0.013622647915653503 0.23910814519333146
0.0 0.028247212049525586 0.2905971361078549 0.20248504167997425
0.0 0.030984755075003714 0.1232619384991733 0.18911475368931788
0.0 0.019081690224229373 0.04591189910387772 0.17360888397264157
0.0 0.027619437943088104 0.07057925411896232 0.2111670677067152
0.0 0.03237332997995082 0.16940813405641683 0.18461044547853028
0.0 0.020043986580303097 0.2242948994196964 0.18658138568472385
0.0 0.018594110989737424 0.10991109013724695 0.20529429248093436
0.0 0.032430976191334816 0.18467395966695702 0.1896839281389008
0.0 0.03073746341711751 0.3106941021554875 0.1855930909089594
0.0 0.15747269977052977 0.6223614480167695 0.17135593438944915
0.0 0.16611136669213963 0.6449118886802053 0.20289186724407227
0.0 0.17557100102602968 0.636309875024144 0.19254417156455894
0.0 0.18695535685459858 0.6497204348976949 0.20447164451671732
0.0 0.07718551517702799 0.536269725606505 0.17026910437527584
0.0 0.058471207901988405 0.5328172433012519 0.20050409562614097
0.0 0.053741353674272054 0.5446691621363206 0.15166547256750054
0.0 0.07185306857146581 0.5220320551620807 0.20470477213761815
0.0 0.05458977565774698 0.5162102197385884 0.19586844470077763
0.0 0.13613843439583834 0.6244393794815015 0.20628472654093746
0.0 0.14492862033744464 0.6109739432638323 0.17494855247389463
0.0 0.13994400992694336 0.6443523129247368 0.15794220663322286
0.0 0.14741064487184502 0.6310416438886737 0.19534051414109016
0.0 0.15347517190397533 0.64376805850644 0.22734530163991798
0.0 0.07570782664038668 0.584380080109888 0.17272494532503344
0.0 0.08781324636373909 0.5629113542704487 0.19585402833614504
0.0 0.07776499260236658 0.5555405694159654 0.21803157732339334
0.0 0.06906610123509982 0.5675357435379679 0.22356745073539072
0.0 0.06727408863683429 0.5507026635750958 0.21090091057114443
0.0 0.10661632360536046 0.5924549419024605 0.19468523974444538
0.0 0.1041370485470888 0.610135571736867 0.17947728831961524
0.0 0.0888196609178107 0.5788379136206216 0.19225630538562727
0.0 0.09405149988094298 0.5961938261638047 0.1897524327135
0.0 0.09871005099478891 0.5705299292959547 0.17114813570774273
0.0 0.12352760891737725 0.6339007266784797 0.2047422152625004
0.0 0.12359039012396042 0.6062000868698865 0.18607309937205999
0.0 0.11892788119989275 0.6216240916940504 0.19852796837607603
0.026853896498744326 0.23508740942741319 0.6584742317457297 0.1575133244664896
0.0028208298767532333 0.4299361714985404 0.6412839774945395 0.20158692735395814
0.005120416167934705 0.40284475657991936 0.64367407895336 0.18637382337507688
0.00478530764396588 0.3764249816723458 0.6460049259297171 0.17944194117997708
0.009793960859103876 0.2800571748722536 0.6545068382996733 0.19595750778564694
0.024865660467659586 0.2197987709242176 0.6598230500817094 0.17847977679211066
0.0003121918434933833 0.3591883899401744 0.6475255996622596 0.12994478578280713
0.0026925959236621744 0.415883745563451 0.6425237327390816 0.1800018074557257
0.013035754773373622 0.3284793254990458 0.6502348630927683 0.2051168614542347
0.005254093560231004 0.22432187858823044 0.6594240053563367 0.1615942252294498
0.009519714807359738 0.2623789806446114 0.6560664717828163 0.22456986269492327
0.005253295815595859 0.3040164084949289 0.6523930690703512 0.16659526021331525
0.02054976300237119 0.2943873919436718 0.6532425753281564 0.1870801132892843
0.011729694608600629 0.24622548493454585 0.6574915909129043 0.24065657184023254
0.02864964720767588 0.20871461996570534 0.6608009334981092 0.13870449827415912
0.001570283331746213 0.347452573039752 0.648560975377349 0.1291248139467702
0.015514270451981673 0.2310314421505304 0.658832063676418 0.2290472171253958
0.01211737142168953 0.3411656714466025 0.6491156283075996 0.2191020643435219
0.0003261276747303002 0.45056127024941034 0.6394643575610346 0.166651537283003
0.0023072582953782995 0.5442007385859862 0.6312031489624168 0.11741208852829793
0.014797507558205468 0.3557322789089342 0.64783051013085 0.2046062965843033
0.021637306506286095 0.2577649577194931 0.6564735373774885 0.1966534909064099
0.008578964481941342 0.47507484839266234 0.6373016820766756 0.18280184835857213
0.016031370333297653 0.31388242788808407 0.6515226535746983 0.22703930560677515
0.00027063091359537183 0.5182686180051316 0.6334909733310145 0.19021184973638078
0.022765614430544423 0.3647484435852875 0.6470350718560073 0.19281970582086305
0.011617409368624933 0.46283411059316787 0.6383816037182545 0.2071290336890497
0.019081496694718158 0.5290784338755032 0.632537292736665 0.16047849044144682
