x y z curv
10.728699590200474 9.743826256153516 0.9257699750209727 0.08429112184145163
10.653874360129937 9.731554842234889 0.8303740498073129 2.998777975779192e-05
10.642615240343535 9.7294489113767 0.8207816822476853 7.9058811789346e-06
10.629849141851691 9.729095589553644 0.8239096236507486 4.36894401082791e-06
10.61094211888513 9.724507539658783 0.8005626298189993 0.0002423784653065882
10.666683015936858 9.731590584843456 0.8250415366281156 0.00039931680531770996
10.625388335225718 9.723920083298031 0.7902271595709002 0.00017802338126804966
10.598897584254576 9.724037857743973 0.8025753515296508 0.00041524459941297916
10.66304225881165 9.73506161533216 0.8505198161131418 0.00015441187951454555
10.636694603959292 9.731364845251006 0.8365485049527539 1.0110160616701387e-06
10.661877372877814 9.742104895005086 0.8995091366961204 0.0001531098568749998
10.65257120324742 9.733315470751744 0.8430607899940477 4.5260980476467117e-05
10.623764867202159 9.733303279874292 0.855522878915898 8.661246424540085e-05
10.652565432048934 9.742678048233005 0.9075100246730254 0.003180903386579771
10.663216325959693 9.72962155250629 0.8129976698548632 7.175408914462943e-05
10.650657223201543 9.744461326955998 0.9206161940216383 0.06238794362390914
10.623817921531211 9.726417171200687 0.8080996704218637 4.228012331138677e-05
10.645240108841545 9.734647912259238 0.8554254750262862 3.158196858396573e-05
10.658237717009426 9.727759212634655 0.8023466990965205 7.601058540807945e-05
10.611385645595718 9.728773147668218 0.8297315089863063 0.0002898652794649041
10.645951225059644 9.726344345596099 0.7979586771634842 9.188448946954941e-05
10.666764511933653 9.726503272706637 0.7899878453010397 0.0004978060190989133
10.632681435069063 9.736357141516095 0.8726605192606838 4.477918478708359e-06
10.648933449290418 9.736861399283164 0.8690533175409069 6.0677256923177634e-05
10.634940731337007 9.72638272949499 0.803018283239886 8.121802557000683e-05
10.66474134852574 9.737176584112778 0.8643380690876954 0.0001922421536615889
10.639937954749026 9.740964035431093 0.90121136055873 5.507944310234599e-05
10.656002263683696 9.739132350640668 0.8816065943442324 8.431013752981875e-05
10.612512190011767 9.726951096158329 0.8166988873464438 0.0002239889045546933
10.614927905118748 9.730656022948084 0.8411494062483769 0.00011135052814251573
10.651610110241464 9.740364980219551 0.8920042351873876 0.00010125906055838825
10.450503241319831 9.6895903784194 0.8071869117305263 0.05800294224203006
10.913894845415534 9.688109445342084 0.7999370777257901 0.11134371769837603
10.92978709070023 9.690440051726021 0.811346445017754 0.06108108584973209
10.901693384522645 9.68886817486738 0.8036514002682138 0.04598665381085162
10.419440910232415 9.689941339000436 0.8690850637671206 0.08932448757503668
10.44257429284381 9.690332789233668 0.867640738489076 0.035990171435391
10.436338149356132 9.692610828449585 0.8507064874708015 0.06114579718577051
10.427308067141933 9.693178043026423 0.8389936019016894 0.07242204784372099
10.453130283298275 9.692942306923445 0.8461238559813842 0.03664535746503244
10.423370762441326 9.692394290214612 0.8534952808017677 0.06217498119350453
10.444589176552833 9.692120348340891 0.821121453994746 0.08212998589657651
10.45674527057241 9.692230732349572 0.8220208152833388 0.057898290970491866
10.469945717823084 9.691420997667233 0.8170033323790873 0.007787593723234038
10.445988148956566 9.69308802493433 0.8376213803402395 0.08646571056200068
10.46552387410974 9.692360638753293 0.8512728521021853 0.010605854159907946
10.453740353126392 9.691662604133022 0.8586955277235973 0.021395294292047822
10.430680343392392 9.688164781272697 0.8767332658515219 0.05637930550821802
10.439735894441707 9.686020134286395 0.884424773649628 0.026601800906165686
10.381519235342367 9.668959117087415 0.9201568936131086 0.05752476252417004
10.413691006166916 9.671179037207954 0.9166059468943188 0.056887406907373324
10.39745839271827 9.67198267326161 0.9151505866035365 0.06792361841626635
10.385095642261074 9.648182890772363 0.9454019795558073 0.059637589385266816
10.36978533959898 9.649017198147934 0.944547884022786 0.08572536003946205
10.377388829929615 9.6580497482026 0.9348699008604824 0.08133227561213585
10.389247667414342 9.661076850876224 0.9310193877834547 0.07509171753858182
10.371573943430551 9.63738447188959 0.9550928820697935 0.07136750675352228
10.372462843204081 9.626704238200826 0.9631510603415001 0.07379242071494502
10.392906877055793 9.628773059297373 0.9615901460680798 0.08298158746564922
10.985206292184916 9.632963399463163 0.9584285571872547 0.08407771023946839
11.000258983056614 9.627667241660632 0.9624244794649458 0.06756493538070245
10.407804612197634 9.68214807758731 0.8949034267741702 0.09054620739699276
10.404641305459577 9.676275190947097 0.9077362383074021 0.07160149058018843
10.418675551157564 9.677193025492816 0.9059735842348899 0.05355906328036475
10.439465514278218 9.678263548505475 0.9038747418050366 0.02491288903336423
10.429895772535668 9.683683222790838 0.890806587236317 0.03382620247676242
10.420284128374046 9.659821230887133 0.9326356752293284 0.03143963399785047
10.411659187589425 9.650347266142493 0.9431755483517921 0.0367375287287777
10.398770716409356 9.649706594353233 0.9438646877757986 0.06104242883641325
10.403059394777745 9.641241549343555 0.952112687658432 0.05968838147120222
10.358428236735168 9.488791737742929 1.1600086879769673 0.1332340007972207
10.34249206150063 9.4883479346128 1.1582140269254053 0.11879121076478223
10.352707336952976 9.493530347965836 1.1791759918291038 0.10572853878018207
10.368314663746013 9.493563706707958 1.1793108388825346 0.09286551257857475
10.367667411862254 9.498316348797399 1.19853509570521 0.10876956955517014
10.350172811897352 9.497257095840995 1.1942504577099933 0.09785041990871764
10.35877713099973 9.500114832955013 1.2058098958451864 0.13939639970228396
10.358595001725028 9.472583525044234 1.094447974767539 0.10121566443539311
10.342618479993945 9.47727794763563 1.1134367304149957 0.08783778296923962
10.372753572163823 9.479642886095112 1.1230022140004228 0.09072645953851267
10.369169570857373 9.48511784376273 1.145147891124474 0.08408775888509908
10.37118855447004 9.474823702561164 1.1035092198615244 0.09583809722244585
10.348867112907868 9.484902180637402 1.144276159614569 0.1184668303901433
10.356266207386145 9.481687839721722 1.1312743030827157 0.10877346834785616
10.359754950145135 9.477754478149578 1.1153642068278753 0.13499811983133758
10.995841396070515 9.493416035745776 1.1787135154466803 0.16808823374080792
11.015443750343282 9.498483279424846 1.1992103237558964 0.11627071622302754
10.993412551922946 9.490254316982522 1.1659244830806887 0.11032433672956035
10.9840649919771 9.496817509223074 1.1924723465289615 0.07173144943036452
10.995437426081747 9.497083892394883 1.1935498563459643 0.09418491768561828
11.00903333962305 9.495921182678558 1.1888467396844917 0.12081437341133096
10.991928157878204 9.487278357036772 1.1538869160988936 0.08779377572627992
11.018041980654852 9.49325443754584 1.1780602488274694 0.1038084445706819
11.00584499373658 9.488630481372137 1.159356515767739 0.11686169653683527
11.003428035327893 9.479104155582924 1.1208235551037082 0.13154722024847001
10.990355424609158 9.475998928632652 1.1082628840282849 0.07366229455416347
10.987065571568165 9.480382046282461 1.1259919910089584 0.08103780045701445
11.000364332925331 9.48458382440889 1.1429880915612296 0.1181536648252355
11.018488618065653 9.48406080628311 1.1408730801251565 0.08020334224863576
11.014358677136252 9.477990162177889 1.1163176103631116 0.10819455293278234
11.016980954577807 9.473070805486902 1.0964190050864882 0.12105833216534843
10.36942076589439 9.5025937000846 1.2129060960848834 0.08056238255018512
10.351245338006779 9.510449862608471 1.222951213721182 0.10334660675673364
10.374773259844396 9.528492947729172 1.229862290382818 0.08759000009351305
10.369411501167088 9.517282464850279 1.2273277026235554 0.07071503389663769
10.342718467574414 9.525897977386926 1.2297540930047324 0.05832499637467802
10.92710528978349 9.576911691447256 0.5155989017028288 0.05677939534055272
10.924766552863565 9.564844923597157 0.4912473349583416 0.03425003460049485
10.920328645983505 9.490759052773939 0.4450398743684106 -6.261745542536064e-11
10.92066207236988 9.512900794789644 0.4485111076073779 -5.861500022031403e-11
10.92288952432003 9.534476281388082 0.4717037013565206 2.574917729815334e-11
10.917037954251326 9.444848507526485 0.41077699326135075 0.06628714546523425
10.920429554807313 9.54107068341228 0.44608936195105575 0.005957289127643531
10.928390368560612 9.60388752387887 0.5289790010504577 0.08530193390136907
10.920874428854829 9.50064514679909 0.4507225437306671 1.9066540272973242e-11
10.91519923882193 9.414355247936243 0.39163229403904504 0.09076060129409226
10.921207687740656 9.533461761885171 0.45419177505419295 -6.463134436217939e-11
10.922120486634965 9.525379252801844 0.4636963950962557 2.8802375530331438e-11
10.924103131046367 9.544132787277476 0.48434002362774176 -7.727170227823782e-11
10.917110587012528 9.458136936354048 0.4115329534753098 0.08221438817753889
10.923617624745273 9.554266858942078 0.479284494315238 0.013463410454369672
10.919101322007862 9.480637100720667 0.4322607338883708 -4.274767153151804e-11
10.922308114684434 9.547434634165914 0.46564952019871253 0.011204269892472068
10.922660463298865 9.56091460752515 0.46931798840578226 0.049129238381448906
10.92819944267327 9.589259901417188 0.5269913581448198 0.06815076672437152
10.922883125928537 9.574944967778356 0.47163610131021616 0.07788207797016063
10.924958090778325 9.576343560026725 0.4932414261119499 0.06314138882288899
10.921195022280234 9.552573028965265 0.4540594356474433 0.04922384208781032
10.919206645273487 9.510266775733717 0.43335668593052756 -1.2773245209475841e-11
10.926060083539156 9.583239691661095 0.5047156460923407 0.06647470769352147
10.918459611477312 9.470638139379009 0.4255792303438419 0.022947427774294066
10.91927041634946 9.498184054954104 0.43402098755272783 -1.7969334069290558e-11
10.91793865764485 9.531574767193282 0.4201545277868186 0.037770525028149475
10.921583606236274 9.576522271134381 0.45810511344722277 0.06292306189684865
10.919468684996026 9.532134989450984 0.43608491270094923 1.251183591715607e-05
10.919234125473839 9.546121617637814 0.43364271879449434 0.042763734170488565
10.916616272601646 9.482980176189457 0.4063860793164408 0.09421747963314692
10.91573517343517 9.497789057630968 0.39721222444468907 0.09980842661145141
10.918753751761646 9.558132590954639 0.4286411492918679 0.07260685329827853
10.917257762807171 9.49388145380543 0.4130651663829522 0.050599311748909845
10.915362532851745 9.541122761659988 0.39333235398094446 0.12152159009006921
10.915394588254546 9.522458452660132 0.39366610939045066 0.11168499093236835
10.91428216654692 9.549449519164037 0.3820837635090818 0.061039615718070074
10.919964039746556 9.556205026957407 0.4412424622303094 0.06919528937317845
10.917262708550926 9.520169965202655 0.4131166606269204 0.06449303251603736
10.916580155568845 9.530515999028818 0.40601003490517273 0.09695634890543484
10.916962503998578 9.554828803411636 0.4099909818158813 0.09073047201337012
10.914878400776193 9.48468105391705 0.38829165303730456 0.0836786030671334
10.916782258299872 9.542956804005325 0.4081142942146395 0.0980098500399081
10.914296613608855 9.503114378549299 0.3822341838641735 0.09821691433091008
10.917887367497753 9.511115532093118 0.4196205034865678 0.04648273581535405
10.915091432883802 9.462138364625627 0.3905097071594714 0.1192742012146271
10.914374405270365 9.440534045091187 0.38304413743136717 0.12510017931253803
10.915296441667156 9.432603083722261 0.3926442237922072 0.14951897092925168
10.915723915892823 9.474354735125136 0.39709501282579945 0.13181127356201552
10.915333649343946 9.447426771292479 0.39303162380340895 0.12441637792108579
10.927056695473187 9.489279301068748 0.5150930839745147 2.8622469737511998e-05
10.9249407629741 9.440959228221887 0.4930618437556205 -2.5531457021344358e-11
10.925996574615102 9.329924834786768 0.5040550299271188 -9.965152896944166e-12
10.921107201813431 9.454970810494562 0.4531465313055127 -3.111747890902116e-11
10.927172903800928 9.506285539556698 0.5163030533780572 6.976338971103736e-07
10.922994850524027 9.485315518577769 0.47280086442340874 1.6637880154437082e-12
10.928148716486577 9.402688719318892 0.5264632847159906 5.815829269477449e-05
10.927277426431296 9.360567637131686 0.517391350466432 2.1835068446125175e-05
10.924391113065274 9.326102290243886 0.48733884967014823 1.8365323594256057e-11
10.920482435958824 9.46680151009609 0.44664142463065465 -3.005661348438101e-11
10.925001636892127 9.341430672695484 0.4936956673354155 3.4852877468916418e-12
10.926074108468294 9.436861373707696 0.5048623179410502 -5.951327541025051e-12
10.920384307396136 9.425938387922251 0.4456197030313894 -6.155147842131892e-11
10.925702016325713 9.466357289756257 0.5009880679920273 -3.891225993811942e-11
10.928479435221796 9.359250811394322 0.5299067517942768 0.00033414079522597933
10.929370615517444 9.520673580156748 0.5391857846463176 0.001397448026548914
10.919667831316147 9.37210369819563 0.4381597029434293 -3.381178634519972e-11
10.923756837075373 9.463551933388768 0.48073472278772533 -1.448284370730453e-11
10.927638451926567 9.34906911681 0.5211503736937241 7.682660280297606e-05
10.927360078899577 9.555437225369541 0.518251933866028 2.65569621482661e-05
10.922593692901717 9.365356719160786 0.46862398262468286 -4.0901974273346975e-11
10.929932101605708 9.56033499969908 0.5450320178770193 0.003273406867757901
10.924753039204463 9.368721231776673 0.4911072504661827 -8.200672234089733e-11
10.916430324673625 9.408798826546025 0.4044505526834854 0.07440242590458211
10.924283495503886 9.429969337702765 0.4862183279390493 -1.0492671396900516e-10
10.925193766276434 9.309402127876623 0.4956961321992823 3.043818883558477e-11
10.919183613149787 9.416399492843851 0.43311798883108754 -5.4928558326179054e-11
10.921242808683852 9.350619187689475 0.4545584797201657 -2.4784432585340867e-11
10.928911295451188 9.26005952876653 0.5344033113295446 0.0015975225948223475
10.927333423986548 9.374686961951785 0.5179744010089145 1.992625966938416e-05
10.927262116355811 9.275281582230585 0.5172319408676334 4.112185966459356e-05
10.919697441143828 9.437059084583835 0.43846800258284746 -7.715998455893731e-11
10.925111504447335 9.516166547284111 0.4948396161627256 -5.100708855352624e-12
10.918201358592935 9.391381919378805 0.4228906842703582 0.00717202900857177
10.928204195330961 9.511100678319202 0.527040934403878 0.00039296385580630725
10.929462039517693 9.573498227740465 0.5401376978629028 0.014227220993661067
10.921785210421803 9.335548067294534 0.4602060053331408 1.67609572774092e-11
10.921279238075897 9.370279433403583 0.4549377851505282 -7.717781702457026e-11
10.925847153187174 9.282598853553072 0.5024992433536286 -1.6757946179506202e-11
10.921292024463643 9.405233810890827 0.4550709179324432 -1.7543517403808672e-11
10.920925666966339 9.39146508964421 0.45125637751937187 -7.238834629696816e-11
10.923340466426321 9.301672388781936 0.47639944186865174 9.721442660764504e-11
10.916882054522947 9.394448526026187 0.40915399611977127 0.07429766846438843
10.927930173888699 9.252959843289991 0.5241878035869991 0.005048289837220131
10.925609083586632 9.451617898179721 0.5000204456790374 -3.425534854489252e-11
10.919197394746245 9.350246835191804 0.43326148379714974 2.812552273634575e-11
10.922750324943427 9.418794138878017 0.47025484662359385 -7.593030517516399e-11
10.923704196882595 9.495745193314844 0.4801866293429733 -1.7986021264954007e-11
10.929726814258835 9.336493374208743 0.5428945513676834 0.004147086551917736
10.923261363505318 9.43640062863481 0.4755758166086711 -4.085537739486476e-11
10.92836769460235 9.5656682770131 0.528743300488415 0.005226819957355462
10.927353528431496 9.518958456455476 0.5181837299248092 4.608362581319198e-05
10.927601425116 9.332158014593167 0.5207648478990848 8.894024860760922e-05
10.915809756125267 9.387678293434105 0.3979891486608956 0.11633608504569364
10.921806073149783 9.432934935679842 0.4604232295460842 -4.584794289740254e-11
10.92391373356115 9.3367236627786 0.48236834019713176 1.0483438819621582e-11
10.921975621414028 9.382272583019706 0.46218857817601267 -6.671312682426929e-11
10.929176952972908 9.473944735782862 0.5371693564086897 0.001440383832558442
10.91888579147841 9.427300823928388 0.43001704832975024 -3.5857823349771186e-11
10.921953714232114 9.489688212124083 0.46196047903414816 6.627006586773685e-12
10.929209232918062 9.534183054153356 0.5375054575018197 0.0012966391518252542
10.920338167889605 9.33667894798464 0.44513929519587486 3.219823611581488e-11
10.924577003958975 9.416847929591382 0.4892743589245022 -8.995290852017826e-11
10.926892255520094 9.29085180210677 0.5133809234449522 8.171947601430681e-06
10.923325411038252 9.3552025501479 0.47624268409339937 -3.3137807591426275e-11
10.91674936858107 9.423178399397408 0.40777246062163885 0.08962868235324736
10.92602999143418 9.300818547708214 0.5044029682327176 -1.475826679723596e-11
10.917888797946482 9.43338763862604 0.4196362805084438 0.028679880328080373
10.92488666775251 9.478317638820428 0.49249860044704175 -1.917150072969434e-11
10.92869286031323 9.499633290670099 0.5321289490809054 0.0009101404669754064
10.92919938523015 9.384284453322554 0.5374029226723479 0.0018560811758265472
10.927482379049254 9.317265285466906 0.5195253317544205 2.218921636815846e-05
10.928875952211094 9.285829776422576 0.5340353149908101 0.0014847087200676565
10.925148288983902 9.35525156276644 0.4952226193832121 -4.02724754712857e-11
10.92172431727641 9.47271910295192 0.4595719815566812 -1.5622417452364565e-11
10.928806958409197 9.555145541461027 0.533316946600595 0.0007745466918309086
10.929315468482296 9.30764010772158 0.5386115897798843 0.0018055871232824075
10.917768938049122 9.35963060823289 0.4183882907013353 0.024677108444257165
10.925996561935783 9.507572305057508 0.5040548979091437 1.8164871323948348e-11
10.92996097336452 9.357860462960232 0.5453326326906903 0.0028076408039636232
10.929052236177682 9.39616465443337 0.5358707962343305 0.002125264661916923
10.916797881327728 9.381865521987397 0.4082775788027516 0.10529805893828634
10.92583883051775 9.422543008362275 0.5024125871254983 -5.116770061067992e-12
10.925410371975042 9.494233380401912 0.49795144619482323 2.3132691149600096e-11
10.929410778665698 9.587455439432368 0.5396039662128571 0.04759444798494356
10.924335018518155 9.453850362168795 0.48675478924140964 -5.7430234922779383e-11
10.92947474710535 9.489907605321433 0.5402700101726664 0.002919619020024962
10.91997779225351 9.449546698526019 0.44138703834871174 -5.4235153683690094e-11
10.926561767565545 9.263676612215505 0.5099398592714616 4.512265161717165e-11
10.918439092676321 9.403946571750382 0.4253659885163746 0.006610960433046685
10.925813175450255 9.551167517360216 0.5021454647314577 5.1849779334803733e-11
10.929779168274832 9.250620466690256 0.5434396651193472 0.03403313779192309
10.922269535824825 9.397800498855975 0.46524883600126254 -2.9999408911555595e-11
10.925815427908827 9.535913856416816 0.5021689174908821 -3.3545384923056365e-12
10.929215242528107 9.347620609114333 0.5375680299906185 0.0029460540308816523
10.929060909398896 9.410564655342203 0.5359611024326985 0.0015243926931637374
10.928217683771107 9.269944065479248 0.5271813770055256 8.583303614257606e-05
10.928392533637888 9.450994177714298 0.529001926299478 0.0007257590790894077
10.922370812035574 9.504481869550585 0.4663033311368182 -1.0491273014379739e-10
10.92975927821277 9.545307300324449 0.5432325683733854 0.005049409308768729
10.92820003049941 9.543412508847474 0.5269975698804786 0.000173395756605259
10.926892082556128 9.429181008513575 0.5133791225317822 3.2721708730446483e-06
10.922628950124183 9.45881830627839 0.46899108334171047 2.1970817547864832e-11
10.92125374128889 9.442761466917567 0.45467231078419734 9.306416265924977e-12
10.923385445041163 9.380461741453296 0.4768677624170278 -3.483154017386202e-11
10.925152252557863 9.40636483742491 0.49526388839822244 2.2082392680507742e-11
10.925039181911295 9.381875670617173 0.494086588754995 2.0674732304931243e-11
10.923226427498228 9.447645985919294 0.47521206040908853 -5.023136463134017e-11
10.927393638743869 9.53240144844208 0.5186013613603587 -1.6225372594429578e-11
10.924717539520273 9.530683836051796 0.49073762522038245 6.878800534665014e-11
10.926937938964892 9.544103891085715 0.5138565827331167 5.093489490819947e-11
10.927463021364439 9.443987007236025 0.5193237781583517 3.291006689747128e-05
10.92683826125003 9.474366445817859 0.5128187312508462 -2.3459574296830036e-11
10.923815894357134 9.402122499304586 0.48134963142101395 6.213623064023156e-11
10.918365988939644 9.378541497499196 0.4246048271918507 0.016152563609000522
10.923319681972302 9.518243972711362 0.4761830326497686 7.399647418083084e-11
10.923754596324557 9.316525985331449 0.4807113919302995 3.0916611877044886e-11
10.92949458930797 9.44596634975927 0.5404766086027047 0.0013330255186413777
10.92621220842993 9.397369989205119 0.5063002245994078 -3.8881858572967814e-11
10.922381667873244 9.32306002312459 0.46641636289356686 -5.876754519342883e-12
10.927301760702129 9.303591501262032 0.5176447206313588 2.1156458870653686e-05
10.930017188838493 9.27344945368574 0.5459179522184477 0.004838215269095728
10.928669400300203 9.462803574988499 0.5318846817506633 0.0006742651734023621
10.924985464251408 9.39522390364992 0.49352727664582585 -3.2766019007391185e-11
10.926362340288433 9.410977208178107 0.5078634082267593 -6.056957668575e-11
10.927557962619979 9.413310931913701 0.5203123132880938 9.913494920574173e-06
10.926143996490687 9.521794437109879 0.5055899970189072 6.653093178657786e-11
10.917895005570943 9.418921750792808 0.41970091473743787 0.0408215109113158
10.928501800597278 9.326432976224549 0.5301396216802675 0.00033470015887940795
10.927592378046008 9.39152479192814 0.5206706491605155 5.270953393782275e-05
10.919785150910531 9.404341512461498 0.43938124293458847 -6.649943243829196e-11
10.914386897302489 9.364025072103361 0.38317424103235714 0.13742089368345342
10.923425317394432 9.288132927352066 0.4772829162054035 6.828559819069047e-11
10.920963318705965 9.314853254247547 0.451648410119993 6.498426980983482e-11
10.917507138044137 9.306094220374233 0.4156624103618043 0.02985325969181954
10.91618203837496 9.289718561028607 0.4018653780187567 0.11403732754035588
10.92232124180187 9.29501126198522 0.4657872023250961 9.937517519681893e-11
10.915583222450806 9.344740280056463 0.3956304638721052 0.13333780102287063
10.921844551214434 9.258379326734058 0.46082386590185065 1.0765944498267393e-11
10.914255126920505 9.288459331277531 0.381802238409203 0.11897272231675937
10.91571955659399 9.358174987436318 0.39704998470266156 0.12316746025152461
10.918149600658746 9.2725119975726 0.42235177696502124 0.036954676064017505
10.917875197260752 9.339001616530073 0.41949466919778433 0.020305260856829765
10.923094158282913 9.271269305622056 0.47383486389764734 6.642812945606384e-11
10.918921096650653 9.259284095058423 0.4303846483032954 1.6267568734579757e-11
10.918177103717568 9.326803403589986 0.4226381407766812 0.020092487617389722
10.9170620584433 9.346539445574463 0.4110282097874479 0.0887267592836428
10.916713194881215 9.272093191927071 0.40739581747661513 0.06282253054239188
10.928705585659731 9.233802040724882 0.5322614462970073 0.06591815740644479
10.919020303596517 9.314178072552567 0.431417598105147 1.4002118223574009e-11
10.91738475552929 9.318835983267075 0.4143881548813796 0.03821710282974595
10.919265144619214 9.272203932956183 0.4339669003105896 -1.4971790749553213e-13
10.925245098109201 9.272799674341234 0.4962306029062141 4.788358549410436e-11
10.92045021168894 9.25280266937885 0.44630590323241465 4.152757953856211e-11
10.91656761229233 9.260083406331123 0.40588000116923245 0.05914253379522639
10.9178320059401 9.25372035496311 0.419044958084125 0.030816128732041034
10.924268819428104 9.246590635634298 0.4860655195903951 -3.137744676189323e-11
10.920383357777785 9.270853327402882 0.44560981553732926 3.879697364322647e-11
10.920017203242482 9.301502810355457 0.4417973883791053 3.397518616050998e-11
10.92119381356483 9.298043873796171 0.454048339043561 2.035699636191899e-11
10.914596312356903 9.30160541331937 0.3853546855272879 0.11286075112074005
10.91432803233929 9.392992942772569 0.3825613348336681 0.09142983517656078
10.918553964639655 9.287683704198963 0.4265620435983322 0.004961533132763334
10.924239094046396 9.27783756297258 0.48575601679422337 -2.1361341404450516e-11
10.921478265230363 9.27707794481964 0.45701007008966604 6.028183285592851e-11
10.915473200445152 9.373433859703157 0.3944849068957067 0.14010502971134492
10.923495481238845 9.259080893727223 0.4780134671618396 -2.948298704976951e-11
10.925032140784781 9.258130389323476 0.49401327604312106 3.158648868462455e-11
10.926870076524303 9.248801489403414 0.5131499941575874 8.614002218251709e-07
10.916155620586167 9.302942920385258 0.40159031411609736 0.13942088871078648
10.922696578984425 9.248852727050055 0.4696952398619977 2.6642341826891214e-11
10.916046321093816 9.32316166005345 0.40045227999977084 0.11916406478907202
10.925470485081036 9.246576873327056 0.4985773481453808 4.058273697563175e-11
10.917261409664457 9.293520311467518 0.413103868932121 0.04882505324303502
10.919858198313001 9.284470137955555 0.44014181770334726 5.132279136841745e-11
10.915452709236384 9.273920564549794 0.39427155096730343 0.11278107849175262
10.929279980027147 9.218834953205693 0.5382420814516641 0.05972417421016708
10.923345612709275 9.200302085789646 0.47645302533410033 0.06291699808317343
10.914812619783046 9.174626876883554 0.38760689388863134 0.11538767733212599
10.923794408926739 9.211169268880194 0.48112592358609185 0.030067721083974125
10.914523450627492 9.25637318133596 0.3845960439996827 0.12077216508440462
10.926323623668248 9.214647425704122 0.5074602880137377 0.060043933248904675
10.915962212419442 9.20616995552906 0.3995765344783956 0.11612515164921709
10.923738911781774 9.2314670443639 0.48054808335122057 9.448383428411933e-11
10.917046052232765 9.150054199572383 0.41086155198082003 0.12864782856766965
10.927689893979053 9.228116648762231 0.5216859920162228 0.05879653054124066
10.914706541453574 9.240349803736253 0.3865023987501434 0.12053012475115611
10.917928201865468 9.171217056742138 0.4200465569256506 0.0592350549691652
10.920176574246673 9.172440941929498 0.4434567706508662 0.09408879412568925
10.914312819142676 9.189289893995827 0.38240293394460523 0.12749535781654084
10.924951578653458 9.21244642932299 0.49317445738116855 0.04609950209058289
10.915919812041446 9.167471423026727 0.39913505871611854 0.11993751438745957
10.920743475415922 9.224753976445303 0.44935938609134174 -7.177495333719751e-12
10.9182444300647 9.158140313829746 0.42333914750885737 0.08350600076910807
10.9245863605761 9.191159228256657 0.4893717806898917 0.0631339971789685
10.916941191623849 9.195392129474675 0.4097697358356637 0.07031668592673436
10.920924693979181 9.211973697738037 0.451246246707635 -2.819737023320465e-11
10.919683760696428 9.186013705392233 0.4383255607879654 0.03348263640497995
10.91575971176573 9.145234956347412 0.3974680832171586 0.12423322826102995
10.921309003263602 9.236415658668108 0.45524770240959833 1.617078723676521e-11
10.922843118383877 9.222102320283872 0.4712210185492715 5.333765284292856e-11
10.92074784065312 9.193587102636576 0.4494048372526626 0.046801585831950425
10.922543047586789 9.211458444825116 0.468096659990488 0.016829357140075225
10.915444786825208 9.227318870480765 0.394189062256649 0.12366377513684591
10.917114524302985 9.214797384718718 0.41157448806356395 0.047991009694356934
10.919574340669923 9.160859023470634 0.4371862716614297 0.0610300172405534
10.924950097528848 9.233573589245804 0.4931590358060057 0.0034571938392250726
10.926278761238796 9.226733175016333 0.5069931771959509 0.040115899559274165
10.920836435875382 9.181920791386748 0.45032729703087754 0.08851632630952067
10.917794169681493 9.184836480360744 0.41865100425868446 0.035148138867106056
10.91959506951793 9.229314556510912 0.43740210190654766 1.6617071958745368e-11
10.918814343478278 9.21316665162161 0.4292731266523103 6.828666387289804e-11
10.919095739857992 9.201517344107279 0.43220304584437896 4.178689184393302e-11
10.916835063636496 9.23107905203522 0.4086647236557759 0.07256872864390594
10.916120706299402 9.17934219648268 0.4012267840700626 0.10635771413889028
10.917739460471369 9.240860030952437 0.41808136805763324 0.04539786578262099
10.915600440494682 9.193314384076352 0.3958097393739813 0.12290849920464239
10.923412581592485 9.180646220869559 0.4771503101264371 0.054993136355583505
10.922539566195702 9.189201967268376 0.4680604114980035 0.0693774517594687
10.918451619472421 9.228331687995302 0.42549641841154057 0.011656832643596297
10.914288240276644 9.22757510713413 0.3821470170369964 0.13074767717228672
10.360936613589256 9.482602523132222 1.0577691466113572 0.09958841155632685
11.000887129337672 9.481416046897458 1.0587732001154113 0.10804428812851113
10.339892235525914 9.483364066475733 1.0571246984137226 0.10705039241315747
10.339255028140855 9.475185065277596 1.065757140128304 0.05980245695413736
10.35742044388339 9.475088327993806 1.0658914191763023 0.1193605545085132
10.367939325475128 9.471061433323401 1.0875822580517462 0.08313017573477055
11.000761643703104 9.471062105818746 1.0875878882793677 0.11593727333913048
10.34001854186399 9.470501432988502 1.0804326523697612 0.08911982672565792
10.357931824268487 9.470402424682758 1.0812009800484879 0.11410622776781493
10.398619997624042 9.240500436485071 0.5749075451979397 0.04800589566487736
10.345073952709257 9.235519451653214 0.5668010298228141 0.14798359460678984
10.361033709086517 9.23094045653001 0.5593487496770286 0.1318243288889702
10.365063345234592 9.237796295842909 0.5705065766280291 0.11853204786644396
10.385034484811879 9.23579302302916 0.5672462651809085 0.09044504546780284
10.394983666273006 9.231653706367968 0.560509506248107 0.047799360544265576
10.404831292454444 9.235347755501635 0.5665215465379834 0.05839773935564858
10.38367690567841 9.228108966694814 0.5547404895639516 0.10136663205379823
10.421579626825107 9.237331111136854 0.5697492998319664 0.04707274717993275
10.414072066643667 9.230206775247456 0.5581545828465376 0.04788029775639587
10.411658689161381 9.22340645921009 0.5470871330408406 0.042221033167676274
10.394105247875084 9.222516936152761 0.545639596744105 0.08716872669636651
10.423480860168118 9.223558024016466 0.5473336781789355 0.06237175518314788
10.38348591682817 9.210449720693902 0.5260002418909941 0.08671211797804848
10.393295370861276 9.197925011741106 0.505616138173108 0.07262370262596851
10.429748710342391 9.169263559282005 0.4589691679202083 0.07571842024094294
10.417268225698795 9.170181539032026 0.46046330462528307 0.062262316468532336
10.41989806622828 9.202524506121467 0.5131015728369921 0.03709307989629515
10.426358901379661 9.191070604837504 0.4944602449759223 0.07639076306728194
10.411528076585807 9.188004085509828 0.4894696181450352 0.06995429970130529
10.412635077492695 9.214758847901964 0.5330130781804672 0.07073214267804386
10.44225198598438 9.14769847111005 0.4238717887155742 0.06234608826425634
10.426222133716497 9.1850702952487 0.4846947211424787 0.07530465130619804
10.441061553044811 9.155535295421911 0.43662625969269536 0.05669312426407552
10.417897089008719 9.180594553386808 0.4774105163487876 0.07307043359576605
10.431663259422296 9.179012353698035 0.47483534682832784 0.07941924893522935
10.417628185791656 9.20920475676695 0.5239737265650639 0.06651413856228226
10.394051381684351 9.214404662684238 0.5324368212509349 0.08455325245649922
10.424689419383846 9.157557091855736 0.43991689982591525 0.06426452593161783
10.403388671393419 9.218565981340543 0.5392092913145031 0.06568773101676528
10.4455888398242 9.129042544297782 0.3935091691197073 0.13789141119144635
10.423844296417064 9.108339882723769 0.359815305625193 0.06453551616284761
10.446437847307873 9.1207943620833 0.3800853699160516 0.1026563852825193
10.395087603341205 9.145800279814056 0.42078247394365786 0.08696413560251598
10.416894187900928 9.13142020518684 0.3973787904269642 0.09615069768986031
10.383237514660696 9.204077075467952 0.5156287047890232 0.07664115885338102
10.430998712884355 9.113477413818845 0.36817670768354177 0.05927871373331174
10.38880354277526 9.18468535504497 0.4840684377826823 0.09942737009873077
10.407475491313983 9.174899525435347 0.46814193844639307 0.07724753338971267
10.388197143979605 9.190640339568652 0.4937602536212035 0.09549156178940803
10.410395026419314 9.143651083403117 0.41728468597609847 0.087049839123661
10.407182594278577 9.136319498883237 0.4053524203955421 0.11158098170139291
10.411090680144344 9.102782413948526 0.3507703743026248 0.07161491700551147
10.434982482459588 9.12613757325617 0.38878130421824575 0.12286538779013731
10.39262299713327 9.176718595610993 0.47110244321919553 0.07255728662964793
10.427568972332075 9.145645384767889 0.420530504003085 0.06257059722720586
10.427322774773566 9.134711055302484 0.4027347334268323 0.09132104098825254
10.399755632917099 9.181648745810737 0.4791263567920009 0.08385091763789557
10.405087944454584 9.128010228730494 0.3918289624375429 0.09321722335085184
10.406025426451428 9.162682614567144 0.4482587446358733 0.07071251148576327
10.392530932754408 9.163294343810964 0.4492542908305695 0.09984463922870147
10.40098291434886 9.153672554731774 0.43359473071619925 0.06996633284039662
10.419603800377363 9.121137265812944 0.380643177337556 0.07159576025879938
10.393994514954413 9.138827518613938 0.4094342062679552 0.09869462718316309
10.394873738225836 9.16977957068937 0.459809094544554 0.07544339048315338
10.415304379085695 9.11374153459636 0.3686065079926896 0.07073413615462402
10.443507696741547 9.114621475080789 0.37003895516574864 0.08784678464335437
10.431793426739588 9.101615548936307 0.34887137358163667 0.0677375278167994
10.44232054371428 9.097946477401177 0.3428998364381052 0.0766951315767116
10.407846215694223 9.095920958687858 0.3396032367082572 0.10459387959494483
10.948649815325611 9.239662284884982 0.5735434622190936 0.05842376901938843
10.981019640141668 9.22922522754428 0.5565571106763277 0.12887366086249272
10.95750352386769 9.229504768443116 0.5570120190143161 0.08239545649206012
10.948638628829043 9.233565058117438 0.5636200556036994 0.034390113747809016
10.978296131083907 9.221869805411247 0.5445864922277138 0.12421938820930628
10.942171460330723 9.223268971009356 0.5468632833201542 0.06758213721190581
10.97625641451295 9.237050942954975 0.5692935204052336 0.12284632242887851
10.988106150905331 9.237821988964523 0.5705483919903404 0.12306437348501024
10.961566377969897 9.23787498042027 0.5706346351862676 0.058193793220981775
11.015491805989896 9.236966371311585 0.569155880691288 0.10967313816635751
11.007420827950241 9.23218568170075 0.5613753442828872 0.12098583096163233
10.964102692227442 9.215695682084988 0.5345379303942115 0.08895804812428866
10.957390449782421 9.187332606286425 0.4883768585179348 0.08147223791494673
10.960335996698992 9.206905771332623 0.5202322827904055 0.08172021865914364
10.9335934989039 9.20789442823198 0.5218410652713883 0.0804062576592151
10.923517284470236 9.169426629059103 0.45923448749741136 0.04880574798159033
10.966413125344129 9.19907951625027 0.5074950839659492 0.07560323246813039
10.949064580955651 9.213281343014252 0.5306084387019336 0.05881033445453285
10.934916477013255 9.19991233318457 0.508850190105109 0.07732780118885091
10.963898627128188 9.192681185706792 0.497081753825549 0.0846180945273882
10.935337190295172 9.192253939048083 0.49638613054422676 0.058898793259228616
10.925719334382539 9.162716473057815 0.4483137061965935 0.06283992975760946
10.93938917431455 9.161528506339826 0.4463804191157048 0.06336357078828504
10.94356004853019 9.181496594270616 0.4788785937044685 0.07243493171627974
10.950792647097938 9.203189576664627 0.5141840699399562 0.07864940755897981
10.939471328944158 9.173743956503827 0.46626110843576957 0.057313824518731335
10.947005795815409 9.196273138256464 0.5029275050332748 0.0743065591633257
10.975860425876215 9.209831545245589 0.5249941412351757 0.09059429161243597
10.917855319106648 9.100403526048645 0.34689876562804917 0.05232558005354897
10.947093963487463 9.09824956452126 0.34339312090475416 0.07362632603159341
10.931545648867534 9.107916527726209 0.3591264281708564 0.06235723417039288
10.936135990446846 9.095671666541783 0.33919750536842896 0.0607476085053429
10.938003624452204 9.151493808574017 0.43004887642268685 0.04943078417101547
10.982681871777068 9.201223556283901 0.5109845455414858 0.08519614759790843
10.956679254295102 9.11618378185467 0.3725812573959835 0.07892544678907037
10.92710231070719 9.11491523607433 0.3705167946942038 0.07774988617241277
10.944604626493938 9.127254344425697 0.39059879430273436 0.08383039228954356
10.947314324084953 9.136959738028954 0.40639444381009454 0.08175355868172894
10.936915730633036 9.11777257572487 0.37516711634532807 0.05321222181360172
10.916156833706808 9.1215904930553 0.38138090778172823 0.09547519210214796
10.934351648375216 9.1247591421388 0.38653785780295297 0.06963126166557371
10.948121348915368 9.112271400434583 0.3662138361555564 0.07910933696712784
10.9577262490151 9.141325932398784 0.4135004447173791 0.07362434652151664
10.966989253248274 9.158876772104762 0.44206463927073203 0.08247703371841963
10.963262117051423 9.181312620925809 0.47857930200361065 0.0772780759850763
10.940955849802807 9.144429791538855 0.41855208154763934 0.06415652284115853
10.96274303270432 9.152414143273594 0.43154663930898374 0.0800666603929775
10.950160706728418 9.168466328620909 0.4576718368451794 0.06153098967855681
10.952892094088499 9.147791154137593 0.42402269929475744 0.08140075114541759
10.954037292381212 9.122254383290796 0.38246125371502304 0.06016685190192456
10.950084458475594 9.15487884537983 0.4355580237118758 0.06688866941076069
10.976907553733156 9.176278852579342 0.47038672365696027 0.07487793871708481
10.942957151093502 9.105902260329113 0.3558479938642096 0.07391776954908746
10.979032740057487 9.18652766019461 0.4870667890744025 0.09183211721832638
10.953825140784218 9.161906868453247 0.44699621240567944 0.041182768736711554
10.953210015360721 9.174144778970412 0.46691358024664 0.04578795632495128
10.924310566332357 9.129626709320679 0.39445992775475547 0.11022214136114264
10.937514163989725 9.133005181450674 0.3999583866638693 0.06015753871121662
10.932508032854372 9.13947720009562 0.41049170395399043 0.06165050046735733
10.959697087954542 9.127611391119476 0.3911798350965656 0.0695449918350042
10.975538668019412 9.16985182696813 0.4599266574477959 0.06933392368446277
10.975660259098968 9.194772784423893 0.5004858535437576 0.09952569686384957
10.446766556968944 9.078823299719149 0.32895405416047113 0.10808437643737491
10.445921477769673 9.065881599945111 0.33321245341920547 0.14277095970430642
10.915264847906814 9.055783870346232 0.3334238663186291 0.13629684746908832
10.915142856281115 9.085513555078972 0.33191206952639585 0.06884824916973563
10.914825963589774 9.068187192512564 0.3302664411378451 0.09454446396604228
10.90365508669256 9.051190352082644 0.3170582576265986 0.15689773567541823
10.879442352953925 9.790092946946691 1.1739773934635096 0.0027050814245306513
10.872529275269532 9.79380331240399 1.153563428646308 0.0017492969248396693
10.880165770629914 9.788596069132645 1.1966016830841872 0.06535639629745736
10.907530873592165 9.775759482214909 1.178368690419639 0.003382634509028987
10.909727293788041 9.775919743316656 1.0978142659200238 0.00019160094269928706
10.912520964691666 9.774214195104957 1.1131884802160028 0.00015555382714462718
10.907514418529967 9.777888823833422 1.0474911796334945 0.00030020300048355425
10.898575885071976 9.78032821951923 1.184524991006411 0.041874028276356355
10.905184369296155 9.77725393046844 1.161635508619299 0.00037348833101089046
10.905903931919957 9.777104885146485 1.147683337369303 0.00035475399385011605
10.904209904995387 9.778965754569821 1.0873455785849124 0.00023070098994795618
10.908470772815509 9.777673267052725 1.0300254156463475 0.0004991197304432036
10.908381612668235 9.774909750653649 1.2034373175144406 0.058503194056392184
10.897342676207671 9.781710292669318 1.1401334763838795 0.00042562771814976436
10.896021634333982 9.782676665292184 1.1280353567844397 0.00038454476380203265
10.891989057353072 9.786316818988766 1.0551369076329447 0.0004124407770431079
10.889670973282367 9.787084977315152 1.0822439138666586 0.0013825574477571248
10.901554851388386 9.780916568212584 1.0595024345731532 0.00024625337027892074
10.89246052910876 9.784029107865402 1.1606953253559973 0.0011174142333428068
10.894386774568101 9.78474204028868 1.067756732869096 0.00035046385722043507
10.893277304299716 9.785970825914653 1.0358567236450902 0.000550341941507053
10.884998181910813 9.788902766570219 1.1228510068356239 0.0008743838060327886
10.907789402301448 9.778318834303015 1.01430704461604 0.0007979235784992429
10.880381137372115 9.791863156091775 1.102302440059773 0.0018142038266116055
10.903480161688176 9.779540903512274 1.0754281445733218 0.00018880901278183203
10.894885717790965 9.782436009405588 1.1734741737827539 0.0006917616271406257
10.880099316007744 9.792300986439143 1.0876490666659382 0.0025002222750807675
10.905645875888473 9.779821089851382 0.998104591792597 0.0011692182647984031
10.89124560645583 9.783994353380061 1.197692738002542 0.06268342648140554
10.890487610282353 9.786348808100286 1.0969545614182576 0.0009760465308365313
10.878168177232709 9.792377630999974 1.139584362039712 0.0013413826125517976
10.886563626693018 9.787499233941798 1.1506512740932666 0.0013852468056009168
10.875089451537482 9.794419163753561 1.1223651214636838 0.0017240321902898526
10.89868384768565 9.78160690030505 1.1066785305336087 0.00010309195409798842
10.883974731086568 9.785176272853867 0.9349905148456825 0.0009760842053388154
10.886885856470405 9.785726844504616 0.9546024282982599 0.0010853773860478094
10.883003773353295 9.783560958676704 0.9130161580775467 0.0009257637309761999
10.88608478353099 9.787398047020446 0.9688539834415828 0.0009996257892413557
10.899078211308943 9.780167882725452 0.9519598034944037 0.0013671797173643808
10.874786229976852 9.789781591326813 0.9414656710672336 0.0018973929532441177
10.870990712236877 9.792461297568083 0.9525202799297203 0.0010977291327746521
10.869644641101297 9.769288397705374 0.7730384234055041 0.0014949794200001328
10.907151028082962 9.752637443772834 0.7814344913194684 0.01921084417855784
10.885462966189479 9.759861029958346 0.7622065185612392 0.0009180028093578759
10.895497411665753 9.757849968053726 0.7790582614229715 4.811018423898583e-05
10.895599533797242 9.764778624200613 0.820762673977927 0.0002901534798506543
10.899140603600987 9.759488366094159 0.7993327506212997 0.000669419690149454
10.874281441704039 9.76497944801576 0.7606261539694003 0.0016928593765747305
10.874351660228559 9.780897401052897 0.8559652149322631 0.001907748185759874
10.877493980219116 9.777583539526548 0.8452003555724867 0.0018958449442155819
10.884978877716733 9.761955474824301 0.7733315853307783 0.0013438996767217134
10.873581616955594 9.775654595222075 0.8224148904825828 0.0018873919273921993
10.884973739236212 9.769742447283797 0.8198572955156307 0.0007697346707397162
10.87989169021164 9.769526613800181 0.8039451608172251 0.0007178616844968741
10.880591135189466 9.767188549848015 0.7919836803293696 0.0015150819015402953
10.884256496602994 9.772745698918696 0.8357432037383375 0.0008327685658039564
10.925300129113232 9.755476099016619 0.8674150897690887 0.003919494332300327
10.923167306275992 9.753288007891362 0.8418616248477304 0.023208218663605742
10.917398799041537 9.767166234960268 0.9242939367062816 0.0016197722309703026
10.921041529956522 9.759075998610408 0.87736574440551 0.0009634833972644197
10.92728089929895 9.748143939667367 0.8192461599591129 0.02708989553505206
10.918935830275386 9.762028045288584 0.8913688663647741 0.0008257190483882472
10.982410291573423 9.709348207062023 1.0774064154955645 0.0017657370148097223
10.985727562083664 9.696669679170341 1.1973960070224023 0.039199555902760315
10.981404440797705 9.704197601869144 1.2088456307518916 0.07011311246787026
10.981573934705231 9.707749213426888 1.1366263950614004 0.001694249812915924
10.986063391153554 9.698395052150058 1.1534050957015127 0.0005824511826175408
10.98559845019549 9.697998624545468 1.177137959911416 0.0017315015471174795
10.927711014622854 9.757498281380498 0.8990609808552754 0.0013893414203534717
10.933907335868467 9.748507097934162 0.8553044844009785 0.02199696539136779
10.921829259779896 9.765578544012179 0.9361330303647581 0.0011674951357641442
10.93245663805793 9.751752712218703 0.8767498116132437 0.008576714804786683
10.925873656140771 9.760603584321228 0.916348972837141 0.0010761716375622063
10.939076636479175 9.743541510566232 0.8436985722998641 0.024432877558355263
10.934841280321093 9.759384616759254 0.9944301646273708 0.001289562421161574
10.928399478325572 9.760993715324153 0.9461014153155318 0.0010387742897229742
10.93440312976641 9.75353603728798 0.9135604407616791 0.0014256907690564028
10.92403755171775 9.766581943582853 0.971956079037255 0.0009947528905627416
10.933622974727609 9.75756503522724 0.9576335506362315 0.0005787556205091327
10.929945404597404 9.758480055814157 0.9299961982233511 0.0009070571632664686
10.924486533809644 9.767339739371906 0.9866525420540316 0.0012423421733526176
10.932967315470448 9.759027166531752 0.9696211026339463 0.00037895753259523855
10.942326234415841 9.74377666249845 0.8716916138755049 0.026593389994108225
10.941219705825123 9.74725200880273 0.9050451848331055 0.0014750694058518693
10.946986592040293 9.74801383147854 0.9769882105762941 0.0008443298328754588
10.942300708486185 9.754221204059618 1.0074209149309752 0.001799393363694518
10.944037207448927 9.741322127383201 0.8581313664366309 0.03309344943700085
10.941355993571548 9.751616077487352 0.9633377797706598 0.0005704525314076188
10.945914793393186 9.74582838559261 0.9370031697481924 0.0007509665184857912
10.941667407743399 9.745682883109833 0.8894278191749893 0.012593142056792385
10.94421071138045 9.751516562177898 0.9927444652997567 0.0014301345691961661
10.87094105448153 9.726748430355329 0.6072830626333094 0.001544207474667231
10.878281169346225 9.70371690409367 0.5454165086943641 0.0010375021856375607
10.870772270176506 9.732242560522804 0.6240808735699679 0.0015141249018027743
10.876704065184022 9.713242790198084 0.5728852086674789 0.0016831421465614879
10.888786963118243 9.707008510672546 0.5691540470808418 0.0011200442075669588
10.879915327022516 9.720330595487944 0.5989759895131279 0.0019207209575107435
10.892392180595209 9.697867510681549 0.5454918567614859 0.0013225664087609247
10.877755524916097 9.708388206669223 0.5592059703456358 0.0015097326698675034
10.900372283688199 9.74964205518594 0.7474862372331814 0.0025918246527717767
10.889187377107321 9.755778258257903 0.7506525840703572 0.0005282243807914878
10.912994514547904 9.743733163528049 0.7485173714107998 0.0333182851176187
10.91600938688081 9.77113105929174 1.1596521527550068 0.000531034567367539
10.914627407807847 9.773409580711972 1.0742923480924167 0.00018385819648180783
10.92605483882904 9.764262789609171 1.1591595145638243 0.0010460723260691928
10.91684251590385 9.772120161394211 1.059765129558502 0.00015246500749423235
10.918585582790621 9.768673463704284 1.20412175461981 0.0634557067557488
10.916512465316178 9.770402302076096 1.184275828780396 0.018248209061562937
10.922098023251309 9.767465218113625 1.1275127026699974 0.0003427123055533135
10.922443272620924 9.767687562627579 1.0981325433720357 0.00035358187960177467
