x y z curv
0.30083199924470805 0.4198700208731037 0.7184876822854613 0.025182329431739356
0.30383573151263815 0.28172018737744275 0.7292892819010585 0.01884889872994605
0.2902984412208791 0.3904112702380035 0.7201596726379091 0.08402299085328037
0.28667614632942856 0.3544708029080788 0.7227209662040014 0.13241955327513324
0.2977814498028115 0.3052968332689488 0.727132785664361 0.056852294604638205
0.30406390153082785 0.3758348378885133 0.7220591899496032 0.09608463736320098
0.2856557358409746 0.4045477450486259 0.7188094358235827 0.03100272640264115
0.3027595362480158 0.38982699478994354 0.7209086708426605 0.08941634926469004
0.32312473134024006 0.4083933999267323 0.7213731855591085 0.03661565242669567
0.3131218006485983 0.22713434002042993 0.7340531020181167 0.021397706094239806
0.3310710061005714 0.4202042806915994 0.7212260984500739 0.02404309156607346
0.30208591410821256 0.4315575352747682 0.7176749498089389 0.026700383253583274
0.3115346775736685 0.41420356985082807 0.7198578142854272 0.02511554269991851
0.315548001559235 0.3008412038150157 0.7287441462177319 0.019162190506984613
0.315121197064086 0.3801120525127691 0.7227517523867055 0.11444422825866467
0.31890670302199847 0.39222300937543164 0.7221947511682658 0.07202658930698709
0.32458178225435186 0.3713392277788341 0.7242913370274746 0.09011968702570292
0.3146521393224975 0.31431426359685927 0.7276490110626629 0.02023832692660022
0.3097129922095243 0.3265065468805975 0.7262736103083365 0.019370977296031322
0.32329118671719165 0.3395918290936793 0.7265551743988777 0.019353335995317904
0.31190004304907515 0.4263406220881103 0.7189804277080563 0.0270605740029082
0.315843129101958 0.3618174634505017 0.7241927554394195 0.07847231521104223
0.38711426447488057 0.40167297030494864 0.7304824372826533 0.13143203477315343
0.3619358070555701 0.34751741927170876 0.7312060121983974 0.08186403872153132
0.37394287765852097 0.40033328398291 0.7285571740264216 0.12180902011519461
0.3766488221552511 0.38180479733774964 0.7305577135677679 0.16603375660400427
0.36295192996811454 0.3750725676871726 0.7290113612029422 0.1180704457263998
0.3402626447333159 0.2867142750809032 0.7330398010561674 0.021116670589515704
0.3293405161771342 0.2561806973859839 0.7339547157933454 0.021018928142030862
0.3547624867525982 0.332785961379954 0.731352629798752 0.04607402914015437
0.3491021184359495 0.3448659952154827 0.7294450069267815 0.04624847921083797
0.3653393684028898 0.36145783961112576 0.7305431603112765 0.11057743543882871
0.37485167208482273 0.3696171984707866 0.7313197072415112 0.15081200821274923
0.3414112700854749 0.2980969299987857 0.7322460889910046 0.022444491752723273
0.4047495713947613 0.3190129453821907 0.73927039193313 0.051498077206142925
0.418097217848625 0.3233567122612587 0.740723794919658 0.02691343991714496
0.39148639455904993 0.3925682572710447 0.7318647283218377 0.15456620067254237
0.4010814014604427 0.32942050751132235 0.7379828331888874 0.05347764595638874
0.34210271526186853 0.2743831635897002 0.7343047579974145 0.02135835665425938
0.3515965427396021 0.30417505478772006 0.733294332036688 0.04353575557241282
0.4036392490166021 0.3078740562335168 0.7399745662208574 0.046202377177776144
0.3926441706022914 0.37969526194100245 0.7330051328823978 0.1520575767161024
0.39927523668652465 0.28739164816297874 0.7409586836754897 0.06249292499823114
0.38605400881112206 0.29042027372620804 0.7389578023367492 0.08775596427720667
0.39173135924426045 0.2756234456107435 0.74085021337218 0.08591573272987581
0.3629303202826807 0.3242050603100732 0.7332774158399167 0.07683309057836109
0.36724473113897943 0.29130174831308414 0.7363736046218499 0.06451755226557845
0.41808019126673474 0.3112246169282405 0.7416502891091359 0.023485474032015757
0.37803195498112074 0.2743821018951523 0.7391122385754033 0.08214833179513416
0.40006170036596633 0.363134552102631 0.7352654170976172 0.09850876786211366
0.41349377866045817 0.30028239350772745 0.7418743002978424 0.028611152557220475
0.39622327285909054 0.3504195456127728 0.7357252254695049 0.0820576171889104
0.40646913812710705 0.34004679376992825 0.7378902272190546 0.039278816535929635
0.36938356379144655 0.3014343283222854 0.7358840849087133 0.10697448333678605
0.3753372894807583 0.26266253813107865 0.739648878334359 0.08025459615293477
0.37644227021967147 0.3360177733047255 0.7341810178801267 0.0960862909613352
0.3871245573258025 0.30262438962496363 0.7381667578138709 0.10752853602350049
0.3626919815328117 0.3118846244136803 0.7341887164574938 0.06437723718273762
0.3653073904127778 0.26719070075724866 0.7379602057058697 0.057140164323088855
0.3241720414410077 0.229548961166597 0.7353378820908597 0.022391500368895978
0.3467156942448989 0.2560229277807558 0.7363275507702601 0.023110344081641785
0.35611981617920896 0.27433126772817407 0.736184245135787 0.03190644791617171
0.3760130540485802 0.3172451250749245 0.7355607277619485 0.10408624094657833
0.3829352739766206 0.3591610514798951 0.7332780605787055 0.11886035872201475
0.3790599218440027 0.34930969207183743 0.7335137019070022 0.10892847101729415
0.3822753720327626 0.3270029969970052 0.7356516238505453 0.10608803750165026
0.40497583420946304 0.3806987272206754 0.734698820532334 0.1306081000490661
0.3422687099810924 0.13916002192971325 0.7425803498081688 0.018980302034456865
0.357817196635183 0.1542114802183536 0.7435655951856737 0.020829326472073712
0.4042301547300965 0.25993404656577646 0.743168733043577 0.07538885287807759
0.3929070758964787 0.25131663724114733 0.7423225528969589 0.07864957321184621
0.3420744187923117 0.1847946368978358 0.740052134549852 0.019751455570554674
0.38165908529716563 0.17016813857468283 0.7454674549889462 0.08639774191264549
0.3579703872916102 0.21798134274505637 0.7400821479305442 0.028719251395403902
0.38866891913992635 0.07749263356924257 0.7513725795038564 0.1108508607297261
0.35733471620191093 0.1164112554097898 0.7455848069929256 0.017570491794692326
0.36476703853260184 0.14184271526765913 0.7450544728412465 0.024425138420585312
0.37694748224982183 0.09870121557003175 0.7488423825167436 0.08158953600156835
0.37958244517149725 0.21560852300076608 0.7427305800952689 0.1262854556818355
0.41562229411497276 0.24318133278565418 0.7454159112875975 0.0397124857263757
0.3838566213173715 0.2269617263130923 0.7426052405148557 0.09085960489836893
0.39664421969685504 0.18007253801595652 0.7466696610205961 0.09063346620425128
0.32704257588917063 0.1846715661168638 0.7383074405168634 0.020070723127072223
0.39526153317462837 0.06136663830645534 0.7530261258175774 0.092680463542737
0.3822228695595509 0.20373465950046474 0.7436901687010808 0.07575612530374845
0.41095373065604923 0.1918846681403926 0.747688401748335 0.06721846263621459
0.3770941810881654 0.07481770215762257 0.7501708041343786 0.14295387357228878
0.3389159862170923 0.15134197864375243 0.741520850962031 0.018373017199407076
0.3930111296053716 0.04101178872882798 0.7538815045248088 0.053815193198256325
0.3216127784897958 0.20145853954098353 0.7367530898958047 0.02011353751837349
0.39800463052037394 0.2137271112628772 0.7449803599993334 0.0754611311429828
0.36732432782544394 0.21235611133871607 0.741480886719168 0.04216201437087728
0.3247140561516334 0.2156221795219935 0.7363367812339828 0.021902632822445093
0.3778381159685344 0.1539405458952227 0.7459132297216369 0.06303292621606367
0.40509171149056594 0.1540192172004669 0.7490843920980698 0.08774351888854273
0.396478451431701 0.1666601164689482 0.7473867579093476 0.0870207066240989
0.4138003098578893 0.21712379735991577 0.7466343147802292 0.04566510671509617
0.37761583991390935 0.23933920257508323 0.7411985015051187 0.09106719378181201
0.3577850050392526 0.10039881769386971 0.7465164388162279 0.05598838666398289
0.4150316019020966 0.25749859270350733 0.7445609942741386 0.03727174690736304
0.33344529460929045 0.16243332662269297 0.7402744549066611 0.019737679790627818
0.36661618459133893 0.16294821219315822 0.7441111267505169 0.028534254932102883
0.4067054808439964 0.2780108468001988 0.7424646381596443 0.036503770895083276
0.360783387440173 0.17489537194956914 0.7427755510719833 0.02858941865227124
0.3498145138028245 0.19208283291456485 0.7405538202125094 0.018024973780046843
0.4138672199460045 0.20348330628323383 0.7473910446371378 0.03758673505838208
0.35945931178120655 0.23071509115766597 0.7395564826823564 0.02998380598899225
0.3954098044844633 0.08939581785212715 0.7515044543749534 0.1180732378495205
0.3926703194554614 0.11293502400907886 0.7498928357557647 0.07292514851109214
0.3353442287349385 0.2275804934533947 0.7369187936648091 0.023158018779209245
0.3999545707463266 0.23481135919703672 0.7440499247287413 0.0833877798116563
0.41747120321929176 0.2723330482794913 0.744030758427326 0.03296252347593226
0.3998166334342972 0.2025621333181062 0.745804502694577 0.07151565379776581
0.35505485024044386 0.1647545139642914 0.7426648701675457 0.02153176633946634
0.38094567373312005 0.1916779794315478 0.7442033291748145 0.08843380763079899
0.3475312115328689 0.23982498699077284 0.7376664867576548 0.02258305501685257
0.38783447896630663 0.12915444249976935 0.7484388523710876 0.08578488987186812
0.3321991647401158 0.20308696285197939 0.7378971651240194 0.01966448895994672
0.3579301499425889 0.24354508350859957 0.738673877585013 0.03840596124346293
0.3940700947625876 0.1558352066657795 0.7477004893866566 0.10750614225328482
0.3671396136625229 0.12800768681342467 0.7460905308389156 0.0313712617466702
0.38059472178729986 0.2512075664199192 0.740893954339782 0.08435990520013655
0.3808637334225209 0.11953814665172596 0.748154633048576 0.06631813334700828
0.38924770910122086 0.02541771233333333 0.7542992012883132 0.022566246080011537
0.3681771444123654 0.20029312541034647 0.7422425740924417 0.06016501432793431
0.37471059931771644 0.18306555107438968 0.7439497098254012 0.08338977976457643
0.3366734822961943 0.17353618392896872 0.7400409861569713 0.02031642026372996
0.3684846950860661 0.09034628584866272 0.7483150608215825 0.10638416101838992
0.3834698560650446 0.05595806720986869 0.7519491645684115 0.06935911544626991
0.40607203630835254 0.09632088024313427 0.75242956038967 0.09641791721204757
0.4338432152239619 0.2603083823137264 0.7468281223672352 0.026144160825037514
0.4101040429382615 0.14169607513382337 0.7503697744666978 0.05595137193601086
0.4140476148170743 0.13051038028802878 0.7515668472308836 0.051793392443151794
0.41650963366058136 0.17254888927787004 0.7494807426642514 0.03912501247408945
0.4058308306712611 0.1147482843226641 0.7513307877325871 0.08086204789304587
0.4270717886457559 0.21529297659035496 0.7484846757254519 0.02318965473392034
0.40563989682974694 0.08255967362664937 0.7531646256794016 0.09908446327996256
0.4239367475033901 0.19531462363385688 0.7492017517382964 0.029859384346249292
0.42476194698463604 0.23645864490629137 0.7469388400869817 0.025818810408450167
0.4229050091449775 0.33778582336855306 0.7405399989513584 0.02169828598837869
0.42128498619002286 0.3482997334614384 0.7396520435224272 0.02176899526595861
0.421258317982531 0.3664194596651712 0.7386919795536684 0.06795035180412198
0.408283179838925 0.3945914428855883 0.7345413767216775 0.18972858919229219
0.43802551626419206 0.2034164200426518 0.7506080113522847 0.024840105625038876
0.429172095775889 0.1657094274858093 0.7515688218550306 0.0251516016376998
0.42925988152682504 0.17952394903285826 0.7508162821400165 0.02324727432759573
0.43953137435946277 0.23006808658061467 0.7493258017140432 0.028783083605874445
0.40766367945807425 0.06066639186411588 0.7546458740504631 0.09801696511632249
0.44500324788747453 0.17419015090416823 0.7531092811530917 0.025786265269151874
0.4244829702613777 0.1432784909001777 0.7522136861831157 0.03466941875099721
0.4289474685762808 0.0421774904395964 0.7576975338203501 0.11727315853996753
0.42829900960019596 0.07460239349369209 0.7561114507364205 0.11417824420244801
0.3973738008858644 0.016321779209417832 0.7557080658445061 0.024081216394085222
0.41174121583328066 0.044399189305148266 0.7558485354762792 0.08952677386821879
0.4446047961165899 0.11489396176306652 0.755875791871721 0.022106599152597616
0.41551532098577115 0.03351939371442925 0.7567413820178344 0.10427499424322959
0.4364931364357584 0.0863029794480949 0.7563937775163673 0.0863679985972103
0.43825324757781803 0.13874191152486925 0.7541135301700423 0.018850270064070904
0.43502367072072334 0.06311551971182568 0.7573319676678059 0.12433055453714664
0.432476086691006 0.11880842866336497 0.754462320347619 0.020855658352175333
0.434511999622934 0.02689640550869238 0.7589783072148438 0.15814502431519376
0.4224696761826819 0.0992505123214856 0.7543646271292316 0.07087553476845515
0.4407944485128065 0.03668016846144881 0.7591566523380663 0.14827333111153973
0.41843968426695066 0.053958875220645845 0.7560795741721755 0.11282848244793146
0.2516391481512137 0.03818021212693866 0.7468311244042222 0.020787527726280147
0.23712204721289404 0.05947188519001173 0.7449414404400945 0.08624336694440671
0.256683006467127 0.07791000619547891 0.743761634414303 0.10861607588490031
0.24505352115032022 0.08738449428760445 0.7428472897733642 0.1362208315038376
0.23910036031673856 0.12662939998835257 0.7396598632823133 0.10865141990155625
0.25391313343289623 0.0028482479968124953 0.7496568981060581 0.02615611504434989
0.235684407808481 0.10678403081104457 0.7411803598066851 0.08218804897725988
0.2739783993333801 0.006756597119748444 0.7496330292295479 0.02337176576419752
0.261365813636326 0.10313286225102314 0.7418339790714723 0.08901282010858681
0.2506768652891917 0.11774449142255107 0.7405268409836402 0.09024905803565242
0.2510980917529345 0.06784846629688242 0.7444777677209409 0.09867596936582662
0.2710996251489983 0.03272280850689904 0.7475391478235156 0.01986881870362182
0.24832208968108332 0.05511615502877028 0.7454449769420015 0.059388454522228504
0.2635799395424536 0.06842592330664792 0.7446094856307879 0.07449753819866056
0.28253452760358205 0.01677256180830967 0.7489627217307134 0.020244672305106435
0.2342263419901702 0.09034141886387434 0.7424596459394455 0.15347143447203837
0.24492146151617025 0.15528800766960477 0.7374767420679375 0.051791504314034974
0.25839229575157374 0.030497770323066015 0.7475344887918208 0.019885797431920715
0.24912589150548248 0.10734521203596559 0.7413270014562378 0.05781102592755558
0.2395732990622081 0.002805281778476133 0.7494565186757974 0.02628127395831526
0.32775161373253214 0.13136488684782863 0.7420834596080224 0.019115663459130745
0.37832616558224874 0.02201393009187111 0.753679699832028 0.02233935454698215
0.36346997884007753 0.07846244742731866 0.7485123830401671 0.1439899506323097
0.3431611291694278 0.05294894077528049 0.7488811958931139 0.06858481753246008
0.3699416515459961 0.06707568601998122 0.7498076247565022 0.1035603816922006
0.3378304548476637 0.12584140760213663 0.7432167980917523 0.018064636448595642
0.35285285975268066 0.08176578958005637 0.7475005784705566 0.0972530807565136
0.3426756290651668 0.10437950271913442 0.7451229738257475 0.03196936815714451
0.38019431175655866 0.03288186960525613 0.7530289644210939 0.019259676878450215
0.3357453485368174 0.08667725749996506 0.7459000129910092 0.0904659331724439
0.3379644987769167 0.04251314686457488 0.7492584112164992 0.027631231659938908
0.35038593016713926 0.009772740756246958 0.7525323808772011 0.02483559919141345
0.35746870038242606 0.05979967971064781 0.7494265616324643 0.08773256030846735
0.3345046298677081 0.11569186118267577 0.7437094452952213 0.019289926753083077
0.3458764485914223 0.06337360231864542 0.7483242029945224 0.07744511650296679
0.36849674346431754 0.04459994617865387 0.7513294126957464 0.031785354176227076
0.359254745861088 0.014890431132786187 0.7528073776870288 0.023081327291510276
0.3689324194835684 0.05530044382823368 0.7505865463666146 0.054318585595427106
0.32243430562297665 0.1643598390544931 0.7393080839588314 0.019197294673706587
0.2613487142339389 0.20509968436241274 0.7341879579911047 0.050019150654973046
0.25683604500199103 0.17961847554225868 0.7359670160111835 0.05843075976238376
0.31044964663920466 0.21231775007658094 0.73506880456665 0.019992448223804322
0.2353628739387018 0.2032325415044509 0.7335754217180195 0.08810183767467772
0.2676411099622986 0.13304318498105794 0.7397705608441693 0.05630168176441906
0.25702916932775705 0.15330426559796198 0.7379447704209965 0.06046651126067238
0.2766047830918605 0.18952305595167318 0.7357971444695657 0.06412086476583899
0.2542781339267264 0.19420189816666605 0.734799967744676 0.08691993318025355
0.28345523888632806 0.09505577244447524 0.7430755204608033 0.08969427193296008
0.26909927996353167 0.12059373090794158 0.7407458300786838 0.05763918467739577
0.29670752053620564 0.10489757900917146 0.742721656476198 0.06663134200059986
0.30139202694981526 0.1519904149120561 0.7393278551141464 0.05520356758173823
0.2801797286706877 0.05357366721527092 0.746089616632619 0.037879390139812084
0.29918806892305305 0.18139916442418416 0.7370599475607209 0.01837489468679617
0.2977871611793327 0.133509007475978 0.7406085886898138 0.02031303025341869
0.2942497744671911 0.05730194542924738 0.7462176211787839 0.0474247341224349
0.2878187708572052 0.1986412538735563 0.7354384896263119 0.021091813718973305
0.2937798680786792 0.16684238634498996 0.7379943240779041 0.019288719936417086
0.29109919595838085 0.08252365768801848 0.7442361067720215 0.1160250585111993
0.288019408139091 0.1128007507691973 0.7418777583524434 0.05591073464785718
0.2530424193418004 0.13703606624286133 0.7390485732191854 0.11310436134750469
0.2700032657805285 0.17664233271079902 0.7365713513932685 0.09949319711489625
0.30360687849113904 0.2038119390443789 0.7355081405348871 0.019529715682873455
0.2803978177771786 0.16631245226589048 0.7376465366226921 0.02087392326629502
0.2744886454387297 0.08067080238611675 0.7438939801096578 0.1017972003447275
0.27259649352718396 0.10805286793777899 0.7417869947214895 0.05550689150734437
0.24806660899763439 0.17063756408259476 0.736386168617106 0.05894820589529505
0.28064598907910415 0.13770479296681457 0.7397977713941839 0.05080004764012575
0.28822172768854865 0.02625181511797521 0.7483701704441634 0.019017730767577425
0.2765791328080651 0.15024504014299922 0.7387401577501317 0.018609362920904277
0.2890270856767429 0.12577337589867632 0.7409346827818905 0.01947028508744326
0.2943383839919576 0.2101621965729548 0.7347638220099016 0.057590278496160385
0.2843057930444948 0.06455648008697115 0.7453859700190374 0.039621086568423704
0.4583291201037506 0.030089086570179287 0.7615886541825496 0.14729754045792554
0.4633905663507362 0.041559076071038786 0.7617694602997025 0.1699598069892044
0.4521106992750976 0.049988269536881444 0.759911957914206 0.19954479980560338
0.4480475417810381 0.10502605303011649 0.7568025064374759 0.0245426576650569
0.4473689320458226 0.14407655254640564 0.7548352538817551 0.022130873378482054
0.4460516217794944 0.08130582178383716 0.7576400095937712 0.10841546166210955
0.44654471841031607 0.060300283605385994 0.7587172185312905 0.13499192019204595
0.30297642479378745 0.24209675604796638 0.7324065079601947 0.02134439212776055
0.260928708395031 0.27314006558572684 0.7286567972469667 0.10794530429851779
0.28779101714578137 0.23317156056742824 0.7327116501747316 0.0523009447964407
0.2516203780133197 0.22463127959977802 0.7323903743809268 0.1030236151297248
0.2520347432406253 0.23699729173524134 0.7313830961250114 0.10590584652686676
0.2817980172373896 0.28068277801991165 0.7286266542274789 0.07590704897703086
0.2940113738579502 0.2909589987773539 0.7281259560436293 0.01845589500461157
0.2683143614731641 0.30686655989359984 0.726086867865378 0.05268500403635176
0.26319320626720966 0.21880906074666692 0.7331981158244275 0.08850836645819476
0.275899603161554 0.37348573825767145 0.7208120737925733 0.1070383809429436
0.2536146325271481 0.2847416126990205 0.7274934989128248 0.05510617113460091
0.2654885806140766 0.24754928852001562 0.7308948265294011 0.05434731713099667
0.2591276553719344 0.3393849330424108 0.7231468506477531 0.12587309746433034
0.2727883954263425 0.26221246953069166 0.7298933764457503 0.05847475349025238
0.27390351415161457 0.22494488782414335 0.7329960118775497 0.053002361630752
0.2869789534692895 0.32831452507973324 0.7248483835049214 0.09346173978815779
0.27498295726856564 0.39697437523435986 0.7188505164710631 0.04814528180381115
0.26106461966123007 0.3586816965740058 0.721611592831377 0.1260259250051767
0.26777933673519766 0.3293629123898354 0.7242178944596447 0.08886532689063764
0.25835094051922736 0.26075503266151356 0.7296043343807567 0.10468807713644343
0.27743497883535323 0.34710714948945887 0.7230293116641574 0.09099213010570437
0.3001104665857 0.2663175753530333 0.7303293737344915 0.019953750517024825
0.27105370904113213 0.424036167875348 0.7165091393994522 0.022357787805861385
0.2986588215046162 0.22920358397285162 0.7333466132033313 0.060026317906276154
0.2497314728085095 0.2967262304890199 0.7263958621630537 0.0823865723501624
0.2809421403800385 0.3035291907142956 0.7267197415119733 0.05891345410671293
0.26268229263905585 0.3829224525254627 0.7196598770651972 0.09683711432395511
0.23606926090548538 0.23436819610497672 0.7311473018995072 0.10344828155717026
0.28314963420839545 0.31569732608470386 0.7257795846431383 0.048831748168681556
0.2748066804681117 0.23843133827490337 0.7319102560327466 0.05183265658823443
0.2464256132680352 0.26405535405589886 0.7289944203886599 0.08256516708230106
0.2404738210985376 0.22261167956345615 0.73224091790632 0.08526429308402077
0.25927730266977156 0.3201901045263098 0.7247328408644473 0.07219580109879911
0.24596799177055523 0.2506476917077541 0.7300863099680319 0.09578856508898301
0.2885591166544258 0.2674993919162738 0.7299046332002967 0.05120283434247912
0.41488355838620256 0.37182585851240807 0.7290818482665063 0.10954408350046074
0.4072701975082345 0.10449812520490769 0.7441124642641741 0.15580577019354355
0.42601728819963924 0.251269018806187 0.7382493505024148 0.02232525197160267
0.39921291591794317 0.055592696667978315 0.7458130224903999 0.13267127095752465
0.4288454127202705 0.20657092918775596 0.7412283002367729 0.021966510858149078
0.42129353122535973 0.2280284897702863 0.7389323984677305 0.04461999752057931
0.42431669811658934 0.17375632883387765 0.7424920099374026 0.03762600065137056
0.42316703799837563 0.1878560687616763 0.7415163181948526 0.046754014646516615
0.4312737566142931 0.2692836804624334 0.7379428303956985 0.024224418037859345
0.43234175754378246 0.23082090106499553 0.7403153346310567 0.02284739095127242
0.4398715659028091 0.15817465979436715 0.745337359215408 0.02085874264618037
0.4325299576800507 0.19525303561850973 0.7423543782930475 0.022430720263235313
0.4346007519629062 0.1491072107723322 0.745168715589321 0.020085612636301167
0.43701485554708286 0.18459888478397957 0.7435134235625704 0.02380340828540814
0.41726384311377435 0.11027722846285695 0.7451118467027069 0.08404973468745928
0.43928676392880467 0.21741163473131578 0.7419881604567742 0.026000909245292865
0.4217925758264879 0.1512577130215393 0.7434218834683388 0.04771754994091768
0.4144840179051255 0.09262234980307266 0.7457345616931064 0.12941325799590284
0.4232263595951677 0.16238855452326995 0.7429887603127387 0.054655255358610405
0.4372224964337572 0.1711551918203033 0.744283039047147 0.024974423025756295
0.4266207822881625 0.12837141794789036 0.7453008083301935 0.04116035135033976
0.3208865755301336 0.2900130872873411 0.7220554176282261 0.21886616001170991
0.3371195630645248 0.4126847649813329 0.7145083540204265 0.023642890495730696
0.3490503271134069 0.3989379203401599 0.7170942425604784 0.10087475304773925
0.32556535855769564 0.31837956195529726 0.7204273185222265 0.23156149273487775
0.35901682365745735 0.4071258424483097 0.7177147116559022 0.09008282853270963
0.34412191145183885 0.386436638711965 0.71744898558074 0.13238240952286484
0.3414274079663137 0.3607787099452594 0.7191162131999964 0.18686894802992157
0.2961074726613156 0.3673826602625293 0.7142364321634952 0.2048636020639069
0.28909352735193605 0.3800325831609003 0.7128663032720356 0.15394029114483318
0.28724543951438053 0.41575843253872014 0.7100123358554051 0.01875128915267703
0.308489283365985 0.260859333639813 0.7231345985225003 0.23656529944261317
0.27756930541007285 0.40629984421688237 0.7101931570490845 0.043873156955986085
0.31089662189713185 0.24567550711027514 0.7244392675094798 0.20383278827681942
0.29447593405637124 0.35006052181696395 0.7154772973449537 0.1899153160954541
0.41346950167087937 0.3552334331661285 0.7297387222526104 0.08258382277152926
0.3949285031449187 0.3055494846250985 0.7309741630884258 0.11037754147921827
0.3872652559968125 0.2820447279618967 0.7317474562159336 0.15394662058626965
0.4039961350781134 0.37114448363858243 0.7271662577600098 0.16573744263215248
0.4045948367557179 0.3487201572060486 0.7289634022054126 0.08864293437459408
0.41021523285648837 0.324172968445041 0.7315956752318051 0.052414946771621396
0.40024667283146914 0.3355470081485761 0.7293896488885557 0.06868867713498666
0.3892246359912291 0.31826100109596617 0.729236928496908 0.12469142976486686
0.4127345157939572 0.3109558070030351 0.7329450934077373 0.04543046160942067
0.37827076232656465 0.29126242960209725 0.7298369965529838 0.16159542642790561
0.3894279439504954 0.3330867924331792 0.7281289970759143 0.12608427815303452
0.3932809855917245 0.35991780027215764 0.7265906984187319 0.11640159149758066
0.3922645787252747 0.34358653407226225 0.7277049954673969 0.10536529510479341
0.3569342971660595 0.2822395196625783 0.7276701200160334 0.13250556425323132
0.3843892110216031 0.3750549255156308 0.7242407659166832 0.20047796148973626
0.415285943716922 0.3405001810864435 0.7310247077275339 0.04231304590010721
0.4015507885476192 0.2961694530182949 0.7325793266114022 0.10127273488679334
0.37007797076868 0.2817567973831481 0.7294674977459386 0.1720830432524707
0.3727978508548161 0.3433329297859739 0.7251171082392132 0.16823230342049628
0.3337478352887588 0.2872047545769586 0.7239682944197438 0.179097219599292
0.34432399423410287 0.3068454349699532 0.7239307612654853 0.1436755535456479
0.3801550862633464 0.3935249118480336 0.7220844646159251 0.2002590339733782
0.3193345364435922 0.2382137062281347 0.7259166495350069 0.23018467423438058
0.34928205719352245 0.3199682356597943 0.723578932785783 0.17735777753044707
0.363935899688354 0.3969601241288649 0.7192775556328628 0.13793919813641695
0.384650416440379 0.40870596778401636 0.7214852177963088 0.14740657854541322
0.3572529486394071 0.3527585557021545 0.7220151097959351 0.1448979136360907
0.3345844187214794 0.2687076995090838 0.725676956379171 0.15597215858718244
0.2587639114612911 0.39469965712170724 0.7105241918551326 0.09046684197582644
0.25183132636077354 0.3037384202638817 0.717593835651839 0.23054155987844718
0.2588069078427714 0.3462799059253179 0.7143580047918434 0.22015955199592055
0.26052233063836894 0.42695680093341015 0.7080038876789723 0.02072865244188597
0.2560244776357382 0.4064905661968932 0.7095390270780291 0.05842636452573857
0.24467578431848708 0.3933923637006269 0.710361421760532 0.08513477764186758
0.25053392770641525 0.41806700541628683 0.7085188455463665 0.019535315441186467
0.24549593622799 0.3812594962819585 0.7113373832303223 0.14043639284060377
0.24749508920469626 0.32149712077447445 0.7161060703487743 0.24195401191889446
0.2528759610775884 0.3337244802355793 0.7152398246878142 0.23480038037362083
0.13318500863231292 0.38842004605762287 0.7170017013747451 0.1268696986591294
0.1517016659401904 0.2927831973975922 0.722143518601114 0.2064745078169961
0.11236286334525844 0.41576836730266997 0.7174965260776258 0.06397119434165709
0.14274502183568147 0.4159149155945101 0.7136397592025692 0.02144496353383966
0.13282309814931764 0.41001422266362997 0.715357359716047 0.04818814830028074
0.1447130937834648 0.3417193834397836 0.7191978541595144 0.19755697858618013
0.31645376734660474 0.19129349550579852 0.7289007373221529 0.2292975894586159
0.35185714933401085 0.10612384935971592 0.7376463381270787 0.174187777713355
0.33230337268933 0.10826420859402071 0.7360659550456976 0.19879145532221376
0.3499442866300302 0.018286149136397725 0.7438647212761932 0.021236023702029136
0.37870960171388235 0.04596350858015623 0.7439583678704922 0.05632948390909757
0.3591681773028309 0.07033049768278013 0.7407700870883533 0.17891314559063187
0.32944617991015945 0.16790645545761804 0.7315406681733122 0.21625130961225844
0.36035769096415116 0.049389515654394346 0.7423725430138385 0.07578450504933379
0.3909209284213123 0.014752131366364362 0.7471076956935949 0.027107910579187912
0.3397386936422417 0.020890257986505782 0.742932249186981 0.021336614675546116
0.3375301761135149 0.06557258272037314 0.7395370729366877 0.11975567945745028
0.3612466915205751 0.02486360151565869 0.7442125746675867 0.020422040093032643
0.34856173248004363 0.02976315439371845 0.7429332102104682 0.021228090402544232
0.351594427413008 0.09078494204453473 0.7387374398906106 0.2273602945313775
0.3185284115415458 0.17609129240113078 0.7301523370423899 0.23055932779177907
0.38061723256173424 0.014266649037071737 0.7463917013874504 0.025983440155320787
0.35068427568212496 0.044573491850801616 0.7420159471997892 0.05374621483463537
0.3722843768839065 0.03216994689270297 0.7444883717246331 0.020306097009091972
0.3476682449122596 0.07723309236194822 0.7394321271884439 0.18106580367310326
0.45645993301753224 0.08263027369112565 0.7510133306957909 0.15708918279087344
0.3047257345408633 0.106334681240633 0.734875728842805 0.21909510943011018
0.30876377367289193 0.14336553193701826 0.7322161955428124 0.23175573555869355
0.29662707298348956 0.04857461071406429 0.7389465647478228 0.05306355070169141
0.3192837585176251 0.06529790010377133 0.7386418966054942 0.1415363578774907
0.3225414509247619 0.053414624629565664 0.7396912706871694 0.07585567166623913
0.2925591418611093 0.017072429132233134 0.7411818062091903 0.018334358187027014
0.32336682424606916 0.037211337185573914 0.7409665187620551 0.020982679742936536
0.30959187078790085 0.04166234284581616 0.7400332696003227 0.03741538496383782
0.3244125504222089 0.023190158889644766 0.7420842919794834 0.01925228255444003
0.3052099974290282 0.12841803913975455 0.733206938829737 0.2325992646424635
0.3082855120386759 0.023934491665158306 0.7413334416859508 0.018437747251658938
0.3212513391688382 0.13902513656507828 0.7330855891384729 0.25041703044092184
0.29967416693330456 0.0815384471467175 0.7365555664615657 0.20191856496098207
0.31108018334491616 0.11929254432829485 0.7341577196604148 0.23856677180962194
0.3026646246705545 0.06998235681275335 0.7375684088372343 0.14083311946798835
0.3119212217734084 0.09399357883934267 0.7361295639288359 0.20788263266956736
0.3107128821652889 0.052837836481246105 0.7392264519525571 0.06810050572289872
0.32262478010919304 0.09953138738165836 0.736166402547487 0.16961169734501805
0.2244009419608755 0.41474739983382647 0.708814238081871 0.022143052298319872
0.2347847437532154 0.3214340999202681 0.7161412992702909 0.24279808779057735
0.24040959167191028 0.3109802092503294 0.7168780359984805 0.23538069265722236
0.24202328671317008 0.2702513402582948 0.7201311349021439 0.22900801976565693
0.2194640218251434 0.3853807265369445 0.7112748271692003 0.12316574238623886
0.22982101396373317 0.34414760725942917 0.7144037399645287 0.2063220459109716
0.22075417972143888 0.40344070360416645 0.709794525789777 0.05802103283445266
0.2344394693248724 0.40810654887698217 0.7091603596805337 0.053418007853671526
0.23012390503300717 0.36445756646080407 0.7127606602425816 0.1721830361558005
0.26741983910868855 0.3639554004206622 0.7132154142674734 0.20994319771932793
0.2643945794296243 0.2655880168614923 0.7210759837691041 0.2430555302789053
0.27364813730571136 0.3834245076679479 0.7118601746052448 0.12859917221757572
0.25929386827869216 0.24049853843394114 0.7229266751934701 0.2549567768134681
0.26722013639360814 0.23338428065973887 0.7237853326778567 0.23706772522344036
0.28128784772036064 0.2687554993941822 0.721421194472371 0.20903211846110806
0.27864019165095255 0.30991410009764825 0.7179927860405606 0.20891491330798578
0.2959068744015827 0.24125741126998362 0.724169481461747 0.23538253584748484
0.2534772275321873 0.2665430944508681 0.7206097037374177 0.25434324625362414
0.2688130290659073 0.35091857985773506 0.7143211039442822 0.22164821173273816
0.26866347541526947 0.4150651406770223 0.7091195257433325 0.02052575166417058
0.28526905078270676 0.34410120132043265 0.7154595712081953 0.22424874126142605
0.2784936510783289 0.23130044434009803 0.724355736565151 0.25385440211235427
0.45309399704864195 0.09527069012019362 0.7500144037809053 0.09748774298103809
0.444738854549678 0.1287511403332707 0.7472345218424522 0.022572474332388622
0.4230240885792301 0.03082694383115722 0.7496201659686649 0.2063851187364927
0.4060708762958138 0.023142236414690216 0.7482584115141239 0.07551640104303727
0.4331647225334266 0.05386042528631024 0.7495702553347481 0.1906058186513474
0.4104407020967049 0.05142367898685589 0.747376254011956 0.1465684782917166
0.40478368312418767 0.040144391615901026 0.7473304800077168 0.10880253649906559
0.4379089968017324 0.10567709245920415 0.7476226354782913 0.033183384186289584
0.4168271132392066 0.020648914853422594 0.7494679096596742 0.09989286362549914
0.43979091928444697 0.07409287167702705 0.7492946886839216 0.17985429360070973
0.44193536132165157 0.09499267003843588 0.7485325856084739 0.09327787076494527
0.4284950157659937 0.1142053270495204 0.7462665211213555 0.055385190998499395
0.426357591018784 0.08841920457144838 0.7472584424669355 0.11929302306024352
0.4101482517292595 0.2291384531041236 0.7375382064253401 0.08060514318297926
0.34376893228841554 0.22843029669456227 0.7298347720527629 0.1776795165232634
0.39288263312924 0.18944152636490946 0.7377037626342111 0.14721518132187308
0.39081401302551155 0.25741747286764527 0.7337305839612254 0.12275758271691693
0.377917177091821 0.06561076028845636 0.742756577268381 0.1486935295087887
0.3898888479464243 0.21528099707338533 0.7359359804508261 0.16140358330940172
0.4083920842916048 0.17968121619299054 0.7400485889612018 0.09904135908290508
0.33928513150124723 0.2160018613313237 0.7299941179965616 0.18757450052385036
0.37443586720175376 0.1655654211549013 0.7368629849488589 0.14532148142950094
0.3672789258723179 0.1195983674147009 0.738551823047982 0.17882242319250768
0.3977922349471721 0.2694557682802777 0.7338835996580818 0.10114257886660902
0.38767868718905263 0.10352893222637352 0.7418134154057068 0.17404188070743012
0.40395180088391724 0.19644149853746834 0.7386105411673782 0.10966259210349731
0.39470632208764 0.03255674458202594 0.746529495307488 0.0760591130583781
0.404543505754165 0.21753714183185213 0.7375213988530778 0.10634513378425126
0.36280953345244976 0.09241915500865412 0.7395226716989274 0.2438283227370077
0.369712868191315 0.17610978726439278 0.7357332176318544 0.16196713519981643
0.4103014141146112 0.16729190114306114 0.740951465430085 0.09953931132913049
0.3542665725423782 0.20651663849292645 0.7322622562083602 0.131008646743882
0.41281418652183355 0.2628364396169874 0.7359991244507817 0.06575292230834043
0.3492876838109641 0.21948911110986127 0.7309693387884083 0.10920292127000461
0.39824502538608597 0.14811942197850267 0.7405978143336491 0.1834597143170711
0.40089694161100353 0.1371315261298491 0.7415103658215098 0.15379965386214672
0.34732776556784134 0.1789095189833938 0.7329685709539622 0.21977896290206714
0.3932145461864911 0.2381392347166491 0.7350689570952271 0.1287187375291325
0.42063209790067724 0.29520738137497393 0.7351338108799568 0.028487183876017657
0.34733837598459055 0.14552678492893395 0.7348025307927732 0.21351003850142627
0.4056123248679329 0.12703445481103154 0.7426146882364513 0.13252115689905988
0.4180067667034603 0.28363216896713017 0.7354630817165508 0.036926744070131155
0.37346341254408955 0.14571639318825935 0.7378392780301715 0.1710230260771256
0.3492357300912098 0.1673803032010947 0.7338240684660626 0.1994275439855255
0.4025758143898256 0.24807413770026793 0.7356154020404468 0.08805781154857896
0.31972989945003927 0.34634655516399515 0.7176941331159792 0.1829254061820765
0.3061929862364541 0.34687603037106657 0.7163930455789447 0.1812908003818039
0.32604453135201017 0.3971151609237621 0.7144701800089466 0.09378436987102413
0.30666680200459207 0.38193715950723983 0.7138043736206868 0.1339913918995415
0.31586456618972136 0.3722695217918248 0.715387358164288 0.20096811384966
0.3180571592755622 0.4200917223271971 0.7120005784616313 0.022326465467085457
0.3033238328922205 0.40281585404920633 0.7119250569254576 0.06267036578528323
0.3272288810676979 0.38663634759056803 0.7153674122243304 0.12575597817810316
0.31957795239583603 0.32702125454993214 0.7191311563333718 0.22352988728661752
0.30945594009040256 0.3934796669969498 0.7131975035684781 0.08504800651617708
0.31741084575151446 0.40673247806387985 0.7129435332641992 0.04992150736246665
0.2631048793505538 0.21087118992003193 0.7254263209546143 0.23990877540643615
0.27499394467080973 0.19628774015168032 0.7269609629795042 0.24877672115374425
0.2907588273312198 0.14628006166888602 0.731319010954825 0.2517539070176441
0.2893100626161144 0.03864631199324217 0.7394193725528498 0.020000032511037505
0.29544840345123935 0.1133780825751409 0.7339808007409439 0.22560545079756386
0.28787534689119393 0.08935132527573265 0.7355268090554214 0.21239250031091786
0.3035062580792995 0.1898567627176137 0.7284793349979141 0.21833240465436496
0.27412947310912683 0.20748505042506543 0.7260815513478354 0.21236973378343374
0.261591468592361 0.17358859050880537 0.7281955682373824 0.2305636035882919
0.29469425389784404 0.17463917570520707 0.7293132779685929 0.21072410060005448
0.26023091536067283 0.18916790520168988 0.7269662972606702 0.23654904469495414
0.2819736518831516 0.1750893466831976 0.728819091173318 0.23108788179111697
0.16279256433527348 0.017394776169013706 0.742002600149034 0.021001035624511825
0.17776800234314194 0.03678922721579312 0.7398743953393003 0.020764568471640845
0.15613046515082163 0.005419413049083449 0.7432054822164349 0.024436135108493087
0.14463438002893048 0.06674895454494864 0.7390077321822793 0.1392467294852134
0.14876419034011307 0.03886575574637397 0.740963411646467 0.021277130759491336
0.1674348804178765 0.055347034818349454 0.7388991071379887 0.09727077500696647
0.16426760873749374 0.13463014862876133 0.7329693670039221 0.2217544048084026
0.13972673846542047 0.019972872786466915 0.7427977584002036 0.02604432566861145
0.18098220115692537 0.017544188517385498 0.7412085567977407 0.022339747896827324
0.15515154911970713 0.04788997411655015 0.7399981446944426 0.05507760647260559
0.14788455045241153 0.08601667652253565 0.7373937048078973 0.19969484538398896
0.18023847410436025 0.0041270189131654604 0.7422671137979966 0.0240795227569354
0.24049203899704932 0.06507554423648057 0.7364519755252653 0.12155008483691657
0.24421716443280284 0.015301910558092895 0.7404950321985333 0.01789954993801914
0.26634457833398956 0.017519984632192773 0.7406327317169825 0.02023156676001314
0.2712239285527728 0.05183852571616564 0.7379512695190187 0.05504002211424828
0.2737269685018211 0.03974411473480163 0.7389564683951869 0.02654856336706416
0.2774178166847269 0.06264368734690756 0.7371734244807295 0.09845323632961232
0.24150979655309707 0.0507353940984885 0.7376160188635942 0.07466788375092301
0.24204511735750492 0.027091315744202947 0.7395190025919401 0.019007977417425995
0.24406788324188236 0.03993441404617857 0.7385183189301531 0.028798959678125905
0.26117637913188024 0.03870982532994226 0.7388604259878867 0.029003257641554755
0.26015209986107674 0.054589054187459095 0.7375729144064573 0.07238019659551469
0.24233821847238096 0.10140756756484906 0.7335658605208666 0.23795197882404776
0.2570366671416023 0.008856911082612735 0.7411944618445138 0.021868564607489295
0.2612669031923552 0.09376999032703609 0.7344479972045661 0.2076256495971798
0.25913643234086314 0.13956464110980218 0.7307466402065493 0.2678596202614047
0.25563408097054807 0.022186712647826193 0.7401059227346388 0.02048514584713936
0.2804144861828784 0.027270365522866755 0.7400517401605 0.017453561300419206
0.2705329735714416 0.0724684183809925 0.7362876890956132 0.16446000422645118
0.24454237875558493 0.1440855112759784 0.7301761496713431 0.24207693470598143
0.18483226259583663 0.09430808751605138 0.7353021493976538 0.22252272673114487
0.19898571017953604 0.10329869064518801 0.7342179993787991 0.21154158746371637
0.19329188689599922 0.1767691185490597 0.7288769850202159 0.2557224635556178
0.1962698109569111 0.04581450618189996 0.7386047873674024 0.04395444080501075
0.19827176061064195 0.13137890592641735 0.7321342813289894 0.23126373106990336
0.21665241301050267 0.12483271332391613 0.7320919429761371 0.2600806170668146
0.20372661495325678 0.09282574842409864 0.7348654159035592 0.21426137076197102
0.18714467293980355 0.1425455514730458 0.7316200380978135 0.22522034903485552
0.17426756777423258 0.1142714527439732 0.7341123466580803 0.23000016396748493
0.18499948481213083 0.05946103067260986 0.7379088473910881 0.106203118219515
0.2015611829997061 0.16834260850710606 0.7292687330735678 0.2275391427648076
0.18853716798043 0.028547646549263787 0.7401230203052214 0.020843197911583542
0.18910808950678923 0.16648242875990982 0.7297692068411407 0.22817347491187057
0.2278369458882828 0.1805562305577458 0.7275915645082793 0.23545559840670877
0.17429933792885108 0.14035495292564867 0.7321566471608653 0.20470097832219758
0.21705429393356512 0.1856296584447308 0.7275239792940308 0.22713432827243218
0.2161384387000682 0.21146717568613982 0.7256141900579602 0.23035925951682984
0.23256636334316674 0.19187363908245791 0.7266062776724751 0.23202362501595752
0.17296297662771903 0.27267313577229446 0.721860585749056 0.21318203902078278
0.19007999468265124 0.40752342174932016 0.7105146009679951 0.02727580084600355
0.19989659057580614 0.4332637850147888 0.7079784954822406 0.022588208194262317
0.18529274645150423 0.3969733057789893 0.711597257408752 0.05903184110694572
0.19987149554235942 0.42196583449956226 0.7088493976069656 0.021909856216822673
0.1873058316121104 0.42173823063813315 0.7095775217147968 0.019877704044535347
0.1780885344044393 0.32709219650227433 0.7173826717726417 0.2259149303897856
0.17732155728348004 0.3610524299852354 0.7148124879276702 0.17173496149537015
0.09403888050053863 0.39940140449364114 0.721707672332979 0.1912429708037988
0.10546343981354347 0.39316949372646365 0.7204690181095714 0.16294800851772184
0.11785507674721513 0.3621589309984815 0.7211956682511007 0.22022684023961772
0.11718008763278061 0.3868662162365938 0.7191911867700824 0.14395329879770968
0.09953548138025264 0.3835590961719576 0.7222081350614891 0.1936966364797269
0.15934894074987394 0.3396572255165385 0.7178163150366954 0.19593536722945273
0.15584415066330237 0.282053048025097 0.7224685005601036 0.24151452727951958
0.1617753259770993 0.40822793590527906 0.7124411278199451 0.034980861885501376
0.15100812437682432 0.39293297242717584 0.7145930045021943 0.12318929733314936
0.15403174482857518 0.4245758080340293 0.7119351350294418 0.024389364516768857
0.16606349301604922 0.2907294197255868 0.7208646771614297 0.19930470626129804
0.16082200813570863 0.3617636683957318 0.7160190382473146 0.2096131852058528
0.16210279417310094 0.3092933779310334 0.7198397627951967 0.20554523009398704
0.16578363621792302 0.3949313571595985 0.7130660697134727 0.07351820116280158
0.17274505311226376 0.4201030352109504 0.7105271815060774 0.02193887813297285
0.08334639533244118 0.2841194843795742 0.7321761991354837 0.10579298235098107
0.0783778083017438 0.38572874628593484 0.7250619329931108 0.19185642052039156
0.10928608573205792 0.3183606372834136 0.7260801562024295 0.15201941814923914
0.07066741540750285 0.28706666648643714 0.7336487655646409 0.07116363611354734
0.07872296223916256 0.3418021121676633 0.7283789649584929 0.10202994563836006
0.07540083165912383 0.3114371991723167 0.7311488328384812 0.10029042256919528
0.09649027227828805 0.35934739556699224 0.7246558546429789 0.1856929390385853
0.08560111941253254 0.30713069432583023 0.7301123388175246 0.11518402304159099
0.04784576376043559 0.3106316814719974 0.7349012250411923 0.022084213792055236
0.15475654734642205 0.22479844654471767 0.7271534861234685 0.21056700708495674
0.0580382707570927 0.3001126016341924 0.7343414416690816 0.04873455407977306
0.05953100399640836 0.32084011154301534 0.7325544946550435 0.033010823107172425
0.07217547113264923 0.35598939587216094 0.7281696783950925 0.09763976050754074
0.13112513346386323 0.27612838525127115 0.7263885714892333 0.18056220057853106
0.08347468996058009 0.3627295330442044 0.7261402029475351 0.13041535971188578
0.09526223997452286 0.32934372311277393 0.7271175810998916 0.15853349798778513
0.07672665835918206 0.3223478847937489 0.7301358706414582 0.0926917379446497
0.09141193916595416 0.3498467476775869 0.7260634662544161 0.14979083850655553
0.08342631437821146 0.3308999808657236 0.7285837258153445 0.1095323492966328
0.13103951661658034 0.2554417122826418 0.7279839230648265 0.13220102496732034
0.06190623645107459 0.3786647335946457 0.728352174893102 0.14062461630106585
0.054105775854689724 0.27751624638789274 0.7361356184149282 0.024979430760069588
0.07812106452019935 0.22345196943052736 0.7363026528166822 0.09762875027999843
0.10070604997859708 0.21707906493014006 0.734018226526387 0.15939158667235523
0.11616735067138308 0.16268545387193079 0.7352010752152258 0.14496582906990202
0.08699236826572446 0.02856585233083512 0.7459672956895843 0.026250429396576135
0.06369489815562651 0.20069532460263823 0.7392346710516483 0.07971246169323229
0.1312583709700011 0.15695831062734006 0.7337552891542128 0.19816546304384997
0.05964225277269073 0.21538858896706653 0.7389006991413295 0.05510700805417772
0.09550878009372993 0.1410830898757273 0.7387966676434634 0.19183856094353333
0.06896402239984814 0.1334730943640705 0.7423106313965341 0.12547463649679838
0.10486138692555769 0.12365734335985637 0.7386624694857074 0.17803267252419516
0.15691752457652694 0.21431524150040798 0.7276134793472142 0.2055249483664815
0.08365173916060799 0.10253847987292233 0.7422957948025555 0.21247763048747093
0.12988714512831107 0.17568588468699098 0.7328870710759662 0.18051023423931112
0.09243330291214949 0.20334211702980193 0.7357373246360245 0.14661299063807676
0.07359628347080194 0.2502400808346525 0.735359734809161 0.08472688871108211
0.06742704058183156 0.18999522788037806 0.739386798516982 0.07518759776749998
0.10228407336819129 0.06741222203097294 0.7420509839023509 0.12349365721435991
0.09785777901212178 0.08431961948725107 0.7416390367532829 0.19402389072095477
0.06123762999051915 0.2673961271781801 0.7358593637342703 0.04324033254828516
0.07670709399502222 0.17404227842078968 0.739180205341717 0.1420633065176282
0.10721957687350847 0.20605282550888193 0.7338638399301789 0.1646317081592909
0.09247258581312545 0.09561843821264643 0.7416468501754263 0.2268805188745856
0.08808140227199672 0.0410708661847826 0.7451537369562627 0.06470620640140237
0.0776009687464923 0.05453677748630969 0.7456368821542239 0.12568227569982932
0.07673749437048302 0.1982120780032626 0.7378497200658469 0.12142628132782059
0.10096563820778481 0.1753835314775065 0.7362770630520135 0.15767823022831753
0.1119966839214378 0.14330348088739317 0.7367516243178099 0.13127015236560283
0.10989363070716299 0.10395133913526548 0.7391573844705421 0.15019765319210843
0.07567662448430715 0.27543881483847976 0.7337336560677055 0.09005974116038439
0.058980751952796756 0.23430596080626873 0.7379392789963469 0.07252559219095554
0.11637271575878033 0.21430320376096446 0.7323432699056835 0.12155839323348401
0.053938228283921884 0.2572652059594586 0.7372669577854171 0.042873151936051956
0.08982972281661913 0.053378627212975684 0.7442741086367239 0.11524827704759956
0.06223686691607918 0.36298624210201125 0.7291563585856183 0.08851062366622792
0.04259931884514126 0.25530227742168654 0.7389084993804419 0.021590714987022565
