x y z curv
0.0758420132308355 0.031243826837291377 0.35957904624644493 0.12537735819722345
0.07165205009093284 0.051968915735276594 0.38483821535011287 0.14232285608915202
0.06970056934101905 0.06265960900096347 0.3920865468139424 0.14858285560313134
0.0757445083686229 0.04466792194565916 0.3751377126013883 0.12324793656479273
0.05917631981121809 0.07386475166002089 0.41380453462945094 0.1342074086450646
0.06295162937073177 0.06453855624429498 0.4034966193681082 0.133405451346474
0.08216650873531148 0.02492324953599122 0.3480501672912922 0.11728568673385552
0.08491593531005161 0.05946481620787973 0.3644238097523574 0.11998003034423632
0.07719451042617499 0.06692640123765715 0.38050638800976583 0.1350539462011305
0.07613376110435366 0.059131783915273316 0.34030709849238117 0.07335700478695081
0.07997776033790796 0.0623100325331329 0.31855687134875343 0.05076929772610411
0.08289144668379748 0.05212452937550452 0.3264004919564685 0.06274610688873912
0.09099085288322027 0.0557798449986613 0.34598389370400545 0.09274605584115476
0.08206232820843391 0.06190997283446867 0.351402159004616 0.08625366106753753
0.06929449540920435 0.07634430761792796 0.3684728621482042 0.09652216129453564
0.07805951871638332 0.07016864425691995 0.3628942961570734 0.11135743462723979
0.08488564381272795 0.041838024744870736 0.3594793619122475 0.10476581041904942
0.09103179884325958 0.03751497087823198 0.3504491399452747 0.10674437649545099
0.0866733512161284 0.05245222911373611 0.3145585124812625 0.054122324261051395
0.08397092474789877 0.06329380243067506 0.30466260163832765 0.03815339786141274
0.0963280925288636 0.028774256220555967 0.34085474127339027 0.10866737667925679
0.10155261337570508 0.014039779087908216 0.32340292470017584 0.12126156651564937
0.08903241612131803 0.020694098533466227 0.3390449462558658 0.11211057731115169
0.10328734667756231 0.022721120122907248 0.33030942838404687 0.11064436061354577
0.11426237739485082 0.02081908181936916 0.31788676602280297 0.0957850793559224
0.10251056607726805 0.039328342075334366 0.3177466897335271 0.08071251130123373
0.10997939664531879 0.0344836238672355 0.30968451706878136 0.06908798840671806
0.09444930708669567 0.04556166258774035 0.3273820797024497 0.07670334566711098
0.10534495788165364 0.03473239992722263 0.3287523526625393 0.09136782360693065
0.07527036876511979 0.08890048209446452 0.29236716845017596 0.021163558552882322
0.07359886393552816 0.11331745929077988 0.2601023053977032 0.028399694004981
0.07567316284571406 0.11494131021185865 0.24985560470912818 0.059023009654505555
0.07421965159750085 0.10191909772231955 0.2757554729296302 0.019780497180088504
0.07511111799098663 0.07722212278480568 0.3113527721920194 0.023243142292048446
0.07820082810384066 0.10164247271615032 0.26143404217771526 0.023217935533253607
0.08982711677004561 0.06601344364401932 0.28182563057148585 0.023205320030444593
0.0852134948327249 0.08509362093299297 0.26520464017358475 0.023455166465289494
0.08468234244200905 0.07571778774593872 0.2818147402191155 0.022195926374499676
0.07021901723214907 0.07492914470497658 0.39572311530063825 0.13178763814826877
0.06815148366743716 0.10300053345816335 0.40911905239923496 0.16308424548170247
0.07127974072387844 0.08785338892596223 0.3976922469099677 0.12931209851363176
0.08572213987632886 0.12173474089080001 0.22602242800712552 0.18440379487797873
0.09335402335840957 0.1090049418722283 0.21948154043108153 0.17959294631039088
0.0833156026803067 0.10569247508959123 0.23802591345621432 0.08520775054557046
0.09104873009156507 0.09296567097822028 0.23580534078483215 0.058321012551790695
0.09133962425628217 0.07692600083658957 0.26017213306233766 0.020626371073333923
0.08585156857570712 0.09597641820213432 0.246006418113219 0.036392502428299334
0.09712605522401835 0.12168266816846494 0.22185478966729552 0.2059624460335754
0.14372555500543258 0.1258882366657373 0.21891100374488373 0.10430836557236957
0.12724521812085815 0.1143500832450012 0.2156492129576867 0.08558415663248807
0.11425185810163327 0.1136251461069123 0.2166616979301903 0.12313604150245776
0.11135151583199956 0.10059792756353375 0.2124441891318871 0.1787338359812047
0.1463361160647984 0.09731210300160406 0.20756079353830093 0.14383605651365788
0.1387449415616294 0.11673984694080289 0.21547946285563235 0.10671134634385279
0.15599607081796163 0.11665477676516164 0.21340802894458524 0.1588468537659588
0.1289541856261416 0.14038437466474862 0.22883426632453416 0.0250471477862106
0.11631780770260502 0.13576508359543632 0.22702260640597258 0.027784199856199766
0.10537627982094547 0.1313141203314313 0.22517896460670397 0.09289448741097857
0.13038765723397833 0.12964961903494499 0.22217896903834355 0.043526326400910496
0.16032326355055748 0.13217789685492193 0.22162663965478013 0.11346784981629088
0.14695394485048183 0.14302836857371787 0.22920056385321608 0.025142880211186068
0.17129981587340198 0.14297359285137662 0.22821417216512946 0.09490112518352042
0.07642429763110496 0.12554383898159677 0.2353605740399023 0.14053314464149697
0.08005613758084325 0.1375369936637985 0.2326255007508165 0.22919944538582074
0.06610806062200537 0.1773384647931312 0.2624399193097778 0.20973668267465403
0.08743387833165822 0.18535578140123682 0.268195614563119 0.031735554395020654
0.10267328529609698 0.17981157103426568 0.26137419750683744 0.02437849648489248
0.07358480991589925 0.18465733345072094 0.26883033378634186 0.11205588565115196
0.10470756562688929 0.19515367315056237 0.27694198507516254 0.024825982283701833
0.12299744812446112 0.1909682156523034 0.2709259021024788 0.02541801098735132
0.11113957687398256 0.18845924495640176 0.2692940592388457 0.022841559332459193
0.10493119850400798 0.20916949473275936 0.29404173132164113 0.026644075782490638
0.09199163186427109 0.20478289229352348 0.29001129605747333 0.025693502691187368
0.07842573015294926 0.20609971430850857 0.2927036593747579 0.03468704469249777
0.055050886075002664 0.2030384067198326 0.2911095381392473 0.23487276328075127
0.07335720679589736 0.19633894648010136 0.28171999816909776 0.07397745175931293
0.09511381608111527 0.13899713245079012 0.2309766509837702 0.15031412724777463
0.10860944745666741 0.14386092984372403 0.23302759674116144 0.03464300599357852
0.1330076532026298 0.15292611635688325 0.2369341995046148 0.025248747825192427
0.10984152429762345 0.15293525705548813 0.23942381543997138 0.026427906412919144
0.08809276476958468 0.1490344379833788 0.23816847488610965 0.16625614382089873
0.1092837112009407 0.17090165666214163 0.2533144997678029 0.026610088100300088
0.1241554694240347 0.16599059382757045 0.24740452911085603 0.027807812563423157
0.12140500371027355 0.17396597686625428 0.25476349901016476 0.023927593188795056
0.15846645297994877 0.14619332704515192 0.2308854496193753 0.026691487012966666
0.16439711925119527 0.15413675491661274 0.23642777220726158 0.023288836638069903
0.15935198398143902 0.17515465030166583 0.25377009959853275 0.024837369149301857
0.15684736466267793 0.16197046235585527 0.24252122158777467 0.024048902795660333
0.13765162165508926 0.16570327522920308 0.2462939803738157 0.026212318337995526
0.14526399065032547 0.17563067387781883 0.2547025946626288 0.022757209974704522
0.13408714913909262 0.17752499461810853 0.25687002007419346 0.024268289118480103
0.14125050765561267 0.1868766772168391 0.26553744275038643 0.02422344195910423
0.15906684315385036 0.18827426827276444 0.2664362971440672 0.02737493344903026
0.14927005990026332 0.19570714673492354 0.27453856022557577 0.02751455597624838
0.1522825302918876 0.20373500911683923 0.28393813969301496 0.027147377525214365
0.13322405844181578 0.19926638879053937 0.2792017946566104 0.026194334739619577
0.05908330163562533 0.21695780669029507 0.3100031126398606 0.1515211130954266
0.06697216148224976 0.2122427132164318 0.30243274176726687 0.10928446680140247
0.09361341579168411 0.21133380606452112 0.2980731561631313 0.024655784723259626
0.09067261121988031 0.2182881656600528 0.30830062498060845 0.02489917461099244
0.1125251704369561 0.22095812809714993 0.30987256794521295 0.025856679434295104
0.10184179674627317 0.22089422644981452 0.3109247657436587 0.02535039349038837
0.1234331831727175 0.2128810665521158 0.2974201512545377 0.026118529292798974
0.09444982787233222 0.22550995335215496 0.31914554004877543 0.0260669141614031
0.08410199186764464 0.22374477259702588 0.3172500977182768 0.041715166336286656
0.06990112713174446 0.22573493702735348 0.32199921724580177 0.10092409450134819
0.11336873679283872 0.22757441931782876 0.3206740177445735 0.02571929835267166
0.05505191350498791 0.22474551115332903 0.3218505384178594 0.1732810046104672
0.06116440489590092 0.22987762292031877 0.33076924557290954 0.15356501023119523
0.09124592325731153 0.23172551415910514 0.330111864561812 0.025292192846673032
0.047235784271638756 0.23055363205089183 0.3340078941682416 0.15813934174791724
0.10724859272431782 0.23464321386942205 0.33346852324279463 0.023673274740225056
0.05398396209253022 0.2377654715308724 0.3468824853685761 0.19221506521127907
0.08498820073911077 0.23861813691276618 0.34458821107930593 0.03550667124821796
0.09106437449964384 0.24330022673448073 0.35414957620048076 0.025570291248107904
0.072835758631233 0.2407770439601069 0.35073504606377415 0.06893487816005238
0.10137646889971917 0.24192412102033312 0.3499332862517464 0.024198963829048112
0.0448333238133545 0.2406806190904269 0.3537782707908157 0.1749136540554883
0.10964369329870284 0.24799004602422384 0.36227467046442885 0.025697947028896474
0.12547373224746108 0.24593438794250966 0.4914775189354269 0.12319061809508157
0.10435359076480971 0.24795919639825648 0.4957189348681119 0.12012820893121257
0.13609879258719698 0.25193681485136116 0.5020181304271407 0.13644083168658452
0.11959148440101068 0.2526913120024244 0.5032674384975255 0.11768042059867875
0.12771422188320128 0.21929649532183934 0.3061085592225623 0.02449201733297256
0.154613599276461 0.21082145477220277 0.292743795601796 0.028424641583834297
0.1268649558965975 0.20595726735489592 0.28826467030883574 0.027625282481486803
0.15657351178636425 0.2175966097158612 0.3025762174474677 0.026035598262219732
0.14224799994603354 0.2166324976282285 0.301488374978037 0.026160714439842938
0.13565519886327815 0.23134685804299307 0.32534860923174375 0.0255038617037763
0.14573801051941165 0.22644881452799417 0.3164305371465275 0.026849890156198906
0.1529988087150126 0.23357743128988545 0.32906287322580957 0.027373645453352042
0.1229652166479104 0.2346814136249331 0.33205158635088833 0.027179227291384618
0.1498475828667145 0.2397189237229061 0.34121840908030393 0.02752624390674157
0.13731794973091205 0.2364053095963114 0.3350480370221588 0.024259568962590967
0.1266941383875843 0.24610978938466793 0.3565739937673081 0.02676364652890107
0.13598354979609756 0.24173219058480486 0.3461929668217967 0.025525720258111638
0.1384721488672165 0.24871449700859982 0.3616907246546691 0.02591719486706173
0.14788606963501366 0.2528972661949889 0.3721487784639733 0.026091221804444897
0.1616312545378336 0.2472527250232272 0.3570311162187251 0.025246007295486712
0.1521759178693723 0.24928351814888322 0.3626414848398933 0.026374201996865323
0.04397338637964444 0.26520012555874733 0.42783564473502467 0.10817426308607507
0.05932836448690068 0.2600893784268807 0.4055188091179376 0.0311148943779512
0.0722965267133364 0.2645594772360206 0.4190731338123827 0.02747380949562649
0.056770771536334655 0.26351260450694486 0.41872075363006195 0.03481454609053932
0.04876250842133835 0.258951266087467 0.4037092103216755 0.08893369115607129
0.08788341772726212 0.26112848519308723 0.40318392677314013 0.02534427789735324
0.10703673946302536 0.26593567003949725 0.416456237281557 0.0249160480962973
0.07788663891100557 0.26242538646854274 0.4099700832305134 0.027271555584231656
0.0901414317328229 0.2729294905976214 0.4514141465895338 0.1109157144979621
0.07608573981065818 0.26832088616409633 0.43336298960137265 0.03778492099329868
0.056981588426715156 0.26888105928218575 0.4407464468068507 0.07427985017435322
0.06876846806111236 0.27106432365484834 0.44801929461006196 0.09319966721915557
0.0651823575420864 0.2667986518119082 0.4289616794391411 0.03431907774809764
0.09541888481972167 0.2704411726855037 0.43845971047675114 0.046921986689353025
0.09302285724789044 0.26777566764016625 0.4265898005771749 0.029428869442426845
0.04525186902600155 0.2680425412458007 0.43974910919891586 0.11128623987955914
0.06311412938342581 0.27299379021691217 0.45963773375968586 0.17246977619189985
0.04861356321081604 0.27337494116111355 0.4662490114059942 0.20410522243975637
0.09193345996389282 0.2753620883803742 0.46267695394623637 0.1998737736383216
0.08032145496738026 0.275497415337555 0.46709187368154226 0.1857983487088237
0.04665490493696889 0.2708400235193277 0.45375511531825435 0.13794715140863417
0.07403353838337821 0.2458343227485209 0.3618816261773501 0.054166136668814875
0.06441974576734298 0.2533330731168015 0.38315486109927027 0.03980087220024597
0.05695212985160426 0.24418123540725828 0.36046638674562786 0.1534102130140366
0.050892445672732406 0.24797865202359085 0.3714424344167176 0.1744729805384517
0.06483164339441835 0.24763852295791589 0.3681747567448529 0.08656367555369414
0.059694420696093 0.25649647297947553 0.3930259196551706 0.0400687712170101
0.09164884416978593 0.25190298127934585 0.3747825276579877 0.02724447497259426
0.10248206436112939 0.25418480049270237 0.3797295944593365 0.026916935555469444
0.07936043857948097 0.2529329447270661 0.37966260981750843 0.025324491410406286
0.0924370437400805 0.2563923401480213 0.3876785066713432 0.026431670521418725
0.09926714226960683 0.2603927528690653 0.3982257023794028 0.02472885603780939
0.11770321030709269 0.25174272246912593 0.370590715670457 0.023932620407951816
0.12763178639666029 0.25855737901710873 0.38978201242964045 0.026203304594741347
0.14065225332018988 0.2567184588765099 0.3833296978905302 0.026926622411354267
0.13490267090728722 0.2611584418166488 0.3972792903664928 0.02702754881741712
0.11771449956190946 0.2615361234203603 0.3995311567208241 0.024646539146638023
0.1281640125895698 0.26601712667177396 0.414929387650377 0.026027132921115092
0.1434497764177359 0.26414617400833706 0.406816650507182 0.026996858344998438
0.1519112916031342 0.2662861315268338 0.41436983825609486 0.026729481370142257
0.1554173410867708 0.27018204931628037 0.42928933461538754 0.03215988540866733
0.14040339376155192 0.26697931893082383 0.4178267396893635 0.02734365891248476
0.03337169611184399 0.26880111825783376 0.4474548111865799 0.2517191669131084
0.0313050246808131 0.27140516706869083 0.4616060940198447 0.23241900957446499
0.11641858115498352 0.2733345158359783 0.44805965027880695 0.1064414643915044
0.10842072760108293 0.2748244851115905 0.4560102402054674 0.1339228347485462
0.13043524483707442 0.2715073251386507 0.43780170411511937 0.04979687809565745
0.11516289615256758 0.2697708266446182 0.4315036445934024 0.038980346236453696
0.08521024913968436 0.26686934607255886 0.47685374961441496 0.07181834378081352
0.10152255534857375 0.26458234434722444 0.4783486994189146 0.06311077456382977
0.05290044999438514 0.2545854959262248 0.484592381268689 0.13733502289489818
0.17147072825182308 0.2459825082403928 0.49155705319490106 0.1295875508600426
0.08877894219483587 0.2463778951978667 0.48950473938448774 0.08839534034841705
0.18525368240514128 0.24841898401652257 0.4880636601050072 0.1040173424070364
0.210674631899177 0.24843305664283738 0.4880637445351801 0.11862886574075318
0.14208458697869314 0.24803048012128615 0.48826197647628966 0.138009675891251
0.15401219371458544 0.2501185981863671 0.48712902112539136 0.14347187568063452
0.22545263719461262 0.24846840030674763 0.48804900856255057 0.08331784270349493
0.07273679468246275 0.2493086210077353 0.48754751830652987 0.097987555892655
0.10160548404160688 0.2548105103570669 0.4845439409663649 0.05658127669255315
0.067948933888544 0.27732199749406744 0.5305299220943458 0.0037058306487778945
0.0890949608534789 0.2789727406142876 0.5318732408800687 0.00446016716049115
0.12427448384753106 0.26207694142878957 0.48000839371960086 0.08252907883764206
0.14201017308763694 0.25754653952167617 0.482848079266726 0.13060167469762857
0.13267969784161265 0.27107657204394486 0.4737626664522955 0.11650747579450382
0.23953399884107573 0.2509436503125869 0.486682281609659 0.07490044108095377
0.20258653401436938 0.2544107691957507 0.48477558460820247 0.08680910604886799
0.16368637684812465 0.2550447645697078 0.48443230523406594 0.13346281968996176
0.05130392326534272 0.279147374115728 0.5319073298575101 0.017306376643556904
0.03370765028370957 0.2865134669585304 0.5378429459459283 0.05389718545558875
0.07144475770337749 0.2860528696648428 0.5372005842133087 0.0021420166768841443
0.08951554444548117 0.29430439256946234 0.5435699919624392 0.05757037330395703
0.059880779652809815 0.2881565182322202 0.5389441138077139 0.003165133761832058
0.04062648888945771 0.2956402929492555 0.5441495259707995 0.03619553542957758
0.04788158334711351 0.3043533224774706 0.5491624384992382 0.08262432993135421
0.01937886967229574 0.30581729624171594 0.5500918694989338 0.10664904811844005
0.06618900682550005 0.3082163844699924 0.5513407421817864 0.12051257672024589
0.031542822592118366 0.3051273800859253 0.5496575825534112 0.10080154246062996
0.09542333738695599 0.3186267663519661 0.5562360384564135 0.14317707355945272
0.10747940355962589 0.32033968165401017 0.5569841848058854 0.10873675769157808
0.07846589118905235 0.3143157408342262 0.5543346943547198 0.0979832598122956
0.11283582935292516 0.30994412677551914 0.5518676004807774 0.10938851954404688
0.11714168240869817 0.2984002783778698 0.5476491350816847 0.11071332396903356
0.12183138581840572 0.30573459285646043 0.5573002742697433 0.07421403275079547
0.0305390952420396 0.3157264184522859 0.5549152792647833 0.1093794544918385
0.0480686354731686 0.3201009124951383 0.5567848039987683 0.10423875963384721
0.018510243101868676 0.31598182001802666 0.5549953859842544 0.10352847441295851
0.1252765000893001 0.27703328671497024 0.5339151167300322 0.20726491247991022
0.13455092807327015 0.3046818375340729 0.5577417035402821 0.08481778455964148
0.17528592866788317 0.30878459648831785 0.5577484023314979 0.1144614045547501
0.16372509947052785 0.2999517688811392 0.5577623372424065 0.08303085543173153
0.1712741971151971 0.3196192961291442 0.5577321046002798 0.10127750495732579
0.15506101568419972 0.3103692949675919 0.5577468771852209 0.11630005255666236
0.1443031350511581 0.3129090935184656 0.5577434860005466 0.13164381762325303
0.13560956164204066 0.3190540065560156 0.5577345233322184 0.07705878788770976
0.12105677090766945 0.31971564898549054 0.5577341536183633 0.093759384351239
0.06787436977060005 0.3242018403776713 0.5581136253927578 0.10901453337231656
0.20136667614498535 0.3249946529178006 0.55819536097747 0.12869526889009247
0.27039536927053953 0.3284274239788239 0.5570591696239445 0.09638841511893044
0.2516225081111832 0.3255330806831387 0.5580276228428698 0.13085250082308245
0.22309861492945743 0.3264778967435018 0.557746102723806 0.11368622585731916
0.08468388033704927 0.3235468993432394 0.5581700890434581 0.10534150519032008
0.18236498719528946 0.3229095828751456 0.5579974519139714 0.11230477547376849
0.05573736558520524 0.33032293356744175 0.5546886553675157 0.12143312653722729
0.14537633517189524 0.3290882554006219 0.556146616374311 0.05891757467165243
0.21303360597672508 0.32947763702386995 0.5557896316292119 0.1256014251257033
0.2343216419769589 0.3292945789416048 0.5560480063839858 0.11204423428621824
0.1267570679300681 0.2879160367897504 0.5570940744265251 0.08335798991476571
0.1445692902969703 0.25757060356193956 0.5577094700960965 0.09282357823593052
0.13548657105164424 0.26881017604413165 0.5576584630972939 0.0986028581024877
0.1472060482336792 0.26846140225362236 0.557762393575958 0.122696340831965
0.138789141321673 0.2874463221834429 0.5577385185677609 0.09287808728435919
0.18069074152132858 0.051340265679791976 0.2180354358878683 0.06824587385146448
0.18638013321788144 0.048428545938720424 0.22658398460117513 0.03470981107507445
0.18424295488652234 0.03780302170351581 0.24402671397972048 0.028742348120348156
0.1695605053147319 0.06896135850708485 0.20281609134513193 0.16651007531929618
0.17992114370293627 0.07418987846562954 0.20474639193962227 0.17789688801662226
0.1942773409874843 0.046683531763761825 0.23663427866409162 0.028208063604216318
0.20214801859841483 0.06423815891203878 0.21617336567577594 0.08362216604849883
0.1823005746047501 0.062379051498661436 0.20603932819799348 0.12800203797931672
0.20448638526713148 0.05590376955879518 0.23389271346141707 0.030084634997084202
0.20704500291362815 0.03605797683056823 0.27223301981811143 0.04211057818332853
0.2165697944357906 0.05970797852796907 0.24869610393070313 0.030281806960958658
0.21325505916816764 0.06365009006149118 0.23601968886777774 0.03197855432272205
0.2007315040784765 0.08159427441582869 0.20868339075500486 0.1628466927143508
0.19277224862556694 0.06988347166968267 0.207423975085678 0.1276783668340805
0.21672912475265232 0.09313336523727275 0.2114903060134252 0.20819067083331083
0.2186579605463841 0.07635301073066046 0.22619590340197637 0.06504454340516728
0.17851214247176736 0.005432785277447024 0.295176485755251 0.07038344026061777
0.16962269609551447 0.013198476710824254 0.29384226044694994 0.08247280455509644
0.19031519893263898 0.03560680506254914 0.2527742920918106 0.029439726137799604
0.18947594788905434 0.0026305145441940757 0.2945732682505562 0.06473433567123343
0.19553637958740167 0.006716224791673636 0.3024205594854264 0.0940523983088407
0.17589475192358495 0.021574977770218703 0.2839270574221149 0.06516467009267242
0.1627148185956274 0.022136423480520265 0.2891452022796084 0.07215251881812376
0.16827916486722552 0.01988093218844259 0.2748225965958886 0.054015207224693336
0.18827340677713264 0.026684173770992532 0.2679003416264537 0.04659154801945669
0.2027165489224657 0.024457911416936835 0.28767822201787635 0.06052404291470877
0.18326803124846197 0.019427955349286985 0.2964092353985395 0.08026986287680422
0.1882706847740753 0.021504426821041162 0.2803459324660972 0.06518447855538519
0.19160813436847376 0.024001467886299553 0.2905735607939048 0.08043312833391586
0.20360312140214515 0.022203790594047885 0.3108474113976246 0.09199135693848612
0.21304448829803227 0.014769226398810205 0.3200212190735354 0.09022115937611432
0.20371625199108262 0.011046354573841805 0.31162469033925616 0.10511787346781548
0.21693566887459306 0.03722539365085576 0.2885647186206511 0.04631283808666753
0.22392166725146082 0.03992440642848632 0.2983078648270999 0.05081981115931492
0.22522310837614046 0.04691510846980551 0.28921071070006116 0.03648134171169472
0.2253464721995058 0.014363090844499143 0.3219224049910592 0.10365466063070292
0.22550633289009264 0.019753192120914365 0.33376731457546616 0.11532730188752499
0.22530042532358374 0.03890843353844447 0.3376749844852293 0.09964351483609438
0.2318662718914426 0.0319804524190062 0.34576060434106953 0.12246237555749934
0.23901760601085403 0.02931072362268943 0.3537427090167398 0.13411826535838509
0.2125439791398468 0.02982517091147109 0.298788296283238 0.0601189201960727
0.22167435772348057 0.03954232209330462 0.31852015575271686 0.08406212894283235
0.22054523633667755 0.035469679922858856 0.3083763377756557 0.06655099261932991
0.23292558619291373 0.058055347806796935 0.289696707227464 0.02643235997761012
0.23458016763117168 0.0543521267882806 0.30083475489781464 0.05039288122485349
0.23743042492504665 0.0525070033067503 0.31241808424608813 0.05504201998285541
0.23017168363469437 0.04387778473789714 0.32414479921438355 0.08269113801446182
0.24157372440725755 0.06248595056297593 0.35256661411179446 0.10194139164891974
0.23914711902377112 0.054588648660975986 0.3398599262037971 0.08111189667067373
0.25161586704932015 0.07177986996509901 0.36311914621811475 0.09991086883101452
0.24360045791011026 0.04820840933073347 0.3683399398743262 0.13893916884614554
0.2346370469194154 0.045322738784196175 0.35275679861856435 0.12825459750906942
0.2403741825564399 0.040101035955157134 0.36043398297554624 0.1306485076574427
0.23774966852988683 0.053896637046384185 0.36035462564433013 0.12641543505527883
0.24144717566638144 0.06825786324748029 0.36904103722757664 0.13795153395012533
0.24451605484806835 0.05865903605100568 0.3726807451902259 0.13003066265888535
0.24985251251168583 0.03197735290551951 0.3616440210748346 0.13498211135013793
0.2594124286818327 0.04127769603559173 0.3766019618061206 0.16624030333229206
0.2519504803537275 0.05000456450786589 0.3820164499877051 0.1355512423140318
0.26433716361890813 0.05456482991276822 0.3993346549531946 0.12338233894129445
0.2516316055601456 0.06346112946529096 0.3458102048381099 0.07881639222055165
0.19118301040080043 0.08830728472595839 0.2075397215411421 0.19428922593742154
0.20335032093037797 0.09498030757921205 0.21020197884006875 0.19956487347830495
0.21186392381441485 0.08140137579277784 0.2116843578791493 0.1336396826207581
0.22602749716922785 0.09802632044610735 0.2171228144377349 0.1648422796694122
0.22754020265828107 0.07886172329259246 0.2421378684741629 0.026010305112714953
0.2271970887458859 0.08817031736711724 0.22657447385828716 0.07985649065888253
0.23219402723000301 0.08954360350399296 0.2372875102046228 0.0535372949340776
0.23141124675201802 0.07660627167005805 0.2556714322345508 0.02052143276966581
0.23985866680969237 0.07323052430354568 0.28572904706060065 0.02200637308326531
0.23865560472443761 0.0781123072907674 0.27408832012022477 0.021412401440889572
0.23949820296470722 0.09552368014312868 0.24812374384135466 0.025180608075750465
0.2437197881628435 0.06288109661835853 0.31437840079989826 0.04858807003352225
0.23973588209336055 0.0874761689341704 0.2620245965162304 0.020237427629758564
0.2450004340772524 0.1156058553205679 0.23545123207968435 0.10446911950052302
0.24158287693263955 0.10476758610173917 0.24075480827070475 0.07483059339713483
0.24646023011121018 0.0610111708190315 0.32600557182063417 0.05721105180194463
0.24603585148250245 0.08506837025407664 0.28685095702779706 0.02261128233965532
0.24801876251922128 0.0943523025619792 0.27907913870836787 0.022058958983554103
0.24988914103936666 0.10480286310047374 0.26909422160570096 0.020978056198017306
0.2324825055238039 0.1066405836461746 0.221304401846031 0.1542213608920391
0.24120786682164033 0.12242042395416058 0.2270480976594724 0.17356510609814424
0.25352133631020984 0.10567847571544789 0.28172906995088143 0.021917179185854917
0.25949237101995737 0.07666980088063127 0.3514689301023281 0.07823611220724638
0.25454055949674326 0.09856947719216136 0.29708839626207406 0.0202054895974392
0.25525894655744796 0.08618176949580572 0.31972877725090987 0.021485218782102248
0.25697067040559574 0.08135443083994723 0.3341340531805691 0.04530011918240586
0.25361280410336495 0.09004396811614196 0.3071249126729433 0.020850139720831714
0.25530660884437206 0.1238968870999237 0.260325238015941 0.04193597009805712
0.26006804392369853 0.10876629786912037 0.3037521146911286 0.019898890877976513
0.24682241446239286 0.07680702457391872 0.3742601858850551 0.12688432509581782
0.25706130196210675 0.0976428746933019 0.3960519720467267 0.1366946264437327
0.2690903913723698 0.09846397960927612 0.3909597515987012 0.10521240615851689
0.2627470398253188 0.09155624550359984 0.3847689466149826 0.10784799566465031
0.260982771818724 0.0828759404901475 0.37384571679063683 0.09115837603287488
0.25763230812318555 0.10416468154896023 0.41186181199136135 0.15544095025672175
0.2545582551723229 0.0874239889081273 0.4001822715982037 0.16257182733173725
0.2504760683693953 0.06983119096474394 0.3861930468672143 0.13232074587012255
0.2478983420696807 0.08185879594778679 0.3849450548818288 0.1265599933004737
0.2635445191722707 0.10136262751976728 0.33096536990939485 0.019431231529128668
0.2643000145341355 0.09636753471161788 0.34249111775138424 0.028598556630773674
0.26299957224823395 0.1095395551404521 0.3154777443735985 0.019608405988383933
0.26905203347251677 0.1283765314081328 0.315503642937949 0.019088295561431635
0.18175279101111605 0.12636215712557114 0.21954455517366941 0.08998638994319573
0.19485565266490984 0.13297272417093867 0.22457966693035972 0.028277410005744616
0.20605773049970436 0.12955795672248607 0.22364800549692151 0.03157357959817639
0.21658089417230814 0.1283939350019388 0.22395321504054475 0.0976689872439239
0.16710622482807475 0.12455599767624484 0.21714087082817438 0.1670622227032074
0.18484296155494143 0.1390022026171112 0.2271319571999606 0.025930297826795526
0.18596098706728348 0.11485416598353518 0.21421517132694176 0.11915618166294824
0.17462801669365646 0.11470700003268228 0.2131089225515568 0.16891531763373813
0.18637608892631344 0.160700163967273 0.24244712865575718 0.025158004345519375
0.17542158856096046 0.16450635267204858 0.2449339806030361 0.023633794806785773
0.18620149912771478 0.18095567012952601 0.2597339703046345 0.027250071426399333
0.2268035635815706 0.1376439171192732 0.22996449051316287 0.12183247862681572
0.23761699927248936 0.13825178826586426 0.2312250995169851 0.24048217998945387
0.20007934677656228 0.15728359529944824 0.24090964401058862 0.02782953717475266
0.22139486891700316 0.15694094230034217 0.2422942720740924 0.03305350677016415
0.1820092901577878 0.1502845879586699 0.23434184274286624 0.027958896152049554
0.21295320635592702 0.1635163147359665 0.24651106820380653 0.02449057025925677
0.22346690843492412 0.1472395415305209 0.23564087046055898 0.09554920462944026
0.20895135052761613 0.1487568402086584 0.2353487479434527 0.025623957973860516
0.24145537010012574 0.15209734282276188 0.24048013716839992 0.21008382542057996
0.24676833239633142 0.13032121510326586 0.23286177367728186 0.153269463752342
0.24674840989970181 0.1431975991399213 0.23590413497890617 0.23444190678165244
0.22700784305984692 0.1657207250755942 0.2498643597619329 0.03194084658881956
0.20913195069565632 0.17444399901916663 0.25576685504901253 0.0277925605097478
0.2535635542369851 0.13420226198425503 0.24116244425416417 0.13687716931905008
0.25469645370537963 0.1537886489508542 0.24526710636568178 0.21436560969308907
0.1966811454255386 0.19233296609839148 0.27198842268221207 0.029588381552629786
0.18562342157002912 0.19066308185492337 0.26965528003726685 0.0260911253140969
0.22281877305938766 0.19330568126359812 0.27523664498880374 0.025233297191303235
0.21343966235338774 0.18913787686026734 0.2700106713105301 0.02763861519861458
0.23832151785152494 0.18728879610867777 0.27020280819770814 0.0264445444859341
0.2526083946728207 0.18879973227091412 0.27303848307581485 0.08645705812969418
0.19961707177013271 0.18457799887225185 0.26398522702665034 0.026311905556788327
0.20697888204982132 0.19685765668685237 0.27763012694773337 0.026705691370350847
0.2291293710333112 0.18162961652725612 0.2637857750349672 0.027837305072782974
0.17471747556620965 0.20401442936257355 0.28435864965242147 0.024553380458454295
0.16909945958567074 0.1968089700336647 0.27545682455195425 0.026468064847207613
0.17483780463842857 0.21697784809069537 0.301816838741384 0.027059059624914925
0.16450121004601742 0.22229958477959 0.3095831747024481 0.027611567733480176
0.1685896736059357 0.21178206343172445 0.2939297444561808 0.02782705386794755
0.19469892770681063 0.20264886470958265 0.2835988997615393 0.025812761506747262
0.18694085700170293 0.21716724759376566 0.3025148587455971 0.02575295803153132
0.18221558979342822 0.20925243362924015 0.2915409378580097 0.026763899721624473
0.16410363430430636 0.23026123938359633 0.3223409754082563 0.026091312067287507
0.17236902413103417 0.23694018381187112 0.3356916309720064 0.024357888511978617
0.16230699128438372 0.2423809750212115 0.34611050391995524 0.02586231899401463
0.1994098572377554 0.23517191444198987 0.3329520191449438 0.026804625624441098
0.17470520404915868 0.2319755756923887 0.3259984423249449 0.02598747724772202
0.20561101180579394 0.24660787836313228 0.3582947165970968 0.02711532166205008
0.19797793697785077 0.24073585896236738 0.3447655091958849 0.024279971021356244
0.25353345637964786 0.24609947796608506 0.4920352843237724 0.1309780308896097
0.23166813695919022 0.2500715084290298 0.49901289338605187 0.11108669236573816
0.21468599198902122 0.24996976675509663 0.4986928947478071 0.11734094965803758
0.197827150229552 0.24859509126446674 0.4964707367649167 0.13810473690957917
0.1865073071470781 0.25238099372574857 0.5020197825291532 0.1580119715367807
0.2603997224433775 0.1324212548186881 0.2696003443586288 0.038219166876554446
0.2638438291901676 0.1468739578997466 0.26342793870185466 0.07283182383086337
0.2565580338598623 0.13323140090679128 0.25199836413476556 0.10017337323062607
0.25977862763101 0.1251124995435429 0.2775143517261649 0.020963302218235065
0.2631428754182525 0.24299425283379777 0.35691720571533125 0.1628494391923599
0.23122422244203672 0.2417429816984827 0.3504673006032746 0.027399579622237994
0.2141357352016145 0.2399354609553068 0.3445189915590601 0.025590386347726656
0.22340476580518417 0.23704126153383673 0.339247083100769 0.024617280235238365
0.21995662064576896 0.2443169260360733 0.35480476714563386 0.02528263895279534
0.2673101683221638 0.2315136025344991 0.33443453738554135 0.15624091533283357
0.24056365758590856 0.22990406725609933 0.3276230325034216 0.04833156337578395
0.27514478673800585 0.22735212309241584 0.32755119590902526 0.16285800352736224
0.27378511388608323 0.23648817263566946 0.3448700514571649 0.1748349174312582
0.2517220076385134 0.23688522694900438 0.3425565825137998 0.09350263377111372
0.21870152913931337 0.23180383431120868 0.3284758331339728 0.026825334318711334
0.249865637321926 0.22635501761264198 0.32254783846607205 0.0749379749649065
0.22318910831558136 0.22635148511516573 0.3198462142275522 0.028293802819825117
0.20696414810823904 0.2279393404241825 0.32085185345929057 0.02593838559512704
0.2666421052500835 0.22463762675422713 0.32138213660689996 0.17487723485108767
0.20079595311445836 0.22180591152506576 0.3100108233376165 0.024390572877406876
0.21508048101570051 0.2166588873823252 0.30389197310942795 0.026663663754437995
0.23310447537999146 0.21820720752642375 0.3081013555427091 0.027512087722143957
0.17887189536476245 0.25089431401907525 0.36704646676969743 0.028165317543203748
0.19427666768029148 0.2519203059739158 0.37028007925666706 0.028397276784324743
0.16618924676000102 0.2509310977024306 0.36666353629212867 0.026171182368639377
0.173646461563161 0.2468913947245655 0.3564989363074753 0.025574373936975828
0.18791224974656393 0.24828037475175713 0.3606282156337295 0.02672775411653396
0.18231041432384798 0.2562542614798474 0.3818352031318027 0.024870884606385327
0.1967432865619309 0.25656684389450785 0.3839238054701438 0.02555462173099739
0.1652044556058148 0.2576059205820264 0.3845967471535148 0.02616834676914424
0.18668385494341297 0.26030208187838044 0.39440090653172727 0.025095993130529206
0.20807306198670783 0.26239314121752866 0.4026531373775753 0.025831978994650402
0.1981654815727309 0.2643065518445269 0.4087712110433948 0.02561904156954389
0.16422211645382767 0.2669850058556903 0.4165546831285093 0.027060316790356604
0.1888379505790575 0.26661203650787335 0.41667900587565954 0.028103204408541697
0.1632873692088172 0.26411863455455975 0.4053207057875295 0.026993046529975334
0.17846870709372104 0.2685989911859515 0.42375996110038233 0.025883099918263434
0.17740673281743224 0.2659603817123573 0.4134057158763519 0.026882697988015406
0.20557631351634656 0.2679774467407351 0.4230750209410934 0.02547577685626465
0.15610743796953686 0.2705613713274452 0.47416537991947894 0.1199062364213754
0.10107353663118 0.2743356208024576 0.47112233966787964 0.14139455116090915
0.18446280859534575 0.27459425039882246 0.4707844808156909 0.13047476630258292
0.2076285352532341 0.2768145012041774 0.46831235652994674 0.14791101670829412
0.12289225510769854 0.275874907526325 0.4692414066061792 0.16984943057738486
0.2158086788558281 0.27485314094211827 0.45660007643016837 0.15296804889807214
0.17441821592892798 0.27774065832160083 0.4666826048086022 0.15888602943132746
0.2191395185481205 0.27653761987446923 0.4679398569655226 0.1626386249885644
0.21836335667810128 0.27273441903848417 0.4459666273072309 0.08038779899346751
0.17133408859402402 0.2715733465917638 0.4354033237575431 0.04156095373048652
0.200286381139759 0.2708237678931169 0.43526102192966376 0.03868394630569549
0.21700978635483856 0.2677698189381557 0.4232847555423571 0.024666803890684395
0.20025679919119702 0.2753807608680162 0.45711339258836664 0.12610211060697626
0.1790139278794993 0.2728874823691332 0.4425854217621122 0.049293317428832646
0.18292271675249913 0.2756992903142337 0.45707649904066694 0.11092151012508106
0.19456950157007954 0.2642273577988064 0.47859938359088483 0.0859690150320651
0.21386363174130094 0.2583303907591253 0.4825496308382357 0.0732027222549591
0.2302739870060397 0.26967765135087424 0.47480884261055545 0.09625304502715823
0.2528489390621813 0.26588583614119565 0.47742169365312753 0.07774494504748736
0.17997988201480242 0.25248723348479263 0.5561950108908114 0.1071473543134505
0.1701176281926908 0.24876023491760546 0.5572640416126031 0.11319937926076118
0.16933938162900586 0.2598964671503697 0.5577472301599433 0.12265139042900933
0.1799944397082054 0.266505150765065 0.5577327654223427 0.1142086788806546
0.18780475727492207 0.27793544151906024 0.5577329248541587 0.12773799862828494
0.19554157245763354 0.2896093092423495 0.5577426026252646 0.06504806908537365
0.1858301774881797 0.30476927302332735 0.5577522139094038 0.08019107296720893
0.19645521721614634 0.30985686940978097 0.5577437280695962 0.07214882490766929
0.20624332384672778 0.31480299352150515 0.5577367649945655 0.1025097064237393
0.19341851890565528 0.2650027300270421 0.5227346726341956 0.19636757515099199
0.2669015358172756 0.14301835485484757 0.28493143054992753 0.027301287909567762
0.2640607574387199 0.1319628862723706 0.2867187212464768 0.022835074619069074
0.26328951019444946 0.15892930827681506 0.2560807824829083 0.1668142119771325
0.2610830808146042 0.20154360473562327 0.288684763754654 0.16174452775017004
0.24872857568789628 0.20109481092205111 0.2870898613868857 0.05614484800412079
0.2608141993358305 0.19416494939792198 0.280003723171007 0.22534048628178144
0.232692525949452 0.20319417441765236 0.28816650775015634 0.024773834310767243
0.22423893161287853 0.21199602075838278 0.2982026650161819 0.025647153593002917
0.24792832539875787 0.21340107230756067 0.3029113480434821 0.032423165935408275
0.26368221137089776 0.21071476306051623 0.30089668139433157 0.12019093269727286
0.23679761173187647 0.2110993708964338 0.2983658560950753 0.02426831834871597
0.2668532490870962 0.2167497982689772 0.30983715499823333 0.1628047693596483
0.27313998489181024 0.1900647871980437 0.2827472238766595 0.2306653746041041
0.26294651818670883 0.1769059056023818 0.2642620336273323 0.24611210286707533
0.26905464511423516 0.18205414213177562 0.27317302356072404 0.22354180796276865
0.2685153358292453 0.0923929672300539 0.3706638800169293 0.08284748168280304
0.26355794766526186 0.08232258064500109 0.36126837971389447 0.08411707161858695
0.26928635439906956 0.12022413334067901 0.3295787915186297 0.01957104656144834
0.26624862242331043 0.09339993143523376 0.35727779060681814 0.06221132872100278
0.26853908554529377 0.1071280544954914 0.34691778330833367 0.022513873095725934
0.27113397852626236 0.10285186200964434 0.36730157327679985 0.057390922483489634
0.27687982817583806 0.10869633250635509 0.3876768580934178 0.09364128220394245
0.2779487076534458 0.1461191744685083 0.3386545536269916 0.020616521403657845
0.27311550729241013 0.13031082573901615 0.3343034750430919 0.019261961996270966
0.27870190274261525 0.13636845139640155 0.357327976766733 0.019132736469792327
0.27512537965027606 0.12033400725892725 0.3604970899636137 0.022846170660240427
0.2767288722018428 0.1146025095614605 0.37811190880619544 0.04956004060067358
0.2749471970693245 0.1536512995510976 0.3105378871080955 0.021097056594472745
0.2743524648881543 0.1611252698516294 0.2962360067243711 0.03700018270869866
0.2799479461846729 0.15781856511339196 0.33289409563688016 0.022055172570331048
0.27843795259603626 0.17160914923802234 0.30569815668695105 0.05154257479397269
0.27730663789959364 0.17920810209164226 0.28908666721774934 0.10851015912860588
0.28214063578753473 0.1700608454629204 0.3301356593346956 0.01990223853031252
0.2792246167914515 0.16460316012386983 0.31945895417149317 0.021234648014139976
0.28144864873491804 0.18677773212630744 0.3044866148291588 0.09274494987649369
0.27275146066722744 0.2053406568204175 0.29492440960534066 0.23367133850544472
0.277037770745824 0.21237298920400213 0.3072920716779016 0.2101683363953073
0.2786952810482586 0.21972822216701798 0.31733340197739923 0.18050653726525456
0.2842973455576877 0.19743118306493881 0.30931546181876596 0.11891292216005796
0.2863906014568236 0.20957124349912276 0.3189119618155123 0.13102660574601588
0.28970838506389807 0.2139702426331087 0.33314016577682054 0.11327263940283383
0.2715987337669403 0.08025565113956692 0.42520269931422394 0.15307240887807574
0.27564353855862783 0.10329536704665929 0.4434976087724136 0.14281103415106344
0.2635247371172076 0.06944006733815196 0.40778355880175765 0.1339589500448016
0.26994857731979355 0.06820562435928859 0.4162996935985558 0.14760418697754568
0.2649121238065874 0.10609305650897376 0.42776428531802385 0.1542062115412333
0.26926870167227207 0.12460112157815063 0.4427667604197785 0.167484616132794
0.2698424143648446 0.10559640209738315 0.4001446692868451 0.12782975333147206
0.2724768520700024 0.1304357254902051 0.4241718123348669 0.14653038249958963
0.27762686145712917 0.13909354806179905 0.43091658988532233 0.12873662848574005
0.2740763931782674 0.12121587345495402 0.4139833828474184 0.12229447031984528
0.2862251972419193 0.1353306543110131 0.4224636576030304 0.1260720698483742
0.26843686343599277 0.1358600351310946 0.4445239456486802 0.18380188760205043
0.26290225874859674 0.12789383895923626 0.4303470163113269 0.17825616407889078
0.2710512939475826 0.1624564936110684 0.45829317826237725 0.19005017842459238
0.27036589783249504 0.14888556357306684 0.45263967235452746 0.18359017883870501
0.28943806260139515 0.185291370443558 0.3614072442945872 0.016896607692772868
0.2922755165347049 0.21586868633614448 0.3479436788247118 0.10212168363688129
0.2894369944215821 0.1946598343641634 0.35051103492920277 0.023575718752875435
0.29119496265537337 0.18740139160840893 0.37262218989834506 0.017895271310481346
0.2943599335192744 0.2208690159547968 0.35834734995269046 0.12108953351634084
0.28799923588819965 0.2036531515462735 0.32887459099451055 0.0926871805036619
0.29303989640504446 0.17669707355746916 0.4013417480252454 0.018065159954471437
0.292606915485052 0.19774758566980516 0.371677566502698 0.019514358369728695
0.2969667359956338 0.1828272167059366 0.4267321666738999 0.05789811809429853
0.29666601257222297 0.2124470153277358 0.3875825741789669 0.023540041030641657
0.2946096211110465 0.21344913592791612 0.3690777066402583 0.07180176435162793
0.2952245756930135 0.19472233324736962 0.39739651400712755 0.01854878596888045
0.28789840151114826 0.17389353961623147 0.36530722177498304 0.016889735502507046
0.2840449675336636 0.16559481150795224 0.34955524671458915 0.02021571323128388
0.28519261732190226 0.17877019270502265 0.33956077608956015 0.016042325071438466
0.2837771598612916 0.18293602803061557 0.32387676336857996 0.033211083933065086
0.28691440461465784 0.17946402394782823 0.350734586130512 0.01703397074265345
0.28331043597149685 0.13979579362049602 0.3813450014953566 0.025022774265827084
0.2824891149465599 0.1271008664959929 0.3954381372967356 0.07824927114074615
0.28264015357154554 0.14513578894061213 0.36881901042249277 0.019565687325388735
0.28044192870965895 0.11617572116644752 0.39886027833069104 0.09932515695243638
0.28165316799784956 0.1560930079120477 0.345774388172746 0.018293695774229433
0.28794865303365397 0.16599467003349466 0.3765783141708544 0.01821034032083254
0.28632551003844564 0.15295443110591636 0.38313805379479754 0.019631048814124218
0.2835106424764236 0.1569391811591493 0.35773275544337674 0.01891248065507548
0.28547124161974285 0.15815013751354826 0.3699155781742073 0.019989049799911215
0.28630525826048775 0.14406819294469664 0.39528274844614586 0.036196191362832815
0.2568686266989114 0.07400259956546629 0.400299902921103 0.14746299492115097
0.2631895939355481 0.08266174866581619 0.41443062010808873 0.1646138374800528
0.26651727170423745 0.09044566577351518 0.4233295556879897 0.1498248587807969
0.27387475340859124 0.11590518178600404 0.4467387983359698 0.16433889474448635
0.26903123476464624 0.11131286966256339 0.4368355885476438 0.17404543359407995
0.2745460455156301 0.09025965674193545 0.4347559391554293 0.14109554442396602
0.2742995048455962 0.15955774839156012 0.4468941772514088 0.12193370272455635
0.28649782237814636 0.18297596882144543 0.4567226490583076 0.15631193415808806
0.2832664140070211 0.15059939461004834 0.4365440935080489 0.12358140040177353
0.28167795540684687 0.17416603946827552 0.4531367794676151 0.15777885846858722
0.2755380904929039 0.12895393531242413 0.4553313458887466 0.1667100064656194
0.2851302023470315 0.14796138805325743 0.47821658794059624 0.14411325803768174
0.28249546470035886 0.19100681753348162 0.4642609176940268 0.13767244898990216
0.2754792043090595 0.15007000695487485 0.4636417407032048 0.17884190924778715
0.27969884892236113 0.18407241445448674 0.48254910982380894 0.17700210856029233
0.2746599934711317 0.16909864324587096 0.4676985757262183 0.20316228467983938
0.28541979395054384 0.08118446966207844 0.4292016708883293 0.11853144377903904
0.2918891388695891 0.0988515615327892 0.4499659402296904 0.1140936994455986
0.2905595500395682 0.10805234156300289 0.4611794247630416 0.13462603587285696
0.28125120550069255 0.11460587315669096 0.45676803527622944 0.13696564836188876
0.2835209710747789 0.13767472743740433 0.47119971614351175 0.14047754465152582
0.2865529483650576 0.11930985427756642 0.4654217475786626 0.1223262571931714
0.28759859161535883 0.21119685600187477 0.47469161587624353 0.17014543552945036
0.2991502496268023 0.11726059759304246 0.4648940275838092 0.11407500590319264
0.2936229226324493 0.1586924905657997 0.43663514831215644 0.1269446632378464
0.2988492276543482 0.18532573818957465 0.4541797640357368 0.15130690796663193
0.30058877356215685 0.1990496242070081 0.46246958572237695 0.12651433836142695
0.2788798217488827 0.15870940614431514 0.47244504748307614 0.1909951635440748
0.28161217408973205 0.170486324403114 0.48116899430638416 0.1730259954825075
0.27472824291564996 0.18697905281078497 0.4717483296983379 0.14120936619897131
0.2802009306345519 0.19878778328677502 0.48655962774960637 0.1931626884943561
0.2766303333977009 0.1989516459919936 0.47259318353718155 0.12874532054772816
0.28947555361080013 0.17423782903516247 0.4944959207085589 0.15002524147087262
0.28710198892797617 0.163746542451834 0.48708428329481473 0.15719428760675927
0.2972193494648057 0.15036605889386556 0.49220440317970804 0.09675736489393959
0.29169650180056306 0.13719806919374636 0.480193446368141 0.12194847215389416
0.292747658120794 0.12449531780849446 0.4752470465660828 0.1456457074915065
0.2960668022343245 0.1653930491514783 0.4979513385364762 0.12104285666957054
0.3031435954903738 0.19955855651356588 0.5185112021417876 0.12729754957353548
0.2988972514164927 0.18339503769712873 0.5082571694116189 0.11746374205435936
0.2882283462868093 0.19055637665118633 0.4984512982068596 0.15215700594093695
0.2895593783380375 0.20367652589128127 0.504282331976382 0.1438354599300849
0.2966516693970145 0.21009998853329342 0.515605706538248 0.13664847573109065
0.3007162221225122 0.13175408324441085 0.47992108752431606 0.14634479348314947
0.3029650797550285 0.17272814807525808 0.5080815711630808 0.13791698648325285
0.3057024913291732 0.18694933446833742 0.5155305016395649 0.18821007681067048
0.3091312582010732 0.21071185238806847 0.5277966190963126 0.12700662158181517
