x y z curv
0.0990203896615252 0.13277238648519 0.11444981301690138 0.001973295104968011
0.09006008272698451 0.1404639261069597 0.1208397538848828 0.0013481695754480071
0.08029868250139696 0.22342277985414757 0.08400239932620032 0.0006381796628404525
0.06939843808870562 0.19511540295967755 0.10954977748507487 0.0010769910357485493
0.07327824127098559 0.22068349987510952 0.09338850810688214 0.0012547951690761146
0.08208054052863417 0.24163945649751944 0.07362644210177562 0.00048037592724017246
0.06530996074376441 0.24209441337522092 0.09285525562445412 0.0012152315971920727
0.09201951982103959 0.23769587185537722 0.06390674858149371 0.0013453627651081783
0.07233440235843723 0.20767219819640795 0.1004184273917819 0.0011201649652756447
0.0747688542020889 0.23464918281531344 0.08528949105610298 0.0007260888494559971
0.08986931853340051 0.1911212576223927 0.08621424503375498 0.0003986885311011316
0.08910768285953613 0.20577336539242713 0.08111149505172918 0.0005917977561477329
0.10149034212476145 0.22133922463145744 0.05955718297517877 0.0019195922619380165
0.09734001147412136 0.20599578688333273 0.07095189660709017 0.001656837032223773
0.1008127928441269 0.1895808500219522 0.07346495218393571 0.0018674873484210085
0.08091382057535518 0.1966429135272532 0.09489266825020842 0.0005929112173414801
0.09206712753436232 0.22490381910781898 0.0696135976254845 0.0015992742843249136
0.06952451093192233 0.28483525746397154 0.07558046003381637 0.06911673619975536
0.07421518500797998 0.24713616203389818 0.08064970261191555 0.000903892320461544
0.07737777784847355 0.2587756291598043 0.07390673818716649 0.0006722212054194711
0.08749031922542817 0.25679814670998646 0.06309278341664855 0.0009742254841627988
0.06385929128797563 0.25486352457312395 0.09016036915909546 0.0013352223886646459
0.06772940084560675 0.27426689657100745 0.08049408304469449 0.03562349592905625
0.08783736262384192 0.30292091080548206 0.05259929236223937 0.0928814603479847
0.08028120396728919 0.29469273918784317 0.06214299459060637 0.07910121112474283
0.0867608484321059 0.28133846832604426 0.05833779578544839 0.06309768709439159
0.07368091963978533 0.3043906836496422 0.06685681463544317 0.07475366276106557
0.09273720281599143 0.26822413273458134 0.05499921512952849 0.010812188634984423
0.08254788648836771 0.26957442071762316 0.06519855371297129 0.011825940896191397
0.09563241535637317 0.29372716715298364 0.04654738840433625 0.1088559720692407
0.14130673079953207 0.019351983087540946 0.2809358370289156 0.1195312055053604
0.13219142928013378 0.026726362786432038 0.27641620697283903 0.12346526481081846
0.13779685396730523 0.026542259888492813 0.26385815155930076 0.08388990437672804
0.1464120664545253 0.029751589157481127 0.23728285157397358 0.045089030397199456
0.14175745401093012 0.028641269814170225 0.24963898196909817 0.08469730739969289
0.131526076943153 0.04020874153144207 0.23222125139144842 0.0009117011614120002
0.13311326346378444 0.035185519816745364 0.24519816326250327 0.06531698957820334
0.14593131297749182 0.03341245909273707 0.2265441232632826 0.0008951337243350866
0.15523708171298922 0.01830816548343919 0.2585013462126896 0.11162520763038544
0.15880579846548756 0.02782925577291529 0.22048825108339173 0.0017932577127926159
0.15104159815966925 0.01674816567890394 0.27098407942281755 0.1242472362872815
0.16222520747821162 0.011791476464452574 0.2681838107610903 0.1266314157433622
0.1242767654940724 0.052316584179211395 0.21113873259738214 0.0007935988103123966
0.12968022104058485 0.05695252474458294 0.19323685107462618 0.0006045888147721646
0.12961564217250227 0.0649969160461744 0.17551477747922997 0.0009726725887715907
0.14014632744949346 0.06016137822775286 0.1713405572655735 0.0008464239232066077
0.13765035581335067 0.0681397329265156 0.1572007516323644 0.0009212668160059007
0.1214786917146572 0.06490597868523934 0.1872152642674488 0.0013186679055233565
0.12414436956281236 0.07267824717053911 0.16623738229713417 0.0008126385358976476
0.15763586052236414 0.03738497868925322 0.19649195477689213 0.0020773244104880066
0.15085154817439816 0.058064504388025906 0.1607708653050021 0.00145071222767747
0.14934159015048998 0.038496772876934406 0.2058386541919685 0.0015824670964935115
0.13603553443076996 0.04486041195018138 0.21078662761186792 0.0006813506967898626
0.14309791670548622 0.05001852128035206 0.1894371580257893 0.0009214886750933967
0.1500839994073374 0.05201485512498976 0.1751315306883283 0.0018499735116332245
0.11322323161608036 0.10285016028251935 0.13217255233493455 0.0017108044602940908
0.114420476187196 0.10983374408667596 0.12111797459703394 0.002168253317651373
0.12487300358461603 0.09785965294540422 0.12687385755299 0.0007903872403107479
0.11156194089987759 0.12045711672875987 0.10924095866584978 0.002139930683770332
0.12110971138840695 0.09323118202971895 0.1373348215827325 0.0013097648441339775
0.13051310409340797 0.11130840102332822 0.10206604775143377 0.0008952011535307161
0.12866966860530932 0.10400507545137948 0.11425090528777505 0.0005960535388963908
0.13861541443363437 0.09696415379947518 0.11360927111854591 0.0009024784264112361
0.14699500244271085 0.08777498734040187 0.11736667691666139 0.001628979145236086
0.12518257890914763 0.08462653775253391 0.14501496001363604 0.0011521874790116396
0.1500837674085986 0.06819402092826227 0.14114385220781203 0.001261699751838323
0.14384689356986397 0.07928790937049973 0.1324643408791747 0.0016025737510385434
0.14710881363108547 0.10229096280498351 0.09717297292181626 0.0019817842587765444
0.13640150706669474 0.0901181960069748 0.12543996758103151 0.0002752167370851017
0.13649217596207613 0.0766231299782586 0.14400361958168803 0.0006788577933462467
0.1076370588167189 0.1383798754232256 0.09702798537013346 0.001810414813882739
0.13678456046411924 0.13607987799675428 0.07413069190982322 0.0012337093285400996
0.1143933769726982 0.1282509177855852 0.09984845105052975 0.0020273699433317393
0.14730153047443625 0.11632372350447825 0.08154133803792299 0.002581684421870877
0.14438083620530898 0.12737095625470632 0.07492133971763915 0.001838459128094662
0.12888953859670427 0.1267268671825197 0.08875106120338935 0.0016714213263970086
0.10434123030646003 0.19769402113452741 0.06635494618784006 0.0022677566148801664
0.14295505197517117 0.22543457613004608 0.029896789071426597 0.001379003076730986
0.13031444899985595 0.21014692459105794 0.044200074797397876 0.00022148699720707417
0.12007813794699781 0.2195482032080161 0.04747129251496873 0.0010167939527374336
0.11985347663794152 0.23317281138021825 0.042422774707229716 0.0013653985808492416
0.11962680456904158 0.20013725624463088 0.05518077324113359 0.000836403663053733
0.11235422411843402 0.21157931068673436 0.055687446247915925 0.0014035297623436517
0.10873080941527913 0.22680784992700576 0.052304160292879195 0.0016838193038036242
0.12142787251876222 0.1858162895420088 0.059122236265959034 0.0006209321719884016
0.1416937700656637 0.20871943606307922 0.036743288290574355 0.0013558873808983357
0.1321649143222092 0.18995623672019152 0.05011474482048882 0.0005869841229694723
0.13978134290325167 0.19701426842549394 0.042256412826196195 0.001236849887986534
0.1422127341916608 0.18526072802500956 0.04473957175847598 0.0013993728329399862
0.11075565809065832 0.18449236449498468 0.06708066216653906 0.0018976357650622663
0.12807556067092946 0.17619213929201288 0.0578887637731089 0.0007382039331917269
0.113914651259684 0.2809713100421243 0.03620414492724268 0.05651086247640647
0.11018167626282456 0.2505266596854073 0.0445538047884809 0.0011700530339559443
0.1010423298581296 0.24631584970605566 0.051273056364353746 0.0012271953665520777
0.1368897250640076 0.2485375841157189 0.02770735724295096 0.001312859404780514
0.12312049897578607 0.26429104729871844 0.03351853994200708 0.000419049559479332
0.1306136051286359 0.23814579575585007 0.033785100972575755 0.0009011419578601455
0.12194757548843971 0.24547683918309393 0.03794671478951865 0.0006829976205890507
0.11341739807039257 0.2681987418258298 0.03901738311635505 0.005636247276795516
0.10481740320669752 0.2884633976066335 0.0406125968544196 0.09098600251051449
0.09986414289442591 0.2755324322930485 0.04633218508947036 0.04349166468380977
0.14175194466354574 0.2773985922810869 0.020062407229183888 0.03856609229021454
0.123634554121533 0.27861475488146564 0.03071493734287786 0.05323050456502602
0.14362393111576716 0.2644030902412634 0.021044265505198237 0.0016481628565954796
0.11776839963641457 0.29849207058663224 0.031011344226605852 0.11549864787565461
0.12927405767769523 0.2942822227289647 0.02480257308175477 0.11457980151971692
0.13231042732265516 0.25975876292691197 0.028570707525516454 0.0007703592928016584
0.14740470957998641 0.29007245014283645 0.014626512998813311 0.09096623888290331
0.10544507621243111 0.3045253296955271 0.037414706311055736 0.09220704828639631
0.1618492503066139 0.019051320608139067 0.24493734869796177 0.07987172848255977
0.16009243175302412 0.030558912447504433 0.2096083053437346 0.002122137646703393
0.16278565952278426 0.022623656140945605 0.2324028178382348 0.0034405239184935247
0.16568654908139277 0.01464266491604078 0.2551254874375243 0.10165146139312636
0.17899329858734886 0.019799790689617288 0.2238520558926983 0.004118205491424725
0.18097964888120563 0.024305534258030486 0.2075739174501746 0.0029499959870985305
0.17956351567864662 0.012156861242485509 0.24765780953784128 0.07968651609604163
0.17558466020461289 0.006355168180517208 0.2697819748562264 0.13353044646847534
0.1765710676597491 0.055299523552450755 0.1439626232442748 0.0024762790128482134
0.15913008643666696 0.04284902179094633 0.18317109874076803 0.002641431600976217
0.1686759544193069 0.05150759890674216 0.15780370684194356 0.002283264800078623
0.16501300855797285 0.05838636188390219 0.14592147193328048 0.0027252384809895356
0.15991867862936773 0.051117827924607964 0.16506972692447125 0.0033784763720699964
0.17251539427759038 0.037672660768029206 0.18408006759345685 0.002987242001075759
0.1703003788905588 0.04520363384417329 0.16994715993713225 0.004030785089796744
0.16757559398084343 0.032705707907681486 0.19826502124424167 0.003172662113349793
0.15634293509547487 0.07291699711310229 0.12857611589008724 0.0014370586270183734
0.15945046573569593 0.09450632933996606 0.09776169229819266 0.003091702071575766
0.15768859087656115 0.10195847569623846 0.0886754361091871 0.003396332217895779
0.17022429224662786 0.1001240550200671 0.0842936084524246 0.003561656749537091
0.1558471069428901 0.08664804766858965 0.11032986431197928 0.002941569492691734
0.17514790368259753 0.08082536058404176 0.10745500966978207 0.002562855398835671
0.17881344825547665 0.0731410700839844 0.11566478767474285 0.0036934014039540566
0.1712074989555794 0.0689655013075355 0.12554871176273397 0.002527500840784917
0.17080320147743136 0.08934070569859665 0.09851708999389855 0.0031699073398336873
0.1764269012089785 0.1299557378923657 0.05544239396736446 0.0028175703440817216
0.15892173684352057 0.12988919745916208 0.06324181006359476 0.002840755644594379
0.1612100240646298 0.12051363139475683 0.06982686284968986 0.003458310462775583
0.1747626471342201 0.1172009136666344 0.06645802716498495 0.0032621145724411305
0.1601723030253294 0.10908380631998175 0.07952168908910726 0.004331071460436276
0.1756492860671892 0.10586372774068592 0.07518551717401584 0.003589660456654403
0.15660300695217097 0.1934671470650188 0.03394513888816382 0.0028157642355646833
0.15590199009740197 0.21414598909742433 0.026998708709551178 0.0017503628267317164
0.154519257723903 0.227855401239807 0.022715729294131997 0.0019302506316130155
0.17344815537913646 0.22362851171193454 0.01754042715068329 0.0025038382085297178
0.16740502166705878 0.21486059954549216 0.02271169996112713 0.0029742277257343934
0.16974642403812681 0.2031626736317031 0.02591537324691657 0.003017608129825098
0.17015945341132657 0.1679013851674389 0.03787683653905297 0.0025110053612581898
0.16792595146675113 0.1922901510440723 0.03030887857596945 0.0033628916993316688
0.1577248931148411 0.17852734032660114 0.03872962230647137 0.0026581960330848663
0.15225813226814505 0.2409192055764726 0.02051177970592683 0.00269266392791103
0.15077332837032134 0.2539425952599081 0.0189834036427867 0.001514944592037476
0.16468879880624382 0.24376316178190682 0.015919942909116844 0.0031380967188280365
0.17373767637724177 0.2738860558918026 0.008473751434648588 0.018976955505889178
0.1717169093910731 0.2873800886860584 0.00711125921431058 0.07438513426353172
0.16157155026735648 0.29852260659718155 0.00866058493746225 0.06396017561976736
0.16075779536070697 0.2721329143605733 0.012828709781851534 0.0048368393603203845
0.17266884263399285 0.26119712085129526 0.010691674732870284 0.0018534338474377949
0.1589647520243393 0.28666409836326506 0.01124064851409384 0.07264692578442837
0.19889850172184473 0.018225952567308558 0.21997995996070188 0.002978820830945153
0.19096112874982457 0.025120643303245725 0.20106678995055166 0.002803643946957323
0.20219191037741002 0.0021271016900979065 0.26929379873694864 0.15752333648612615
0.19452645371961108 0.0059131327118733795 0.26022203671540983 0.16870645629165268
0.19548781279740055 0.014183982906318046 0.23391604081410622 0.043094149202642096
0.18694602979463257 0.002754283842844849 0.27291199466576754 0.1224918978448211
0.2043269197401756 0.021270840983257287 0.20843888120393322 0.004086503833249231
0.1937601252860581 0.01107602313963544 0.24430179481105752 0.0888066249532914
0.1972476419754542 0.04329143821648905 0.16200896061037334 0.003840990884642037
0.20026218381718663 0.03095744893192752 0.18654986788371714 0.002817191637094612
0.19123819314234475 0.052997688754253224 0.14341680667995557 0.002887187221884673
0.1847702729491033 0.03597491944148552 0.18026035909028276 0.002672628756674715
0.19016809247686434 0.040148899974179475 0.17030222408364037 0.0026743282782689575
0.1838367614257836 0.04797630483242707 0.15561670779065356 0.002240016411935057
0.20480130304689179 0.07364235735760971 0.10977334786662764 0.003112210424920745
0.19412803838372183 0.05863729677169206 0.1316515987021155 0.003029038534921004
0.18712444980357848 0.06714555719758321 0.12184406873751842 0.0031966635717926854
0.18112486030761205 0.06185617104785311 0.1299923544891365 0.002754011819904563
0.1918697067375446 0.09301193194438055 0.08672117689317141 0.002903228465461759
0.19017647487902284 0.07794106142138918 0.10700830831249947 0.002647336354072962
0.1977499430919645 0.10126253038919482 0.07470423708438291 0.00301040000868885
0.1848829875963551 0.08766534068101126 0.09509240589023567 0.0025598717125801447
0.07666153656603084 0.1756732011589707 0.11183539067040305 0.0009274984597437278
0.08811275448306874 0.1780282350112654 0.09514942393289282 0.0006342897278022939
0.09261419764530686 0.1570575632341919 0.10247310305072299 0.0009707027956396454
0.10273639719466476 0.15237032367880993 0.09189821703535361 0.001978510486312207
0.09671739401733088 0.164755129912173 0.09219766245769198 0.0020017396363163934
0.07997444212353239 0.16254388317727655 0.11590695758537271 0.0007713118192908809
0.10206178546757658 0.16922622618206393 0.08228014141895953 0.0017012389325182064
0.1093257493306263 0.15838360088799686 0.08147484773416717 0.0016821208743633288
0.13677085668947642 0.16878932083333734 0.05449319250936238 0.0013166141324484155
0.12001123674881892 0.16756628289743453 0.0679497817447184 0.0009536267819903519
0.12667129267943902 0.15834716703920243 0.06831423354021482 0.001347380661710099
0.12454075511542555 0.1447206530918158 0.07772151040083432 0.0008630261809233691
0.14685795163662405 0.16349421368368783 0.04993377137072248 0.0020051529988642683
0.1359210807758991 0.1472507048241427 0.0675452182798094 0.0012820420750444506
0.14187347210037676 0.1534238359565976 0.059472654505894354 0.001953177817727403
0.15156680334391892 0.1424950911424421 0.058223607033178214 0.002298016407309952
0.1945261590092754 0.11619641317566663 0.06324395402584397 0.0037439655961346782
0.19004381551823346 0.12773048642258772 0.0547124184386498 0.002707368165796232
0.18433822399941427 0.11138549065909686 0.06865160923840506 0.004046756217147643
0.15560095619272515 0.1541156241605629 0.050156365199700785 0.0025707913212280804
0.17349641377764644 0.15340353686896568 0.04347245856867832 0.002650857390348317
0.16745627450190204 0.14116968303966382 0.052647098010193946 0.0038936627623801148
0.20161217410316806 0.1543537158004874 0.038013459096628496 0.002526898901182288
0.1988452800543465 0.1384831685096915 0.04714945182478243 0.003018498759903124
0.1844245221610065 0.1542739703350759 0.04042284800064468 0.0035102498750619413
0.1838817105861088 0.14391179180223274 0.046196392041738595 0.002814724376022132
0.19549473739555218 0.17938326275633132 0.029119459289471367 0.004067536150282425
0.1954803883734521 0.19068974658499616 0.025256753965806927 0.002771489476885784
0.20211881133534612 0.2172445341941759 0.015372588919171114 0.0026859216553698994
0.2016797027170526 0.16877705057148876 0.031991772683022404 0.0019744156396818884
0.2023020590307869 0.20592355441820218 0.01921969162328392 0.0029521444025994176
0.1827558677025478 0.17359439255078757 0.032648530465533676 0.0020789260005623696
0.17944651553915542 0.1877532918589007 0.028232060772481513 0.0007515671339577892
0.1868553440770065 0.22040391728017245 0.016184030046333436 0.0022716563426149815
0.1962267393306841 0.23428240147638343 0.011203278532989282 0.0031438609123240796
0.1774481468751029 0.23591167814923422 0.013090372537136921 0.002192891481282775
0.17711144176033333 0.25056784600071574 0.010989787403017507 0.0018231812862196089
0.19057908382316538 0.24534790616625324 0.010227603926521769 0.0027457030004587463
0.20413310086700084 0.24685430677808368 0.008493002796927688 0.002691085054642848
0.2027446996133134 0.30472986939163127 0.0002691489048465715 0.07368864889516559
0.19350555186478113 0.26302869458394956 0.007321429756420717 0.0015756716478488653
0.19046307496377157 0.30068508151848317 0.0022060124966458115 0.0781355576784643
0.19305626381213128 0.27453255925502806 0.005705854359229971 0.03678093674986433
0.19397043909746625 0.28582440700263084 0.0039709330402395585 0.053840406087204244
0.12299169632663318 0.2648958108401087 0.6328254395873395 0.09669848397217817
0.11060803826666823 0.26184699646957077 0.6135015609568676 0.15003403658122985
0.13551802440998523 0.2680469393759241 0.6387743850019479 0.16496751938791906
0.09704062419117468 0.25676929255835407 0.5970617192842621 0.12865725425369448
0.08284562099542224 0.249719020582147 0.5779534409088348 0.11901885440046196
0.0705819943530228 0.24291343304849178 0.5583172755673764 0.11437290865654519
0.08738610534445015 0.25252014045966953 0.5911380695024469 0.1281131220546931
0.05926073160923984 0.2342261930496528 0.5397538016498498 0.12648792067903575
0.04007772971112352 0.20259614095947498 0.4619987489740306 0.13468213150888933
0.04037553950877955 0.21819050925336342 0.5032211001870586 0.1010841254009957
0.04059525349183134 0.2132390830333834 0.49040345613653624 0.11944303676529598
0.04135971412526673 0.19824536329361667 0.44924467621958886 0.13579570892688622
0.040982872690227976 0.18964905228220474 0.430628888503858 0.13708284127091191
0.03825062519283469 0.17345534621345393 0.40582151452056114 0.18600462723286895
0.032843673695295096 0.17704970140487372 0.41778824469709575 0.17854205258824773
0.040716471372900895 0.1647791768291082 0.3925868846077658 0.1939622939056506
0.03058052564745785 0.15830491722754042 0.3920568873735547 0.15866244775588526
0.03924203891943731 0.15030224377306248 0.37703534140104056 0.18671289227584442
0.06686382978424396 0.09607322496634221 0.3242117682366328 0.14294905532536611
0.05929742590596307 0.11592068255302551 0.3400154578560819 0.12793577779024226
0.04900138545258408 0.13135890890368587 0.3550042883615904 0.12092668492535764
0.06909987026244031 0.08573849837054187 0.3166368034696721 0.16694296556679297
0.09034626882846566 0.059081198928077186 0.29957808391485763 0.06914378484154157
0.07692755470113194 0.0741828472707495 0.3087378645445998 0.15947617249632043
0.18083789028565714 0.012185605312794707 0.2797680554831411 0.13935373604521653
0.10996893964841903 0.05473326227640738 0.2983895790116675 0.12492301339935012
0.0905265802725797 0.07678075344638041 0.30956200428506636 0.17950444211961025
0.10107009518148417 0.06522960760814449 0.30370107539662416 0.1564360030421394
0.12261113045562555 0.04401907687265433 0.29248300509223274 0.13990169252335216
0.12210157477215675 0.05786561534834562 0.2936971492384682 0.1492080867050229
0.09845944111486539 0.08655159402579249 0.3034025722502643 0.13557448860706747
0.08261693387975078 0.0844807724391753 0.3153338403355565 0.15081156830029677
0.08217136338747794 0.09635105536529807 0.32103530371564565 0.134929046025207
0.07367348821771062 0.115806566307214 0.3308629004667958 0.12617542932597056
0.08178123899600673 0.10943970579169243 0.32111624380056353 0.13327866529992663
0.0515705405910552 0.1519963272129454 0.3700168921446545 0.08012004842471501
0.059057845178078175 0.14091449073237672 0.35610894674712457 0.09801889133308317
0.0687414145348565 0.1288658029302523 0.3367346288221872 0.12191831180493017
0.050578056139611624 0.16535870627481575 0.3814082171258904 0.13473965578247665
0.04730612644757329 0.1731336008300554 0.3976351451483974 0.12739495368336723
0.0440940405768906 0.18585620292375185 0.41883293573777824 0.16231464853706898
0.048308265317314636 0.2105717631872381 0.4716155277199339 0.15663763297265282
0.05167462464077627 0.21116657026458074 0.4589452575371802 0.15743442411154632
0.05166993384274773 0.21645863878278296 0.4852677804714362 0.14172627240109587
0.05797411441167784 0.22343187719387458 0.4950827795615725 0.11378481013900665
0.06423908114551621 0.23326549883199893 0.5132975756074669 0.09795314598607992
0.06329201834766829 0.23368568481843105 0.5282083867688945 0.1343337171637063
0.07163347452574939 0.23973998116741943 0.535475252765846 0.10725735652669499
0.08160829059130943 0.24820579466591908 0.5564702550689095 0.07426364959776866
0.08744766304497323 0.2532222473107198 0.5673078803652117 0.09091092620798726
0.10877827683602623 0.26141176087434215 0.6001347557140582 0.10540023087939064
0.12261992209990591 0.26545378718968177 0.6215419663438335 0.15267532819425297
0.15719173224941788 0.27371898180908727 0.64515446029368 0.21114250500017495
0.17479394211303026 0.2739893236039941 0.6570994341521996 0.13201332071050828
0.18599312802324536 0.27424561492984956 0.6662028406546994 0.13980390684559116
0.1378056725960667 0.03036309706135249 0.2864503034077109 0.10542483056555307
0.13637640113095123 0.04577766114817161 0.2867490853313531 0.1247955845235006
0.14899055398141436 0.04239735404032566 0.28012254575772266 0.1511471768144081
0.13868304887475869 0.05327393552434801 0.2786621025731588 0.21541484571215905
0.15662152711828997 0.04811899957107441 0.2704808233568409 0.16939681449744107
0.12704555298818493 0.06135385246652837 0.283065396451438 0.15617205222201527
0.12146764728652804 0.07481645235070315 0.2798187726356891 0.1523979174462807
0.09104017407456379 0.10978006680123331 0.29849337492392086 0.16061424429099372
0.08419036047798711 0.11812736094377979 0.30690302857606927 0.15414423129501517
0.08602884742325373 0.16627234102283622 0.32338740421871914 0.013153155388941134
0.08593379513436912 0.20019008948571707 0.3617818569597533 0.01408222604694129
0.08369434815922108 0.18725942126176023 0.3451036615082761 0.010958806905814127
0.08046201919185786 0.20190805846341758 0.37248454955460963 0.011898896553311777
0.08680421748098416 0.1785977506191438 0.3312594980719438 0.013342923514828638
0.07799624788299397 0.17617140433032938 0.33857859930774126 0.011211682572385204
0.09292628808120101 0.14848183415196983 0.30693456455098006 0.010742491807241782
0.08939432375893318 0.15934280562541336 0.3147080136938488 0.010194872261133253
0.10082697904586392 0.1301246353044159 0.29329431212951207 0.009080110000446678
0.11420027874622407 0.109153149675375 0.2815751813522036 0.007069475294210039
0.10609540331444484 0.11712301374313487 0.28814459270039516 0.009158568496010102
0.13419070614395295 0.0892822817156867 0.2698436104221387 0.0075145006719602005
0.12167388180032275 0.09283005790012475 0.2775049192789525 0.0066824517882039785
0.1362618341307144 0.0783647637557396 0.27186130045418144 0.006472834495709429
0.16260908854559536 0.058276899644447086 0.2667604829808351 0.006935296418288847
0.1516585757214733 0.06570470206963554 0.2687655972067774 0.00574998460931529
0.18068774975444013 0.052081302794196045 0.26142314568610114 0.012483827228815778
0.08815581915968528 0.21231881036996203 0.38450122735536696 0.01018381724611822
0.0964605045596633 0.22453442862609796 0.4081733412363557 0.012533778870124712
0.11087235150757657 0.2349031716504981 0.43109039107475455 0.009195368077734726
0.15224495133210247 0.24591026608076916 0.4609882798888866 0.004311846129353519
0.16500149605028847 0.24739046036032458 0.4641173247779248 0.002587582873679928
0.19243947615430818 0.24744971848094083 0.4764005393768508 0.003271285050661066
0.19756309452820603 0.24661067706516526 0.49016254576159 0.005424735890314434
0.19578892963585126 0.2474417011775239 0.5018504865771479 0.004176325913181405
0.1773854964780205 0.2465218012184331 0.48434644349317846 0.004904806859682276
0.16344657987704841 0.2459500909865932 0.4773756218359295 0.005167537506019706
0.16441419106668506 0.24606425156046283 0.4908049412493113 0.004746229482335304
0.15205479982733205 0.24646811979188826 0.49405506490616846 0.0031489497629745246
0.13500419911612122 0.2427615371536366 0.4677927299565625 0.00716907306712113
0.14185685163015915 0.24420730314945222 0.4793517685492541 0.0055566428300812135
0.12612778516954534 0.2406809631625672 0.45636620046811643 0.010301315073465054
0.11827113247931748 0.24157806090325046 0.46998081864652386 0.005845776670318149
0.10769480434865959 0.23695405775846193 0.45191558088496153 0.01138286546904496
0.10171180070783034 0.23002429273000535 0.4241825166084868 0.010951129249328935
0.10161919385506132 0.23372755643796045 0.4424496672352629 0.009931379997991811
0.09120081970728257 0.22549861907314664 0.42015559195609814 0.011719778503619199
0.08942838144620702 0.21707248617614133 0.3954854830533784 0.009959124105277505
0.177677160725574 0.2470619723474911 0.4986143796871948 0.003479147981235459
0.08975784311053686 0.13636831340582967 0.3025403364255663 0.010152312450452505
0.07003318758411463 0.1458326136946482 0.3259894863980289 0.14482890414594243
0.06737828757432202 0.15803437253647606 0.3326535713475859 0.0472920560139817
0.06674889642471431 0.1678831388990489 0.3391484578643119 0.01861033216967342
0.05782471584808702 0.17403286596543352 0.3569968299146088 0.11505786303551836
0.05469847536766113 0.2040081114357653 0.4038567329398296 0.11011568826516156
0.051926027091824714 0.1946797261918189 0.3936629627847172 0.13439487184609986
0.05859399594423248 0.2142002492380981 0.4146620679535262 0.04522229265264283
0.06709221780981833 0.20457683516958514 0.38272773613171757 0.012679266461010748
0.055553987474757975 0.2191027947186778 0.4373860595002435 0.10476603382398483
0.06506903088216101 0.23457084525897992 0.46426417674831966 0.06386453195046862
0.06015909975088033 0.22640292189392963 0.4472267096075589 0.07183321783050849
0.06876280835405355 0.2410911962878894 0.47939044896755023 0.06258707723583447
0.07332408824048568 0.2368682665660902 0.4560300888934772 0.03209743865182107
0.08023693152795122 0.245650854294093 0.4783653701712404 0.02408360974012462
0.08081501289599179 0.2542624756343867 0.5310430420355969 0.0685672745136564
0.07464120542463763 0.2482719094029859 0.5171317463690142 0.06285300066055376
0.08125418354346806 0.25232605028406185 0.5060788120666302 0.029533395551274384
0.08441417236095822 0.25532966993233835 0.5163441593693986 0.03188225990505359
0.09477916933323673 0.2612103025114391 0.5310538191839593 0.0267469894497263
0.09445828660388136 0.262663368064369 0.5559091917445029 0.04239636754092638
0.09987335838207323 0.2650074089339306 0.5672974551024509 0.07541820828883242
0.11216876902672772 0.27156190697654403 0.5729758960683269 0.24166375877279328
0.08977927841172323 0.26112650306463353 0.5422826538163966 0.03882103835725581
0.10621419471652144 0.268083443092901 0.5579481181453173 0.23400028679086068
0.057394121820889016 0.19728621654889922 0.38060303997038714 0.07993313324597355
0.05781340734877903 0.18911512877479372 0.37057640076628917 0.08782272304040871
0.06457995073393043 0.18292828090896307 0.3536882768992252 0.01690109178760452
0.06655385094967359 0.1984616382883647 0.3729535852462327 0.020166279366305426
0.08045481033150202 0.13852884116654385 0.3099094900088928 0.009034711817786461
0.07612488132636235 0.15933348050276208 0.32355339224135055 0.011583846941534076
0.099211540097106 0.10059824511261949 0.29187394472858363 0.174202484419582
0.11114480461216719 0.09716225222090205 0.28248341647765174 0.08072490579567027
0.1931930495284271 0.034101035573841566 0.26745368096081495 0.1498948230250677
0.17627545441737175 0.039044819039099274 0.2678703450892601 0.11546017243191459
0.16171156032270517 0.0370161185749302 0.2755000986090218 0.14204675780584866
0.11652161108386158 0.27212696011135207 0.5943261380178664 0.2209381043638031
0.12927970465837255 0.27415923196090486 0.6115623287660006 0.23948033530555
0.1468788651230028 0.27787310113322333 0.6259807486519976 0.2270553015216932
0.15880921930302636 0.2786817307496078 0.6349062542864294 0.19077589146306356
0.17878081627789646 0.2795087573561583 0.6453377100303813 0.1732727228058428
0.19940082044007224 0.2779840254002349 0.6562811268633292 0.19321591136546684
0.13869050976117125 0.2791983355094311 0.60462100708022 0.21618418734177314
0.13236480874292278 0.27801681326247357 0.5943384940147064 0.2639418688021618
0.19682375908928806 0.011352949138169659 0.2794299218766016 0.15368563397943247
0.19713457555080574 0.024633330532224273 0.2756480592734063 0.12779751516541762
0.16302489725564653 0.019151293493571427 0.281991503469407 0.13921096664169122
0.1749859258891266 0.026907641627657637 0.27867935796687093 0.13849395367452827
0.20414994512519619 0.04840462380095108 0.25755515758852354 0.010613977536216072
0.20282680964515604 0.05575634939230534 0.24843874536371305 0.010634203642457152
0.19715097703429008 0.06621132744531957 0.2380191926044107 0.013247825936799029
0.15059821186937433 0.0764556396812157 0.2625079775130415 0.008713359561756128
0.16038941138402868 0.06922293831453732 0.25943860131583196 0.009279311966774137
0.15025063376932896 0.08740222902495823 0.25400929226151614 0.0027383338087685525
0.14626295659885274 0.09718322286094205 0.24975301937796635 0.002137170565267116
0.16277845934854968 0.08105673656685908 0.24616837417322412 0.0029711187331401437
0.15045892986173265 0.1057800837731019 0.2395714045543109 0.003139556191333789
0.16760021800439545 0.0886358193347396 0.2359808749811373 0.0034283653932564054
0.1533683952753697 0.11643445932116603 0.2312421956526889 0.0033773577884713252
0.15984730654902385 0.09981099606473637 0.23533448719304928 0.0033604661142184766
0.16268780754217216 0.10963973514477018 0.22794668217314934 0.004842109367805209
0.16320375372881005 0.1209999031607608 0.2227364351836377 0.006562281181374913
0.175696652310782 0.10235231722571198 0.22287138414838886 0.005104757561981984
0.17083529742745202 0.12793377216493398 0.21620083641140267 0.0059377773060286096
0.17884462915044586 0.11850642332438432 0.2155427310697627 0.0065789097150501215
0.17674193530144708 0.13699065690092682 0.21122516030779276 0.005757951451676502
0.1835738087651154 0.15345333256801663 0.20550059961982403 0.009743986327743674
0.12528566681968412 0.10331153983203185 0.2708337207998065 0.007966926635405165
0.13308350787644563 0.10035133366138262 0.26276633531147886 0.007419518988300379
0.1372401735127013 0.10721968164388666 0.25363958573063694 0.002464571431589427
0.12690615041592576 0.11897021344117675 0.26145730272437306 0.004264882950783963
0.13056687089933636 0.1298437490275804 0.25169740485294784 0.0017260390494742263
0.14496750076625406 0.1209683906277488 0.23847906881836656 0.0033266751503816354
0.1360575941810014 0.13578354180002764 0.24308786355568474 0.001758972958199606
0.1530729924049709 0.14014032399435836 0.22500650905547814 0.004425963610119694
0.15061600870565597 0.12870738349008495 0.23023591426392165 0.003112180892255402
0.15925627045732216 0.15107992628560143 0.21747101077941652 0.007667206759646281
0.17182352764138525 0.1473153899578503 0.21064976197813357 0.011201615866738145
0.10831235133075771 0.12890132011905664 0.28310070133055343 0.008939140049927746
0.09931468855407766 0.14598492510389321 0.29578995430261923 0.008070277529718475
0.11659029747546576 0.132277511822393 0.2701387796333219 0.003599316781286232
0.10617377270514342 0.15138503576542822 0.285168325666571 0.008330158633345072
0.12089609823276255 0.14745281690609238 0.2622018003637624 0.001481609371892688
0.11438653048075365 0.1570459544453241 0.271575408699878 0.0021352103308405934
0.12628289193254022 0.16675097093476898 0.25331225661457407 0.001444112190088322
0.1289974718530581 0.1466570831773185 0.25040078750145034 0.003237974459670159
0.14342871737910987 0.15021979883058667 0.23186743440344415 0.0038260959613306104
0.1375865623645872 0.1580208858638548 0.2384365527932325 0.0025079764890951362
0.1368655170582082 0.17136129995628024 0.23880037003139903 0.0029521844409475377
0.1454949517524932 0.16508801085551328 0.2286791748696837 0.005086625031175692
0.15564385478041906 0.16316381543870698 0.21830317471723334 0.009057449671090064
0.09271012309185506 0.1787906132753542 0.31900161952423256 0.01154465317349651
0.0951172731314503 0.1697104059188987 0.30985592570668363 0.010396677726610707
0.10533470035390266 0.17844990696201982 0.29456895608936884 0.002367729651253698
0.10803971693904038 0.16655942230708684 0.2843389070241504 0.003149518110320315
0.10184049405159148 0.16550210231428533 0.2953210558759397 0.007757483368315921
0.09967416245198066 0.18095664759079538 0.3067735666577111 0.007294420063797435
0.1182077002225787 0.16749296306373138 0.266327197626454 0.0016415519403113687
0.1155403455488315 0.17565739010585651 0.27422049887207695 0.002679153758781192
0.11091519560375025 0.18692063048777047 0.2872002641901207 0.0021127759795262152
0.12585702944895943 0.18195119134544352 0.258421644627831 0.002551546994162986
0.11708163148836548 0.18983302679243008 0.27672302294307477 0.001996786674651127
0.13321009126073846 0.19260084365950272 0.2491672561162046 0.002779765385657533
0.1247537324007365 0.1935971826292151 0.26404992406746747 0.0016159951447869926
0.1440157602250537 0.1932946748075771 0.23286134669687042 0.0036347947981375294
0.14739653499988586 0.1814173723896432 0.2265310459463565 0.006884143328796802
0.13758633554184263 0.18642051120713393 0.24096312859072475 0.003338095662432696
0.16806591893999004 0.18127235868766073 0.20574264495825875 0.0140342102889064
0.09245521744945948 0.20779363327154826 0.35602717900073994 0.016081594490204014
0.08943213561638605 0.19771130803876813 0.34747072816692554 0.015575182050123423
0.10448763782858597 0.21077492881849805 0.32732968803368 0.0022031009511144263
0.09719807612707546 0.20340077676818055 0.33709549444310993 0.0033486824750961204
0.097378514583022 0.19511931041469785 0.32519938740099763 0.005218280180943305
0.10535164184547195 0.19137755141518065 0.3016681313511864 0.0021052679171642695
0.11019829097251702 0.20916997806926135 0.31052783168306586 0.0024808765509448626
0.12390561577537769 0.20219615238181277 0.27209298721668285 0.001892744573524406
0.12232985110438856 0.20913427619147232 0.28155285027552074 0.002517780824822745
0.11583615273771061 0.20196432011578108 0.289276465905164 0.0031549913023457055
0.11489403744883984 0.20968804784227746 0.29984677124596404 0.002387563943176207
0.13082966703624846 0.2085465183223629 0.2629377888043225 0.0018510423643783558
0.14415845127492255 0.21131110992274196 0.24091622702283352 0.0034149702420326854
0.1376614841726032 0.21100890068818934 0.252085655959587 0.0029952086292233987
0.16084403745056594 0.19202611031929373 0.21341558313879094 0.019536535713805703
0.09865718765059268 0.22522321988559085 0.39726807447692164 0.013733798925468766
0.09581521120204652 0.21483644749611325 0.3668741333502543 0.014014939502122101
0.1017200958125417 0.22264854138931667 0.3735328628344658 0.005865679425433302
0.10151407051579568 0.21345823826054094 0.3416640922394929 0.004451732374265473
0.10290153763508675 0.21927473638844117 0.3548416425938175 0.0029658688989836974
0.11380510822706291 0.22115738555395517 0.32196260627930073 0.003082130599243513
0.12103784090409463 0.2324771305870834 0.3279162937964049 0.0026430161703233
0.11483220854569998 0.22766866713044484 0.336668999634339 0.002509169113482961
0.12682769608866493 0.23063763032962825 0.3029000793451358 0.0043922013578102815
0.11731785523372655 0.2206442964977033 0.30934847875818033 0.002498902071521004
0.13376419000235057 0.22525446041758512 0.27411209765736544 0.0032768048983859736
0.13376153137013688 0.24055419067994924 0.30383052600934446 0.0028107272361421356
0.13488292022821605 0.2370545621419423 0.29302839256372015 0.0039842851352244755
0.14324552656730052 0.2215263638724949 0.2502261663074952 0.0044568927221035415
0.1401737556682325 0.22703594387198506 0.2625700745474437 0.004565399582804956
0.14138592164218167 0.2350782773524855 0.27234724542165223 0.004889573831279567
0.15102500865500157 0.22969947415390984 0.2460592130013951 0.006627958311859413
0.17033514110846884 0.2020963840843249 0.20797453158711213 0.017164193997558808
0.10650525189697588 0.23181511707401758 0.4048313187062983 0.009891510738955238
0.11049280683630938 0.23373831002869266 0.39173503972867696 0.004406593185165002
0.12260159961817847 0.23937858401673112 0.349274037899322 0.003909827397091199
0.12025689770017323 0.2388988589268878 0.36261040230809055 0.004254687163571539
0.13767362394094992 0.24778715686550115 0.3183282003028788 0.0037410484728811013
0.1290468184031738 0.24316809677774973 0.3374606285614417 0.00431846676084997
0.1428183093865918 0.2422740018512595 0.28111057596405314 0.0064642555195694555
0.14468660390866744 0.2480071963052884 0.29305040231604873 0.006321296756808519
0.1551005767231501 0.24497773383510074 0.26143950675005767 0.005880536447180618
0.17005631501534113 0.21893919666818262 0.21776883943251318 0.012045517429665422
0.13920219536167622 0.246891779760199 0.4330175315239705 0.002606658072903734
0.1274585125266206 0.24336784175649373 0.4245890783477996 0.004739083059888719
0.1368533466237441 0.24935091469971815 0.3994708576893883 0.002300134900038846
0.1439198065671942 0.2532476148776411 0.3873141772106175 0.003027732026409754
0.151515237439344 0.25821467193675923 0.35830882058384383 0.004170613597251776
0.15267971030294147 0.25914514391000304 0.3452342327249275 0.0034328984128726317
0.16776081708318855 0.26267723420819006 0.2954712379077643 0.005790403751714595
0.16421192449719282 0.2568991936314488 0.2778838801508332 0.006254183081152247
0.1745453404133313 0.2558148817133044 0.25918823920665035 0.005002311064897269
0.17017151001057795 0.2485760863102302 0.2480359829177431 0.009243550039607104
0.17399588592475806 0.2506008243291468 0.4534249408485692 0.00152595179699498
0.18070100814689816 0.25444298553373373 0.437696195757325 0.0005566245468053041
0.17177810997978044 0.2551186476686393 0.4284674940200492 0.0007296718338411257
0.17238741680353756 0.2588569072850402 0.40730615660103164 0.0019870249255287
0.1801420095352979 0.2637119425184088 0.38294093910757765 0.0018415428492835266
0.17388930621493148 0.26127561055778104 0.39298103287849534 0.001781905122443209
0.18631865298786657 0.2682516964757744 0.3519493253666888 0.18166200266013113
0.17563190002862014 0.26586672092140834 0.35758611833943615 0.09350907845732581
0.17134277703915077 0.2639506168087693 0.36968339587513893 0.002236855457322544
0.17787744326912125 0.2676350204182719 0.3416612363625892 0.16453473184976716
0.18297146304401868 0.268611665890473 0.33087258278217413 0.22385177987419508
0.1814714019625277 0.2684557433228129 0.3133348284181394 0.22593633277520977
0.18977553263772928 0.2660053346231 0.2828392576573313 0.0038036750859510235
0.18410233221552336 0.26248901496259025 0.26926040330082845 0.0051779360385252405
0.19226128401327294 0.050773136208063584 0.2567800186702727 0.014953477234853674
0.17945962831005968 0.06442906908227625 0.24839345506363664 0.008635705863793421
0.17726904817074285 0.08186073583402073 0.23380274941873044 0.008437569334518261
0.18500124242035967 0.07250281309475717 0.23693690884035123 0.00642931950798122
0.19343748230977842 0.08618908576439058 0.2241425802080685 0.010851700793790059
0.18777183099232342 0.09958228900526386 0.21935731239732664 0.006552721884803745
0.19659602621239375 0.11100844882732022 0.21338640409297688 0.007881363247864297
0.19771695101096226 0.12588815698219846 0.20949368460966986 0.0064759938712171195
0.1899460445909136 0.13565223235681168 0.20820370349521952 0.004766130277172931
0.15170799138353835 0.19143341938691777 0.22263041777428694 0.008324868545143548
0.12181885840298672 0.23987641645050853 0.43692515058256504 0.006787992245215139
0.11140997456456742 0.23547000555722675 0.4159793074518572 0.012062327778922237
0.1188700562685638 0.24001757656191297 0.3969482259325324 0.004116872333708925
0.1220035623502779 0.2418077507373607 0.3857414412476542 0.0034016145815624877
0.15485322826369705 0.2485677941935452 0.4486159695504016 0.0029063628366961703
0.14333597058939682 0.245161634877545 0.45321337398682604 0.004310233062056692
0.15042751064211113 0.2532525933031454 0.41140290865831086 0.0020822672119044016
0.16167768202376293 0.25457492554166183 0.42178839924330347 0.001635173182251415
0.15215830165687658 0.2510735699564717 0.42946193018506174 0.0012656677551343338
0.1616516902002555 0.2518604920614001 0.43839195259234426 0.0018545485757706915
0.187245495905434 0.24949034393913566 0.4638468432396767 0.001887154237278371
0.2021080992285294 0.24990572390455862 0.46404272401936736 0.0015758779740036527
0.192263458284509 0.25235780282925513 0.4513577927232806 0.0008741831919288749
0.1918863377355837 0.25527016610864983 0.43702289950966333 0.0007515158182445956
0.20181976343126357 0.25690635383634375 0.43055809380372345 0.0005471713066168967
0.1314137285525377 0.2469541474288469 0.3546624962431821 0.00587323735519975
0.1365156893791556 0.2505468852210614 0.3671740377135979 0.001856799504736787
0.12672201713180414 0.24456150171299387 0.37479604442781395 0.0035317936001743725
0.1393428063655552 0.25097841871133264 0.3340400774382083 0.005200969237589908
0.15735797877801008 0.25812357878807485 0.38790992960873893 0.003836523959532106
0.1607382320174086 0.2606179175652201 0.3735820895037977 0.0030182505015188253
0.15998209744322683 0.25657236396480115 0.4053777011049943 0.0013100982164571467
0.16255137041490467 0.2626248444608122 0.35514091345793813 0.0027224783184064787
0.20375962240214895 0.26337405773084227 0.39573666112156314 0.0008587045685487673
0.19531256583274353 0.25987846496994493 0.41401474120757054 0.0006710455835178652
0.19180680488346097 0.26163817052520155 0.40301913968645353 0.001031704040640482
0.19299783599534628 0.2649408172482314 0.3836805447501913 0.0013701340068305063
0.20133334900682365 0.26640784506411863 0.37525398517469566 0.09621239678549197
0.20453615645660386 0.2689475536272848 0.35607985960353533 0.2436361034875398
0.19435320621993452 0.2676851911989833 0.3623515669577587 0.23259992648029343
0.15718032886520175 0.20655585244017574 0.2207233391503522 0.007139197194385234
0.155576772607623 0.22326614493227842 0.2333634182660111 0.007103597980515207
0.15002392511638385 0.2570306315053012 0.3218402224983605 0.0063450687476880995
0.14896275364436148 0.25460879181118495 0.3093463241840848 0.004867785041364157
0.1553859050754145 0.25489876558034974 0.28873062588783016 0.007070638376165641
0.17191383779067676 0.2656998211770214 0.3072156644083868 0.10095918108304124
0.16198201852888014 0.26336189040254526 0.3318281279056711 0.003930075512179973
0.17389814005306253 0.2667362276539018 0.32160019177092164 0.13770676249353977
0.17544623077138724 0.2614292858881767 0.2766584092869188 0.007476142391857724
0.18042833977177444 0.2654152347588452 0.29000436598972335 0.00608965787456184
0.2028144617836911 0.2702321183721175 0.33492420068244305 0.2333737014553678
0.19762437285928874 0.2703987994324559 0.32033737060979317 0.24121314515031456
0.19744912018694516 0.2700031428079434 0.30647254417635206 0.2833583962917986
0.16391012197601235 0.23015304924286967 0.23011768794454998 0.009130508790568904
0.16564013287099877 0.23906739987895065 0.23838187206710537 0.00940566524456595
0.1762992431569788 0.24013961825682578 0.23158355973937783 0.006660178792771629
0.18028744571697908 0.23247754166245882 0.22327490864266572 0.009858712697139053
0.18384836080121972 0.2210606698433509 0.21109758419139613 0.015533080048824347
0.18613578247110693 0.2479944420708072 0.23762989665916756 0.008646607034580351
0.19478835942457 0.23844979446283462 0.22506477290981217 0.00928260840488953
0.19784012271851764 0.22589913511856805 0.21096818811002108 0.0157568004295492
0.19797685163555478 0.2611705613737647 0.26043706378493203 0.005464312215185504
0.19129271156749514 0.2558958930612124 0.24957421457870443 0.006326203091128045
0.20279025342215096 0.23293859877859097 0.21816381971997523 0.013739736782899194
0.1357580029434915 0.2729759377396209 0.6223267470905717 0.21094135675242506
0.09961885013302646 0.26092654837678186 0.5803506078077068 0.10263692829858034
0.08112497030836693 0.2528911371004035 0.5436087918348018 0.08271664637526202
0.06617709705817763 0.23870884816299487 0.5002896830493935 0.07795861406147037
0.05736409701340928 0.22398618645775964 0.4645661353322086 0.11675151352226072
0.06209770492894992 0.2325708500092274 0.48475460257710085 0.09146202243120469
0.057176180703679524 0.22295028073302375 0.47621301215717216 0.12955721296838868
0.050467091917620374 0.20081705276222128 0.41659424878193513 0.12749151582298118
0.05074220195436713 0.20454178616861762 0.43007281715461476 0.1408361480553045
0.051433882812658545 0.2083478742150272 0.4437912485213107 0.1360751463752516
0.04879800259145046 0.18615571659974486 0.40139550879332087 0.130340110092582
0.06605875848527179 0.14510410979538257 0.3382533132971485 0.0930167492960078
0.05917110975352979 0.16140270239863413 0.35398044353429653 0.13580006520715251
0.07367666113407857 0.1304787831858782 0.32299852607792356 0.12671778081211774
0.08982898222964653 0.10177168785901117 0.3092820828337699 0.15619521749653384
0.1086016700806841 0.07847659875740706 0.2963222221428707 0.11052385779978616
0.05494792839970424 0.16400513256007626 0.36446857185617376 0.1434498580828847
0.05016683228749377 0.17784713047869138 0.38621323775294136 0.1316399063869933
0.05452665531525627 0.1777765018739024 0.36988839222069464 0.09379301338232743
0.1970942856698567 0.24944530021171546 0.5152514363520346 0.001838633375086107
0.19599384706735712 0.2553166981159578 0.5372439055175825 0.0003826764521129738
0.19851437596823918 0.2582112074909673 0.5482085916571372 0.00024515105157812587
0.1881395046151076 0.25289211659715327 0.5276700721485453 0.0006950300787997981
0.18564095091577898 0.2569509133242479 0.5426362617692915 0.00024595619525686463
0.18532444888866242 0.2627060983288277 0.5593622518281048 0.00022330129322056284
0.19364962799544264 0.2661585052433382 0.569209461139991 0.07752673490888798
0.2038362305259529 0.26948366309264277 0.5788587149330776 0.1961626838259145
0.1814005691851313 0.268199385377359 0.5736952795079756 0.12844137172184786
0.17262176050852676 0.2651231135951154 0.5648092700341089 0.00015730648238154529
0.19498299553396917 0.2736470926019451 0.5892765379366438 0.2123168542933796
0.1694631302674382 0.27438023617928003 0.5892177545172088 0.20789498860922234
0.16438691465980174 0.24819590805939482 0.5063010998614237 0.0011420305982164482
0.1779141404271705 0.24960684708198297 0.5141794402452595 0.001094208175681786
