x y z curv
0.05028706784233345 0.17430415389042947 0.25601808887983557 0.21020783845720045
0.051600656984767186 0.18246705787416556 0.24371348669948303 0.15640790111917724
0.04748365725867891 0.18839085148596724 0.25762665887644176 0.14958322453787323
0.05360215067328061 0.12919354146659526 0.27906891271876694 0.1315702660662108
0.0576063575666237 0.1412338788311276 0.2567601242549902 0.1559952470363506
0.0631408155266092 0.1259981140714448 0.2542828179406888 0.1643435464816284
0.06678270593476746 0.11209857897929873 0.2579640925218798 0.14928437360598526
0.07474371459597584 0.09887756977638962 0.2551876092759083 0.1419226586924292
0.06937769990658027 0.09715762039527234 0.2666897584791149 0.13700019201830663
0.08443589866232643 0.09050533628916829 0.2497239845056435 0.1419745134171278
0.09510472952311717 0.08242036272307121 0.24738385495776655 0.1502750930793711
0.10315134999616977 0.08734370781495523 0.2351335295173465 0.13035539447290373
0.10599120193389454 0.09762957360972156 0.22003986069763723 0.00962598841939727
0.09761405860266306 0.10802610272164209 0.21391666966039063 0.009849760967925966
0.10810405066933694 0.10494034642972501 0.20951718451240034 0.009442019013491773
0.11792697236074061 0.0965646045303772 0.21572360857609482 0.008120084553967013
0.13144007749040693 0.09563088482500232 0.21280247624212564 0.0036261678377412856
0.14521246110942457 0.09127922349873409 0.21689295567054054 0.0029856500805371757
0.14192275790678863 0.09795796430154428 0.20818772401217428 0.0032777009592315103
0.15391641052677651 0.10068317845780493 0.2039616600040411 0.0028988505077752976
0.15594271527210476 0.08687496482973003 0.22231724385503246 0.07843126737332769
0.16454701773578487 0.09892499136013613 0.20725322604777066 0.0030715523522941756
0.1765607812635374 0.09913613916208186 0.20940620454114617 0.006222895554556769
0.11471161095496701 0.08986411100257977 0.22551006246515537 0.09842433374429119
0.11301706211791615 0.08083807378355683 0.23713023434537914 0.12348760450158995
0.14833777290696082 0.07722339897059473 0.23405221106088986 0.14137819384347608
0.17421457924691616 0.06056836072034189 0.25493772737645576 0.11755835320309035
0.1850246972509847 0.058936903589482795 0.2600017253529959 0.10975117307436016
0.19412970725593337 0.05524558872083698 0.2670269130749689 0.08928305045571443
0.17204583246862556 0.10563181411058142 0.19911966897507666 0.004855243207122664
0.18432388283565904 0.11191270740083573 0.19416986851197948 0.006594853477224769
0.1854586353440725 0.1185456942499969 0.1844978512826363 0.006754594954920292
0.181457065166988 0.12470663186914578 0.17196090836937594 0.01578543814100475
0.19477318640711094 0.1254359813768758 0.17934368736711664 0.016517457097146703
0.20457992514307657 0.1249607186342691 0.18982178706970468 0.012067928560627801
0.21561256433401765 0.1518223650507438 0.1605492725200766 0.1138680286657977
0.20762518689507847 0.11324706737702428 0.21019685536121926 0.008231396195984194
0.20835025229372833 0.10338107136098451 0.22389237482083713 0.007330291915725196
0.19486256728517792 0.08006609022670844 0.2415816060451788 0.17885832337095345
0.07284577994032504 0.08661129893195192 0.2699356576719798 0.1094303740938527
0.21152425175546563 0.09816559732784777 0.234747831095267 0.12149982602685586
0.22028662857767242 0.11857951297783408 0.22105894501862297 0.0098347618648826
0.22785377522324948 0.12421331809382735 0.23022586629700567 0.05340628622293531
0.2344172962439403 0.1347578620698019 0.2333202538434112 0.08143087988562878
0.23427173067091395 0.1441640553418189 0.22258609203038582 0.037879826239279664
0.2411712457632461 0.16843349591737486 0.21858953322940736 0.11049543025797609
0.24064058521811948 0.1543295628734987 0.2325887981260546 0.09176768528750327
0.245353330015766 0.16876776429631013 0.2348971688587844 0.152657246063634
0.2493376557844032 0.17662374555741592 0.24445184513129373 0.1699878958774652
0.24324827272181132 0.18363834060686984 0.21068679140047963 0.11138015881472546
0.2453721974776391 0.19915438691533027 0.2031423204224603 0.070998620374949
0.2457084499122124 0.21217576345447275 0.1905605310042771 0.05529183512825525
0.24627477680762253 0.22615336316242635 0.17906342097793185 0.05974310825799313
0.2438656510354938 0.22311930578225822 0.1607034201562024 0.056453438728980315
0.24026980179350382 0.2128264229189623 0.14543407559030003 0.059859191678577665
0.24087705266863615 0.20955376391805186 0.15722632677742795 0.06306054729873489
0.23621265977854405 0.20016289232200002 0.1387561045548879 0.05731850131501596
0.23484608766187934 0.191376653514937 0.15043425933456397 0.06692757300165314
0.2281259597204493 0.18216807777526076 0.13299902752376452 0.08263923901346046
0.22726707629985943 0.18570997913461804 0.11770002293378054 0.08398472994922777
0.227878769462048 0.19037712030812365 0.10681711185595166 0.08452133630868805
0.23316274809864423 0.21090063983800839 0.06801492198367597 0.06940779448786098
0.23309804580347998 0.20468553784355611 0.09770566154549559 0.07303985041051288
0.22028666609954697 0.17592878089243857 0.1139634856103632 0.09381930872487264
0.22420556439888803 0.18694600773781053 0.09558867491738256 0.10085487594306942
0.22698267142407808 0.19698629388972766 0.07383720196099247 0.09781021623086701
0.2199812708066512 0.18748596676508478 0.07053919413279647 0.10253180234075794
0.21922536391586922 0.1839682653075252 0.08236023717420843 0.11520862038971694
0.2272273339496011 0.1943666696775522 0.08602696372903063 0.09288776370453006
0.21705824755283032 0.1765610533000156 0.1004358972685224 0.09416048084751145
0.20836323988527156 0.1676123585761602 0.10369464307616896 0.14710122275399493
0.197404674586518 0.16529330106303514 0.08858267667600503 0.1522920337502647
0.23331833020499448 0.19869398817397677 0.1185955666303739 0.0625639184458153
0.23558705395361967 0.21605963282450732 0.08192236073349798 0.06181769636000262
0.23738537150888306 0.21720505241161644 0.09934091526556454 0.05581877674312863
0.23850012969570367 0.2177311429447083 0.11377389608589503 0.0539350466175476
0.23998792919789286 0.23397162179000439 0.0854929256415055 0.05382648002519437
0.23832248912790177 0.22847226009727364 0.07328558792001955 0.057130991562123506
0.2406827673354282 0.2427187311993782 0.07473923745894945 0.05290345308270096
0.2401692607072165 0.24264974074414253 0.06353002817700593 0.054887666293476384
0.24043743618122035 0.2506459881759548 0.049427034904359804 0.05285236742507188
0.24079353380106688 0.262665626024339 0.033890738130520695 0.06481450182648588
0.24326715210129735 0.2674273625475319 0.08122427900099462 0.0600472894880523
0.24180839918173497 0.27995842047967623 0.035609481957192914 0.06415197652807737
0.24076511803213174 0.2706323810108928 0.022730629141951144 0.09280679956201218
0.24220055434245472 0.26925263253601006 0.05579334637172463 0.05012884297688859
0.243624127946598 0.26468240685850053 0.09203965304588711 0.054362607244140465
0.24275793814503974 0.26769462177835557 0.06973533516284969 0.052614219347641114
0.24123932843122564 0.2825856940547134 0.018115112732414618 0.08500812132804896
0.24149566591373847 0.2939077373422423 0.01238166300604851 0.07873957042998235
0.2419066221867214 0.3053211882790031 0.016162092408663634 0.07836296120472525
0.24218481506148748 0.2985652894099 0.030240709879861345 0.06953377538885669
0.2423794212931871 0.32422683121915175 0.027623770768580403 0.08145145434895924
0.242467725071889 0.3117507514356261 0.0313329214031881 0.06865173444618573
0.24161984188862126 0.32994367935973984 0.010516990142325685 0.1175156376900207
0.24174393082469225 0.31458421663808794 0.007721055666647971 0.09314538449886256
0.24282255761929086 0.2941948623357475 0.04914873691203656 0.048295451699302556
0.2445329850083382 0.30784929432908065 0.085556772867845 0.0509860983104606
0.24300182392424222 0.3061938490087226 0.04757528104903157 0.0464868881370165
0.245051064273132 0.31236847887273134 0.09638908439566748 0.05135813449148633
0.24424208035523343 0.2965381766551962 0.08074051298451937 0.05031099790528884
0.24493580188033814 0.298947075912955 0.09598647243499925 0.05332196183091978
0.24366764269568042 0.3004781811287401 0.06736140474436272 0.05141758535139945
0.24363813980670085 0.33043810982601585 0.061147992968007395 0.050831724537867315
0.2431103562147141 0.31853353783057964 0.04792794649673207 0.050408621188678705
0.24279244899913893 0.33277783030893 0.04066818637802958 0.06119826412998895
0.24444181564051967 0.3209464596932989 0.08037165482332004 0.047892050590192366
0.24487854681707596 0.324580575672493 0.09099860336234772 0.057119138044625595
0.2444292904984668 0.3342022919337002 0.07971927351837568 0.05127576329749664
0.2458598022362214 0.31963401336240066 0.11432361820834085 0.05288658307676274
0.24602337753220693 0.334609696400592 0.11692278056263607 0.05146644498454385
0.2452612724414613 0.33357138405360026 0.09920525842666643 0.058411993668937776
0.24450522397952718 0.27868765218623975 0.09647194004524687 0.055608595318672446
0.24213733541394278 0.25525071687869416 0.07472661070717586 0.06261364345513452
0.2432972853908594 0.25115932400005975 0.10740080210952298 0.05499690688906385
0.24198085024715296 0.2445009113378474 0.09512534203931579 0.056758847233852244
0.24194825516659169 0.23549320673338875 0.1154855840574883 0.05450343736476726
0.24179685343902158 0.22723359338602336 0.13163481914667166 0.05955344002884417
0.23792341478600143 0.23170940196587814 0.05470074622566955 0.05605841532623006
0.23633195833183668 0.22710521068375578 0.04166045378586265 0.0738898893786387
0.24682620166559466 0.29063958975693993 0.1328172447808598 0.05466284119727276
0.2454874951433988 0.2931768992603463 0.10831510635078914 0.05260422876274392
0.2458857821744181 0.28583300228481845 0.11893437858554638 0.052116630832472935
0.24640446440405422 0.2795302719342375 0.13060674365687072 0.05212232641293533
0.24518728414214733 0.27654545739886643 0.11136667277789435 0.053298894954972226
0.24766806020892757 0.2909805956433486 0.1471191330971812 0.055949513755197945
0.24827026179140788 0.2704002822616142 0.16153264370300618 0.05868626816784362
0.24847489949314688 0.25526087920538737 0.17252764724920178 0.063611261580467
0.2499096061934737 0.2415724827355226 0.19363755651680298 0.06766090372134095
0.24977036144266923 0.26132950772614855 0.18200004689087568 0.0721464955749777
0.25053622102403833 0.25452382937393914 0.19191626411466084 0.07794600542952425
0.24944932772546566 0.2727743122317054 0.1743718716965717 0.06278881265842813
0.2450470486730303 0.26216561042855785 0.12208606256473148 0.05771431281789467
0.24625270285913148 0.268145647234328 0.13513082159644146 0.05528457021606115
0.2525565967365063 0.24595822650406984 0.2098195533084114 0.07747270559297724
0.2507885219602639 0.22265677045975146 0.21366621037413766 0.06511328687644206
0.25121481813126273 0.27742216685533 0.19066237920582435 0.06600056316691846
0.2523231745681225 0.2608425624595839 0.20372100117772202 0.07867249171456245
0.24878417977145806 0.2854443517793615 0.16201173469086788 0.06535817572343114
0.24978311495019548 0.2856213359674787 0.17568705564249754 0.06533483074226981
0.2515657622098898 0.2906273293368866 0.195037844227216 0.06388731848721123
0.25018893384163743 0.2979600325050008 0.17938821747426004 0.05889337792890215
0.25068982994493993 0.3063401716031641 0.18679644537008688 0.05735859507191666
0.25338922643023065 0.3023516397039896 0.21522849140884026 0.06643540552651023
0.2523666276351936 0.2973051064547123 0.2038844298625072 0.06710117696233282
0.25382087556063554 0.2872617474804285 0.21495628009212567 0.08201488763737604
0.25268970598166257 0.31633868270711146 0.21342088589433234 0.06345482270012047
0.25168385848559494 0.3278901482299422 0.20837662965021475 0.06119006601257539
0.25188410607937517 0.31336572937578144 0.20224499742796515 0.06275148677663493
0.25283438767973904 0.3273495472517223 0.22190538124862663 0.07109492961076125
0.2535734704443675 0.33945099123393946 0.23890240361559986 0.06317734841617306
0.2527302192115973 0.33796918384779584 0.2272863353519369 0.06468410387486973
0.2538459434843292 0.32707843341932263 0.2345472984126981 0.06867441574753824
0.2503045159144247 0.23178640743711046 0.2035867057375784 0.06807189464889409
0.2515445051516035 0.2109869372194016 0.22522455026738664 0.07680236244331298
0.26166787486014936 0.2173136920583067 0.27358363440339356 0.17863993481782098
0.2608524964144794 0.20611534212153249 0.27533510717842963 0.20723678381365795
0.26537160272201366 0.2028823436352363 0.29934321313481527 0.1418155665537596
0.27118925143597294 0.1967681681837853 0.3296345084753783 0.09068525320095563
0.2690427221312198 0.20077126293221093 0.3179021152419797 0.10490717412166986
0.2698151794987094 0.18452147419233822 0.32833922978457764 0.07721946539005912
0.26356191871436474 0.1918397239567387 0.2967100578976998 0.1430892186412428
0.2673870155767043 0.1873458661594911 0.31585699049438803 0.08715762323607991
0.2601391829453333 0.19079778501474343 0.2816153498840086 0.16627845762910426
0.2694018698507623 0.2188867873365312 0.3132877644056785 0.13747103383814702
0.25736198298950685 0.1968237397354905 0.265104162406882 0.18553783516746966
0.26283648301326856 0.20130441479360678 0.2880639296678087 0.16152633308097844
0.25560464453747905 0.2012519833408584 0.25337482142099466 0.18785223974017684
0.26745361457965333 0.16374066835167853 0.3277310945122138 0.06627942495214562
0.2668815347924884 0.17453995701085662 0.3198497417933231 0.08173979212572331
0.26389704876391296 0.17075048601493328 0.3087829351850353 0.08815877779953774
0.2607666651043605 0.1610326462462628 0.3022038939009335 0.09802643343886012
0.26079225039581977 0.1814720556827782 0.28992175865032843 0.1417365259871158
0.2637872242406808 0.15986711103490042 0.3149396773371555 0.08047705945367964
0.2587265430415099 0.16547348059743155 0.29149619198309423 0.12240223413508249
0.2574925253336957 0.1509173323823459 0.29588171500656263 0.10624326424371788
0.25906932588996723 0.21983017347261424 0.25880521011572744 0.16283916377201296
0.2685374397613421 0.22995556269846612 0.30731906022754363 0.17131955656733763
0.26575056189410645 0.2213817087544235 0.2935806579012479 0.1598202945499916
0.27057777148876183 0.23256493250441335 0.3183422278166236 0.1605151027493144
0.27291381211697235 0.18990176167321166 0.34050729277562414 0.07375464947497776
0.2699097399465532 0.24478012088213547 0.31438508631765694 0.16797106607275647
0.2724500298080611 0.24150642724175447 0.3273873426697502 0.14510324435275618
0.2713760256670341 0.2690104422116741 0.32811101702700596 0.1828460513489352
0.2701473647933925 0.2815049571217633 0.32718060231311996 0.1752944502734661
0.2690648439205304 0.29557448062125513 0.32984068731895716 0.18450031927335991
0.27103530198930326 0.2959538738014329 0.3430065785292612 0.21136204456175176
0.2647908881188079 0.3138811537211279 0.31618408701043593 0.18019169814403896
0.26780277072380954 0.3086843576923094 0.3322042811310627 0.15759755782347915
0.26487305904720915 0.3231699495149142 0.32621870383328205 0.17238179447236107
0.27402228840416815 0.2502899753027401 0.3382942042965322 0.12304280930363515
0.25116136218212387 0.14911284617153364 0.27428599829568745 0.16159307556186223
0.25372139816234207 0.14439641156915303 0.2863873112057045 0.12721859049574266
0.2546504032749357 0.15934383149457362 0.2798204385720041 0.14724797376803506
0.24834095522758454 0.1555024067533955 0.2585872023588464 0.17075888602249356
0.24932163792952497 0.13661191366711645 0.2769388427273288 0.14255689827384865
0.2428624037164876 0.12837910350273973 0.26312253709038935 0.13362290101305505
0.24066154740452736 0.11466463242587349 0.26916886613312724 0.14926862360266324
0.27500400128426816 0.18393480733573842 0.3527849587293411 0.05743243396557563
0.27752542585844353 0.17693278961318334 0.3655947980071267 0.04302143981131003
0.28204252531235774 0.1814946260714433 0.38490825068146234 0.04054596819446109
0.2814900946390565 0.1927626562914927 0.38026256631129035 0.04474113893580439
0.28408316910923825 0.19318911432729854 0.3922408812244028 0.04547215623746573
0.2886568396467473 0.19639354463894806 0.413661704129686 0.06596040144407785
0.29162604224670513 0.20473157069530096 0.4272001111191764 0.08688782616528165
0.26603363450926976 0.29552554378140267 0.30955828764615073 0.18059928722303217
0.267438924460289 0.28280652697069775 0.31057849124644366 0.178481460707716
0.26517270239978785 0.288513989770693 0.2999068505626048 0.142787911567159
0.28775663724282874 0.210441277729333 0.40797911683819227 0.041618147576673
0.2945076520034705 0.21022097533222217 0.4404501684776135 0.07528242232379169
0.2971728690255153 0.21797861075944283 0.45378236845819164 0.13799821708985635
0.30116934787852223 0.21375896769375657 0.4746400723758179 0.11327989711625219
0.30042572528973144 0.200886881998549 0.47880276690439605 0.12472057714428686
0.3017188797607311 0.2220718706291367 0.4945270680139483 0.06553213439936847
0.3013618995035157 0.2116081582245584 0.4881846156500811 0.1000245390138316
0.3009106972567725 0.20244416517078645 0.49461801858094556 0.13230465843200934
0.30042578590060065 0.20992055076037985 0.5050734904795304 0.11666103711007184
0.30076943253559124 0.24214924726484208 0.5049131428438054 0.00959293868063411
0.299762556847789 0.22630514302237115 0.5107186061954827 0.0756235088946174
0.29819246371940233 0.20411606811092925 0.4563750098915836 0.1423088637703296
0.2966627989109368 0.19333147199431022 0.4484366866766011 0.13717325124327467
0.3003578690973562 0.1907771075527681 0.4959273772129671 0.13706846662943561
0.3017994281067302 0.2277928451786535 0.4840997860744708 0.0027083593467218353
0.3018087111443343 0.23480919139396286 0.49502132880998406 0.005452181533386114
0.29449872605723865 0.18053093412272753 0.43849306650990444 0.169983949435377
0.29298334150110567 0.17057725219444086 0.43140074032719755 0.1423823737511652
0.2994581540163648 0.18766117691857823 0.48506438870683116 0.15524335054409139
0.291754642123313 0.22566705722129407 0.42777065711854373 0.06895863942811317
0.2823497752113503 0.22336040283944913 0.37986339554617665 0.05383241732701446
0.2848962465769183 0.2130375914987934 0.3936557595000735 0.04280585256534567
0.27925647575308704 0.2242325328404651 0.3635040446434469 0.06610566040350742
0.2843980290315036 0.2257010898885787 0.39059713544859537 0.04545398869533858
0.2768356674955402 0.21223270534555744 0.35286099002840815 0.06704769397031698
0.2875756133261576 0.16141069859477047 0.41025055709751135 0.12059173435104649
0.28754931203518347 0.14826614147842546 0.4106363008186737 0.131129596886358
0.28263284573090514 0.13648166193949235 0.39403111163705606 0.11752692116050395
0.27991966247189304 0.11794213311315047 0.3910674203370566 0.13310646947875726
0.28379449963940995 0.11547289412907039 0.421902561516572 0.1574082634905236
0.2855667700277478 0.1314609752514759 0.4143230395094141 0.16169094112812432
0.24813223096639225 0.20727389672266722 0.21075104547158066 0.06366285825282764
0.2546684164646347 0.2520991764518537 0.2227832258951577 0.09602590070014151
0.25400118946543304 0.2627567679915589 0.2175191593160986 0.08720185363899183
0.25478894979614386 0.27507754662547834 0.22075289194252656 0.09440438619536123
0.2565383042849018 0.2750012945011006 0.2348335968735144 0.0904016752511639
0.24588887453145042 0.11949421539538457 0.2796767647647208 0.13508822701503956
0.24811483285402333 0.11197996827378287 0.2910997648974427 0.0982429389761738
0.24351087643895009 0.10323141142252915 0.28494737075761095 0.10437196537347905
0.24933280116230383 0.10000752880497868 0.30211792907603285 0.07571608751677097
0.25535831438409246 0.10115233530206033 0.31822764397982495 0.05520972283974594
0.2550923502346348 0.090214152122891 0.3239653176179905 0.06007576035329502
0.2637093738000241 0.09085896782117811 0.34679524191561445 0.11040471071882232
0.2690345890144811 0.10117196395055424 0.3577580835733782 0.13040850079017444
0.2691895237604044 0.11265114250362747 0.35410101734249244 0.09803878739607869
0.2738678011164488 0.1239894892412367 0.3655750926318836 0.09129901870755795
0.2641223492358049 0.10742691206077082 0.3409656487005715 0.08003985647002254
0.26712298678071456 0.12060176755464468 0.344369367988452 0.0499152362681931
0.2645639413651071 0.12659547112210862 0.33372125287037835 0.04433345188779494
0.25555494686293706 0.0786894679280279 0.33156932945194223 0.11978468505591129
0.24889449636416622 0.08475581215638561 0.3111974671118395 0.062490837689998385
0.243047420637038 0.07148051919360518 0.30612092949862413 0.07905071547521167
0.2533773645821242 0.10951798410054273 0.308033525055197 0.0657641098629023
0.25908942159182796 0.10960776766986924 0.3243588934851267 0.051658427400628856
0.25211617305018325 0.20120774798160088 0.2361140636024041 0.12309156659196968
0.2469273240658316 0.2657071169830199 0.14744484895324347 0.05727149900974952
0.24533878941653056 0.25380921797249323 0.13485912908807962 0.05609923470294091
0.2471069867620409 0.30138996900539505 0.13631762317671703 0.05348959201889331
0.24877621051618984 0.30733511717963824 0.16234813690750263 0.061599823113368375
0.24791169567259147 0.3032965376480974 0.14901962914241587 0.05232729830455303
0.24711482235406484 0.31280045924118716 0.13462397473935067 0.0523091395946178
0.24703550273655345 0.325179618398446 0.13590461272545387 0.057494784331096886
0.247766417877627 0.3140116483794084 0.14605976680634197 0.0510941370880765
0.24821564228314663 0.33080618947040763 0.15822998011871722 0.053554008820780645
0.2443902357763416 0.23447193657922316 0.14879049504573513 0.051240058014109045
0.2472395457648911 0.23704831648387859 0.17529408874222938 0.0582963665994643
0.2994624408455364 0.23783341203071096 0.47208711455640473 0.04282175972174059
0.29666669103073334 0.23560977983403583 0.4543646184395533 0.12386677405237542
0.2988669477517436 0.22417649279750448 0.463862793219162 0.1033177734477851
0.2474570699369368 0.16454050120556696 0.24769573781051016 0.1613720010087586
0.2513494236501651 0.16704199868043848 0.2607379034345064 0.18106189144401472
0.23068594798453285 0.1173759045615359 0.24269668979333678 0.15910888916506172
0.1545011724210013 0.06877630664001029 0.2435599507166843 0.1614482183308244
0.15418161446406584 0.0582553295869728 0.2549185762679115 0.10900057059591092
0.153148567396478 0.037824750525545056 0.2757810578028496 0.07488922966997018
0.161286288109259 0.03188466446142005 0.28208784900900813 0.09010691800189646
0.1412551879556716 0.04612003105691317 0.2679030205250831 0.0725450775157226
0.15069082502297976 0.028592562000121273 0.28510828715033787 0.08747697426707153
0.13844264193384026 0.03393878696911824 0.2802776053775211 0.07872494620178305
0.1303780626185616 0.054542186578255984 0.26092057051007456 0.09913700525859283
0.13711916595378548 0.06245741231275682 0.25106521132953585 0.13108419851992098
0.12578240034285315 0.06744936924906017 0.2476443983337888 0.16065805289184576
0.11596330751506703 0.06296047731058893 0.25542468974208343 0.12320025556851168
0.12667539653709392 0.04708543496245267 0.26906257790910104 0.07797881185053927
0.13514358031584708 0.024888648124155387 0.2898627366235346 0.1276883889039243
0.11524401348757947 0.04144568795242937 0.27775491689273796 0.06523139580954006
0.11984423344676565 0.029676228683885943 0.28806520611336267 0.08241479326629599
0.14597615086137114 0.02058671008825376 0.2936428824400762 0.12888569152358936
0.13795030795814384 0.006620170699915492 0.31781458534150253 0.1382403866091131
0.13297156158402385 0.014492760666187873 0.30562261807439706 0.13518216729724752
0.12690790392116 0.009753809281348193 0.3150018006265157 0.1569904511231272
0.15355013043832866 0.006705788695987489 0.3166706680574916 0.18307400579647545
0.17214222639170568 0.002531692200303925 0.3270177252791746 0.1881607607101267
0.16252385309477338 0.013038469869904423 0.30677520161781374 0.15501803817870652
0.11720973479636373 0.014180514177785777 0.31055779677861695 0.14597711207390415
0.297642214205219 0.20711537629720286 0.5173115478846337 0.07739075880227832
0.2964811210914858 0.1776695242908437 0.4575391844825756 0.17331445640429236
0.2983449863499671 0.1815305974984827 0.47467564287662034 0.1482639902991873
0.24020438424058033 0.27271561741781053 0.008795203437424026 0.10229134479374462
0.23687909349014016 0.246257468962313 0.005116851175080395 0.10092859405314757
0.23590100778577838 0.17691381562644137 0.18438181271598617 0.1381863704993994
0.23088340199616103 0.15901966856245744 0.19251692538431797 0.12811968703098942
0.22251181366268644 0.14991758285222762 0.18206814118608677 0.11805878290881962
0.22622702217723 0.14840096591438445 0.1936931504572707 0.08938223452752984
0.22438908634964533 0.17195280348390815 0.14129112267778665 0.10545975247658902
0.05418857097483404 0.18192917228143732 0.23230957159772914 0.11898073046517259
0.05458215884622391 0.17083715893167556 0.24123273583020616 0.1392790006646806
0.05718630344946264 0.1803594904939084 0.22126395906249674 0.12545389129672557
0.05716488633434359 0.18843915823421076 0.21325260792548784 0.07567356174382811
0.057573494885137216 0.19632838131907138 0.2018781632239828 0.07607367657138017
0.05576908340540965 0.21665820440095457 0.19033400669512535 0.0649463017400351
0.053435421474233524 0.24975578635141094 0.17729169981381465 0.059866427042248344
0.05482662622756973 0.23774054981569404 0.17420341981266327 0.05892296533661605
0.054106647264445314 0.2562981204791878 0.16675371194365485 0.061693177573548454
0.054002110425866084 0.2665704945186357 0.16134770612737276 0.06123005085511104
0.05451969131379392 0.27490199525111914 0.1517563304977064 0.06201649863833016
0.055110319288986076 0.28246486349910993 0.13778148408083685 0.057181015053355495
0.05612447973630321 0.27259765870323904 0.13000404751577366 0.062113325675711935
0.05647746803616626 0.2764949547171269 0.11685818070044786 0.05176730128887642
0.05586983532090502 0.28470945049259033 0.12497407053260629 0.05246823605072112
0.05878009470492808 0.24658094584968446 0.11358165154327837 0.05050634065274507
0.057733839336971696 0.26113058247570875 0.11211997507272617 0.054018882926766355
0.05751285832244406 0.2760803730099451 0.10133533968539823 0.05465707169217422
0.05732451959427216 0.2875128749788346 0.09493456947268422 0.05435287594475573
0.058013593478824045 0.28890294965781227 0.0784343956559532 0.054422212980352484
0.05743247661809746 0.2963819657784187 0.08751122284030481 0.05367221037015589
0.058675492097418305 0.2429462147205281 0.12661350844623076 0.05529629521091223
0.05966021811189495 0.23171677694875123 0.1307703094559648 0.05571004700123831
0.05893200258558645 0.27964370862989507 0.0669660783514153 0.05486471893953961
0.058527208811684044 0.3143593641285306 0.06000594706769184 0.0483499721875172
0.05687474384338817 0.298640598456186 0.09937309273026909 0.05209948005046454
0.05814167152630844 0.29781874464155056 0.07107435835273349 0.0524902297050831
0.05871088162842672 0.3292436391537139 0.05370800307673924 0.055952333090933525
0.05786155841180049 0.3097273769242528 0.07561519537127989 0.0487908075071882
0.059135815448036616 0.3236029345010175 0.04310326017028311 0.058544212800918864
0.059211792728184644 0.33664599149572266 0.040671632780104806 0.07059033244251252
0.05957959858201213 0.32538571150516565 0.029252516733039607 0.07138793208337017
0.06009619196743571 0.33820553286521254 0.019780069741179185 0.11342930310037273
0.05904961747249829 0.30501714697002746 0.0475229884088234 0.04749440895905569
0.059523728081708915 0.3136960388353353 0.03334223710899588 0.0635981239562527
0.05964536498414275 0.29355379143723853 0.038447580598467326 0.048411667714236974
0.05695257810037094 0.3403856095697835 0.09401906711815955 0.06104685803161272
0.05774441652469721 0.3375733150402206 0.07559923905436672 0.05642129087492405
0.05707051729825084 0.31229697388751776 0.09358514909045099 0.05388065532444533
0.05741981952129242 0.32179403638434656 0.08456337279803317 0.056754086159999106
0.05655742042139654 0.3287928409354086 0.10429606041940528 0.05563797290834335
0.05821636495213883 0.32640021787813367 0.06541343404284027 0.04856229177418972
0.059895182161704134 0.3018353796664974 0.028692245119321218 0.06276290207792129
0.06006034145292598 0.3112198711388093 0.016664683853603025 0.07677132173182738
0.06061589301130979 0.3282977368253751 0.004979035813197384 0.09401900754632955
0.06001056829503246 0.3226444399165428 0.016588436604276075 0.08274299865345719
0.06021827905568571 0.2922747096362977 0.021755180258420923 0.07459611520428332
0.060247965886960124 0.2538157859032811 0.07454537888710165 0.04909652940089827
0.06158623831575163 0.23758527706644952 0.08777093598801304 0.052008837394935385
0.06496323694043171 0.21728695194938094 0.10148769249160652 0.0523711554026459
0.06407723446215335 0.2220157475072416 0.09115215742717664 0.05233515304333308
0.06256880509621313 0.27767014006991597 0.004096633727710508 0.07653645676095906
0.06221070751058918 0.2887156839830881 0.0034134394176107384 0.08196194847091956
0.06305696468049904 0.2641293721587708 0.0051062421421126936 0.08618414672591962
0.060710253461110475 0.27729940602783165 0.027519022980649007 0.06196815190361321
0.06212503666178916 0.25215990550522116 0.03628028898899385 0.060219850275921895
0.061902864206285185 0.247316520174441 0.04742003768831301 0.05198639305808568
0.06362899970625047 0.24540864588177191 0.025408385411508964 0.08427632388419412
0.06720596099558324 0.2061226445902632 0.1101481840939717 0.059488260838192315
0.05244778568225855 0.2662673404315364 0.17860438551822005 0.06312500694648679
0.052183771921062036 0.25707759075412545 0.18562005073928137 0.07102762095130952
0.07503032364283085 0.29298572154358593 0.0015368771203327126 0.09772687355079283
0.07952235343448846 0.2565914901240956 0.00201642456595133 0.09604122595055861
0.06902260893566672 0.3028750272301646 0.0015746089715794186 0.09264579819257272
0.07628158221313545 0.2807370316134902 0.0017074178303350675 0.0938557227284847
0.08228119901179543 0.2445846087161992 0.0021295148787404236 0.09460509798602106
0.07422007024945129 0.22237012801070438 0.002833844417557847 0.12853260792776955
0.08105973732191601 0.20166190604857548 0.003915111327075037 0.104479212630369
0.10476374097160393 0.18659633971791 0.00257989283279382 0.14027352225135797
0.08756654723839234 0.1905947946262337 0.024024559817645372 0.116004667711315
0.09629805525222683 0.18677647917021942 0.009495972418059462 0.1423767991203387
0.09725082455916559 0.2182625335162357 0.002071263848605052 0.10728966931356854
0.09949864235955197 0.20551642381412477 0.002218719920001337 0.1378085679540882
0.10342336264368933 0.22997646173383784 0.001647320058890654 0.10968577960967532
0.1364552743193216 0.18146272461748614 0.0020118995139086016 0.12574104263652355
0.15833289121199903 0.17923170663262925 0.0030938646974769737 0.10798184434233632
0.17155959246831068 0.17751399380300883 0.013951812406637887 0.17846775246003477
0.18068845707410924 0.18026990901159848 0.005976682456283544 0.14157086947103514
0.0664740827356849 0.23201265987213313 0.0078264692122448 0.11623183308478252
0.06740869255411543 0.22518349487183517 0.01898668094074161 0.1021252286506076
0.07147863913067828 0.2129368955607083 0.015651551148318697 0.11668315721069754
0.07548940514999486 0.20365116807054578 0.028192802805570127 0.11600602079978406
0.08920490311312582 0.18544454810732997 0.04796545040868508 0.11763267427761023
0.09437908377910825 0.17917103775194704 0.06039578871832715 0.13025800589658448
0.10282790499217184 0.17251313723030925 0.06753137288124114 0.1374652859857782
0.10422547487485173 0.1679593150322658 0.08110434377738118 0.16754422792342363
0.10327368791887771 0.16529978254804045 0.09319205277544905 0.14367340881500656
0.10926893316161868 0.15940107323021532 0.10208277142580532 0.14695394592859543
0.0915322402365041 0.16720590423683432 0.11041486521264293 0.1004359712307926
0.07552534844017256 0.18522861044916578 0.11540935876136652 0.08009282853366548
0.08076981849623842 0.17542474342272568 0.12115537934183937 0.08595419514080264
0.0725029014159209 0.18780826219444896 0.1260540877004127 0.07615266644487566
0.07097875476623672 0.18661574036721956 0.13774571472552588 0.08135019036031549
0.06702737334127579 0.19854921370848855 0.13410664059061225 0.06106822039635059
0.06464591268311909 0.19901882310888214 0.15204575222358369 0.06151610215940105
0.11622497292011043 0.16334578626263763 0.0821722018147572 0.16990346924007774
0.13335495526243987 0.16017989600874366 0.08207554818967976 0.19888669981218327
0.14601688089923315 0.15393165032798442 0.0973899848942769 0.1751939375508624
0.14973146667523024 0.147157960678232 0.11648833720106413 0.1714775061519969
0.1488837752396798 0.14215017294168267 0.12865494247601614 0.1259306968614782
0.1281921803135807 0.16572389426824438 0.06431225918062085 0.19261513184750068
0.1148806433380389 0.17168638228873842 0.0528994239980351 0.18337601254339347
0.13662951586169692 0.14310509133124286 0.1286258028714855 0.10948160626139897
0.15102935310847715 0.12420251482012062 0.1662164335120501 0.004445034133804634
0.1634942010123924 0.12270752536533786 0.170282380338313 0.0040657922341651494
0.14803595173018347 0.16073005808033305 0.07547880249185007 0.21895432799837508
0.1635523266766148 0.16691914497046378 0.05535861738114526 0.23459492788821557
0.1697938482089955 0.16344584105811594 0.07040545731820735 0.19876678759948102
0.1842763146274492 0.15753490005418322 0.09886008304860712 0.1847297837881986
0.1692057215230448 0.1475964271714837 0.11797493948253991 0.178347038110218
0.15145555745304176 0.16379811540451827 0.06487764675850557 0.2338727409437797
0.14933764102561364 0.16654777715594143 0.05423601156790754 0.26102302871682354
0.14657652464433987 0.16977483300576668 0.04229013406502387 0.20522846280660145
0.12214656511130517 0.17504635056452483 0.032235825931525575 0.15414694504266924
0.15431413178823045 0.15758763790204883 0.0862105862529666 0.20724935678196793
0.06422767030215988 0.17171435886577022 0.20196326741602955 0.13805107916429846
0.06294211699519958 0.16408940290029156 0.2154633825387409 0.1409753458014767
0.06713079803928193 0.15806816827541803 0.2065136239867625 0.09042441088703652
0.06974295996909734 0.14189977928600034 0.2193239745494043 0.03487561284439717
0.1288242002893802 0.17125310464704102 0.04383472318443252 0.20119656583476236
0.1100002912481454 0.17739246369022552 0.034551402372900684 0.1625771556064532
0.29163339314341835 0.18971555009378305 0.42639024210433973 0.09474044570396527
0.23448528591746098 0.2046799748772291 0.10898105769418123 0.058994003071993956
0.23655244741385767 0.2057856178725988 0.128148968915359 0.05437330704448262
0.2631971232806037 0.2811283342730075 0.2823647137005056 0.12615267711853673
0.2642346315957361 0.2629519670704876 0.2832537130184595 0.1321621826317336
0.2653411809313652 0.2739213928837623 0.29234050714532356 0.12283815886806015
0.2608838205990039 0.265402689739021 0.26263237450265736 0.11804448810691592
0.26106247565644103 0.25446889906009373 0.2630621900770468 0.12336604066021
0.2584156032478476 0.23737903379795686 0.2495400794072692 0.14326040487179836
0.26075665007114873 0.24217615403303464 0.2615666191667516 0.17462122396566584
0.1710534814900147 0.15658669250665846 0.09356980770874958 0.19495334752449817
0.17085681110538592 0.15215776522407976 0.1064370265941524 0.20774330229175864
0.1718172491501523 0.14379168154970212 0.1287023880835707 0.12255561950925314
0.17352312199597153 0.13526372498765366 0.1487789383877964 0.047113003804393525
0.18686869652484886 0.14470940018835754 0.13542949705364093 0.12682362441719214
0.18703928072359483 0.13679896458042767 0.1523142699979091 0.05286419373110779
0.19793765064749785 0.1394200635915872 0.15693486893117065 0.09165489024447772
0.20702296283736488 0.14226824437026367 0.16347533699586486 0.0826661270703865
0.2765251519777161 0.11070913123010219 0.3791993360619856 0.15017972421133727
0.27204495463102274 0.09906057530413517 0.3684017316571917 0.14641626519475456
0.0636520162411093 0.2292693633850044 0.07532103324624367 0.049604585550634156
0.06838209122674835 0.20915074726826852 0.08650217202930666 0.06521559929969023
0.060414201060250305 0.20941823644976146 0.1651742734530374 0.054333725796324575
0.05656018518819944 0.22632024090490357 0.17223643163320737 0.056913259150066994
0.06318462565859503 0.19360228933383833 0.17234036804662864 0.0708477200341604
0.0695311050411578 0.16936311490122355 0.1829040569460651 0.13176913659292241
0.10274483990779376 0.050500813467162405 0.27418272022722456 0.06367230841372763
0.09270402927485295 0.04201531885452299 0.2881661284737893 0.08501213445202371
0.08779989943216165 0.031342063351976354 0.30153484505467654 0.09938614574306187
0.09492475677120607 0.059342205767176304 0.27082243988829074 0.08103909406555636
0.08868235672258507 0.06789793359076728 0.2676480298006034 0.10089999276691702
0.08749316034059798 0.054983532832634394 0.2803468440613952 0.07449366356261616
0.209319784058263 0.18615013218406856 0.02985442072691572 0.14088691307143503
0.20096875532320732 0.18009069857024138 0.03832775449651847 0.1593666877641032
0.2591269915851835 0.2961759913590944 0.2603816405520696 0.08819723185420907
0.2582952891867175 0.28794420454718017 0.2499895759970294 0.09064723560067407
0.2616501968768552 0.31030735083946015 0.2900890720966306 0.14476721521671435
0.2585762903739857 0.3105367240647774 0.2660691990261326 0.07521345364316312
0.26164323350800256 0.3001629732465555 0.2825306501572999 0.12770993892591154
0.25987592729000714 0.3222882126337506 0.28597493390522477 0.15738831558772595
0.2627252294034976 0.3177224487228305 0.3043951154449247 0.18313081940046794
0.2609178149814788 0.3298813067317679 0.3021882827974914 0.18247420621086546
0.25775440667580907 0.32678308024503866 0.2714747213543443 0.08279220954666612
0.25873931362942837 0.3374904739662369 0.2928209609389102 0.1441669586377979
0.2570173190011502 0.34003217346608827 0.2771426514008634 0.12123952230663221
0.2625548036993209 0.3350327205289443 0.32082353303387634 0.1265175879839218
0.25583478625499373 0.2926711630280885 0.2338432755784548 0.07497182163620163
0.2551645271853832 0.3057552753897822 0.23158580272639445 0.07226678800926252
0.2567475518767928 0.3013656519169411 0.24403503937342322 0.07817249574260719
0.08470028713447668 0.07771524571450233 0.26225104048168096 0.08625509924829004
0.209449802920888 0.17710253786355196 0.07252839805159936 0.13925886189289355
0.08806451155495124 0.11614032534550084 0.2143132410447763 0.00867977513819181
0.08298920545340299 0.12965782377621726 0.20515254424751017 0.008141202133719489
0.09080733469748581 0.1233107922633616 0.20105240297743857 0.006822314747079122
0.09613748216370269 0.12694563178796447 0.18883960920683265 0.012182558089583446
0.10747689228232021 0.12370581411369502 0.1825645748471289 0.008000028849826844
0.11857164659428512 0.11765896546981189 0.18552778786655524 0.00845660460822235
0.0847542878827533 0.13742666699978778 0.19084770094538958 0.009615359394306303
0.10414717892280972 0.13270149118758695 0.1696519307734874 0.0452625231526601
0.11341402668704666 0.1272585340345107 0.1720645352138501 0.017069369292122764
0.11257505486686961 0.13409507354138236 0.15974354009926672 0.055936297094629585
0.1262534397464515 0.12661976611927198 0.16647930224050578 0.011660752962252451
0.13872435647558592 0.12725225445593327 0.16220955792544794 0.011754090578871305
0.09343370171181399 0.13563205827984381 0.17824198012610298 0.018473223737004753
0.08861337111895065 0.14507244433702327 0.16994088400978977 0.0775390673180711
0.076555229833986 0.16246445355139733 0.1680872241779001 0.1319604416023757
0.16382523361081483 0.020444292144251884 0.29467212014255495 0.12847331301162082
0.04631668995474847 0.10819877578223454 0.31500665076975276 0.0551263974145347
0.07718310464551181 0.10923913133566208 0.24019146090192725 0.1361019713464308
0.0739454622424489 0.12239083695352768 0.23177290601805892 0.055568840092192005
0.07329555266476129 0.14888108309891324 0.2014234491200479 0.08776409791696922
0.07766383514398369 0.1286222550064698 0.21699245958456237 0.007900173674822864
0.1957316823602891 0.10114067636476755 0.21544092544129917 0.007457468992164049
0.18677107217031855 0.10479441056344194 0.20579220212599617 0.007130520660609159
0.2962462202992449 0.16634911560090632 0.4719754443284421 0.1661876934792634
0.20576266118691258 0.13207946566579115 0.17974536062397334 0.018797475452131628
0.07497608367768271 0.17173185184509643 0.15470923228836206 0.10718332547048512
0.06337064816621485 0.21228701702135505 0.1332185922838529 0.05566305315276257
0.1490798469618764 0.00023699101728842837 0.3276698561821986 0.12756432526385292
0.0791178223878042 0.18780914438856225 0.08407832934971983 0.08552577206200541
0.07515734374634603 0.1965717438121377 0.07584886507484609 0.0929242095091617
0.06799399240812135 0.21473336611256483 0.06406374115599993 0.0609722823890862
0.0643237418458561 0.23250938135587057 0.0478693580187258 0.0582130931776661
0.09633080392574808 0.16009061791887347 0.12008527840561875 0.11750247755757909
0.19211051558206096 0.17892991567106722 0.027163649702225012 0.1784809044894517
0.08680594569528273 0.15674815667695563 0.14966139299230855 0.12880855378916928
0.09492720022551296 0.14540293111171512 0.15865970684157427 0.07867626101177193
0.24359866611363853 0.2122933819000718 0.1756543955584514 0.06007239218831367
0.24366262435390218 0.24047328394345358 0.12934370683752272 0.05768962654197675
0.13788762569810886 0.13876838842702693 0.13893919264452712 0.04937317826191771
0.12480740949759153 0.1448052101814738 0.12876666748556465 0.14348409762320452
0.11437477309249608 0.14543839224660213 0.13424190378639914 0.16503392501728933
0.12454230483253373 0.1399151432940401 0.1405290300979946 0.12337831276422472
0.15582710646009887 0.13847321613527036 0.1373686039702701 0.05593318770407776
0.14767110717250997 0.17690690763067443 0.009581868552001525 0.14450285615134176
0.15939719117018217 0.1759731857090537 0.0156528953550866 0.19636442294428022
0.06740004249746594 0.22257394882928846 0.030541678318186306 0.09067933141478779
0.21659498770047939 0.0761311205061297 0.26328020951783326 0.11716672189432231
0.22400239460718785 0.07526737838569646 0.2726619993122689 0.09067257069909544
0.21042701377300727 0.06641621196014932 0.26636644865272724 0.09988990021974281
0.23063494660638983 0.06619787670783189 0.2887149043459557 0.06421315906277823
0.22321757405944498 0.05607502294961668 0.28768105737837085 0.07946946434899768
0.23429132015744797 0.07786406724594608 0.2853089263136189 0.07743030709195033
0.23778631388608173 0.09521582707339807 0.2785777477534145 0.10204986851600226
0.021744225784421256 0.18998639395419784 0.37456483753791053 0.04715379603498
0.2618614633614263 0.0773260067830862 0.3497680006111884 0.15610967531229103
0.2734404542108898 0.2032440003092546 0.33844188709173606 0.07990311572742022
0.2786375258013669 0.2047019958991726 0.364169495827563 0.05309897103094054
0.27564709630148493 0.20001894062938053 0.3507932093808353 0.061265712332298314
0.2815953964321574 0.2049245519179212 0.3789251404095854 0.0489286670687018
0.2593332068065799 0.12354176296782375 0.3180252164287132 0.056616791879550855
0.26031251681440387 0.13685851335585025 0.31430758265504627 0.06574390337468511
0.2551960587750951 0.13132226697429614 0.3002108430636007 0.08272544899137188
0.12076822033129904 0.17852121189601516 0.015611997198153715 0.16935893840854244
0.14207649750012025 0.10582989446590836 0.19715416010880393 0.0031998764020633123
0.2770679519404907 0.12300239554192281 0.37659205823099856 0.11765408691922044
0.2788723621944549 0.13482225750570398 0.3810001171946139 0.10337758477593569
0.2791983070291383 0.15614254585373585 0.3777119337467273 0.05352982650856553
0.2772323667942467 0.1431636395206911 0.3728355605355131 0.050606665386611946
0.2815717777993004 0.14649513550777765 0.3881609337888664 0.08631983966275995
0.10776594890790175 0.034169735885876754 0.2876096325958321 0.08345483540432459
0.25178672008020914 0.06886526145878341 0.32799825616327244 0.11426025504484329
0.03147350079358749 0.24162329723789544 0.3166052503996709 0.18226343962313213
0.03033941135285974 0.23129596904834412 0.32319684409815796 0.16350548204210338
0.03578239651220618 0.24845536966968823 0.29261127931369413 0.17705434143311263
0.03710869348357528 0.26946560831160254 0.2879475585068926 0.12843479004923283
0.03851377161423281 0.2633857820605278 0.27841431627902324 0.13606497909749216
0.0421760643098838 0.2609599358406562 0.2545146728439331 0.11601137933176978
0.031844245585660125 0.27162238140196915 0.3218981270932187 0.19956869688474685
0.033081008644993304 0.2635110844420742 0.31052408111526697 0.1608566722902807
0.03038256432120169 0.2746692634539989 0.3324746847778661 0.17811942629792346
0.029210715193886343 0.2617020548820105 0.3342005904497215 0.1362592195535
0.22397300308022866 0.21136896093862975 0.0030117346244707996 0.12313360239378973
0.22596321644582182 0.20392787880027713 0.017684544384634602 0.13354000217002493
0.218103639217603 0.191819137997881 0.03662609877328304 0.09891323558229394
0.21580178108119843 0.18797492105348862 0.04700780490703352 0.1380545350240567
0.2311980454820815 0.2147856051549399 0.013528079394797388 0.13718241880467036
0.2277803666293406 0.20553343679416303 0.030521905612886306 0.09698958627813786
0.23180488919764908 0.2154495795235239 0.025336170878670725 0.10114856785348389
0.08007100180052376 0.1982417192990355 0.015649083815922855 0.12266162578769321
0.18343489004221092 0.06850652705352776 0.24880953828727514 0.13928633073311877
0.22818955183920142 0.09652698324764052 0.25924889029486037 0.15449893508688406
0.08147515819958248 0.18981768890041986 0.06730259786574165 0.10349555463459886
0.21907402672565673 0.1958998248694829 0.011660810666883747 0.1500644493649826
0.30096000085846064 0.246627577765329 0.4911039630709664 0.0026015874896076845
0.298836323585653 0.2669093481077832 0.4938069821187562 0.030608710061052435
0.2974016393997632 0.2775405277225666 0.5059707702729707 0.030171327143839473
0.29951459457751917 0.2619106039299896 0.5040020161191431 0.023868674890054616
0.29547239430893657 0.2912997328931051 0.5063972750293987 0.06658989553495995
0.29275226668439513 0.30434814927445264 0.5111402040598765 0.08748605434138572
0.2879033729743097 0.32641209837173457 0.5171307406274481 0.10265757273126838
0.28543545114215374 0.3369681508019703 0.5036985645927143 0.10528851925042056
0.29417207480840557 0.29023091863538586 0.5180769214237662 0.05389012159526084
0.2914746936311767 0.3108575943202726 0.49760256438752387 0.0883725786221092
0.28854641889257715 0.32058892233283465 0.4902503765402985 0.09044990158775047
0.28481762065810046 0.32768132693555063 0.4753950943651257 0.08778217665245733
0.2837677446065441 0.33880725763132946 0.4900997116806652 0.09607307463855315
0.2710034960399644 0.33861825304058735 0.3916187710837038 0.13925193833698044
0.26829319299901544 0.3311838295361568 0.36075807467779764 0.16241125089603614
0.2696197462417403 0.33784465262147706 0.38013659297951663 0.13215837191031202
0.27222051834901506 0.32665630345261704 0.3828016206210295 0.18560883706043804
0.2746306897941323 0.32311358401104007 0.39434784666934575 0.17069363842410146
0.28469474558047625 0.3333352682845617 0.5263823975035238 0.11047567028768387
0.2842020163223368 0.30450659345858894 0.5347519713826613 0.1244366411585977
0.2803713485934003 0.3157880974596496 0.538083517763631 0.13009607819630606
0.2891093867354845 0.31069427200177857 0.5249142749266508 0.09516899024477828
0.29509782905250226 0.29064103980184786 0.4912361852746626 0.090693982758598
0.28437303468740865 0.3235428604563018 0.46353395385632146 0.09704072159911095
0.2882879445261711 0.31585716688 0.4786063268591434 0.10752232277039982
0.2806581900741888 0.3200056637373808 0.4314815252699193 0.16599639054698573
0.28506397811677514 0.3138284895739332 0.45031765842729754 0.11369042688187644
0.2806237206437322 0.3041900350403772 0.4107058325902709 0.16744345005339775
0.28181670670191306 0.3075820281606107 0.4222327498942231 0.17928941325882303
