x y z curv
0.027274375716502472 0.1476505358208931 0.3621490831873204 0.18721326694140172
0.02361217873286688 0.15790489695806878 0.37387846335513214 0.17716602141661233
0.03362753247841731 0.1506508170046913 0.3368580348654906 0.17964053034523145
0.03282903765926238 0.13160493884715643 0.3478823014220908 0.19346042661556465
0.031003615030878028 0.14241103359751012 0.35012738362969326 0.1768915224776904
0.010873651759276971 0.31100995606326504 0.4912734759411286 0.1588024148526896
0.0034098068188641167 0.26970377430275005 0.4939418971855717 0.0031191867074366417
0.0022188511920743495 0.25626765294435827 0.48855285728755615 0.0025067291728435824
0.006601374439134491 0.29137082959641264 0.49739246777801255 0.005655174622271978
0.01762369690788924 0.3391163899608711 0.4969366554179147 0.09082932116281091
0.010202814478311468 0.3042350738839329 0.5189805385745918 0.020340139890444746
0.004080839907267684 0.23827337479280505 0.5168296292971253 0.041751427902086344
0.007228041176242612 0.25954238986847106 0.5240222648845688 0.01847088074028622
0.015398360103505808 0.3084936932053256 0.5307456852982735 0.021183220409729735
0.01812947699804158 0.32330188977984775 0.5316021736772012 0.1453644803559399
0.01378579758995083 0.2520650375838943 0.533243809776795 0.016175985363891268
0.015088676452933129 0.28153061745425983 0.5342324647152047 0.018931529194958097
0.01783838687712454 0.263417489948311 0.53778967098844 0.015960840991858034
0.022838754298170356 0.27367003984277344 0.5418193436373102 0.02038745330493859
0.023744194820934695 0.2510439576750107 0.5425951461108709 0.03570426475278405
0.04375244625076205 0.3176071783742768 0.5521683045018628 0.14503289270830713
0.03403362084664141 0.3019488498048799 0.5482891718697162 0.1124644261151094
0.035087436656870426 0.322541765432369 0.5480659663381567 0.14907031844333782
0.032741108281242215 0.28839380860532915 0.547848436109289 0.10702568555847362
0.03296720179716327 0.27714691027974747 0.5479059120433439 0.11148447399307443
0.03074987948285195 0.2653358924330841 0.5469553230759145 0.12502542252681043
0.009787644640454148 0.24120965103311576 0.5280610979802569 0.04896796106895928
0.006322914314830194 0.22633439617429754 0.5217966318129531 0.07227853414641741
0.014749454966408986 0.32811145191360486 0.5201424891808297 0.08244023368504434
0.012393729776206952 0.31740537667706986 0.5185168765234138 0.05743739122316263
0.023099328659213228 0.29473193590975183 0.5411669016925553 0.07086877966717574
0.00845447866736811 0.2752052950880207 0.5245327029525766 0.013796179562528139
0.02469117005166429 0.320663180381029 0.540896424427693 0.18135961568548722
0.11160170734527688 0.10566719347569202 0.2073167285173465 0.007050627727178459
0.10090385688116615 0.118551504813524 0.19652080152507828 0.0092674523742082
0.09269918496898309 0.12615768253185292 0.19501954695216842 0.009616873108381552
0.08262129262189938 0.1411674737870432 0.19033292320170941 0.033004075510843986
0.07398345386175362 0.15039158204061373 0.19781773114206724 0.0809265354363489
0.07655130697965157 0.15235227732085355 0.18639215956114594 0.07539578465320354
0.09238359992209967 0.13314996395197803 0.18476443447167426 0.009634457048359949
0.10104405280910178 0.1300326659705185 0.1788340073313537 0.011854346919661704
0.10660870248765904 0.13265301214914227 0.16849200848264206 0.0073324327396968045
0.08278403571796963 0.1339465982397249 0.2005826334408374 0.00841156984421572
0.08719338003235325 0.12438430020371492 0.20576926418051783 0.006552656798494154
0.12304360079575456 0.12388610164944912 0.1731257841099916 0.006561672849034723
0.10120637736339984 0.1111071791495936 0.20714895068770597 0.010125913835306885
0.1122128955184482 0.11683727588781921 0.19034956959508284 0.009179980021929955
0.13116634099401256 0.11184272093483977 0.1904755022095509 0.004009476566291936
0.12913546098182963 0.09825355281711481 0.2105139369090067 0.004073796675038311
0.12375891974219741 0.10716847841221493 0.19945005132720603 0.006093520559840588
0.13485069028701197 0.10463989940777514 0.20016561979457118 0.004843472742137682
0.11761540227920184 0.1332605408993139 0.15844355766307766 0.007549627615972097
0.1452305267395657 0.12199938845524651 0.17144540259764046 0.0024816293139064403
0.13255262235284987 0.12995593129316874 0.15969861835121515 0.00533538313575065
0.14160054275460854 0.13534599971035724 0.14604411828419392 0.004435830185707755
0.14893225172052477 0.12758264237660633 0.16045100298453466 0.0022923168876509796
0.14480183068651256 0.11439669532537855 0.18411253664414823 0.003173040920440626
0.13030018526273668 0.11850837566854112 0.17961987639574067 0.004563510419169175
0.1429213329901262 0.0949801871778924 0.2128298662122707 0.003270441927778553
0.0884069024160648 0.11429358774621616 0.21662586277405785 0.010683965457905939
0.07480123503113731 0.1333915866064481 0.21782347601712346 0.006712509923583802
0.07031699126663556 0.14609317781890072 0.2126013197937562 0.0037353838417755335
0.06454429529890592 0.16222403944563224 0.21189663637135336 0.08702372205405483
0.06407448077800493 0.15539743526757493 0.22152155955891956 0.03475985424687154
0.058448515857891015 0.19665086753796834 0.19697828262008377 0.1429510628510381
0.057103199617963576 0.21034545296773194 0.18849473096553204 0.07971543201127493
0.05279086625293143 0.26313044684240383 0.17617793706733267 0.05823831922372463
0.05348525211363693 0.2886313195680499 0.15939770457944397 0.05952576106998289
0.053903064967824814 0.2978989634862668 0.1513708393290276 0.06109891856946615
0.05305812219818477 0.3009240306630442 0.16421588390907227 0.06257620543023772
0.05330874974527686 0.24918831595906427 0.17881370222316367 0.06374484503091761
0.05456222685379851 0.25186750688446136 0.16577852990222636 0.0574073814225558
0.054673142238100415 0.23777956530565045 0.17581602816280292 0.05678996383673195
0.055784069719907174 0.22560170347080494 0.18027435804517883 0.055204553635097846
0.05945756106176361 0.21326867796352766 0.16800651371636421 0.04932440600285459
0.05656560825963332 0.2298055105042297 0.16829096914045888 0.057104108542301864
0.054679043244937046 0.29260920972268 0.1404740911066873 0.05805085258634141
0.05353857143210761 0.27222856066157186 0.16354479101810432 0.06432730208668191
0.05465011285062059 0.26091595568565723 0.1577291866644629 0.0588239721179941
0.05437376875873849 0.2783360485820247 0.15014172953630808 0.05981517313483076
0.056256459186515353 0.2423816006041625 0.15805008827964573 0.056493882259752555
0.05817827096730434 0.23138721285026664 0.15121274159732015 0.05582153883708528
0.061593321348698875 0.20866726244231198 0.1574548166126808 0.052404951837465755
0.0659042323304581 0.19615725840612272 0.14907982702437422 0.05635243267814946
0.060685487032097404 0.20244044144239542 0.17654263850908894 0.06219189323750671
0.06331993943920958 0.1885414470350589 0.18201975455920655 0.0950052898090555
0.06697230088149755 0.17725085243284272 0.18011067785716378 0.08495223719899103
0.06373261816897419 0.19654693315744604 0.1658119811164438 0.06634890475924157
0.07134472605858878 0.17789968908714734 0.16015400320758388 0.09143664934774003
0.07082660276476588 0.18443384481898156 0.14564510937308733 0.06603408466155686
0.07676252624497823 0.16672786442553064 0.15867993912281414 0.1147291799840187
0.05660090312911156 0.24631805203987012 0.1472591297782928 0.049925603591883146
0.056344522237294095 0.25692445343824544 0.142151939002497 0.05169152313830041
0.06006382654823785 0.21956297958428175 0.14992491700367505 0.05062605151345688
0.06266972606009147 0.21247626671019978 0.13811053347911748 0.04700344176068854
0.059798239359404884 0.22825200095212958 0.13819222525430647 0.04753530897337402
0.06893217244338364 0.1929094397604177 0.13584669090138765 0.06723565368625113
0.07645866440375083 0.1743517772518316 0.14501646801360943 0.12843972440502374
0.08282969732858368 0.162927433137682 0.14677943195057047 0.12848364612700533
0.08296567771402942 0.17046019973575235 0.12759011735780218 0.11891622420224232
0.10065902944670455 0.15395771443510667 0.13046380228130613 0.1478444829925095
0.09456627405973858 0.1616336213517771 0.12069784866729946 0.15167167398389544
0.06602214230839035 0.21605396391975776 0.09259920493954468 0.04857481256624701
0.06965110017047961 0.20207104101222442 0.10082902427654576 0.05200683574191187
0.06302946736744419 0.22568923319527917 0.10151729147264288 0.05099066501702885
0.062381543296376366 0.2334005147212122 0.0825247798418647 0.04799656598364027
0.0651755828478042 0.22244908012403025 0.07991988576053563 0.05197451816723099
0.06933582615517186 0.20766709008506123 0.08407136066747556 0.0621052931345882
0.07598212361043247 0.19059676224053143 0.09703258273078229 0.08052847774310168
0.08941624610874621 0.17093896271123554 0.10506263889258044 0.10252835335263108
0.060977965069690596 0.24504858747186117 0.07783977298421826 0.05109742404161407
0.05897353624249216 0.26442435265830366 0.08176601934547746 0.05061661354767192
0.05960045542570056 0.25186349138919095 0.08745126834331367 0.05760648849791546
0.058159490707529446 0.27049270744476256 0.0926899043077894 0.04683754121740922
0.05726324482424598 0.2847150875388743 0.09993917366025984 0.05356875683532875
0.057117379191532584 0.27045675526392987 0.11054551162893153 0.04982763337763195
0.05703901158596619 0.29703101225309303 0.09659825279052243 0.05781793552988216
0.057542356121213833 0.30010801844169804 0.0850161269924438 0.052311892417082125
0.0600237885073702 0.2569145314164884 0.07317332590594389 0.05198598230231642
0.07478529135761285 0.19675310862242001 0.07976448692202764 0.0771755063001444
0.08244418591530273 0.18209660480366743 0.09335273865113086 0.09542177510968208
0.11356961852329871 0.1490345711680254 0.12785005841710828 0.14961120607897677
0.104891982252895 0.15829504976999664 0.11306853998600938 0.13822276199700712
0.1175831447587781 0.15211274125197138 0.11677957554610943 0.19741096277105064
0.05856252956636393 0.27734781584377294 0.07558970563736617 0.051626246552578
0.057886682516244736 0.28517262431583057 0.08450864770143568 0.05326753295984673
0.06156247982731269 0.24650565753635478 0.06580778882977534 0.05201767888496091
0.06297691616051085 0.23301225128369923 0.07062182241178223 0.0475282781439913
0.07145048171907195 0.2045997455394373 0.07070491574048586 0.07062543636619395
0.09127338670677701 0.17403655164196696 0.09169592487135943 0.1256554931147765
0.10280237604339253 0.16352964215447557 0.09932991875605836 0.17239379311489386
0.11942227215778829 0.15524569664927543 0.10519541846234315 0.16140657064299987
0.13298605364297558 0.1461741711265847 0.12261972352847982 0.20257658106643914
0.05785607944507721 0.3187782168913703 0.07449433000107242 0.054854039412285525
0.05748449257113444 0.32701403425850906 0.08272355226648521 0.061284557983572394
0.056993940790444376 0.30825318621401404 0.09579532918971309 0.047824349471206805
0.05694256371017807 0.3251740512687309 0.0957572304601943 0.054398503478747307
0.05803741267707621 0.3399218456241243 0.06860366228670611 0.058014615105120286
0.058707993333520635 0.3330220401232481 0.05315957373228909 0.05992882462963372
0.05834506480510838 0.326468001015376 0.06228471812940585 0.048667330329278405
0.056424864933266934 0.3027191629595853 0.10835002284199133 0.05025007735787953
0.056541906062231535 0.3143424501295613 0.10589880606685048 0.0515927368507167
0.055650114568721605 0.3409973312943592 0.12358023261346679 0.060022929412193074
0.05551329615498477 0.3265534815713588 0.12600278363663892 0.05256078227835053
0.08336453828476517 0.17443050778280034 0.11556400373526068 0.10352749302731874
0.07328880334093359 0.1903961482020156 0.11454446785728933 0.061125485152331335
0.06838495864536719 0.20217724416520358 0.11577021488321732 0.06045230875170358
0.05875911534273415 0.25563653699887756 0.10054699616947274 0.04743685483989077
0.06052488336482914 0.2407510242939719 0.09826454255720593 0.05571103309700841
0.058766073119244526 0.24841871549116834 0.11114062718690448 0.05268439408227563
0.05652868255945202 0.28442838989854735 0.11302219923914661 0.053140119913752705
0.05561948574289749 0.2911250643448684 0.12675213106738772 0.0570766861841476
0.0558765366553519 0.3029944547602366 0.12088220444172887 0.054649203910981235
0.07644302228060723 0.18176760953019377 0.1237061539242961 0.07625025708976865
0.06579687385663188 0.20591268030341664 0.12859417738901147 0.04751885666959903
0.06382004216389517 0.21533940885140493 0.11887081389171145 0.04728080594785885
0.06064964352237648 0.2355417531395927 0.1100900894921839 0.0459312913579648
0.05751672896265278 0.2508803802809262 0.1295104626801267 0.05075003364645722
0.05988605132438665 0.2333954382358862 0.12596400612884825 0.056652805294024375
0.055410494806732 0.27994925654164826 0.13656290347921063 0.06167857559174039
0.05603664844794605 0.2678087809426884 0.1337508822507839 0.05247220858307062
0.05627036527686813 0.2750629959589368 0.1235141500389366 0.054102384185882695
0.05379332616810804 0.30954039042894244 0.15381713219689716 0.05978793561940366
0.05497505986506296 0.3212684347270097 0.13639478573714545 0.05589776838430322
0.054750960109270205 0.3055944025260152 0.13923042359825277 0.05351847750804262
0.053988473177970786 0.33296446403434377 0.15437490802315304 0.06203758801881787
0.05360994517385674 0.3203355712779568 0.15786455406252442 0.05909264733049978
0.053360338271347146 0.3353105006772848 0.16663799116358233 0.07921186643914217
0.052265547767987794 0.31270544962088626 0.1768972397711911 0.06302540265164658
0.05260384616055801 0.3406983461627699 0.1807434712948692 0.0673766704564955
0.05208002582514029 0.3258240548767297 0.18264056943950005 0.06496209433540708
0.051529594789817085 0.3318284554955192 0.19339468632345835 0.061019585262163695
0.049786499399743736 0.31721717955180884 0.20808361242901766 0.06130347302093896
0.05065608687357625 0.3081859200531765 0.19490601297393478 0.057047852745885655
0.05179147172265558 0.28571560385274886 0.18023160698372245 0.06533382764086679
0.05219062440179962 0.2969757992639991 0.17576949848114784 0.06046100600936097
0.0508309555618673 0.2927743374483929 0.19132128182454072 0.0673094672621077
0.05034904025230925 0.28328465872772834 0.19668330690880273 0.068515909934983
0.050788036599087885 0.2677961646648375 0.1934636324153443 0.0655099590404169
0.04959160138875465 0.24474432478780886 0.2099074903410066 0.09060801061670146
0.051811769635445176 0.240695811750332 0.1975459905493227 0.08576168670315584
0.051518141583325516 0.22854137551894615 0.20725297918897578 0.11268826197245747
0.04921786522271472 0.23642174001907723 0.21740258343303093 0.13985466024272933
0.04732957924748695 0.23065486153858755 0.23074861556338355 0.12425007216122298
0.05128579038631182 0.21704978143165668 0.21797090070955352 0.11729445592197954
0.048714896503579866 0.21811987647444092 0.2306558448383129 0.09102896011731577
0.045812739413810415 0.21619412731366022 0.24675730390639966 0.06760438347650487
0.04339097431767816 0.2345099372438691 0.2501108811087999 0.08376341189619053
0.04258638805772096 0.2158027831270921 0.2642931049193759 0.13081181254634333
0.040311115150537286 0.2241950447756915 0.2722143461256064 0.19868772178099178
0.05332471406587293 0.22907088176278237 0.1946052589889742 0.08423134861636454
0.05355890753261264 0.21526455406861972 0.20589654086429166 0.14124097501534394
0.059826375015581745 0.18259173933068984 0.20666563411522965 0.11169474245484384
0.06581991694196489 0.16875385977059582 0.1996725911388086 0.11053942594524252
0.06319145827429395 0.1794839710944187 0.19644106055393518 0.10500421225665545
0.07175452020559069 0.16378396620606822 0.18394367297677144 0.08687010614036515
0.08028001434612722 0.1542754381065182 0.17291958395308146 0.09738980135564174
0.07465544914309039 0.16434451130560274 0.172524251720148 0.11691015589325934
0.0865244165580437 0.14518464805015802 0.17422005288253772 0.05663717012285953
0.08619698079508985 0.15408409456221997 0.15686187850874034 0.11814556193297818
0.0948748341461156 0.1423533848360655 0.16474077975834958 0.0917563371477464
0.09342273201848875 0.1507854751293149 0.14908227557217943 0.11186941874044391
0.1044007906498991 0.13866429007410722 0.15907842092511987 0.010728234117986441
0.10546305139149836 0.14349243989252064 0.14755756942803097 0.08305431295412818
0.1289459075913997 0.13575797854085364 0.14840392727165158 0.00538783910160237
0.1226001672275645 0.14294187174705356 0.13484899580316834 0.11415636147978865
0.14221346578537047 0.14272598925321575 0.12913864297930178 0.21924958959150384
0.14039128180680316 0.14883635473342674 0.11350097711713256 0.19829583568699524
0.14257860863446192 0.15332360934290462 0.10078179055605427 0.20288572334457747
0.13196454999456453 0.15972010763126115 0.08445268035087689 0.15573940530598138
0.12159988940754139 0.16330544576537642 0.07864606664740083 0.19452048704793198
0.1063566808378969 0.17089811355510948 0.06883324476836382 0.16959744014468145
0.09698411654966468 0.17619103726345597 0.06624877974786167 0.1395060546021568
0.11003627521699447 0.16622443071985454 0.0802589044805315 0.19196456182007388
0.08771787550500994 0.18312003878944283 0.06756395727328254 0.11067869226744811
0.08051320041526533 0.1917430920405603 0.0633702898091182 0.09872234426062826
0.08287296481815266 0.19086529803325517 0.051693885825192895 0.09739843732619918
0.12711050209108965 0.15670863499176532 0.09599487133282997 0.20479878394953258
0.11353486765231142 0.16088941250007155 0.09362395756584214 0.14145759051205845
0.09838147764598124 0.1721832770869668 0.08094475041667079 0.1484605783180297
0.08777181357020589 0.18021782920365276 0.07908508592883001 0.12318115251272514
0.06940831305210193 0.21201697357683436 0.06165312463551899 0.07217959605884396
0.06479133149329652 0.23164285819396502 0.045381086372194 0.059075517218846456
0.06343309585834053 0.23567272343517912 0.05812554418962683 0.05256911217451079
0.06118785656749062 0.2572511599768519 0.04577705416262429 0.05611718428066973
0.062328498375323525 0.24409168675965315 0.04657565011598867 0.05482141625575649
0.06015916468948532 0.2752336199031613 0.04088523784844678 0.057342148473091284
0.06042142676269441 0.25756548454286654 0.0588391861949193 0.054986992970245535
0.0599191360212281 0.27223602929060925 0.05202812456064877 0.051863820680405404
0.05933349981580388 0.27133809524533564 0.06536271514173128 0.05093112670631494
0.05915071387747245 0.28458261758599934 0.05689798271011412 0.052265314781117685
0.058480375561703296 0.29835217139175496 0.06411957944379948 0.04809079409982577
0.058619829412958645 0.3125813565760638 0.05648304960398723 0.04451334974438797
0.05905963660511129 0.3084781565329066 0.04540038980819011 0.04926340164092637
0.05963417889426474 0.3170210297418115 0.027817642862866677 0.07135934959539764
0.05933443401021081 0.323662707508225 0.03724316810221141 0.054533654387075095
0.060015685134923225 0.31950618828977095 0.015366659732137848 0.09135448388484461
0.06043245160411074 0.3300831818491965 0.009151398578424773 0.09422223973453235
0.05972979533893578 0.3288705777161306 0.024539885785764038 0.07807252091467644
0.06089148070890703 0.30687486167301736 0.004576006576394813 0.08402967398111938
0.06170850448182993 0.34072282146004407 0.0031571272657886255 0.10546632852190137
0.06289794356659036 0.2622150313328456 0.0056301154385987595 0.08887653660319257
0.07914203927418356 0.20679248489831248 0.0031814246069575493 0.11906865508492448
0.12811373824248928 0.1835145648172276 0.001881111475141114 0.15053835412908623
0.08239481817177338 0.33832586000264875 0.000492915032631736 0.17632209741865862
0.07002968773263027 0.31281786586661203 0.0013791916908667426 0.10118783820484319
0.07060787619484742 0.33169195479672714 0.0010382724493817187 0.1287473759687636
0.08390293092274825 0.2932880877909478 0.0012266445842243998 0.11873753010587385
0.07181205176821837 0.2880263111975425 0.001738361095894452 0.12073471285457736
0.07283515042299116 0.2997979002595961 0.0014972705457809922 0.0874877272235698
0.07539084020879447 0.22351949487770564 0.0027451959501852232 0.11986028714746386
0.07876397747737582 0.2363958445871478 0.0024017071152601507 0.11486226470485987
0.07301397647762849 0.269821216793653 0.002014643679031559 0.09989924898530943
0.07466740537279633 0.2474501337262451 0.002350049403994542 0.10646045750253354
0.08707273823757336 0.24911854837558067 0.0018882382235522947 0.1213556121037464
0.09315347173564295 0.23248269681927006 0.0019648341818523426 0.09980079975139233
0.0967929385728729 0.21793623021190228 0.0020913364146734896 0.11034751752843637
0.09406138932054087 0.19666379459100714 0.0025582978272512802 0.15566810717982835
0.10972907844059357 0.21120634978815095 0.001758021658839972 0.09602526126548205
0.10621606760635466 0.23015514593802716 0.0015492031931898839 0.08604449403026039
0.1429913599143226 0.18595936024201337 0.0010370183795861592 0.14410932112182934
0.13821795064507306 0.20122944834847498 0.0009368365005653826 0.12515382524689317
0.11706034094995996 0.18914030177904534 0.0018878107199217556 0.1460450850992459
0.12563015696889127 0.19929384209909956 0.001410692068936344 0.1406381251118983
0.1320561877944224 0.21049725577709963 0.0009901497506293812 0.1297311435500432
0.1318514624333345 0.22273244290487126 0.0007833766169487338 0.09902543652401662
0.14656608247787772 0.21934491945292672 0.00032866160583621963 0.1329023344347899
0.14985809312200404 0.20153595073716635 0.0005248091370881618 0.13635913753362933
0.139808609160438 0.17608087817963924 0.017683341351806013 0.19020797492180386
0.12782053717287883 0.17750454603678517 0.017450500593378725 0.21855971844062488
0.1359584161907133 0.17409523343404676 0.029771490084724937 0.17599998183290091
0.12013834256949592 0.17661061639086634 0.027990967003227337 0.20542921345160306
0.12750606702101114 0.17280620550371945 0.03965503849036306 0.2037513000084848
0.09922269460492113 0.18457679725966786 0.01881604220861053 0.1412191603507571
0.1344077375667381 0.16973115084588708 0.04742115900664125 0.19451542450060297
0.14830744112461358 0.16637414657816452 0.05653817390158092 0.21799827077458
0.10858158283666468 0.18305144711047333 0.005885199786316865 0.14540324887167372
0.11342683800598649 0.1800330657326798 0.017028494126960805 0.16077295914839457
0.08916973992370014 0.1914279449689033 0.011180656620666949 0.17659698778362676
0.08435980901994714 0.19406702192321612 0.022514282132270164 0.13049915585144714
0.07932076998448694 0.19985209206557003 0.011998754923836837 0.1296459564762433
0.06704620996988626 0.23258174101377022 0.004972844835279699 0.10286047201702805
0.06422667929540456 0.2484264920271753 0.007264729385548117 0.1123966143600292
0.06184523292458716 0.26306124350582 0.020436247245355355 0.08139161861243926
0.061738258664619565 0.27316360850747035 0.008602427759163308 0.09828717307936974
0.1343923474681507 0.16674283423435154 0.060564627241137564 0.1886478402731148
0.11021643584614108 0.17703320756218394 0.03705086705977227 0.14713857356176707
0.09857505664511716 0.1818967978807978 0.036607750965372395 0.11982764559244423
0.0715831420445879 0.2121954361639751 0.02091405340721297 0.10703254121865949
0.06562533465033984 0.23473267403018064 0.017676236491385174 0.09901653849680635
0.06308983132726902 0.25025235673601587 0.02327898483941606 0.07920508349948338
0.12319946950193861 0.16889755575110235 0.05696291374121327 0.1996778372840815
0.06973590452014558 0.2155736301516452 0.03777770824726735 0.07025000416328708
0.06435316335518045 0.23711605903071287 0.03167330287276577 0.07455455367890632
0.06662397714233134 0.2264028094588296 0.03133326962074928 0.08063225048398014
0.06090116210523082 0.29298741918502225 0.00585228300590411 0.1030387192864175
0.05959572433491718 0.3060032966008825 0.03176673704262089 0.058244377357397
0.06008771205502028 0.3054767853113888 0.017604875273918037 0.08276512590366239
0.059663449967397364 0.286994364475009 0.04291797729816679 0.06207038345736277
0.06018630877925073 0.2872968526932371 0.02832080286309738 0.0661432917992128
0.06047031555276208 0.2908965851797943 0.01684872959877505 0.08138133511287415
0.06091192864516965 0.2784836263394163 0.02080551208350831 0.0795838109074493
0.06252359856168403 0.2496555148801396 0.03461180766904227 0.05487970959341924
0.06985615713193366 0.21228778808707605 0.04970570227999238 0.06596954039170716
0.07890976899485704 0.19763415881984484 0.03824519761704062 0.10135495774533912
0.09748603480708992 0.1804206466190639 0.04953892544466843 0.1631829587936833
0.1094234225983056 0.17318230501770282 0.055454143185592525 0.13872123902974848
0.1392080737379226 0.16281685261899592 0.07157491526306738 0.18745000441811163
0.15106679250656108 0.1605401539323792 0.07703299108815069 0.24226089935270037
0.1494259798513588 0.15722515841646356 0.08839421168920376 0.20503640841674547
0.14712380920628243 0.17226907984197515 0.03284876646447556 0.18810983172387502
0.14982490475740431 0.17719463424603832 0.01041981168070998 0.1531049389881903
0.04816301634168737 0.17856626169772008 0.2621558878804866 0.15380604922246552
0.053114034984343056 0.20552665196202147 0.21667973938207014 0.14214345953163346
0.04751870476052723 0.20377715652540382 0.2462271808139592 0.00024954668007835416
0.0501498893635023 0.1997708613392727 0.23614141175545877 0.044656988753055675
0.046366664683942335 0.19544981131646325 0.25788735213548436 0.07254881879162302
0.04186336238192347 0.2047325517759936 0.2735259798657652 0.16948210198407904
0.03714739137429276 0.17000225822087336 0.31411518624389567 0.19804492959572947
0.04115106630885959 0.15812347107357164 0.3044369414598742 0.20952513812152088
0.035822033598962265 0.1551393307236706 0.32676712916553274 0.19088430472341428
0.04292154921821989 0.19076243102015544 0.2768844585235697 0.17638880735188003
0.03936239865270963 0.19733062526045098 0.28929028465264406 0.2512168865498329
0.039887201965475204 0.17860056924078574 0.2975981623081321 0.2207726307707634
0.043129043287401164 0.17214206708053353 0.2878394346207315 0.1910482052746486
0.046142306184050255 0.1703817588545149 0.2768735763306389 0.20353077190979219
0.0362083222119236 0.19434511449778055 0.30527011204061005 0.2332653574303604
0.03684566885329086 0.20555906300703236 0.296582553744786 0.22037757160017352
0.034402236950626275 0.18735160651652594 0.31735559759124987 0.20725363524815216
0.03216192022550674 0.20002746341521155 0.3217257158883454 0.162033598658079
0.05051555581682239 0.18829961920112084 0.2443167621379349 0.0003560426210147038
0.05334352328555603 0.1906647889603177 0.22895350552997973 0.06766490975660473
0.05582383100753378 0.19230781717504655 0.21549935395065692 0.13166329234052343
0.013774900559652773 0.3177564249773376 0.48083157787044495 0.1373393765590105
0.01017878384629289 0.3001385549522341 0.47820522651209457 0.1162496306605478
0.010603564185273738 0.2901472745869091 0.459051885137123 0.00014386694808329948
0.013454221229767464 0.3054099303205138 0.46143372717640707 0.10799530239458549
0.018699967668050044 0.3101039134945742 0.4335262069805229 0.1798516928720361
0.015096917182007265 0.301143686097219 0.4445521098003045 0.06022229674239478
0.020656771161436435 0.3032938494037895 0.41337994486693663 0.1262411201921926
0.016041013699778804 0.29621208370549357 0.432652446191619 0.07074879967589531
0.013141261246012939 0.28128189770933604 0.4349059812959465 0.00032084131557924333
0.016020974910312142 0.28832729192995943 0.42470516132606784 0.00027016815638981407
0.010610812012592494 0.2712699025432612 0.4407776204383146 0.0002910827949272221
0.018110012103145282 0.2836725453864119 0.40937470468835474 0.00039426978680124925
0.023434751094878754 0.30714486437181826 0.40031324060052753 0.18988638210119424
0.027061741757048507 0.3142036211404665 0.38446030872883175 0.1498753146717594
0.029020246998039376 0.31566404292796335 0.3729823555250582 0.1671403062610373
0.025946411980039805 0.30334893046067435 0.3793479226762554 0.12585401331182175
0.02978040312452766 0.30984001984602416 0.36195725397126743 0.20577633872272474
0.00694701321795946 0.28254058595413584 0.4779314417742102 0.0005343062475708443
0.0074001981468637575 0.2681683433351947 0.4570910792626535 0.00019499231013865844
0.005116728710198821 0.27000884684302917 0.47694752340770913 0.0006014058516571184
0.004055067953060612 0.25029909694274244 0.4687339301925011 0.0005498456605919969
0.006126114754888372 0.2565403798204301 0.45821515436824295 0.0002517723098143695
0.005342460821425721 0.22794570662531088 0.45297235645621703 0.00029769052263753436
0.0024128119397345098 0.22509414701049335 0.4673666216101251 0.0010365706838029586
0.004849519646986682 0.24291572104652126 0.45903255992141384 0.000260467804684479
0.0016913964505052134 0.23862281358188409 0.47813362325262343 0.0019524086096410907
0.02047246031171506 0.29273938884493833 0.40299333261506365 0.08776391328052496
0.019968529164541823 0.2806015030804253 0.3960988637326968 0.00032251778205656824
0.022899748828348422 0.2919475062999116 0.3877550858667845 0.10176400299284491
0.02708290803280041 0.2920064552482842 0.36279786864571295 0.13012570543713398
0.022311198289201268 0.27715237082132227 0.379988442963825 0.00020352649905591008
0.029659640982781222 0.2826176786064056 0.34190261296072844 0.08845762343809044
0.01585501312547204 0.2693314537579636 0.4113036342621771 0.00026245974112563454
0.012939766992400209 0.2686624783474809 0.42648038963374346 0.000343289498756221
0.013707432534984514 0.2551915868121475 0.41643220503460415 0.0003034902180342383
0.010103257702153791 0.25435640723063413 0.43487254199251707 0.00020380277124176194
0.027359702134684305 0.2044128043969426 0.3441806905572271 0.19915448356525967
0.028452800728079593 0.21294658416201567 0.33589323438628643 0.19784360681608
0.024002730906414943 0.20956379013333798 0.3592363382302482 0.20362743194224886
0.026049362839181828 0.2217564645661847 0.3468067347839607 0.19587112271278345
0.013888407050371082 0.21809225692413017 0.4095573881355796 0.1874864178294547
0.01601813662750282 0.21309123951532846 0.39947694605225725 0.17709747203793108
0.021701274373150854 0.21391719057971315 0.3703925887830374 0.16669264623012484
0.018609807789227113 0.21839567051332484 0.38576236078275733 0.1565003136457107
0.022907852308277472 0.22548389212012582 0.36248882957765793 0.1476075457584884
0.026441248045287483 0.2451158287550092 0.34576225471126654 0.18610845956881897
0.01637501222123947 0.22482608619053698 0.3965478740149651 0.14600522730746252
0.022576401016592133 0.2378515404816586 0.3653240456883569 0.18458499217106553
0.027595991444879453 0.25965387353456293 0.3430224161900045 0.0003035399305991339
0.0112757410851785 0.2422561371537498 0.42512730166107665 0.00014508889990611518
0.008325183023373114 0.24331828797634225 0.44052986974561803 0.00016021179184474705
0.009285457857059962 0.23269181062009422 0.4335702775232674 0.00016960749132910834
0.01155434570867594 0.222639212782461 0.42075860419345 0.14743359673495768
0.013765679958446603 0.24093617539647433 0.4122028258680204 0.00014462941727151962
0.018393189902606143 0.23736038183949754 0.38751483396693154 0.16997716772560958
0.016422579676453705 0.24522205452614707 0.3992468783322524 0.00029108586871950975
0.020430076617328173 0.248982473121939 0.378317718634977 0.0002123434940468985
0.021027430926671187 0.26303686802536175 0.37996818423634426 0.00014926150081587107
0.024426469658736627 0.2701359628028166 0.36415294568747913 0.00018008054202481386
0.023175929102384602 0.2528096743387781 0.3642487214825847 0.0002886740515714054
0.027215728757774685 0.26939590350077997 0.3484168083060463 0.0002483465084086723
0.018311264620869197 0.2513580966269637 0.39016440476522174 0.00030362352654122364
0.02540538431111936 0.33791728555354855 0.4318870446408558 0.13690515422188715
0.016400743640469215 0.33066507812168344 0.4859282551021808 0.12761197159020635
0.019452153131431442 0.33649077579599884 0.4748936037150654 0.14398476272492258
0.02018026659757835 0.33274340772676136 0.46115881100465284 0.11136080104159868
0.02176110966343054 0.3319210292321223 0.44764949519507363 0.11071186961591682
0.017584534386354322 0.32060766838017374 0.4575139179905452 0.12745794580867356
0.0222695833305213 0.32393767052685785 0.42995612217280615 0.15709599550902925
0.018690930642031162 0.31662580907675997 0.44279442303862226 0.14691916840793748
0.025280674729381808 0.32991185871533446 0.4188967703239754 0.13660569481845952
0.022498013355770136 0.3183339123021675 0.4203684389668607 0.16365761360494552
0.028504172994552365 0.33811422647579376 0.4096669444873781 0.10041504283541555
0.024507182661644655 0.31854446100456413 0.4073717809823257 0.14322671986718227
0.03044712332390854 0.334241190862932 0.3881546866114182 0.12390618631740233
0.02702187170427371 0.32239645103113707 0.3949423620667809 0.1412852691863029
0.03241336792436936 0.3327298800562236 0.37127213320719143 0.10889073776309766
0.03399213436901218 0.32983284166991855 0.3564381237101323 0.11675860220389124
0.03695471065215668 0.33526758605925394 0.34127653582095685 0.14870707531307
0.03088834902871413 0.29355244742863534 0.34183958273723536 0.1331972794746995
0.034365965230032866 0.2989694325327905 0.32241823914454437 0.19088786601279886
0.0366682805751519 0.30551063384856075 0.3117501971607032 0.18154144295290248
0.034418087235824776 0.2891877527691452 0.3153028182474551 0.1445593699058782
0.032129110179724314 0.27706922062883943 0.3223669661566193 0.09965243470197112
0.029965415858007497 0.26863518666067726 0.33227414384912135 0.03318214296067849
0.037876509156838364 0.30001202229827917 0.29956255904663764 0.16762481066267484
0.03654589878907731 0.2868299698152699 0.29906300321500845 0.18444976584733383
0.03912846139020141 0.2850488925342842 0.28181521190713055 0.15050355719217523
0.03715380000194525 0.27716759541509467 0.2906767626600203 0.1378300992899039
0.03515530002302411 0.2714494822425032 0.30078125136800515 0.1221741355630812
0.032720028247766986 0.26559103513709903 0.3136093573716714 0.0779422735796702
0.03867256743172002 0.26987865075302103 0.278812501527756 0.09711612089814264
0.036947851040177976 0.2628479057114753 0.2875154353238748 0.15334643925377917
0.040760514661386624 0.2648651380306897 0.26408939590657143 0.11306102538763435
0.04366341338764919 0.26508527741236 0.2451280679922033 0.13641591230673078
0.04643821251565964 0.2772572311124219 0.22593217555697687 0.10521745359479723
0.042562921339047856 0.275977047688314 0.25301650111016505 0.15836851540843364
0.04590708714440053 0.2545703103848748 0.23071023282451256 0.13237920830967384
0.04211466121181211 0.25587288397776775 0.25483879947993515 0.12687137870855028
0.034195701255696945 0.2544968030311445 0.30199430678324823 0.12437840340318256
0.03198963485263216 0.2502782010545767 0.31410483149133284 0.1256008928700732
0.028623523375197725 0.24704639061968803 0.3332136345428547 0.15400375432908664
0.037939322605442034 0.25114350125113 0.2804644320237053 0.13330870263500796
0.027336488971998654 0.23113473514192834 0.33904454426701197 0.19924725651563882
0.03552618891372302 0.24116677860863886 0.2935449995182646 0.1447786413384483
0.030939035222819954 0.23723349083046474 0.3190588848111973 0.16454405334691044
0.03332664406890955 0.2404267638174045 0.30579866083750445 0.1706065787195884
0.029443373778016355 0.2294538675011684 0.3277806227304614 0.1697593237806454
0.04393830294845533 0.2522208441568782 0.2433401714580712 0.14057144059736323
0.039942391488706 0.23602858301579177 0.269723670307664 0.16957375554763995
0.04161067421746856 0.24321395784189445 0.2586245000459189 0.0667775212847404
0.05005197506565286 0.25504994814446974 0.20228197313000645 0.07947793875898679
0.04841130127256606 0.2596386462561864 0.21515094292906756 0.10039575614826181
0.04829962830832897 0.2741264577298462 0.21299335066374625 0.07737703358395463
0.04793591697752666 0.24908184556662788 0.2203536729130204 0.12789683706182406
0.04897588980179568 0.30272706581814135 0.21166845017691002 0.06234045406405834
0.047757142037882686 0.29472686711800866 0.2199860862732715 0.07376695743661048
0.047023340497444055 0.3060870436640044 0.23116987477427975 0.0767970343100272
0.04465671407450955 0.2978192168886043 0.2465097926256954 0.10183027043055752
0.04334102881433026 0.30654421694002093 0.2626658326578822 0.07842592043477645
0.04596605053049706 0.3171490199255328 0.24753541786124367 0.06802782919961
0.04730968195180608 0.31847439170677305 0.23654478479059063 0.07369066341246014
0.04835561628860464 0.31659209557697193 0.22405085521958112 0.06709323183583717
0.047107370960227254 0.3283793482978926 0.2442925914324213 0.06540340227399864
0.048955214287321816 0.3325978611055822 0.22623013456299051 0.06355189710119266
0.03509600252111666 0.21951050734073513 0.30006702211568664 0.20027570039744258
0.037643131010742514 0.21691354580924238 0.28803355750303133 0.21006464901083557
0.0379532802320812 0.22918769541601652 0.28220569598125644 0.16619848339730484
0.031241042015880984 0.21557709316152424 0.32114855169198325 0.20424073112567204
0.04235073123308701 0.2953441435132277 0.2633605937065207 0.1040162152391652
0.045850858707074345 0.2943334580270528 0.23499835160393653 0.08476067233461002
0.04523145678293001 0.2831175873523629 0.2372450908608293 0.1171167355327213
0.04360122067985768 0.32537867122123487 0.2760928170459293 0.12184972390671195
0.04480264705999506 0.32115578342252016 0.2613290874727119 0.07005319129157833
0.04330188921924341 0.3341427727467531 0.2869764589563848 0.1518220608999996
0.04261354787572055 0.33844565099202506 0.29839307301027246 0.17381718784062486
0.042051532485441995 0.31185102704580425 0.2771704562270514 0.12351964616518933
0.0414733365908152 0.31801869665543697 0.2868022231764827 0.14157310678966306
0.039712991446395146 0.3146537943274895 0.2982368484190885 0.16135114919457352
0.040110941468791295 0.3250227413327067 0.305128388463208 0.16313634600299445
0.03504684402594505 0.31088931381458507 0.3275630138022699 0.15599554404642282
0.03949442133644106 0.3333286527639927 0.3187056089420991 0.16895420531473823
0.03735486283695172 0.32457571132521634 0.32505873149553377 0.18340478931639448
0.032096470290721206 0.3060695998412292 0.34384902115006327 0.16660896150165644
0.033854055954696476 0.31716555778072647 0.34358248809532577 0.17122234596761737
0.039665574996548436 0.3021129219519846 0.288493398821751 0.1627720956020243
0.15581227570275513 0.12879561058268352 0.25960239097854143 0.0028986503663694318
0.17181569079138986 0.2784384357179298 0.25527723315408757 0.07087564070819426
0.16857503184917239 0.1059787398542687 0.27367457401795886 0.004032255877307156
0.1586648984359486 0.11622455490297445 0.26683149083493196 0.0029122513862989497
0.1660910919255712 0.12562309751676898 0.26204160694798245 0.005452880773022191
0.16878943883764527 0.14152147962415895 0.25448473444459874 0.004628659340013328
0.19758381253398755 0.10251197360248507 0.28678183149599124 0.1825648211062155
0.20774337488990308 0.11575289129100394 0.2866777764554702 0.20054975074659306
0.18456663545826232 0.12681763752589265 0.2662500390019236 0.004053486692139486
0.17787468189682012 0.11734349622978628 0.26868826998691425 0.00656229811300354
0.18819148887231485 0.14035524835651114 0.26173238618361705 0.006952315009290086
0.19838080167015998 0.15788128652647926 0.2605726644501676 0.0068273489987048935
0.20541931895098292 0.16731714370357134 0.2632754467195759 0.007560784047436074
0.20250475999882012 0.1383832263648828 0.27158590659060833 0.00715660471398781
0.20765983187248363 0.14928032888295942 0.27185497015523385 0.006511010792819033
0.2198236343285197 0.13853361368404593 0.29000532964557796 0.22264583232506097
0.19263885547662898 0.11786363294981468 0.2748647145651225 0.007675235831678248
0.20604435840528418 0.1268776361183302 0.27965292683996457 0.1722015704546939
0.21630925574673587 0.1241177465991958 0.2921365090267021 0.26859134946897
0.1999661056270036 0.17993547750327443 0.25415058981775607 0.009674356693156888
0.19267379085932368 0.18569127068896846 0.24690144042314835 0.10250247552546939
0.19034947428168647 0.16140219822482182 0.2539241347587198 0.007048955700714292
0.1854096428568943 0.17238728374815768 0.24753097372284197 0.04637934249781341
0.17783443479771155 0.15865388055731167 0.24944040218447372 0.006391578113259761
0.17739458376316317 0.13517263418440498 0.25938885241807347 0.0058122846742355875
0.1846768231234102 0.09624885763576077 0.28421311114050746 0.006912095645757625
0.18883520043824334 0.08715081787250244 0.29222066857535356 0.1824454670056082
0.20005692941880993 0.09376209171927931 0.29467728100596025 0.18674791152179046
0.2206424563701449 0.098525557543974 0.313067064315121 0.2607799556042947
0.2150197238246427 0.10344300752804944 0.3030528084675211 0.21025801783809706
0.22318929791492786 0.11968367857733228 0.3046193047787945 0.21554165471628006
0.21031131083406102 0.17997970613557862 0.26433216406403015 0.004706753612040691
0.21415853790907197 0.16730656749750306 0.27294619836879863 0.09750948030827111
0.21609336234023868 0.18990359721425548 0.2687409251761473 0.09789808456212251
0.21869624417147024 0.18086432143880216 0.2748046495027942 0.15418733765355908
0.21684323980934533 0.2055728469917576 0.2650900460429684 0.025224626780118557
0.21381428649193465 0.22016468977196246 0.25768746529686437 0.09950311244284532
0.20751337540745812 0.22534667884039744 0.24985394904318053 0.18974127396745574
0.20587756192428114 0.20749442072046284 0.25134611015617636 0.06987437064993514
0.20288049942421074 0.1923736281435086 0.252664918095477 0.005680107601602284
0.15646906808829916 0.27900192562644416 0.25102844909185024 0.06179354969632383
0.16471255844586963 0.07835912536549389 0.29150418397802846 0.13035543989798798
0.16696811658681474 0.27901335515646986 0.2747539567612172 0.036389036242556135
0.18287907592395222 0.2781549032667671 0.26568443798586006 0.05744731581307336
0.19787774457756918 0.272651992384781 0.2591327583861568 0.08552071039160637
0.19581186987201002 0.27611978380939184 0.27201519997367074 0.060776543815232995
0.18394835855589264 0.27487376904456484 0.251140931635893 0.06788072167960306
0.20159792973272128 0.2556334628826702 0.24721365981000237 0.09707334777405378
0.21429572473905292 0.264599126237846 0.27220045271682497 0.16999279023809302
0.2227506478075179 0.23380500126581596 0.27117769372395006 0.1294290805561644
0.2065281950591309 0.2451534988300625 0.2489716659850382 0.1346361863600995
0.21660133006370574 0.24122460693894807 0.260368921405559 0.11975807801992726
0.21223203443631747 0.25975825520159823 0.2619426923358884 0.20107216843064896
0.22991007785775178 0.11894384456726678 0.32128876078563 0.22353067418587214
0.23558497427109937 0.14212463406651576 0.32541570426938715 0.2060566177839278
0.24131535333563547 0.15376954023535422 0.3413165477846306 0.18692855952378548
0.24447655165525223 0.17505539725413474 0.3403072881437417 0.21181201295174218
0.23817175065867519 0.16725600339747912 0.32115717619419704 0.21290360280874687
0.23802770685210106 0.1535111254219761 0.3281462549434768 0.18934259495313535
0.23363960914989304 0.16143885556251922 0.3099393000281536 0.22100416323265706
0.23009093364856717 0.1318625770936644 0.31369349952459163 0.23650980935168225
0.23191240235204696 0.14452731388810566 0.31297273630109457 0.22293286421084474
0.22955403770294186 0.15255781467295504 0.3027365220189636 0.19683193255820924
0.22662484348641604 0.16589741486657067 0.29207666379179487 0.23190650755565834
0.22354627567352198 0.15083297501242066 0.29163190491996893 0.21147154651491162
0.21942414465873455 0.16018740955770824 0.28203608096614624 0.16878548637755045
0.22443736413995513 0.21674164578464505 0.275769478518146 0.2306745108791759
0.22829599662564984 0.2105518324363967 0.2852043710946949 0.29596548036824266
0.227558986482108 0.22685434787002723 0.2816894398124082 0.20746336921711378
0.22262610898061705 0.2028962625830183 0.2752360173112012 0.18257903558164917
0.2399790511585645 0.1327142209953183 0.34650309605845775 0.19388695412525694
0.2361813335045534 0.12942905388108442 0.3354740605074713 0.22206441851963965
0.22770201550548086 0.10169745165154236 0.32536602221302646 0.2256158193146111
0.2284299457925143 0.08198613231545208 0.34786359847448467 0.19460662717184404
0.23188465575256628 0.09489343297393754 0.3430279223999169 0.22212489717214387
0.21492765038388928 0.0868098163484916 0.3116451111564644 0.27683580596551316
0.2038105406716217 0.07726869740077455 0.3064858602662736 0.25417039234882366
0.22058840602072413 0.08033422111236418 0.3251584014694623 0.27285193340635494
0.2276779004457108 0.08985106217976566 0.3340801475845963 0.25560024384924096
0.19098105168674834 0.052357450226219696 0.3189380766590988 0.2843833796771523
0.1846301444472872 0.060084391748401675 0.3084489870282403 0.263568659181466
0.210896363584679 0.06074687710548104 0.32993131469099013 0.24628883410699973
0.22142719100206124 0.0724745922952127 0.3375795619788828 0.24490950620549148
0.213711728050447 0.0729593163111604 0.32061822673990914 0.2560359118118009
0.20450081490821145 0.06743816442453751 0.31490861285571703 0.25559272200567307
0.18410979577363246 0.07673436254491978 0.29647435510154824 0.18921931090775793
0.17030438334391848 0.2745754942705741 0.2434092399181999 0.06312742152221415
0.1874053774011183 0.24795730090489423 0.23705974480609773 0.08693810909812565
0.1663924026959593 0.26514397674850865 0.23639952835189226 0.08287411464452023
0.18723858677008598 0.26336594313288864 0.24124146408594074 0.0745222412984659
0.20063367035643426 0.23548461246522157 0.2429789252049902 0.1553116523112182
0.19814928067933843 0.22222213930920262 0.24180989568103406 0.2208943699888952
0.16252851801771898 0.17622029188324823 0.24056842114312335 0.0906844532264615
0.15224528965959824 0.165926039913701 0.24361555862263126 0.06663586021432366
0.15371118329277372 0.18484837006248928 0.23766593616550707 0.14587903464224178
0.16579371880995492 0.1914456997498678 0.2365923967534863 0.1840254150704317
0.16468497464369536 0.16256544785847846 0.24524561458565958 0.005162043866463876
0.1748508894869877 0.17176885668636777 0.24405481547786123 0.05429348855010934
0.1786393465934666 0.19454981176984193 0.23803272424096106 0.17701092269770116
0.18563948329272884 0.20434638785677992 0.23779451706276436 0.18072544270921784
0.17129460897055032 0.06992707673794187 0.2973942942083091 0.24868733754916206
0.17589423591770217 0.049604680128678316 0.315432711964683 0.23133793395817848
0.16586152749783153 0.05230710238866567 0.31054315455015064 0.21858529220479248
0.167004278971134 0.06122644052037083 0.3029113948107405 0.1620209492795176
0.15113483569829406 0.05841341978690298 0.30402211461728545 0.21470888774438118
0.1528342865346577 0.07396564677806386 0.29348772313212057 0.15264851050818246
0.1554822375725543 0.2532936451385744 0.44436355166471564 0.03999986602295111
0.1556467068464312 0.25857168429506344 0.417993692729553 0.035718721019179216
0.15385327342828808 0.2644168060415333 0.3887493843405607 0.0334223682022745
0.16448674795421542 0.2605268901536086 0.40719583285628314 0.033300029504277066
0.16766265344874381 0.2578340401127501 0.4202077848356756 0.03681955181537039
0.17087616116615498 0.25291931583519367 0.4443650752477327 0.03790411478078565
0.1702517183169323 0.2553971025467903 0.4320226225636168 0.03765720297326203
0.16390117194076698 0.25100512455285173 0.4551240772953741 0.038023448987552784
0.16460195924590634 0.2698028883539316 0.3587967611422043 0.035160540300439205
0.164684743462747 0.2722909780012395 0.34339880973114645 0.034466181441908494
0.16457191898465037 0.2775907883967884 0.2955241049168284 0.03162211745938084
0.17675871095200202 0.27275500849603107 0.3380268537776725 0.036413241195670805
0.17620830646344637 0.27469949643514197 0.32208098873228386 0.03755675602483626
0.15496271685814228 0.27424895741751915 0.32939950969984305 0.03367114384167805
0.15986051344784538 0.2764988994011531 0.3085925690699986 0.03255421775811811
0.1882278519051248 0.2757581917139633 0.304150644340452 0.03777621361924125
0.18219933986674558 0.27709210725010214 0.2945351621816934 0.036435415576016386
0.22136977596628826 0.25546669095835495 0.27676158444790416 0.16042705956792597
