x y z curv
0.2591524936431647 0.21176786664213648 0.34997274577149706 0.09066826317389333
0.2714763228242161 0.21305741680907747 0.35441995099200585 0.07015363530996566
0.27002230364260216 0.2161390482347202 0.3658787608106002 0.0585446858088911
0.25586866095388555 0.2163538404636317 0.367178215244485 0.0777518001533711
0.2784431884509458 0.20852189057212073 0.3385465953587502 0.06699702280184495
0.2885040809578402 0.21023368833901304 0.3440927913165632 0.051556908200560234
0.30071380707195744 0.2058202924019663 0.3296307085792474 0.1780176957421093
0.28769482810552083 0.2055239036693107 0.3286874815167432 0.07356796042232165
0.3073009719805551 0.20182094735131592 0.31749162844989265 0.19471128067567814
0.2933622196277754 0.20173460441856478 0.3172502775817833 0.06617555360763344
0.30090498088178774 0.1981993295226037 0.3072074292798383 0.13065222815147906
0.30966998609810537 0.1896963102337212 0.2852961067107371 0.1365671898879615
0.29337510059368155 0.1918248452086996 0.29071890821826496 0.06600559932397242
0.3185612282462468 0.1930016219441556 0.29330714707621675 0.18538913441621832
0.2953530772849581 0.1829011127936829 0.27048544766585675 0.0752636069123516
0.321418760967304 0.18168798151088075 0.267597356565862 0.21300304398253814
0.3127834934853295 0.17852928895184472 0.2614172201862937 0.20023696673716077
0.30920477297880833 0.1727711599215624 0.25046754159141443 0.17694659351522316
0.2993975789035474 0.17513723931121628 0.2550291101877462 0.09874311748175146
0.19820492174948368 0.05419590132119741 0.15721951223486869 0.12660968487421784
0.2483736703834133 0.07999726052342848 0.16496923486839193 0.23499716057473743
0.2327822765790974 0.07622673753330014 0.16352168251101595 0.15683316697144284
0.2136746925108975 0.05565382964364779 0.15756837310169142 0.2475580937291578
0.2196619175372548 0.07318670979855722 0.1626532083436912 0.10003553008715017
0.15104538375091187 0.04386220846385092 0.15500485891829902 0.17600848976791902
0.16882056145379826 0.04571462929095204 0.15540406805214213 0.12912166544038506
0.18701989647763914 0.03961515075442069 0.15409962181449474 0.2525756747666016
0.28783907295346906 0.150469452169043 0.2171887301543621 0.1330677137284489
0.2946439914291762 0.15954643971131988 0.2293143125835826 0.1358248415958343
0.3067017698440198 0.14853815800956485 0.21466483694615812 0.1954700820399865
0.29590399824507535 0.13555685685139907 0.2005318841434826 0.22238495047107712
0.27573130431720666 0.132796869944107 0.1979153758909002 0.09598252234781478
0.3164010101659117 0.16510272584480135 0.2378710072270399 0.22049855184518277
0.3032836624845606 0.16638969082165897 0.23996922043344804 0.16967215393109336
0.2723903911273406 0.09848646427300034 0.17331792587422998 0.18743317690079164
0.2610567936127684 0.09028339466750013 0.1691768420573773 0.1913267033610666
0.2674092428678294 0.10947705224954157 0.17967293281554114 0.17679159471182357
0.26902480005248225 0.11870603939153856 0.18607615795006538 0.15240990780352728
0.28297572198209536 0.12145091148106525 0.18811561008072059 0.24572745472249719
0.2573536450384478 0.10936693748269312 0.1929199429877697 0.1388183001601577
0.22622235472278254 0.07806886259556152 0.17356041535792352 0.15899324405175433
0.25797817460306327 0.09243729894121355 0.19749290848860418 0.17835180794629021
0.2704133522602317 0.11866583460105731 0.21095860558842883 0.2179454074557589
0.2799422816500041 0.13079019119060467 0.22909655826988043 0.2049285513798279
0.2745930310643294 0.13108644678304898 0.2165772540198591 0.1168722656000823
0.28453072629388965 0.1364294005797888 0.24099565579686535 0.1671075655557628
0.28708143342052006 0.12756972058779287 0.24947494480058283 0.12572584030042513
0.2807419030920075 0.14305473038711536 0.2292363238995466 0.1303188451480689
0.29291967932815854 0.16926944610414574 0.2855645956001508 0.09827670373116529
0.29470425120565885 0.15978993961923565 0.2966301751465233 0.16454588624907335
0.2919009247492531 0.1794695356535308 0.2920617038294441 0.08703444862259738
0.2934909110514824 0.16981939475879163 0.3041857480023654 0.14264854937358037
0.2879213059367412 0.14081276154919117 0.2522156711033956 0.19201394203223635
0.28480767281592684 0.1536730590934141 0.24005051125765184 0.1505958084629763
0.2882678481983757 0.1617619805007708 0.25297669684330654 0.13301911467783878
0.2920778275098578 0.1619753695281822 0.27298200969373526 0.1868698024591755
0.2946794688964607 0.16157342629114174 0.31382474741634614 0.14842759590181714
0.29130133237584277 0.17563009582800326 0.318597231214964 0.11890744027440585
0.28978023269547587 0.18524273039736264 0.31010225913082956 0.10293440368494647
0.29003147038038246 0.17025453049377073 0.33406375064988386 0.15330904612800342
0.2861587496463781 0.1899285843069258 0.3205373829763234 0.10543962285057505
0.28738492572604485 0.18065323295636954 0.3295892999743896 0.12265400602974344
0.2790211642098671 0.18978202934286587 0.338404373377985 0.13439670508321785
0.27090393128896567 0.1928765296693921 0.3472677451926684 0.11763227490121261
0.2587828673520119 0.19531250807071734 0.35633713718838855 0.10676683308739938
0.230480385253763 0.20298202282894323 0.3636068407868424 0.1186310657901813
0.22730451022792125 0.19566605921103045 0.372935758417408 0.11719115333285288
0.23574973841722227 0.18369092748025612 0.38286988835137126 0.08658487083755378
0.2236350944821791 0.1884239956796326 0.3820738236183652 0.06588378092713333
0.23151123216546277 0.17700694574407752 0.39195732127200295 0.07601949438534168
0.213069227427069 0.19778138391551053 0.37468804687569035 0.10460964663156641
0.18873232565342823 0.18942596672819315 0.3881096167525283 0.05665445258487543
0.18606537882606972 0.19790234515111646 0.3788906419288092 0.07526553528301276
0.16944107703498934 0.18558214030773937 0.3932996812410673 0.075043503602028
0.18021530578367917 0.17971524222083352 0.3993813615000592 0.059778650554054805
0.175346784772841 0.20218507942167993 0.37496045151544605 0.09572440136378534
0.28301490290702147 0.12308350107382146 0.23856648718460552 0.14950342702580013
0.2775333802566487 0.11061167168189512 0.22678483501132238 0.1159258230143569
0.29035228015079484 0.15139223423797313 0.26187665383143216 0.2179043413482443
0.29242094193983265 0.13650817061866216 0.2704177077256091 0.10820889169157896
0.29375993389518623 0.15154174949903515 0.28055748536024555 0.2161781959069212
0.17215235429989306 0.03086827217128412 0.17114837765277144 0.142242507030518
0.19683829899193414 0.03939373447012621 0.17219887140385326 0.13598214047976592
0.2205479310686949 0.05099058190528812 0.17766885420792589 0.13211525983942835
0.21115550630331514 0.042448122122265 0.1756194177694136 0.11885183507810242
0.2665614966504873 0.10374394368828385 0.2074361864050756 0.209426018107168
0.23310402490510873 0.06843146126941696 0.18041588374741868 0.16194570472343064
0.2500990800298912 0.08975478583107972 0.18920642650402023 0.1415315303045784
0.24556082869730433 0.07485943621006452 0.18843972479345714 0.1508764950127619
0.24074455156568642 0.086174983249863 0.18156414653995748 0.1698822967614641
0.28333272047655234 0.17910179623165268 0.342883927495102 0.08654517855603688
0.2871345065658233 0.16538160391873682 0.3504358154102828 0.0854241639395596
0.26394911102553054 0.18454170748446053 0.36408027066992543 0.07708458584770901
0.2661315056662131 0.1737614858994731 0.37391062183477486 0.06841690108401012
0.27274930394349134 0.1838050992013568 0.3551995897320447 0.07814622415016935
0.25182395587973544 0.18915981205531623 0.3682606683730756 0.08402456037742577
0.24864935638295843 0.20462164079531076 0.3530459683377625 0.11112735163548705
0.20590204024701925 0.19252155153996114 0.38210355938091334 0.05647194783607123
0.20737807324860036 0.205613688226567 0.3674044914093169 0.10293760487109975
0.24793768514797454 0.1825214358843423 0.3779359150511298 0.09069597168319621
0.2571529567684018 0.17346606533681094 0.3820549969069561 0.05004046522999913
0.19157122662161236 0.18065370653546375 0.3973571051402016 0.05836455955215783
0.05261851086535679 0.1897490824802447 0.32347428471053524 0.10911065900135945
0.0644198051666372 0.18170209235824528 0.358128262484255 0.10728643418148852
0.05827073012249556 0.1999945748001445 0.32589199869741053 0.1081397057690463
0.06257103248107314 0.1962207308388327 0.3380288240593826 0.12372377097197498
0.04567864907643749 0.16886234150096138 0.2932305349380464 0.18588890254220683
0.04272028286541749 0.15213485357199721 0.3127488054227256 0.1320053735899769
0.04420148718048253 0.16066105920032486 0.30328004608595416 0.15342095702818237
0.047727259384477014 0.17861539157793388 0.2788302820597816 0.07618388850960901
0.04433628920870384 0.15518181258684938 0.2926274241330606 0.17058488430527236
0.04604661577222153 0.15510975207404665 0.2789940011888133 0.19069425003103996
0.04764630607333545 0.162057084015788 0.2698396896844727 0.14519128665155726
0.04938094558102202 0.18665287115229223 0.3119055500258639 0.12392337967380074
0.04721510643143997 0.17579538289896474 0.31722047678500037 0.11854474382894004
0.04735614388152312 0.18121952944581865 0.30152307755678626 0.09688774596529441
0.1461002782588392 0.1815119029341425 0.3965143082771887 0.07038796266464305
0.14547475602945606 0.1999543246250578 0.3760602565913529 0.09953731468309948
0.15413743690675477 0.18902450235936488 0.38891484977772073 0.07515755555362982
0.16153571716300136 0.1802273619179879 0.39913910320676316 0.062409040593041976
0.13466174681900656 0.20442018998508094 0.36951357190153633 0.10546399418570872
0.11919242699093208 0.19194831742716195 0.38009393420944837 0.061782324006866306
0.12496949185640872 0.184770105224512 0.389411693658107 0.05641274679954872
0.16186176873014707 0.19589973951972012 0.38181143767339343 0.08287917106191736
0.15750171294830592 0.2027497611609388 0.37407482574219497 0.13345460195562206
0.09323655434062002 0.19518607905548127 0.3668009924793846 0.0998665740798285
0.09393853711150493 0.20613219671183125 0.35506669975404825 0.12170580335938747
0.09409270358874032 0.185194773656629 0.37827793422222633 0.08224732375717488
0.07786459956676392 0.18279796491149186 0.3708839003268457 0.08562147670924897
0.08479018693274025 0.19875815642492228 0.3579416593045964 0.1267675255257807
0.09996676697770987 0.1790494753191626 0.3878995745164128 0.07607488969725734
0.10329498852981328 0.19291983289907066 0.3740689775136585 0.07259054758911346
0.105080986299229 0.20437619513699712 0.36216341729650037 0.10802761841906672
0.11729386894797149 0.20475032209810426 0.3654505888717882 0.10344612319801623
0.11037357737721568 0.1773200134867931 0.39378828946334693 0.07677896601315475
0.07432809259350666 0.19542093246925668 0.35342996021172846 0.1328378064254405
0.053867763690729556 0.1536009358699038 0.2430914342884974 0.12826525974563197
0.052143074550041066 0.1328284597550707 0.2502751061222798 0.16647422870435385
0.050252094730057165 0.15784340131122626 0.25688754202229064 0.14415269565857605
0.048257033868323154 0.14456505242027168 0.2652721342774778 0.16584125903444585
0.06693439222605266 0.12261742113069816 0.21382768519175044 0.15428133811493802
0.06483259111660039 0.13641668422692954 0.2158528571763466 0.07856248303006359
0.061111789090489976 0.1261249227245696 0.22592365160292247 0.19142621743088753
0.07778757580748438 0.09145427918060792 0.20236023166896921 0.17923812284230467
0.06852021384544787 0.10498623453379873 0.2143573311696178 0.1624714839773591
0.07273804146346609 0.11740659857578095 0.20446896984116686 0.11491892793753612
0.08592181633097284 0.08877481422091663 0.192848101146364 0.14696324437849118
0.09639748845939683 0.08417313937178741 0.18381230126353404 0.16695294462088145
0.0998682867249105 0.07198087133790451 0.18403116055573543 0.15558682241091867
0.11285105747057947 0.07182223939494377 0.1754861069266869 0.16862349268134516
0.05714410599684849 0.1344421508577039 0.23504458358150437 0.19535525341850354
0.055229176879678106 0.12433213657940806 0.24165563419780056 0.19286739999909625
0.06009051117264652 0.14860826467343968 0.22494708250516232 0.09328820030157428
0.11674659669502097 0.05476780715266495 0.17756061858935043 0.1544018587051713
0.12416139713184415 0.06252392796389969 0.17222945923437996 0.15836875525408148
0.13684409109609788 0.04585645648260543 0.17186278583562767 0.16723980935574745
0.17197154895208552 0.04489270287214714 0.1675084285309914 0.15332738426676856
0.055791134908661236 0.17783666471020287 0.3480467578543763 0.11605087550500094
0.05507608183641697 0.18417713018606535 0.33807856555254756 0.11959746364203772
0.050063309893150595 0.1732350069321021 0.3378195769069824 0.12499738880167051
0.044595717056870265 0.16307501898877105 0.3175409999398438 0.15937436296142476
0.1410655063345354 0.18899253212715972 0.38756055791106814 0.07505030062476369
0.13456447650577497 0.17743767256194842 0.39928944709035696 0.058773164007800825
0.0848175746205959 0.17910435541226835 0.37983599547480995 0.07112679332833975
0.07449155856634682 0.10344465449475569 0.20469239137484455 0.19232643891495302
0.08589809527237507 0.10460185492831975 0.1890382031123292 0.15610883656330765
0.1503815191991114 0.050788134089913346 0.16742335736140912 0.14678628275158884
0.14308003523934848 0.03568013292849884 0.1729444166197342 0.11486948896898762
0.29779248719011153 0.14987764710385038 0.312495172652858 0.09696205739574608
0.2975463205944818 0.14609378954478802 0.3011838551534472 0.11577048412716909
0.20781090870878302 0.17516100257741274 0.40154845240310094 0.08350741623419013
0.2797888397448735 0.1671339791917447 0.36548550718533324 0.06306136744776156
0.24122047688827325 0.06353927433070425 0.18747023325634138 0.16734685644967331
0.0415017218557502 0.14287889286373684 0.2954820597958652 0.1262686352387981
0.05990189021551104 0.1062264344872075 0.2289028475371383 0.1076268902748465
0.04394068601195765 0.15708955989245138 0.32976423791998694 0.11426007187321277
0.07624948950412533 0.17094594408297392 0.3839176169458594 0.07333232516133685
0.04456335330139921 0.16030522513581305 0.3474187665474305 0.11809081815643019
0.048071500040254365 0.1281588465752946 0.2620957649440873 0.13119900528956652
0.017244384869603568 0.2049558154692127 0.31495858200517357 0.24639108708235014
0.016348324015477964 0.1942802002212865 0.2952372181956232 0.21159899710991056
0.02176172990239566 0.16215359363781823 0.22739458362470924 0.18028908795767634
0.039000791366984824 0.12919320835526385 0.18118146565944687 0.15346111453059502
0.020511772805928835 0.16617620478738243 0.21520717336520245 0.14411410598242133
0.04437713760649716 0.13346909878336696 0.15998440363352662 0.12928677663817814
0.046173895055374226 0.12035274179973167 0.1677645135152729 0.141903806083476
0.05117963719241371 0.1243227349239154 0.1523205100635712 0.1155136501331554
0.05898116635597386 0.13050819317966303 0.13994790491626405 0.17496003523388132
0.06531645580337636 0.09227833044668031 0.15771815524352129 0.18948389772764254
0.049175731342957774 0.11266094434637874 0.17590393049448677 0.17612542664512754
0.053974535405870966 0.10465563094512732 0.16943425147678418 0.20459707339267957
0.19313659197559194 0.221178727822212 0.38479036080150497 0.05851664478180537
0.16383606629639313 0.22177674142402493 0.38588452899217673 0.07566577082088147
0.07666465896173814 0.21735069195868778 0.36991705892289783 0.07032293411406518
0.0583641724000384 0.2229222712686711 0.3678356862645704 0.21423996618525246
0.08993834884660239 0.2535055648279258 0.3783171494651384 0.25364695221107814
0.07998462599474396 0.24501024564437734 0.37760967902537523 0.15033580821635262
0.10433628944185243 0.2546586239075833 0.3821158807710948 0.2518681618661277
0.11710165744054299 0.2615120502745347 0.3824156055051855 0.17508825347677648
0.13039453450776115 0.2649809571033409 0.381450123007861 0.18064604250340185
0.1445012068441452 0.2604548568052595 0.3869661189462993 0.22144130064682563
0.1506818152423236 0.24889288725331393 0.3908799417096023 0.2077493568283591
0.13632416645350687 0.2484274771345178 0.3897074887007824 0.18869709018915706
0.051870310310539555 0.25133910870159587 0.35872380036186013 0.272728875977288
0.05813108877296485 0.2433960613654666 0.3666354214736828 0.26899648114694547
0.04641424182310147 0.23953661469876006 0.3596280905293382 0.26871445565154045
0.031065055082964595 0.24802043946975166 0.33070051691629976 0.2627209502137878
0.034725904235410755 0.23885326623826336 0.3467400431190122 0.25624735547310906
0.026812106930004957 0.2363295677323697 0.33602460685222457 0.28334697372499074
0.022916582732233584 0.23886002162396547 0.32489586244578156 0.26270426562082244
0.01474431710861317 0.22574891442055622 0.3079486839886275 0.20177015256097908
0.01730454478239392 0.23446205913254553 0.30125760820099123 0.24883546272626483
0.011926318334587589 0.217436516600505 0.2737583398809896 0.17477141505443777
0.01132831236491606 0.20590452189521685 0.25912603113378585 0.15171505926958817
0.12196455529348706 0.24173306602168185 0.3883367028545757 0.10976890122918818
0.1314788515947997 0.2332859095721866 0.3889281134659357 0.035539855762300024
0.10513861806827021 0.23878847922661506 0.38506031319188366 0.09959197970924868
0.08552774480691216 0.23204580175235098 0.37967458798242726 0.053350736056741545
0.02488179219864792 0.2202119282240744 0.33634567627595385 0.2705563914753942
0.019458156727517176 0.2267081130166254 0.3266180895061867 0.22856154544552323
0.015880581701723573 0.21707907393860343 0.3167932938508936 0.211274446889793
0.14800211317911813 0.2267552104951292 0.3890881411975016 0.061326829747728615
0.05115858882857232 0.21612596941587572 0.3598873248961661 0.18615982998957062
0.09855904219989362 0.246973861876351 0.31951922115400816 0.12566811081507634
0.056612600950813406 0.24962888782045523 0.3266969738943852 0.21950046829775646
0.19092375061792854 0.25056606628651723 0.3292256530970295 0.16256857692375828
0.10594449661515065 0.25005121488470694 0.32783686081364033 0.17080501030720477
0.22473157211827383 0.24990359360530856 0.3274339117384697 0.13955323434130779
0.12527480802513297 0.2497943968668193 0.3271420575609973 0.18214657222165778
0.17940286483458584 0.24932624797521252 0.32587488701804096 0.13905534616320256
0.0677003663782885 0.2491165987103091 0.3253119222186505 0.1665371760739745
0.08373026305953343 0.24854288535074184 0.3237606809456317 0.13273770142747832
0.14615368127044379 0.25042209781419716 0.3288380000542829 0.18020772866284746
0.04526291088016673 0.24731820740348462 0.32045173169286645 0.23288210112602012
0.2422865841367896 0.2554871564879601 0.3436259121390375 0.13207705513052254
0.13153181361705535 0.25527997430141863 0.3431145581444679 0.12057026529015849
0.1589345436809929 0.25320965351158464 0.3369904344084508 0.13579824049192496
0.11053622012940599 0.2591324119282337 0.35448345709484297 0.13839518017260022
0.09332995908298902 0.25274782597123324 0.3356884610022043 0.1297760357257354
0.12134814481193325 0.25347369038106127 0.3378019588466102 0.13353808063652112
0.2665555652479664 0.25114809436876173 0.3308203837575216 0.1767093627777448
0.09260629299624332 0.256598463993808 0.34703392838172875 0.13079993139459611
0.04431447623569829 0.25140057542378574 0.33176300220537214 0.21471718053570216
0.19639956455345178 0.2591002392000299 0.3543118801038879 0.10612478599549849
0.15007061258425392 0.2628818443515944 0.3654947471911734 0.11694921781515041
0.22496660320845485 0.2563866595423623 0.34629153406080043 0.12370349400237024
0.17427202552880844 0.2617762600045375 0.36221581060799757 0.11732645775630338
0.18839248650193408 0.2552215811921564 0.3428916677902319 0.10478759311722363
0.14137966548359063 0.2601781083099619 0.3575367230666527 0.09853723266457427
0.20758737652735654 0.2523328025654649 0.3343635290178264 0.13721106107213463
0.07615909568702753 0.2558646307292564 0.34488660441174807 0.1838617783981363
0.2557044357228664 0.2552613918014184 0.3429487602665811 0.15206931823611558
0.1078214181805057 0.25453079225275965 0.3409285089127298 0.15219411090282492
0.12499255730476634 0.25923328254840394 0.35476771540296803 0.1175880213822115
0.15582046242025438 0.2588754151492402 0.3536857899822824 0.09785210213506096
0.23173152161824415 0.2531595106823956 0.336777599060296 0.13181070976274678
0.06625402707219484 0.25313290386852594 0.3368471990342754 0.1719917836944684
0.18364518561064327 0.25925649936364514 0.35478366312392434 0.09684358305919795
0.17578109226045371 0.2544694447878471 0.3406869883483713 0.1243621516738076
0.21236398037234935 0.2564671939496196 0.346540076753826 0.10228058035119396
0.11294036140808499 0.26331805624041915 0.36658689960389107 0.13530750630916408
0.09371648484518472 0.26275014190910184 0.3647014018885399 0.19712126648545647
0.06818560647331362 0.25884097503210324 0.35306348336729776 0.21477225303311778
0.22300658635485707 0.2599406084191723 0.3567535854197274 0.11722964607499413
0.21073897894851923 0.26030780629701517 0.3578544091438815 0.10225137026420394
0.16875459121736852 0.2649166289997747 0.37146707027987996 0.1495208162592096
0.27928252814975907 0.25370058774960325 0.33832403827001567 0.223630170907948
0.1865149851342095 0.2634055278919304 0.36699658595103446 0.11225535195866473
0.24575236965986336 0.25909945192680284 0.3542416431898616 0.15229916463365628
0.20617466502275417 0.26394345147439136 0.36854063252176605 0.12457955544594981
0.295262615701851 0.25196672949872573 0.33315809184836137 0.2378058468822965
0.23426027640413943 0.2623303903865438 0.36358215883083633 0.17214292280880109
0.2657765466176962 0.25848982685337524 0.3520895147030817 0.18638452900264316
0.21932751673685336 0.264079656503701 0.3688239040253624 0.17211824776242776
0.25635971999363383 0.261206032815577 0.3598839674688217 0.18262221565607772
0.283953523042319 0.24969124611561194 0.3268574281962922 0.21403815127715559
0.20258092395954488 0.24863400747788844 0.32400291700927475 0.17878227620135007
0.16910934201852654 0.24757799207144693 0.3211495556332486 0.13677520199459417
0.23201247364333427 0.24656643297245956 0.3184120389623015 0.16207386012893538
0.24866731141298487 0.24768299714192926 0.3214298472697164 0.1344987301167143
0.261806414557538 0.2469037686979631 0.31932266236490375 0.16796268036626558
0.1938312507609628 0.24603554664018018 0.3169785418355434 0.18604568292714177
0.15174882410629917 0.2431635656472948 0.3094387309959421 0.18383088654071117
0.2789252037918281 0.24453893087808073 0.3129334927535876 0.20815499789769687
0.07478068937351512 0.24115212641586858 0.3043117869566945 0.17565903763261004
0.22198509012971676 0.24437495542238144 0.3125229431778408 0.1757745125760737
0.10120301380964007 0.24261923970794433 0.30805564632672044 0.1759221561063398
0.029133345479760056 0.24379895217062253 0.3110797417265869 0.25422144330854607
0.18168932114169353 0.24320776398308783 0.3095472583220117 0.18834102830263447
0.04541995584270173 0.24247361663360906 0.3076918085303286 0.21398587887304918
0.12571693570180478 0.24320239478255856 0.3095417248985607 0.14671734866965375
0.028282727409935274 0.23826773271192422 0.2969504378926351 0.26714343698427306
0.14036384229609625 0.243346504414513 0.309907709972013 0.20373341335186207
0.11222505078221107 0.24069189477084565 0.3031306575299898 0.18428759115207868
0.09253226130569127 0.23928935337612192 0.29955076249826756 0.11826316883406046
0.20968829149107956 0.2444328397427719 0.312672605486501 0.14521474328047324
0.055681078293090124 0.2408273812699927 0.30348502171513264 0.18102062947740605
0.23850677299566517 0.24225098897699723 0.30709966499442143 0.18957219759405816
0.29071056220545427 0.24206899781298769 0.3066390512612602 0.19778090711778346
0.14185833247134255 0.23907074044343507 0.29899671059121247 0.1856067439801594
0.3079454520465928 0.24288834117825292 0.30872624688993994 0.24975811740963375
0.19813795563588593 0.24064868908134113 0.30301760986979853 0.15530838513117912
0.16947465308873708 0.2387465583463557 0.29817272693207436 0.11869278229708705
0.21099485368993778 0.23966290698195034 0.30050822111409425 0.14449543681279609
0.2427162771317015 0.2384422898595189 0.2974018840456977 0.1691986855850058
0.2304060037833779 0.2379246917604825 0.296083278504219 0.15660099492560486
0.2985482386199819 0.23909326137870904 0.29906241826593816 0.19759794332071517
0.12964362477587854 0.23864743647176107 0.2979182091840873 0.11911919463395057
0.25720406120114825 0.2431948575500994 0.3095040144364018 0.1783193316698755
0.2554241253812425 0.23782444485896342 0.2958293573641001 0.11322576832624916
0.2883439634000718 0.23687945009576455 0.29349140033840254 0.06857285722322826
0.036894798835811524 0.23511698834377984 0.28923700824799164 0.1517416976273216
0.19325478180949726 0.23602114627186443 0.2914183334404149 0.07227130374136317
0.07813386339077423 0.2323347113731356 0.28250144835203694 5.0192244890590475e-05
0.07262871257133978 0.23633386410891166 0.29218053295510454 0.05983246048093016
0.18106318035718413 0.23567157990707954 0.29057284597594496 0.0745176166159066
0.10061175580434675 0.23570715453837 0.2906625144844223 0.08030431360775975
0.11233802768259758 0.23521125443609736 0.28946180544419287 5.895915111011972e-05
0.05903451628528304 0.23556580594474275 0.29032226436842584 8.015456439367016e-05
0.14970810331274723 0.2349196309376871 0.2887543533555489 4.736656704729729e-05
0.2736607561766387 0.23675343874355287 0.29318707635806784 0.1488565224041864
0.2373047426486054 0.23408517488675779 0.28673094020200646 7.555874875479414e-05
0.29578353586059786 0.23326820432366518 0.2847511540594709 0.024897392848561455
0.10528621094475563 0.23133630761940235 0.28008392120539616 4.781360036789818e-05
0.2253626198125199 0.23288628095575226 0.2838299057510224 4.435186493979464e-05
0.12818408132799333 0.2325563055632803 0.28303555220684623 5.3163289178285205e-05
0.042697065142179094 0.2310659281775991 0.27943228831836775 0.018441548340027793
0.3149581984933463 0.23247647238144656 0.28283416970153474 0.21009125513927432
0.24984417565137296 0.23325121907775492 0.284712056126594 8.199165927534517e-05
0.09156319704202344 0.23214757516557497 0.28204794704192515 5.227669403985548e-05
0.26254681902039984 0.23406785115310294 0.28668790914744824 6.533717863402798e-05
0.28035332790666007 0.2330881264891462 0.2843160056309706 6.108511055051385e-05
0.1669840672577336 0.23314975918513062 0.2844701282333262 8.208605259266419e-05
0.2866521359403757 0.22860663260995415 0.2738493397720914 5.3502260018580476e-05
0.19896278190191752 0.2311454344436798 0.27964407059784 3.131185120670252e-05
0.21058224626335792 0.2312816616905215 0.2799608910808533 7.558250697143145e-05
0.14348686152180348 0.23012511241393266 0.27728250879922123 6.36844769462441e-05
0.06021004102135963 0.23070852893495866 0.27859137588854277 8.2232022634109e-05
0.30917076790225184 0.2268035510920826 0.26971952985900577 0.15451702555198316
0.2688756274883158 0.22801627313101183 0.27248810160755915 5.5721474466901746e-05
0.2358041565198445 0.22934761836191003 0.2755315089002939 8.458090838603067e-05
0.03892711538710397 0.2253752066454709 0.2664939823297937 0.03756676608976927
0.1746276123145164 0.22456070714810233 0.2646047819539694 6.512182699250256e-05
0.14054829625228585 0.22401071299350658 0.2633701946922049 5.607113891475352e-05
0.22064813763872074 0.22372908091695426 0.26270611180781756 6.420375151334237e-05
0.12218212468296186 0.2280935299534745 0.2726237296277739 4.850321504645925e-05
0.031410865713498735 0.23040696762140656 0.27789331618618557 0.1272900640640824
0.16236709045792974 0.22623381770655349 0.2683983653979811 6.553635251563707e-05
0.08556980748200721 0.22640332281183465 0.26880740226478933 9.214982297595603e-05
0.09773833609121213 0.22476140337075845 0.2650844963939148 8.014340194483322e-05
0.26060663482039104 0.22470779603610722 0.26490982446964806 8.90609625223166e-05
0.07018769715825163 0.2287350473601091 0.27409375888738957 7.401861626701619e-05
0.18732857391480284 0.22615578345770518 0.2682134572985547 9.911594970347868e-05
0.2410205559820288 0.2245624679592279 0.2645870621058631 8.212647698334527e-05
0.0516592032626187 0.2224744578913018 0.2600144154711342 0.00047692011524522334
0.11274883427437667 0.21995680090519684 0.2546164924254323 0.00011827807787433375
0.02391232486721441 0.2194054316224357 0.25343468214306314 0.21794985742590328
0.12896915062788666 0.22152983195963238 0.25798893161103736 0.00010977647513904317
0.07054599426874006 0.2214448053295231 0.2578068334774537 0.00012521891871581698
0.08635793514677423 0.22155512384362705 0.25804329778175267 0.00010055393779658043
0.20166885478923444 0.22288514280359042 0.26089440261349334 9.579793837665967e-05
0.2727396814277563 0.21981883511996197 0.254346428291666 0.00012185919472321444
0.2886116409341691 0.21767521536642878 0.2497705129445444 0.004844414310191726
0.1839981541820573 0.22094724538518024 0.25674241669176495 0.00012183449633131226
0.30424773153119467 0.22245761459764207 0.25998746823525914 0.09483616618033525
0.17243064482664455 0.21777081107660756 0.24995620219913997 0.00011247330359649986
0.24586471709584204 0.2185052773736767 0.25153659482822743 0.0001553219804700111
0.09656945903353031 0.2187830116557143 0.2521060343459046 0.0001038063972990815
0.2833210393153786 0.2223088505048063 0.25966640091632365 0.0001122187080927045
0.16117738622576683 0.21815673973123714 0.25077869548896836 0.00012070138105451275
0.058851636910459436 0.21521042300292878 0.2447108853971252 0.00013560753082872236
0.1420409848900267 0.21767102590676468 0.2497405048910064 8.540279168981996e-05
0.11912417654382688 0.21551847337262378 0.2453362875001865 8.608561754328102e-05
0.030032459003649963 0.2143147873242537 0.2428800273481187 0.21128581897086915
0.10286550644956034 0.21304701571191892 0.24027871490140573 0.00010412991235447623
0.04154788395564027 0.2163345375093078 0.24701338090006209 0.024728460465190744
0.07032625433259342 0.21583274723931642 0.2459837728012627 0.00011458152069450686
0.08221763965880376 0.21415884742119268 0.24255635454458668 9.248402749846117e-05
0.31186664825110355 0.2132359559494397 0.24067348921202197 0.26022946084340065
0.29926739362731347 0.21585081533266617 0.24600784670061662 0.01230199781807493
0.21238791390299405 0.2147522036645221 0.2437621499243042 0.00014090696034673732
0.15343250840644734 0.21374419260768035 0.2417026677147039 8.330799305825582e-05
0.2566639455328059 0.21431255222690476 0.24286731645469375 0.0001225041724080922
0.2260173399942354 0.21193544186818852 0.23801591089459817 0.00015448090731781433
0.26761378467847585 0.21220481418301232 0.23856753395510125 0.00011751538453980396
0.19393024724226898 0.21311397719419226 0.24041885068680222 0.0001110938902354277
0.23808695602909377 0.21330218230489523 0.24080499741951372 0.00015134878466904845
0.2043519204529058 0.20968534518438303 0.2336431556750577 0.000138261471281626
0.052970524119822435 0.2108440099740918 0.2358375652805317 0.00020118169379956314
0.2816396519077366 0.21026083724973876 0.23478091352718902 0.00014427296438093912
0.17526756939482008 0.21159394756957378 0.23732697431900018 0.00010965704625750603
0.09276350771728406 0.21049377441984282 0.2351723785576363 0.00015107082928332813
0.24719291479444472 0.20893832568303586 0.2322111905322997 0.00017841724665084308
0.1134645656048445 0.21054711002672521 0.23528207040450344 0.00010906146991744082
0.16911190762245445 0.20637653747628645 0.22734095014450006 0.00011921685779627788
0.07547864953961919 0.20412576132652255 0.22311518017579618 0.00021598262233453203
0.047892257097227 0.2054533674759266 0.22563756972034404 0.012581826125694508
0.12667259154101052 0.20641442893037065 0.2274279530276715 0.00013563710255513182
0.15036793944390214 0.20515287469509524 0.2250319666845595 8.909162819139307e-05
0.038610360446094796 0.20941241738655247 0.23313327686290602 0.09224796635397646
0.07288186590851907 0.20964065972305332 0.23355286635966938 0.00011355562781502254
0.1071248476531301 0.20514630868942108 0.2250351250677489 0.0001437555894006426
0.19482564505373126 0.20572650864148467 0.2261015266074448 0.00018433136248311664
0.13811561218569576 0.20575212502718263 0.22617044236097433 0.0001059870509764716
0.062277328614369444 0.20541261849779616 0.22555526950355037 0.0001554401470833939
0.02698968670817657 0.20680883254341742 0.22821027250969714 0.21375358343516396
0.09408373511360213 0.20474320970493973 0.22427697435229793 0.0002185688039402697
0.30120856759481596 0.2062599578354847 0.22708368627353023 0.12355937877412768
0.23775016361952273 0.20475225174405234 0.22428277590522408 0.0001312333432646248
0.21503083305496143 0.20488715928003853 0.22452480788295842 0.00012807683353121424
0.17989801643900916 0.20281196462217643 0.2206854500342944 0.00019139024238581958
0.2751723730216391 0.20386761239863843 0.22266193732433703 0.00019918105483332513
0.28762670174362115 0.20587350921516384 0.2263665809152543 0.00041495114648491187
0.24624114852630374 0.2012230599592258 0.21778298116730518 0.0002085253820017309
0.039982274706906205 0.19698822051931317 0.21038126994232292 0.1459453890940279
0.21014130666497657 0.1997404024130632 0.2151837193522359 0.00023879414179263966
0.15308564571889477 0.19908651011459294 0.2140463183688326 0.0002369520773123398
0.1347680091479032 0.19871971237782446 0.21340532261277012 0.0002312902107941395
0.08406830606101713 0.1988608454273543 0.2136645155101681 0.0001563970245920672
0.11691282137084992 0.2007989727972937 0.2170653851939305 0.00013884863605858252
0.06104929135135878 0.1969967398046701 0.2103916695563754 0.0002954072243190706
0.17535536037577573 0.19695815411336823 0.21033509161403188 0.0002378922223787864
0.25896145460671616 0.1975931967788264 0.21145064171251218 0.0002366746425551697
0.19326647211261802 0.19864003896148819 0.21325840049523948 0.00020390655022827517
0.10415251392874703 0.19664790572535373 0.2097854416010091 0.00021187659156069518
0.3062765831547233 0.20007821620257046 0.2157730852271601 0.16654575852282133
0.28596028429832987 0.19812749141410144 0.2123825718169302 0.010551120795176961
0.22793436748042245 0.19832630570170595 0.21271891939729404 0.00019788003777051954
0.07418780460422751 0.19517346052345136 0.20728532032466265 0.0002444522590736379
0.2456776149948884 0.19452012221197384 0.2061932436006024 0.00017159710824867316
0.14484352639940884 0.19362691231419232 0.20471591658883043 0.00013548671100534863
0.04153625582019855 0.19070412095693573 0.19987114274734516 0.15910320425143604
0.11911949836370313 0.19524304102159187 0.2073986667010343 0.00015416657419602337
0.09224683372572484 0.19454163265566776 0.2062361204873625 0.00023764712958479985
0.21895327612723176 0.19308891108115053 0.2038259181361235 0.00023469082746992558
0.3000344995763769 0.19399902124832538 0.2053417541255203 0.16941582246574252
0.27032252717906163 0.19294704732728118 0.2036035993056349 0.0003146577928331201
0.18641268097950392 0.19255024284444378 0.2029321081279506 0.00020921232923364497
0.0669180240583578 0.18981149152348034 0.19839773308876887 0.0002597126851004989
0.10506646974154871 0.19058965080040002 0.19968699696112502 0.0002526240732730779
0.15500191214986175 0.19076477854966079 0.19998617085344378 0.000162043553351336
0.16740146092366326 0.1924517013935041 0.2027657501436262 0.00019885826048668628
0.2299220651229931 0.19176158640994623 0.20164337752130074 0.0001751671488566521
0.19867813766932663 0.18859855250977942 0.19651520696643324 0.0002990171550126424
0.11690842976836431 0.18458294160534433 0.19035110264917748 0.00018403800100448466
0.08492110718486227 0.18860654958061251 0.19653315620457454 0.00029199588194480926
0.2603927678427892 0.1880664687227231 0.19569482647742342 0.00015682151504194737
0.05234607987521646 0.18534022962133706 0.19151754977596544 0.06015410612078045
0.07522265991530186 0.18436559776282524 0.19001932781570918 0.0004336124441153119
0.09497996297646892 0.1853134170432001 0.1914742410738455 0.0004275274245030496
0.22230797474796277 0.1868457527413324 0.19382203039967993 0.0003077208204257814
0.2839324775181113 0.18818915130004216 0.1958846340770838 0.0034955752109464555
0.03948084820578966 0.182031479823867 0.18643653481358805 0.2101327635003667
0.2422202134892691 0.18277926873457068 0.18761194845299484 0.0003474087671777153
0.18489639021326176 0.18451275864803512 0.19025131532404788 0.00034195000512607376
0.27312220777209123 0.18422864150414464 0.18983149640536406 0.0010398434265843802
0.16736215169488167 0.18491555327882483 0.1908639172653026 0.0003046330048378271
0.2098635183434739 0.18545877013484152 0.19170080043205356 0.00042951944535803957
0.220314399056939 0.18046503180967566 0.18420269412340545 0.000497697948915216
0.2037621103731967 0.1795129582504117 0.18286161651973457 0.00046934400478678014
0.15325396168246688 0.17848308868572127 0.18141517735334667 0.00040437040837554945
0.09562588658182092 0.1783619192174174 0.1812516875038446 0.00044794437182366765
0.13409314553589233 0.17985607421008465 0.18335471646485169 0.000358760767465785
0.06929274286711928 0.1763562327377197 0.17842540019850942 0.0029565642888824185
0.10656437804784713 0.18024213826053628 0.1839029537107609 0.00038577788192727027
0.08048707858052054 0.17749832341079255 0.18003525458488082 0.00047540701048281016
0.05044120405184338 0.17626442229541267 0.17829831115435724 0.10463772399617621
0.2703422005155143 0.17589978990752114 0.17779874255711983 0.002542833596237827
0.29244671160010505 0.17486399188970464 0.17634902879496778 0.19855693682289682
0.2411441555856781 0.17562118926930528 0.17740554144344636 0.0003039991072198584
0.18660106387702283 0.17736896647176242 0.17985014480014666 0.0003244106237241921
0.25152653644702944 0.17895364908993935 0.18207726744568511 0.0003935027900605682
0.16954707341108413 0.1752967132631432 0.17694409804302952 0.00030333642826801423
0.2837757609545583 0.17887664622524962 0.1819723401223366 0.051057205076040287
0.09617569729483146 0.1706690006530639 0.17079239121902579 0.0005884123813356894
0.10879317548682271 0.1733099089958065 0.17428583551406882 0.00045022904430059625
0.12856101421120986 0.17050022835649836 0.17057673614447583 0.0003212313011062971
0.2031226479392585 0.1710401684367806 0.17130357245695818 0.0005350746741958383
0.26168545646233915 0.17131996860114695 0.17168519319937972 0.001604803562472679
0.07479385419480922 0.16986222735277312 0.1697264603747363 0.0012182152417621029
0.1397518198105903 0.16711853101895982 0.1663102739506451 0.0004205666605540729
0.21671327140234206 0.1674894918885072 0.16674357945367746 0.000686462970788135
0.08649782977788359 0.1634455324314792 0.16185554718315087 0.001087517388904269
0.1800374056342473 0.16864231326841989 0.1681541436774101 0.0006564764897908728
0.16606861835623252 0.1663039498412311 0.1653134790211521 0.0005321777604047188
0.23700214719024162 0.16823265857553216 0.16764270786186647 0.0005141176502549716
0.11769452941302513 0.1684317447562752 0.16791251499283769 0.0006846061312127615
0.14811572559107414 0.1611787615042247 0.15918712620333395 0.0007726281654762628
0.19857195318817272 0.16446859074077053 0.16311372071788968 0.0009144294612116116
0.2727424280807838 0.16287293275157097 0.16125710921331354 0.0411186204195292
0.06845719054100878 0.1623573312683144 0.16054636094651503 0.040667575186959
0.25872841921009154 0.16000775664545663 0.15785189375441128 0.0029420592105679384
0.24476428407791298 0.16207294703074543 0.16029465445341445 0.0009454634754409611
0.11909821517657887 0.15916435468153103 0.1569206617535481 0.0009256747292597222
0.10138452002066399 0.1598232502634778 0.1576665527004984 0.0007709132215615432
0.2337065446245127 0.1584257495487036 0.1560466028088271 0.0007488694445493085
0.21752343296705084 0.15924698376158533 0.15697390625725832 0.0009626857349015702
0.0773086007984314 0.1564253938607184 0.153866280491788 0.004328097609623791
0.05418493369183932 0.16043393301325098 0.15837018888526733 0.20381035466803907
0.15972133603392766 0.1581727906282031 0.1557925880790084 0.0007827751120062211
0.1874436451349159 0.1576017509678474 0.1551417460546094 0.0010178925473476048
0.20879957019151582 0.15305580548827463 0.15038747764856503 0.0007320984846369756
0.12867269635005527 0.15498592043784226 0.1523643942276526 0.0010777361803772742
0.28286244258710014 0.15850641882698002 0.15614628712500503 0.2529528348970367
0.2574364622750605 0.15179984226568957 0.14909900646304938 0.002949569272075894
0.06538591970129355 0.15437970496922046 0.15172438715181572 0.1272499841860185
0.11423655445585332 0.15067001611138403 0.14793291117834786 0.0011347958297399329
0.22884670252502357 0.1505270350406787 0.1477610908851321 0.001152107290489146
0.07758837320290121 0.14425919915532132 0.14180441884362416 0.07728849470280845
0.0931504629796927 0.1484082281458691 0.14570443007830564 0.0032220567993245398
0.1743406623468981 0.14700523985778557 0.14437517220508597 0.0012539960791312305
0.1540753173198623 0.14622331532554206 0.14364227747934533 0.0011156124591975578
0.1373573933881435 0.14908259236878355 0.1463332704405482 0.001080828169070612
0.26481521152598464 0.14316174019313382 0.1408453896949236 0.1596678320185193
0.23782002984272518 0.14357454248354906 0.14121799755656061 0.0025037138264546776
0.18836514720104816 0.1466988711506419 0.14408971526215147 0.0014195355687727231
0.14046812709512144 0.13841268241657093 0.13681035214512094 0.0010620422321972972
0.12430591902756155 0.1416485526445256 0.13952752678137664 0.0016077699945465714
0.10348556581693527 0.1382928395476684 0.13671420212361401 0.005518882335496418
0.20224963468506965 0.14184421219549684 0.1396824095130605 0.0017497725866088877
0.1687944623512565 0.13697160176344697 0.13560328544019865 0.002022768112850126
0.2535709317276626 0.13757676992869788 0.13611677503597625 0.061819444037169005
0.15687786217443134 0.13615608294614795 0.13492212338593884 0.0014986655018183613
0.22687060174187204 0.1373207122700704 0.13590047713682066 0.0026173674475150257
0.21331290353746518 0.13684078339296485 0.13549892505669256 0.0016358974100912655
0.19222507801067035 0.13756662165453099 0.13610183273927387 0.0021639383182208917
0.18442353929081462 0.12944893195560161 0.12991718745143982 0.0015126869433388062
0.1150600373624939 0.1340603039165632 0.13318751685798993 0.004933928853296263
0.23361641463347727 0.12788390962634238 0.12882170858393824 0.005845553473422478
0.19574744907429875 0.1273282849795421 0.12842894940178884 0.0011933125924358857
0.11037977266210752 0.12577039571389453 0.12740705253661305 0.013635485983584873
0.0781292650564862 0.13281424322554478 0.13229949632956728 0.21271210497402399
0.17224108687027379 0.12741804261100356 0.12850631450047875 0.0014793500369182434
0.13232476035438703 0.12518864095345128 0.12699044186405567 0.002735541696691918
0.09070143792700953 0.1290918862475672 0.12971696753458817 0.12235417799794235
0.22311886069908746 0.12208962480447265 0.1250202710440269 0.01165253277965856
0.24446090790925992 0.12323873989968258 0.1257387035669366 0.08135038595485039
0.14586579727481774 0.1219237350356242 0.12486859809370966 0.0023250563795189183
0.12970462135830815 0.11579464227977047 0.12125516652607103 0.009511243664150014
0.09876220259282234 0.11798314758409043 0.12254752728853627 0.10558599479890673
0.1163833861927917 0.11544961395144494 0.12105923596770048 0.018336113109081172
0.15863916940844933 0.11811928179273921 0.12260137496545698 0.0020873208770512074
0.20343047876781734 0.11775912058406811 0.122371641838414 0.0050165241425398676
0.18852991876867367 0.1134462411294809 0.12003342985867213 0.008850019079394318
0.21724683343729265 0.1133675630417709 0.12000975558701138 0.015660136370202075
0.1649729993378286 0.10804722006951974 0.11725512767203497 0.007849531246324336
0.12252805666954479 0.10655592385580044 0.11653437940602125 0.022012249701227775
0.14406542577417014 0.1028444942854038 0.11495850185200507 0.007560813091449399
0.18112432539713338 0.10522553360683759 0.11594067481041836 0.012922996656699492
0.1995492646795221 0.10359976442131742 0.11524569202697807 0.01842558742918793
0.1805683511585561 0.0940484675940281 0.11150234446312006 0.018453694152414116
0.16236351820598505 0.09114058313772291 0.11053687582816293 0.021180579802744327
0.05208435389992811 0.25642154832422304 0.34713008980813453 0.2770806479146325
0.1712468277112198 0.25260101442348026 0.39120551481417054 0.23793948386693264
0.041147868021177446 0.1675757837468745 0.16879124496443534 0.2304820593966921
0.06369081230268601 0.1414068653527208 0.1403329280382857 0.274864515673222
0.11271331961515746 0.09924481613964656 0.11523281004213112 0.11834223648426588
0.12604533504118867 0.0956633130856991 0.11301449317957957 0.022868868084025842
0.10866895748079158 0.08747563141248643 0.11798967152855128 0.20639362657784766
0.12125928387618677 0.08485178081783533 0.11493016663072919 0.2425994198562553
0.1398141611791457 0.07806841281806846 0.11297751173693085 0.18862442617365924
0.1499127404213108 0.07384592686386604 0.11297677373312548 0.015506407617548991
0.09507221312130636 0.09135531833061136 0.12362730040638711 0.21835996769283994
0.08228474135032929 0.09678067979530854 0.13014228641417405 0.18222959546252346
0.11284475346150347 0.07194241843523794 0.12516037712612277 0.23425443592727588
0.1295694084402643 0.06305955951508661 0.12396931287832229 0.2425908145530103
0.14388971634872705 0.05677358137766396 0.12427698969233411 0.2676680068606069
0.15537003626253051 0.05621170130425797 0.12278226327896391 0.24226338605597444
0.07948743734887265 0.08527815768702957 0.14013955080229287 0.18462667747237224
0.07410230206192564 0.08483752771640374 0.15053033752856737 0.2033074458690094
0.08893434378687487 0.06910179395255284 0.1488189166649506 0.2513404116653836
0.10629283044801882 0.06181129252856491 0.1377233634076887 0.24291113206834908
0.11656019017250135 0.052397447080430634 0.14130779717337627 0.23978319084370106
0.12894470377602024 0.04871887945362638 0.13746020597992933 0.24889891427481795
0.14062919972427562 0.04687839826519715 0.13407664367211528 0.2654983659163249
0.1481022428263366 0.09199011386859933 0.11094157538287688 0.0250934018513617
0.16743218130275514 0.07748667263013219 0.11080165069139095 0.016312529601177045
0.16884069999872584 0.05799651685920845 0.11986718277586085 0.19237052389430123
0.165117230775553 0.041384272938092125 0.1339093852214654 0.2561928479549762
0.018897247888703693 0.2116801694957007 0.24102030860222348 0.2540530290409933
0.1666072806488469 0.23443118724994005 0.3917866541933959 0.05431150732206305
0.09448781239060086 0.06354179312342224 0.1571680087036226 0.2528542701901226
0.13421466210577762 0.04336495053028943 0.15463467183890006 0.27708393898744077
0.16040102492426112 0.26370342504894934 0.3861987193781107 0.2039005936488121
0.07487820565947635 0.25911084691465236 0.3685190153043914 0.2514906500550503
0.04035859245387913 0.251821329488925 0.3436992022930425 0.24451781979207707
0.01715741416388029 0.23058542102732515 0.28330082641558707 0.22408424891809386
0.01528013064898557 0.22002827766127137 0.263308322323612 0.20986541753901905
0.02022327081345983 0.19469483612997632 0.2163512134371685 0.1258808968885301
0.02543559896767207 0.18352454882503536 0.19773972374292598 0.10870417199022167
0.028570966075974112 0.1730203179792222 0.18565479721062073 0.1091135850035444
0.042781351616611354 0.1575325944988095 0.16066871373118918 0.20851395831717884
0.04966888236316952 0.15011799461464187 0.15141873920380278 0.19408564775747053
0.07685716326112146 0.11076276833249345 0.12812609417101048 0.19635686392656398
0.0901494353543972 0.10861725207867404 0.12143777034216985 0.23604256655785041
0.09964022959954755 0.10107245881347368 0.11831265453344872 0.2194712593769755
0.012885058478132226 0.19150791675292617 0.23917750857342898 0.12892527375076562
0.03202595554597552 0.16470926015253293 0.1780075132352032 0.13019419636767998
0.037771195889833326 0.14792515814026447 0.16794660264178563 0.12471974594211374
0.06325143915661088 0.10929628281020354 0.142726502759328 0.15809973106648104
0.07190454831572847 0.10117345695977867 0.1374824193047511 0.14906887037757716
0.15246211599866474 0.23731185650744496 0.3909592202091787 0.07497152003788947
0.07310485164628666 0.23011768228098856 0.37516766450924843 0.21439284154762084
