x y z curv
0.23947687767763887 0.33024232247528895 0.8264417492626286 0.2240272620985226
0.24954093490582996 0.33037180475540945 0.8588964715527617 0.19304523088512623
0.20530197430218117 0.33161723417183053 0.8294856677207705 0.18554302732157274
0.21467949021631827 0.33146388134546134 0.8215001060109207 0.21494637310703016
0.20056063509231697 0.33220531624958427 0.8508057185414653 0.10040994046099379
0.218842185015747 0.3176143535975117 0.8368830589347053 0.22486681215258095
0.21536367283429642 0.3272318880246131 0.8442438283900622 0.2614557214311541
0.21518022159665556 0.3092436832906441 0.8450131185695772 0.1876075373393269
0.21601377617535472 0.2949565247918102 0.8519650491439579 0.1830881389376319
0.22274581442426677 0.29898377922787045 0.8335874571427675 0.17423455277001015
0.22188470635225266 0.27906822500321166 0.8340050600216237 0.20915641936266224
0.22206522768874687 0.32759013637735596 0.8592708792277186 0.20134240007068674
0.22648867998299105 0.31467899759694345 0.8610152199054861 0.20782751050931905
0.22894013561155604 0.3122968768248231 0.8317535945097272 0.23447551266051178
0.23448709244116195 0.28107095737221066 0.8323987870656911 0.24071794923440984
0.2386896676173746 0.305272670947246 0.8346734466003329 0.20102264419250454
0.24252895119195017 0.3231880157241905 0.8385866979302576 0.2388462646588302
0.24037355230458898 0.30100347549779816 0.8571330754979154 0.20250208173451767
0.24130003297126523 0.2862122330960687 0.8561863154048032 0.1877555027325507
0.2442414618960627 0.31723204517882936 0.8505305897166646 0.18673155082343193
0.2447522557339415 0.28775529990313153 0.8446271325448226 0.18269576231909473
0.23182038109916783 0.27990645269289816 0.8612626966809668 0.22217730979590744
0.23719661526284222 0.3220654759908461 0.8595991888450516 0.263880946641266
0.23710946648807024 0.27527515867153646 0.7297874071408497 0.21751972862862154
0.2352910431437727 0.27918029194290295 0.7575800456633224 0.07006184802051427
0.23341736843821642 0.2805927573871345 0.7739566352790153 0.20089842052246978
0.22715595459777674 0.2808415954778344 0.7456483921245295 0.1375963853062012
0.2248224415239676 0.279237531219431 0.7329867895429677 0.26984662847597757
0.22253504288823758 0.27552535421202157 0.7782299803685254 0.18126384086470002
0.22260835107921131 0.27384131840564463 0.7580872977334443 0.05933555633030432
0.2256279840032474 0.2681929201136846 0.7671576016548509 0.11352361507355013
0.23556538929322238 0.2694269428870101 0.780853865289022 0.202784095605533
0.23373879902283873 0.26758370013419985 0.7450745919995061 0.16318270246075162
0.23038070355535534 0.2607005639756328 0.7237820029258729 0.14118328102032485
0.21939667650130615 0.29353311414626854 0.7237793279643374 0.10107449851096663
0.23057877981323296 0.29692514310752977 0.7237820029258728 0.09614019833913119
0.23121803507586847 0.2844429391203414 0.7237820029258728 0.16956506461658807
0.24826064837273149 0.28959593672540995 0.7237820029258727 0.11503461688129431
0.2419869394364715 0.26336956668634576 0.7237771396425137 0.10009065175394809
0.2549392819581248 0.277836513077696 0.7198949007286246 0.05689649893900566
0.2119673149152691 0.26534564633176316 0.8427055478683017 0.22695671653327176
0.20930141172969732 0.2644224691742211 0.9082555901551836 0.10603321605373965
0.21027233891751373 0.25964587405018097 0.8779332267073643 0.10975283550622719
0.20683697453866545 0.26904454345649675 0.8947752847224001 0.11520320177537696
0.20574411504941417 0.2743304520115276 0.8846680841659063 0.10267761466433052
0.20713495251123723 0.2764701757757253 0.9054248690830824 0.11304640503376055
0.20495944495151927 0.27424943985417155 0.8721818961045766 0.11442267172939051
0.20925255492791997 0.2849696951346591 0.8979273262663168 0.1093799665570663
0.21161911025950067 0.290369247876159 0.8747593468969703 0.1250540604364051
0.21608045780673327 0.2913299672622488 0.915439118286706 0.06691470095300811
0.2177056364346143 0.2540738199702742 0.8943335402926977 0.06973293529852063
0.21661146272199105 0.25597557932588116 0.9127075486007556 0.10780424221016031
0.2223295946330566 0.2508412011440978 0.8782602171670802 0.0819746099508061
0.22475468664465148 0.2514839672498843 0.9032366816565998 0.11256215212355838
0.2292796030607071 0.2522782241451553 0.9178195946482086 0.13536724013615875
0.2139136980648596 0.26501058689268364 0.918982017667247 0.10033610800907712
0.2342267837178459 0.264829663647248 0.9189800755325974 0.1555135061660213
0.2219521439002483 0.2762840729348719 0.9189857898438262 0.13861341433902782
0.22075776898240748 0.29620942846232884 0.8887801635111284 0.17024584564277986
0.22019471465326695 0.2952218956415191 0.9006074794929614 0.09838481319774985
0.23212488497375136 0.2985167948406112 0.8807940378190623 0.23358434345387363
0.23098724527669268 0.2976679347593254 0.8942578352183046 0.12100558421759307
0.23474339702235383 0.2501314075900581 0.8818710421777473 0.12636646988120953
0.23764088843210684 0.25213347318321044 0.9011150500212872 0.1208225131458812
0.23945661335389837 0.25345909255872784 0.9132703977942724 0.0898347730496388
0.23583474153216832 0.29594261502733665 0.9072854218702682 0.1008098512095921
0.24387655977094164 0.29290265053904524 0.8967285989222502 0.11551948336868938
0.2443179587833877 0.2907742512901771 0.917311892828122 0.09118253747257321
0.2496653311163436 0.25896118012594616 0.8769030865736238 0.09517514855935852
0.24715423283023213 0.25788157040400417 0.8960226914783255 0.08145533266353654
0.251858362914683 0.2700277648861991 0.9150771605081527 0.08005096042639682
0.2531733896060638 0.27208303564462727 0.9018856697016518 0.10765255840153268
0.2540363840375936 0.2755176701885842 0.8847025209543083 0.09972149194285912
0.2505173009109523 0.28390672209359374 0.9077509849763287 0.10774114869934039
0.25117439097222405 0.28616197982897984 0.8793108804978842 0.08263427200663258
0.25164074789742874 0.28320344584614743 0.8945295065950691 0.11954317521716915
0.2403658584952214 0.25442929929053304 0.8715647459030151 0.12665911072557856
0.2538882122442177 0.27166373048383907 0.8715647459030151 0.11174531838161843
0.2103187334976741 0.27140908238908606 0.8599106109529924 0.1980200864298381
0.21003713575264896 0.2729077423137579 0.8231187912144948 0.19240005823922635
0.21538729406192464 0.287635558192697 0.8293545280953222 0.20661028646704074
0.212374395793271 0.2832981933847365 0.8548070438680057 0.2035860831133059
0.21064618426909965 0.2781467278529689 0.8348173433436734 0.19468984004033493
0.22149113796616038 0.256096854897479 0.8255799156152535 0.17963080900099418
0.22639250748903694 0.25442816265434615 0.8432206433007896 0.2158876604902422
0.2228865200324252 0.25559088989966366 0.8542274091539932 0.19915805736545394
0.2248378278902627 0.2932153011562066 0.8687162398060004 0.2254718877430555
0.23252593448523057 0.2543842369045814 0.8241898215788581 0.1933525417348591
0.2278758540528959 0.25404111918895794 0.8658213309579117 0.20717952472335627
0.2395096631909423 0.2564124970045391 0.834350562098911 0.2161147876708066
0.2350972184748222 0.2548311548281524 0.8517338542424793 0.2279276222306932
0.22769070924473944 0.29371356689611283 0.8446473929537676 0.19364879406061275
0.2280338902193856 0.29373916599016825 0.8565186398870578 0.21225415759658972
0.23667330078868012 0.2926137702566185 0.8671986484404333 0.21422089136691527
0.23021676742896524 0.29383620522251147 0.8242794767956021 0.21417887704450297
0.24788528213301464 0.26509010903175323 0.831551397114141 0.2403286889747069
0.24677614924109373 0.26343712402320607 0.814969635619012 0.15304641490928939
0.24524997502073892 0.2612259398412825 0.8498442504264861 0.19120788943858882
0.2495456319981205 0.2708482463526578 0.8430118217227449 0.15748094444389882
0.2501549997373934 0.2738682905937453 0.8611523585418978 0.17572886267470522
0.24894930579915142 0.27988431885348264 0.8194088152699522 0.16888350464914154
0.24651759553795988 0.28502182769024875 0.8690194055114001 0.15809614817197562
0.24496272487689214 0.2872745884595211 0.8295606912935021 0.20223500733112337
0.2099060337180648 0.2596155184289824 0.8116662491747919 0.11332830439765838
0.2095054164522768 0.2860885075937262 0.8116684099683096 0.10208603983932778
0.21172158977080163 0.2691526168814986 0.7896742614809591 0.1287362210009186
0.20506639533463722 0.2721195749493063 0.8115564915892836 0.11398421379564554
0.20693536448829525 0.28250367763031553 0.8012892934794437 0.09778811104944435
0.2155682429019258 0.28857489153972615 0.7930194154235244 0.12821547458816449
0.21850290459661126 0.25884870048894837 0.7900940367092003 0.138457200090772
0.2198495650538301 0.25262304527511603 0.7995365353065029 0.09545502165860531
0.22673720784889329 0.2928865274387492 0.7903228392301314 0.133725140347043
0.21975701131831282 0.2969799282093608 0.8087641925138072 0.18755838456859966
0.23448554657160406 0.2529320029397824 0.7951532613665745 0.10432123853227733
0.23479107316732434 0.24983364532568186 0.8075354294720344 0.12910712768789068
0.24228855678760766 0.2618434901962745 0.786661075962466 0.1350526423380579
0.25008822065409414 0.2621592379358745 0.7986571368257314 0.09919913709381611
0.2552325117665815 0.2721322154296225 0.8103683510971563 0.07067145818407719
0.24542072449272664 0.2861404451277495 0.7911337851459829 0.14491722916225924
0.25276860847024285 0.28388328541591334 0.8036327473095646 0.10763639932769863
0.24055055878400877 0.2963074636016354 0.806506580840145 0.16234926495213733
0.017985201396023172 0.10007503613627602 0.7187846302986145 0.11124665850795606
0.015183545504464588 0.11822615529825242 0.7187846302986145 0.07629593092389417
0.015562799122235883 0.14820797254079476 0.7187846302986145 0.06027640566447897
0.025212559284859486 0.11172447102027544 0.7187846302986145 0.12094041352267897
0.03312570822550607 0.08878745410061198 0.7187846302986145 0.12374024414089257
0.022194065116348846 0.12960729062019474 0.7187846302986145 0.11541229833217528
0.03008152460704196 0.10133731853256675 0.7187846302986145 0.15390580387611916
0.04974662591106414 0.19689303926636223 0.7187846302986145 0.028702711965652994
0.03643694355783166 0.18112123546960654 0.7187846302986145 0.05747014287037982
0.07108052054049631 0.17978522247625867 0.7187846302986145 0.06470402637280574
0.0623421131411314 0.19085491837518906 0.7187846302986145 0.014711781613186679
0.019018055999083197 0.16891827631772957 0.7187846302986145 0.06950630809111533
0.025241652548996768 0.17956282592387113 0.7187846302986145 0.05358183483529359
0.03895130871377874 0.2080730212794517 0.7187846302986146 0.0759180934585455
0.03561050226606756 0.19280545305417932 0.7187846302986144 0.06627490576869735
0.033586648811502966 0.2208104632975942 0.7187846302986145 0.06277025258564854
0.06010107334943424 0.20669483890224616 0.7187846302986145 0.002962876517238645
0.04796471433691162 0.22500014749967193 0.7187846302986145 0.06311840881428156
0.04129085589768614 0.23811723482434108 0.7187846302986146 0.06375806639500349
0.0787058169207267 0.19612837829651064 0.7187846302986145 0.052521994904308957
0.07251312088429633 0.20813028201048317 0.7187846302986145 0.010415850073001236
0.09227802875231858 0.19691254556632654 0.7187846302986145 0.07713562439120837
0.0669562517748742 0.2176661795709437 0.7187846302986145 -2.5261374253063235e-27
0.05752635123415924 0.23549201042013404 0.7187846302986145 0.030780483215207707
0.07340939658110085 0.23370457969386885 0.7187846302986145 -2.3172483257358395e-27
0.11489567655208432 0.20117053512816213 0.7187846302986145 0.09810603460599672
0.12565493027519414 0.20971914829166802 0.7187846302986145 0.08646446752386652
0.10579059222854038 0.2124217085173588 0.7187846302986145 0.06874156629303764
0.08934060845636171 0.21258830827228214 0.7187846302986145 0.053853212043320955
0.08596876456489057 0.2259899870013916 0.7187846302986145 0.0034087806272477933
0.07186614500302399 0.26558579187749237 0.7187846302986145 0.030151372032794825
0.10804125569290478 0.25147579345757215 0.7187846302986145 -9.148704767994449e-27
0.11564436164157402 0.24019021057508672 0.7187846302986146 0.0073483108759223505
0.0865164305278133 0.2665551737123108 0.7187846302986145 -8.694062775333283e-27
0.09480648235077932 0.2547496686349209 0.7187846302986145 -2.5216685918196697e-27
0.09821113673681593 0.2334789413132723 0.7187846302986145 0.006811508881041016
0.08681013725391198 0.2377382065487729 0.7187846302986145 -1.2316030665115943e-26
0.07931926064939415 0.2540067911477499 0.7187846302986145 -8.679841760791291e-27
0.11269628834343241 0.22238533677744335 0.7187846302986145 0.0676718969609725
0.07145289821361785 0.2920724952524578 0.7187846302986144 0.07158216390850904
0.058859174296567174 0.29122709290790744 0.7187846302986144 0.07424518056605482
0.05753291362852917 0.27321560887373025 0.7187846302986145 0.06978458617824726
0.0512537313404755 0.2620347536905807 0.7187846302986146 0.07237395228367613
0.0586910501300225 0.2502992980424733 0.7187846302986145 0.04831275342968167
0.08421548256736391 0.28611719904922345 0.7187846302986145 0.01140306737671671
0.03892917254390547 0.2583344627073747 0.7187846302986145 0.04378899630313195
0.07857147876223158 0.31001331395566367 0.7187846302986145 0.09149461228713614
0.06673753915076562 0.3190188923853017 0.7187846302986145 0.07641377745642595
0.0962277829232452 0.2844579302505139 0.7187846302986145 -1.8520102099050317e-27
0.1225786997521229 0.2525761066485569 0.7187846302986145 -1.2184286788609701e-26
0.077729074807442 0.3236939566055752 0.7187846302986145 0.08133924024941992
0.08976316199257144 0.3036501205256702 0.7187846302986145 0.00822321030028995
0.11273394501428394 0.26276708780511004 0.7187846302986145 -2.3794981901365077e-27
0.14338785012397387 0.21663106981123534 0.7187846302986145 0.09034545043053911
0.130910400354279 0.24007130879050392 0.7187846302986145 0.009991348959077979
0.12392353846391076 0.2289879939093269 0.7187846302986146 0.06340333263217983
0.14212163945023426 0.2399403666641588 0.7187846302986146 0.04034380195785367
0.15099344876876536 0.22710560901089502 0.7187846302986146 0.07792001842007362
0.13432114015681607 0.2523185169083939 0.7187846302986145 0.0035463091931635425
0.130679300072723 0.2678683965712747 0.7187846302986145 0.0
0.16800099571117957 0.2308271890758078 0.7187846302986145 0.08710366729382553
0.11225869247530335 0.28536139627295243 0.7187846302986145 -5.139589188552842e-28
0.14947527980083963 0.2594870582624927 0.7187846302986145 0.0033029584029427043
0.19787808982188776 0.23220699062561867 0.7187846302986145 0.08300458510801151
0.14160181540323047 0.2701372088371598 0.7187846302986145 -2.0554617014316256e-26
0.1805496371966948 0.2309150701097434 0.7187846302986145 0.0815835921977421
0.16189917374060933 0.24840086585560234 0.7187846302986145 0.017081534505981252
0.1723138397850399 0.244537164340799 0.7187846302986145 0.07218774442684142
0.12381690269648475 0.28655250054446885 0.7187846302986145 -2.071324429016163e-27
0.15834500912228908 0.2681815906476154 0.7187846302986145 -1.6959182700887587e-26
0.20487152718278104 0.24420861663334748 0.7187846302986145 0.08205540682786376
0.15020067325903527 0.28346219172528386 0.7187846302986145 -4.57286483635266e-27
0.13123666823706828 0.2965826360261291 0.7187846302986145 -2.8894941049046137e-27
0.17684390986995505 0.25723168579798417 0.7187846302986145 0.034786351837347976
0.11169059099973702 0.30406706097046166 0.7187846302986145 -3.843290702888139e-27
0.1903469821543065 0.25218100025407486 0.7187846302986145 0.06722364245030252
0.0940530283732791 0.32028008954292336 0.7187846302986146 1.8965322289636018e-05
0.21364214698737696 0.2530416116589179 0.7187846302986144 0.07472696890524819
0.1865758012655333 0.26576580518652404 0.7187846302986145 0.0046898047628175545
0.22714866995440094 0.24573139922195392 0.7187846302986145 0.08786130566423474
0.2650864539357714 0.2335006840189211 0.7187846302986145 0.07979559024996635
0.1457507525289161 0.2959813412322739 0.7187846302986145 -2.5970536022517174e-26
0.17709107248357878 0.2793111998624555 0.7187846302986146 -4.754191631764843e-27
0.1231300406643702 0.3076088955148707 0.7187846302986145 0.0
0.2488993357105091 0.23707786171627662 0.7187846302986145 0.07635972576240518
0.1790009651838644 0.3061814038234115 0.7187846302986145 -1.3189907691327034e-26
0.08774003896346716 0.3315766067445685 0.7187846302986145 0.09478415911110105
0.28221976020792594 0.31380669841437303 0.7187846302986145 -5.176020515676082e-27
0.2205984280463918 0.2775192625666886 0.7187846302986145 0.12447578141280657
0.27051453693674327 0.26476863658890554 0.7187846302986145 0.024295220456494182
0.2882160162281667 0.27147195000448465 0.7187846302986145 6.95370019454657e-05
0.29658357425546583 0.2954122549164813 0.7187846302986145 -2.902784066595416e-27
0.19440470658250825 0.2971222859445414 0.7187846302986145 0.008872393270390503
0.3340400270271231 0.3133884964523523 0.7187846302986145 -1.6393473993371706e-27
0.3318246261429054 0.29212890884531484 0.7187846302986145 -1.869580374296506e-26
0.23781231404579328 0.3324340462527837 0.7187846302986145 0.0018486061867333413
0.270913847466073 0.3114557232476425 0.7187846302986145 0.0014021095304569344
0.2770382197155562 0.33220154616885805 0.7187846302986145 -1.0687519304632223e-26
0.3715106820589158 0.3189244168802874 0.7187846302986145 0.03894523704081925
0.20833196617903543 0.3182704964356713 0.7187846302986145 0.0023869606985187815
0.31834053857512695 0.27589922223044155 0.7187846302986145 -2.0422143645413165e-27
0.21036729300555043 0.30101110471765574 0.7187846302986145 0.034568311154016464
0.1671533636340808 0.30279061936703233 0.7187846302986145 -3.747469757314922e-27
0.22002624156418274 0.2658567264274615 0.7187846302986145 0.07811538265048036
0.11988757574233544 0.331370020854877 0.7187846302986145 -4.786048368611242e-26
0.14023826437247322 0.31244269518443135 0.7187846302986145 -5.819457408720984e-28
0.31471707809828275 0.3187018738523929 0.7187846302986145 0.0
0.15355454874045607 0.30477723922943806 0.7187846302986145 -3.021667502461208e-27
0.22717859238098906 0.3122184350572449 0.7187846302986145 0.011602878089030303
0.34140412304514045 0.3013486843319891 0.7187846302986145 -1.7464149358510774e-27
0.29752098714301306 0.3131550288886197 0.7187846302986145 -1.2518502215377666e-26
0.31858388784758795 0.29621174361626174 0.7187846302986144 -2.363221180745684e-27
0.2953609647624987 0.2828563526168716 0.7187846302986145 -2.469462687394807e-27
0.3594658809178287 0.31577340893074385 0.7187846302986146 0.013898283002151075
0.2744582484987525 0.2409153008244015 0.7187846302986145 0.07296080801582494
0.278500511724209 0.25151309598544613 0.7187846302986145 0.046041938551656614
0.34596575363919896 0.3235116566943221 0.7187846302986145 0.0
0.2689930308940103 0.29605510124222695 0.7187846302986145 0.004900514248713479
0.15716712436528535 0.2927642846609767 0.7187846302986145 -3.2235374412780943e-27
0.1973812700769224 0.2784278176825879 0.7187846302986145 0.010194519421068882
0.19337808318409339 0.3205265035123582 0.7187846302986145 0.0018409741532784186
0.3190542754356603 0.3338051063525624 0.7187846302986144 -1.1052450696491776e-26
0.1701217920207337 0.3227296786486692 0.7187846302986145 -2.4120859613588395e-26
0.1632969572962013 0.3326475307876612 0.7187846302986145 -1.4535260985827262e-26
0.10069807980520834 0.329871615598149 0.7187846302986145 2.873622877051943e-07
0.20778659738323105 0.27256239294908824 0.7187846302986145 0.051768916125264
0.25112513993925706 0.30033514366431613 0.7187846302986145 0.011396736033771056
0.29286331264604154 0.3315714511893387 0.7187846302986145 -2.640792633014597e-26
0.24739355433666368 0.2529872269150321 0.7187846302986144 0.07862925327952587
0.15158418841120622 0.325993443053029 0.7187846302986145 -8.65092571939924e-28
0.29099783605486107 0.2572917435221518 0.7187846302986144 0.03601113063548087
0.21962814269334677 0.32318237185062015 0.7187846302986145 0.0034522642184445927
0.2581840685256748 0.3297503381191797 0.7187846302986145 0.0
0.22454775403477834 0.3339531810126063 0.7187846302986145 0.002454967235740542
0.2606439344284708 0.24510643706767601 0.7187846302986145 0.06624794489230443
0.18063763551403014 0.29379008731137557 0.7187846302986145 0.0011750207313024972
0.10984633298718509 0.3160938846132153 0.7187846302986145 0.0
0.36119530316148823 0.3317935603748936 0.7187846302986146 0.017871937014826537
0.3349611888834665 0.32939154873063703 0.7187846302986145 -2.9442196392657573e-27
0.24205068892645315 0.31917230475682196 0.7187846302986145 0.0032185017347295523
0.30281615151156716 0.26894438449847885 0.7187846302986145 0.0
0.30853653214418525 0.2828820005703187 0.7187846302986145 -1.2725667915601244e-26
0.2795946349090109 0.28498855257165245 0.7187846302986145 0.0014585180111187914
0.17989303228704068 0.32960651889042514 0.7187846302986145 -3.682271481523546e-26
0.13370790437052568 0.32671058723256796 0.7187846302986145 -3.375358186806241e-26
0.1983699863979633 0.33070976103396105 0.7187846302986145 -3.228049035869565e-26
0.3039371190220853 0.33337392194022575 0.7187846302986145 -1.9287902155558924e-26
0.2678211550814293 0.2780202096185349 0.7187846302986144 0.005100431397888564
0.2885235926477352 0.23100305760622614 0.7187846302986146 0.08850940372184127
0.3102796891434172 0.2503764397305205 0.7187846302986145 0.03551936992298133
0.339765896118066 0.2732586659346766 0.7187846302986145 -1.469606328640533e-26
0.29719298735448124 0.24266326437769833 0.7187846302986144 0.0537891308345064
0.30067919290145106 0.22998606357217222 0.7187846302986145 0.07140098745426732
0.3538164926247242 0.2882367159444698 0.7187846302986145 -2.019565631264159e-27
0.3203016521184673 0.25883077764706136 0.7187846302986145 -4.922969148810486e-27
0.3317713558074787 0.2637362651843359 0.7187846302986145 -5.051372311742329e-27
0.38183237949759363 0.32367840541172394 0.7187846302986145 0.04506916968448932
0.37806747410243324 0.2888448351033768 0.7187846302986145 0.011835358582939144
0.34997533881558057 0.26149996973709033 0.7187846302986145 -8.189016371116268e-27
0.38810800074311574 0.3002862986293331 0.7187846302986145 0.07217627971851004
0.31740227517830444 0.23324285313405183 0.7187846302986145 0.06793580853941299
0.3915794853180862 0.28794723294834035 0.7187846302986145 0.049213234952607404
0.3639764840234739 0.2694693993372813 0.7187846302986145 0.0
0.40637096938873174 0.28935457459185404 0.7187846302986146 0.06816761831424474
0.3706757393451382 0.3015895443819361 0.7187846302986145 0.009616254192775855
0.3299703070787627 0.24606737514350346 0.7187846302986145 0.015542098102388505
0.36542362576616455 0.2883066754200784 0.7187846302986145 -1.1993929783170226e-26
0.41187691184444664 0.2752903766306296 0.7187846302986145 0.06414931256353369
0.38930427197639617 0.2545152477880409 0.7187846302986145 0.019639282955000035
0.36130705250068584 0.25209890247943323 0.7187846302986145 -1.0805829055407212e-26
0.39395548342509634 0.2763036617307079 0.7187846302986145 0.06755081160508869
0.3666528496222906 0.23852489157385742 0.7187846302986145 -2.612613931841822e-27
0.4008532315072173 0.24562693336883304 0.7187846302986145 0.03397357717692246
0.34187248286337246 0.2427837253644854 0.7187846302986144 0.006177020804303211
0.37857228482130323 0.26415723725748025 0.7187846302986145 -9.24383640552699e-27
0.34313334717020316 0.2305616660721252 0.7187846302986145 0.050930548023999656
0.4046634181123619 0.2619720981878056 0.7187846302986145 0.05743321017019954
0.37980765729141586 0.24012299431461415 0.7187846302986145 -1.0011680041748384e-26
0.41347750994138804 0.24924382968310865 0.7187846302986145 0.07761206974104039
0.32923346446881335 0.22105449889118772 0.7187846302986145 0.06874241629241881
0.3101516859369181 0.22039323870637034 0.7187846302986145 0.08012074382691117
0.35542196586179975 0.22384451369709782 0.7187846302986145 0.03551873253093055
0.37278001457971205 0.21451660617090523 0.7187846302986145 0.039651561123877306
0.36086408429505995 0.21355815622657215 0.7187846302986145 0.04042307249847041
0.34541505708895903 0.21022361636755232 0.7187846302986145 0.0651819177137637
0.3930622430009498 0.2321873370582802 0.7187846302986144 0.0025805567436182376
0.3668702769700237 0.2256931677106061 0.7187846302986145 0.020673577631696746
0.3850815605451393 0.2212607366018411 0.7187846302986145 1.4344427031280685e-10
0.4032205800869714 0.22714570497038328 0.7187846302986145 0.02474194835092193
0.3923873636444645 0.20877208139854883 0.7187846302986145 0.008416105343612881
0.374660858999031 0.19244926371044907 0.7187846302986145 0.062076922269960304
0.3653891761526161 0.20238858633203788 0.7187846302986145 0.06133989769844502
0.3862396720330485 0.19423267713138992 0.7187846302986145 0.0651837937030226
0.3762833639912427 0.17830588583236257 0.7187846302986145 0.0634549718763888
0.38893374629832533 0.17192684720362927 0.7187846302986145 0.08658046340735637
0.42331380417416486 0.2099550309863108 0.7187846302986145 0.07198120260612266
0.4259399467418433 0.18772631918991275 0.7187846302986145 0.07182981428171545
0.424740183409117 0.17347406886150027 0.7187846302986145 0.09060472104205045
0.4212790697714199 0.14083152551236539 0.7187846302986145 0.10669543564784324
0.41761603362144334 0.11646046189180957 0.7187846302986145 0.10459257096242092
0.4270361325237217 0.1544070085366947 0.7187846302986145 0.09487325289667141
0.41748231979661843 0.10153177716888032 0.7187846302986145 0.09851894781489029
0.4299897455722447 0.1337422972350684 0.7187846302986145 0.10779764396981158
0.43705702313117434 0.17178422232923318 0.7187846302986146 0.09217000513079433
0.4375405489763394 0.1501914923670032 0.7187846302986145 0.07269883427935608
0.4374326216422289 0.18491295821994602 0.7187846302986145 0.061993144037729
0.43256882167072397 0.11351645047614392 0.7187846302986145 0.17533048093666317
0.4344356668216476 0.10063720136005956 0.7187846302986145 0.19201024915480078
0.4422811396433826 0.1317469514985892 0.7187846302986145 0.08697804370311002
0.026701858114888635 0.1417259766892546 0.7187836170731228 0.1301065884811794
0.04494972088746644 0.10494839639045547 0.7187791302256835 0.10342238812080873
0.03886507724245697 0.12503462023975215 0.7187789523187731 0.12718930126742353
0.04508920460180772 0.1380441156763459 0.7187767796706076 0.10740631374770528
0.03561722492054167 0.15431950331432556 0.7187798545630407 0.07149531634586473
0.05043003683429218 0.1553123621300531 0.718777356660807 0.060006588825371146
0.03291389916959 0.16530767533071605 0.7187814756581201 0.07094214693455221
0.051716769567891584 0.168981178694792 0.7187815898501555 0.0322183990063084
0.4135319450511539 0.21662641208613886 0.7187836489893753 0.060567155744794585
0.40523493078690637 0.18298698351963205 0.7187816926377377 0.04034056355194087
0.39324017029179675 0.15933499192074635 0.7187833243493479 0.07179974252691525
0.4032190161057387 0.16943783211097796 0.7187802574846969 0.05729392224578225
0.40894878767033266 0.2025086281708216 0.7187833653793172 0.021423007542683954
0.4210075056416445 0.23610561420654053 0.7187834780688539 0.054757042836921135
0.41548787961516337 0.16579535880156496 0.7187836802932651 0.07674031878108778
0.4074525719078727 0.1538146011885539 0.7187769848510461 0.06359716648668617
0.02648315304013578 0.08321982432601076 0.709852921001141 0.11457786469261055
0.020672469700660737 0.08340500129688633 0.6357082395559691 0.14208051550209014
0.022191838175590346 0.08350073428079487 0.6762735182070859 0.14702882366582884
0.021011986846877405 0.08378836157493724 0.6979510304976174 0.10837170734625914
0.025153107034801163 0.0830315419944236 0.6589930153300411 0.12875973144579841
0.01703674498700644 0.08350767494500766 0.5883089247340418 0.11844456980198166
0.013397335002771455 0.08383546486511999 0.5740551890245346 0.10351508936887001
0.019170469842000343 0.08335226405238846 0.6020701246258784 0.11716637612034583
0.02259057628440146 0.08383993114255187 0.4721052595964895 0.11737755801176565
0.016373474719166215 0.08383308852964019 0.5281407013801267 0.15196678567997948
0.023344051798871137 0.0841374457397192 0.4371436510569035 0.13433819914893602
0.024356558123927934 0.08458306912119531 0.3966210789270453 0.16417915856868692
0.025861824188279085 0.08487685562815074 0.3706320575706892 0.16203538185939123
0.019831304618086954 0.08427551378699594 0.458121001704938 0.1525868162246073
0.012493973186115092 0.08631800061484868 0.48442449850911407 0.12893590585181772
0.015540783754263965 0.08450771157712085 0.5012983594890538 0.12657074498830476
0.009006191550393047 0.08545024033339306 0.5558170977879624 0.10670637823835544
0.009927725200156924 0.08543065284126518 0.5437801148753351 0.13660491337230923
0.007162540325602304 0.08818477497700683 0.5181457986840369 0.10814398645278779
0.004961729647405993 0.09173099382578677 0.49235365197330916 0.12824118720444838
0.005532161686445937 0.09038236275244352 0.5061829667097726 0.1265511657387672
0.001224654106618363 0.091622958927302 0.5474325609270823 0.12549467052119012
0.0015304799088926948 0.09039753404731847 0.5630302523070442 0.1183833326797613
0.008237689464354868 0.090751418971565 0.46425751955515226 0.11151061489630765
0.009807209977039887 0.09165636012681551 0.43819526034861744 0.15055976969989965
0.014116535129680662 0.09150026571208084 0.3957789305403797 0.14278669742985597
0.008726661343772915 0.09163907454062777 0.44945368126208585 0.11485207227800613
0.003281049142791032 0.10123947026495458 0.5165956534037344 0.1192614531450873
0.0024426610443929074 0.10667351108910436 0.5292801922569919 0.09296360227893397
0.002317695630230748 0.09231990631077278 0.5301473168457733 0.11334670901067136
0.0042851028951339755 0.10481166531104505 0.5023023160659187 0.12182702954496112
0.004017130251709573 0.11534821311874145 0.5087850888290691 0.063209157889567
0.005721189632555711 0.10210593823770296 0.48235380544958495 0.1230993775713606
0.0005196439147932987 0.10493568542793208 0.563501070429304 0.11056000683351179
0.0009388430370714377 0.10312257708953432 0.5516958667314154 0.117641934743464
0.022270971743274075 0.08607979493566706 0.3823740438594344 0.12753533142115533
0.015372096903901827 0.08769927152836754 0.42433031482714056 0.17122184971433022
0.018586521774516522 0.09093095903354241 0.3603291344000421 0.1583890047208126
0.02118261984222751 0.08988566344841846 0.3438158861962227 0.15876706019654838
0.012298892508657793 0.09337550608855173 0.41079670810058966 0.15237407661558633
0.007097804713282757 0.10507644565927449 0.4667467611758559 0.14990119995099468
0.008152907663016365 0.10291378103577523 0.4554404206057364 0.14412625442622337
0.010764783704034867 0.1006694578813256 0.4280972786763407 0.20690921469113285
0.03174326624414326 0.06832700917583195 0.29137035717194315 0.13997452772981667
0.032681610759950165 0.08242035061518452 0.2896560955960671 0.12114051854009998
0.038733023615276876 0.07985630518273629 0.26933265475054924 0.1033041598170092
0.027914165854728286 0.07819635131060962 0.3050481306617143 0.12466246630133013
0.03766460231302311 0.06811413349898282 0.27198045171065166 0.14794405203298946
0.048383779942464594 0.04224446084733522 0.24975131148279173 0.1492582502939084
0.05236209529081441 0.036314412866976044 0.24142916284906857 0.09400834685104155
0.04227780787052756 0.07293164076881285 0.2605685666304707 0.10324091093467923
0.04116479446159389 0.0541054269616506 0.26121255877550464 0.12323795843129971
0.050406065326151196 0.058387781127350935 0.24504722958936884 0.14591276512231932
0.04465970356511784 0.10839499467395891 0.26589873168791983 0.009267270455439345
0.048091671985430615 0.09104409047322615 0.2553662633467949 0.008750571101494008
0.04875810261650499 0.04437230799830978 0.2633443586817751 0.1469803904607391
0.060787823555823794 0.03559309085679907 0.26113068370418946 0.1431791567297479
0.06934356077493808 0.0674587242156733 0.23176002429777248 0.13032579305017888
0.0564692319261301 0.048539642180903224 0.23837624296043886 0.14247501299377566
0.063451765928067 0.036457535880076955 0.2336064961269354 0.11626413767697824
0.06761759007330337 0.055589080358344665 0.23207504762325942 0.15615372973464153
0.07440445564976918 0.04299837453739468 0.22750855978726456 0.1264939742447914
0.07437114588867053 0.0904781079087581 0.23297488752228582 0.11048680631233493
0.06262218055657186 0.09254275563608302 0.24092436880222412 0.004658542727424255
0.05494326642358954 0.07982388478673658 0.2430062204994874 0.0064715457750772944
0.07036119228761469 0.030716697166686686 0.2532296376138165 0.1332430184764258
0.08445659732788288 0.027926724039489675 0.2431750753058966 0.10072952993892571
0.07276484560589704 0.03438330216557417 0.26446609294365664 0.12038774286901464
0.08536004792078904 0.036243047467500254 0.22714730433991154 0.1300785025351797
0.08988665535995216 0.03710082847843005 0.2536299895155222 0.11963912385968568
0.08358135417477333 0.04801805902450538 0.22216641153102346 0.13411001974027706
0.07668268500075669 0.04650451035285382 0.2677707383397338 0.13935693563606044
0.08758453077452176 0.050367310162635 0.25774913806788574 0.14821509547727874
0.08566902866458363 0.0636169328521087 0.26384438776791663 0.09925927646529398
0.09178170937482666 0.05844606287207049 0.2175958491675582 0.1522621892990118
0.09274136697782498 0.06975646327697556 0.21736328845121783 0.2155144838418733
0.08233892724712814 0.07072294650854138 0.2238935956388276 0.21773566331557595
0.08676452671715973 0.0848517158617127 0.22271533371045182 0.20256166847410031
0.04002762558042296 0.056668097038582256 0.29079198257108185 0.12780940634074284
0.035612432101775386 0.06601049794344599 0.31574082697921924 0.1496804637923492
0.02791916311956949 0.07824237567096029 0.331551071969116 0.18787820163319158
0.03689721519396899 0.09059972734139714 0.2765091643001414 0.07673403284836781
0.029059783502090472 0.09294148997368826 0.3027538093814337 0.1399418391159433
0.025263399148817645 0.0994170596340142 0.31601695077232195 0.17388293865750176
0.03321287841706196 0.11222177091452662 0.2964246548270735 0.11505156432505799
0.03369608633686727 0.09673374088921737 0.2881161053565546 0.15339989849700536
0.03870611325733599 0.10326944570358251 0.2770561777555062 0.04655793866130395
0.037183275128856164 0.11347653215702008 0.2858964318943029 0.07706397924718049
0.05317463848648736 0.04403422573754413 0.2757383810150181 0.14669723822988803
0.0509871742622708 0.04892628783386497 0.28953989391329477 0.1403459115639251
0.047759394866763276 0.05546607878048872 0.3050498791923866 0.12993098332996714
0.04468348231548224 0.06534515284654407 0.32941040846638514 0.11891723466716524
0.05115363296626174 0.06070034373333498 0.31907536667311687 0.10890652072810382
0.05148955740221512 0.07460877336397409 0.33360694122553586 0.1389515528167257
0.06835279053740778 0.048758687806104595 0.2781717622447555 0.15328980124968222
0.06793963528042934 0.06558884139248675 0.2839335654006834 0.16293251264011618
0.0759292489078327 0.059628050191128275 0.27207865659235275 0.12785778500710587
0.08242091147482918 0.08086422523563533 0.2756603161307936 0.0018538526598853803
0.0919512192811953 0.0882286616691294 0.2699162909682855 0.002365881220119538
0.0879051317000481 0.09532049807273711 0.27950849335559674 0.001752624878684302
0.0715413089657116 0.11017331361122641 0.31305242927127125 0.006175680547906815
0.07911227234848961 0.10307592901292689 0.2961831557938103 0.007022116301106843
0.07737582833965398 0.09148626371389083 0.28822805897301906 0.0035192041289910533
0.06954285458126946 0.10031303259691261 0.3049403263113739 0.1807319855077568
0.09700700994094387 0.11312064148981658 0.2813623254625727 0.023637075658058417
0.029318708632013815 0.08094221396680595 0.34533148184875617 0.197605808427134
0.03815644181138613 0.08523175764501284 0.3784917654017972 0.16842538566105475
0.03960208363827422 0.08750094628131522 0.40361155316615804 0.12508391723265186
0.04022124841057685 0.07876568532623789 0.35563468906633244 0.16931101234167228
0.04035027549256061 0.07246002637909547 0.341846384669091 0.15404282236896863
0.04845130570658682 0.08083951346736723 0.34777130139423595 0.1323026401154316
0.041892611995433045 0.09083266406119432 0.39027991058501865 0.15890302306545379
0.045437778896530306 0.10064838899163235 0.3698921610486852 0.15780855689185244
0.04426114647681605 0.10334786548779112 0.3962383301866539 0.1419286381425307
0.04208404075831256 0.09880015074553354 0.41349621354110583 0.1851648628124026
0.041126133169833934 0.09781427651498695 0.42451508655177683 0.1771055856610253
0.04186316844583242 0.10599045902735753 0.48739228757783487 0.10958993261283642
0.0401264530053189 0.09545645242356095 0.4418200766844091 0.16139908683487403
0.0432087475529616 0.10829165684474791 0.43152268997826443 0.2135355629347354
0.041107259771831085 0.10047020313994293 0.453004964850568 0.2210002918315168
0.009336942578930202 0.08629462466044314 0.6126439339281631 0.07451858031924331
0.008851751806154561 0.08612024625148354 0.5965810449941191 0.12279050627157875
0.004431841383846339 0.09147578516690467 0.6393519969268191 0.11836086197254861
0.0060353724366768585 0.09083135826448663 0.6520343318653367 0.13061684648784788
0.007482666359054318 0.0917323636292028 0.6756400027342638 0.11619301256330451
0.005000754024826259 0.10823885258370326 0.6488324192782472 0.12638967968719794
0.006195906304140344 0.10737305418685265 0.660778634455365 0.10977339303048596
0.007187596977021315 0.10237477269374604 0.6714075077584818 0.14401928838558256
0.0010983473275700951 0.09594295341923495 0.5833040479039541 0.09969710874996374
0.0006802923779013002 0.1166801728945295 0.570498512385523 0.011719912010668345
0.0019887322444852957 0.09704216874563376 0.5994106762624618 0.09504828618330967
0.0029536699998315317 0.11200178118251579 0.6122184454250286 0.05296433439065187
0.0038476109709376944 0.11032735226613813 0.6285467318377878 0.06867194339278004
0.003267840839708417 0.10038835217457054 0.6220388206160544 0.09384041155437624
0.001921982324014425 0.11262109372821243 0.5938603183422335 0.03675178202522344
0.014505674950897121 0.0848349367253142 0.6452774136682615 0.13846599796967968
0.013879423289423681 0.08545785006826499 0.6601590281873796 0.1213183655780295
0.01555617175596952 0.08535506926013137 0.6866538132170429 0.0939384847923469
0.013867626490329488 0.08462908069094871 0.6248116307222082 0.11024782783414903
0.012755143820317397 0.09004985980755302 0.7098799535611857 0.08862680567584952
0.009737508244718567 0.11482908485592894 0.6939482820330953 0.14292565348903152
0.0077976334364268235 0.11406471215301973 0.6751868894194945 0.10526582416863196
0.009250883943365528 0.10372701861041156 0.6914501361580871 0.10696258213605452
0.011075062650369612 0.11117774997798105 0.7077300556346118 0.07332175335275803
0.027799805460941435 0.08400942005639703 0.6233741629765371 0.10822961733792393
0.03228258827218578 0.08501149155583046 0.4630085878868914 0.12488028758446693
0.02454232527379409 0.08394548005315919 0.5636515625153798 0.08349569651795821
0.027941668391247867 0.08444448414498258 0.5243023437364094 0.09083192058237015
0.030329122656089245 0.08360498524057472 0.6874742306914732 0.14482883251230483
0.02828014763480701 0.08459596432149966 0.593412942358715 0.12333680357038009
0.03250522447112919 0.08479482778087283 0.4232882541620066 0.13402912940596662
0.034651419050144246 0.08686633049777204 0.4786896034031568 0.10835117805785183
0.03143809319998921 0.08501127496345148 0.49043621850329827 0.11298510216729761
0.030173148170241706 0.08553916264402914 0.5453624889434641 0.10310266103986396
0.03350554087947535 0.08676760866192967 0.5063936392752211 0.1066527282260696
0.03277811995747908 0.08676373333104946 0.608080148887663 0.12061117259364261
0.03451006385559413 0.08858161164451574 0.5818731802692352 0.07889356041933127
0.038413862898798445 0.08788159053382329 0.677259027846783 0.10119290839510825
0.038290105294710344 0.08647895995602203 0.7085748023614311 0.14836744818754943
0.03212322439083286 0.08514808949983133 0.6381221438621615 0.12058526040286069
0.040716791215911416 0.10282982284997913 0.5021481038331774 0.15691129037579868
0.03960978883636948 0.0958049051001531 0.47087228955206695 0.17356849931864893
0.03729152095521279 0.09405847149749044 0.5315013015075645 0.1158006612177513
0.035850507321990494 0.0922455044867332 0.5621114441289917 0.10634369026460269
0.03792292766504667 0.09451768268333882 0.5148282702974974 0.12001720708470467
0.03786806602246091 0.0979478494397682 0.550034408050259 0.08846451291857595
0.04234835386478556 0.11017912022641085 0.5190165791213165 0.016203147000075146
0.0381276496933216 0.08889614744914039 0.45328657191330035 0.11439654331309003
0.041399519859821585 0.10924735941080989 0.541720441076851 0.032699847591604506
0.04347406913753396 0.0980149662762501 0.7089104380760443 0.14995543789797827
0.04188562366510687 0.09455273877563963 0.6935112534859885 0.15844255535946572
0.03765704116165083 0.0914091755449642 0.6179358872226453 0.0673383442535744
0.038643642185484994 0.09233343487957751 0.6309196782617439 0.1114287538024587
0.04370937149727313 0.1073470281528687 0.6233551759781935 0.02123680106634867
0.0380126834060986 0.09504053473199704 0.5987725927149242 0.06861219487342222
0.04141463283597488 0.0985898609054835 0.6409232007188536 0.10382418040922872
0.038717366778731686 0.08889854606695513 0.657221033015817 0.11262309818405292
0.04517322791920754 0.110164778879738 0.6385737166408061 0.010206990309833654
0.042143336429912054 0.0995046312510981 0.6530437251491401 0.12986645918224649
0.04090098758247662 0.10432762333747134 0.5857166615566293 0.03327475991947294
0.04301751797952255 0.10857430138836667 0.5974940021762702 0.014142363787207977
0.03814524110024792 0.0986474451868819 0.571719996273885 0.10150794625713976
0.04704742708856327 0.11357400058461736 0.6816471725868765 0.10350988351693988
0.04327942962502423 0.10207667098376355 0.6725814689069611 0.1445587622916628
0.032488317518161565 0.12518157799320198 0.30495395995408475 0.0012247503570746525
0.0278146130518128 0.1329352105477322 0.3219998324147236 0.0014873663945121926
0.03707936862135615 0.12566258777657383 0.2920414698153589 0.0015198434853196474
0.04161580645640159 0.11924595386762446 0.2756903244389713 0.00591519377064577
0.03441019844711467 0.14619088574763264 0.2990619227772657 0.0009253459909386594
0.03960648588046285 0.13738314713603844 0.2792957781491616 0.0054687478091872965
0.028236866061206973 0.15979303980279524 0.3241121964662944 0.0008247425173174329
0.02890945610792935 0.1479750143123343 0.32048754410296093 0.0013335607053855513
0.03243132319935176 0.17617914994388487 0.3093948711973524 0.0009344411823818444
0.033880527969738755 0.1595147779870413 0.3015844315369781 0.0006166116050213277
0.035424286685071256 0.16730349479330997 0.29295765848132854 0.0046426903214727986
0.036981469101715216 0.15770302868984126 0.2870558019683741 0.005306918458958518
0.030514959059094963 0.18733244692209436 0.3175807273364915 0.06523412046032283
0.0413558242527836 0.14997935199046167 0.2765487668869893 0.007640564332326423
0.07059776326950457 0.10230911892528885 0.23790004014862545 0.0034919462281252766
0.06012919026027558 0.11073677233760308 0.24640978168749816 0.009562568060615747
0.055255147480683144 0.1301199273348213 0.25272687726673604 0.0062929198956029
0.06737466826785984 0.12375210570112856 0.24284248051636054 0.0028227514438677434
0.044460127869595883 0.13058300651873844 0.26877539460470545 0.009160616072899726
0.05189507077207979 0.11769200405041098 0.2532517298523951 0.008120145835530534
0.05191456484449591 0.10501080776891916 0.2536196460720733 0.01088611205434283
0.046774440532430156 0.12021128581041798 0.26406887719723615 0.009186700456473977
0.04920866642618657 0.13895334643429674 0.259682959564223 0.006652558919147648
0.060560573495531685 0.14053503331426048 0.2513739347787372 0.005402220558629834
0.05719365891762472 0.15221172393817017 0.25596741625918606 0.06400740248225832
0.0418430807935358 0.16690201329746163 0.2768926256834222 0.006822513170269604
0.09654525945335117 0.11728636874064036 0.2205223135309289 0.19878894844078218
0.09559407471456227 0.09782993258216119 0.21812174114253693 0.21587150119820211
0.08619866184472492 0.09967595182650857 0.2259409460947533 0.16830844030177655
0.08497730038907836 0.12073078706081071 0.22940760635470717 0.1250364287480153
0.0759651274885551 0.11250446138973094 0.235302133890014 0.0012566000204147403
0.08852151991979622 0.14477374057825423 0.22690098872284578 0.11739487905124545
0.09343186172815368 0.13441523857413212 0.2231402286791855 0.12231164798874308
0.08110192834989055 0.13862591577596012 0.23269151571289676 0.14205482121056814
0.06621440483238848 0.15176701640183546 0.24750677698417592 0.13649291309019274
0.07784984629815285 0.16724826143238217 0.23687073563083505 0.16070248808613813
0.08006614158577635 0.15580929022655254 0.2349681969839379 0.13299296446807837
0.09508709721281586 0.1190432756991204 0.2918790470443573 0.037151612476906
0.08688005407849206 0.16531195049481284 0.2848279341082169 0.0006125276188712336
0.09904008252091118 0.13556795760968965 0.28821520024287467 0.035996483998928124
0.09461443797093401 0.1417234402808371 0.2979693758780379 0.02591594037678375
0.10394612346069709 0.12557267644587738 0.28486426953598754 0.04502012959768006
0.09181257822018332 0.15621883272012607 0.2792094096255494 0.005407261312839548
0.08048062284505399 0.17502190915558785 0.2970285506538462 0.0003790682213006887
0.0864660225671286 0.15943097801331213 0.3009317894764098 0.009793936504364423
0.07574837043769372 0.18581950089691227 0.2975401328087989 0.10940778881170564
0.08765302779978684 0.17045112957069236 0.2714972000099966 0.21048069393474408
0.09761079534971703 0.15083584588682636 0.26646836288957154 0.10272033779313447
0.09317692293125898 0.1685940994725294 0.25597041598796944 0.1882795302691252
0.09798584814370044 0.1432664261881901 0.2759199750327443 0.01229187141910369
0.08443936732515954 0.18104074922759053 0.2671085449242388 0.2393118193954294
0.10242109335691416 0.1460324388347616 0.2574446177468497 0.10802494211352519
0.11587502596741611 0.11702714143581379 0.254183123988974 0.11494165156139673
0.10672146867204324 0.13310596362110816 0.2615613770799188 0.05639057926724793
0.09212570410653828 0.1403443844983751 0.32285205438431597 0.06297810902505298
0.08869717418680328 0.1501685098684944 0.3148352004018396 0.030869733837303952
0.08356074370412223 0.16282139195517675 0.3118042006597931 0.011247736238205323
0.09659766889082565 0.13345997608225169 0.30752556279792115 0.04675068709913141
0.023815292780722894 0.10927082745250184 0.32336984057824675 0.1660758768937413
0.021870035570822205 0.09833808605294993 0.33441574667708474 0.20829857635088417
0.02397376582667068 0.0841244409045684 0.31893857072877213 0.13620138465798837
0.02157467520523468 0.11126874067767296 0.33807184112444894 0.24234894811432944
0.016798000338584702 0.10170484907051296 0.3689456718734776 0.18698626633566848
0.018421697071397732 0.11019239806602041 0.35816283499706153 0.1882648270944773
0.024599338952376953 0.1223065090872614 0.32762437591055577 0.1113413399160042
0.02114535067387289 0.12658896454735674 0.34973824513810836 0.17712847383400632
0.020313978186137248 0.13589243093313774 0.3636167844995149 0.1601274866541775
0.026009536065950994 0.14198088506384585 0.3345070262266257 0.0013430145642607113
0.021033981831132538 0.14905288843410108 0.3685116415165798 0.17257668413267133
0.0248329995604763 0.1530823118654633 0.34197439231031773 0.00046895537132999254
0.023106273069572025 0.149114021203236 0.3541660441132336 0.047779398677738574
0.019586038393978197 0.15934898517442347 0.3801543563677081 0.05318756755511274
0.02174526719387959 0.16255263432021166 0.3644448631089961 0.00029596045556610817
0.0569021857863649 0.10370774888897825 0.3310608161972957 0.17841592543471715
0.05249922992015866 0.11686112206318489 0.3543026253517806 0.1808119753436917
0.05420875194020416 0.10889537967665715 0.3424294818344068 0.19714520236398295
0.05494108540840888 0.08180552999732497 0.32571011871756694 0.19070111031790324
0.05251035684385644 0.09757655951585226 0.34279187879628503 0.1840845652168021
