x y z curv
0.0396591979710212 0.11312442024423441 0.2254588967431002 0.16551442713655173
0.051123760868186284 0.12120574612843907 0.1890784516866489 0.005314120936681865
0.05449390122237009 0.10893130868140052 0.19418892624642992 0.12992462518154102
0.03284644809779778 0.09698294037465391 0.25494332103589257 0.10038650430777943
0.037127880732914516 0.09827359342805486 0.24314582816942026 0.1283287028919811
0.04552730800010161 0.10547173216697207 0.21761446821735064 0.1863224294531675
0.04278592204274585 0.09804938285104257 0.2301078397710745 0.1656363731035857
0.0359910754859403 0.08436497087439782 0.25689523698154393 0.08479878767766931
0.03268636931854909 0.07973191128149312 0.2693015863876217 0.06765988506185884
0.04364505036830585 0.0809374200795295 0.2438056532417957 0.12015322114719368
0.05684477017057164 0.08617639721637144 0.21453244207810707 0.1531079198155955
0.05680291752350448 0.07811421802681576 0.22324672839804194 0.16063710846895465
0.04960626177034071 0.0897110664459149 0.22372823275514556 0.15343133542198198
0.05310639449214586 0.09900478694636228 0.2081075962835133 0.18860176260189768
0.018834227789531772 0.12829891987971973 0.298566143848802 0.07944853971702318
0.016613905842682956 0.12249284427045251 0.307849431351561 0.08957092016808338
0.012096642517310047 0.11011283140349913 0.3280216761741567 0.13734620112108062
0.011182059768980172 0.09747640217235387 0.33322819166693507 0.13343924694730103
0.014444789744025592 0.1027717564332754 0.3160334198289232 0.06394973185328934
0.00853961146773902 0.09598731857955188 0.3467350521259327 0.09360872185841497
0.025246318300855223 0.10095314285880426 0.27438371404611367 0.09457131543912414
0.02164900068271826 0.10143040248221687 0.2870074849762357 0.09853000677561581
0.02031271615678178 0.09163122263559934 0.29676224627151027 0.08494712627661222
0.018343195182421196 0.10264776872549279 0.29914703076574634 0.0990942230714001
0.015946268650374476 0.0861322646378197 0.31812735160805683 0.08189979830551643
0.026748062876923016 0.07883066710554315 0.28613799021681335 0.06662613287169253
0.01021399544886668 0.1269260349450691 0.3457386797321661 0.11813998518221286
0.009191980126740018 0.11213011752364606 0.34453637311157626 0.12047853105861588
0.09150197241601367 0.13127296088389054 0.059848467018928236 0.00539629795850193
0.10573783546360455 0.12805719385866782 0.040683150343034435 0.005698665145620325
0.11863485698254098 0.1279322051355506 0.02226989299145604 0.00591106333047134
0.11679941119462861 0.12063697661918144 0.04312047270481435 0.005357567173447269
0.13021565495204407 0.12186253956692178 0.026364015541688452 0.006402476645183969
0.1327550863094267 0.12523886086327227 0.015433228479939769 0.010056810383998178
0.10100507930481908 0.12245729683378159 0.061450917466663174 0.005936840906217807
0.0980441704936352 0.11628864389967847 0.0801379163997229 0.00444845280629484
0.10961362459499648 0.11136924861136235 0.07449521956944431 0.0072337781899655
0.11626230744961143 0.11637536417216492 0.05448838586206971 0.004740115360862097
0.12180822988323389 0.1023429786353681 0.08398412001005653 0.003710869731493044
0.12701708165921582 0.11845072209990526 0.0381587843588112 0.008941450124288994
0.12562332575554025 0.10955753958659 0.06209190984028946 0.004363143742082991
0.12756211146444413 0.10451390586396446 0.0738434833869442 0.006286968812038385
0.0742787659232464 0.11995055207266786 0.12311184275501558 0.004021852371784815
0.07700603854316916 0.11145828534795382 0.13559411270509342 0.005043870240968096
0.08139355416543824 0.12218265173853557 0.1003614661075519 0.005354131620328867
0.08017652259750108 0.11836010133269337 0.11154500030796734 0.0036054854849775415
0.08961160895432428 0.1099816744022426 0.1097007710779886 0.0070593529444393345
0.13166569869233818 0.09258030934766331 0.10256368048766977 0.06228785441114656
0.09847292460798543 0.10965323362070993 0.09446316234391257 0.0066609757029907095
0.10196884665145976 0.1029440194842891 0.1053806069639024 0.006053784038516558
0.13929324588248915 0.11414664091042256 0.04163648745885334 0.008065378981525246
0.14463002783784928 0.09195863998198707 0.10001056713246033 0.07566606717618052
0.1448273719314154 0.10586469073463788 0.06234052571857983 0.0046735138753634595
0.13994541823686799 0.09826035043130038 0.08397914023644353 0.003636541420460022
0.14678386934890522 0.11673768880810784 0.032519808087674434 0.0062274845276451265
0.14666478588632567 0.12263947174128077 0.016542110722242695 0.00848901714347935
0.09067777469788205 0.10345996311629121 0.12311380450534662 0.005334111486299414
0.09382844099909513 0.09605326773890119 0.13679745968533574 0.004560276281735047
0.10738665791371778 0.09073953290204587 0.12960038569661708 0.00442032344980897
0.10964248111429982 0.1027887865142435 0.09531290729303915 0.005661044048627391
0.11582475525492758 0.09212961191134743 0.11589630939728852 0.004164710771647484
0.121427381486931 0.09701589266512992 0.09790568985336724 0.005077508140101013
0.11928978729075528 0.0831084943865693 0.13717754253043826 0.1430845247672361
0.1260505064570481 0.08640335158105293 0.12253432292853313 0.1205684269951061
0.13317986944564786 0.08808022018811577 0.11368864901646247 0.06147722161653943
0.14746946042837752 0.08336172366727111 0.12289194043629668 0.1474878426624719
0.060039468803598395 0.1270405005756836 0.15460578185687923 0.004879390025544504
0.061403795635327524 0.11131075794177828 0.176546671197065 0.004050464604316703
0.06544024092568554 0.1248308050455064 0.14061456116749255 0.004671950825721491
0.07093581901126396 0.11443153000944298 0.1458485819285127 0.0046357113840819544
0.07316408234710474 0.10065901907003183 0.1675314805521556 0.0051609245634429745
0.0690437215945336 0.11015810360715385 0.15887311775955934 0.004876487523429736
0.0772359720552223 0.10335374605874534 0.15330188534127698 0.005183701437370921
0.08225500374237293 0.09290803740342354 0.16483747971097337 0.00431809534291703
0.08205492330953215 0.08733001046241491 0.17515401184576063 0.07869333125736727
0.08589292284822901 0.09759082687982354 0.14817763339789486 0.006908439407341267
0.0847233161511004 0.07610515330231776 0.18780920278669366 0.19440500748852532
0.09552724586493645 0.09046335548273095 0.1475979091072919 0.004709891244553215
0.09208789052410565 0.08098224267958976 0.17231952404378784 0.12754145222890076
0.1060546401130773 0.0867707262874228 0.1423198685144494 0.005582711818609676
0.10282344461484351 0.08041813022688248 0.16037152200412833 0.005592977312749541
0.11647187894652808 0.07974791212202392 0.14775656969868303 0.007049970579854164
0.11427053808617937 0.07504105117024595 0.16034285682381053 0.10058624437263008
0.12788460537215318 0.0776703797642334 0.1443490968189718 0.06399520185118446
0.1329796279725859 0.07192700319147023 0.15493333567475365 0.10443327137282737
0.1395929697802834 0.07697624249582043 0.1414202310223283 0.18651066982852238
0.061140186393625645 0.09565826895040076 0.19659672680262513 0.1986418349587797
0.06754580181318867 0.09746248556681461 0.1831122582618444 0.13988149947241285
0.07059506460887649 0.0838554602247781 0.1960578130988688 0.144680757842539
0.07249076724870157 0.07392242347414493 0.2056462304577632 0.15889553482673457
0.14865198262774781 0.11055104490699012 0.04903381747554743 0.005385829496324209
0.1549771278092994 0.09524591985979333 0.09072879970997705 0.005317076052293371
0.15271082846417147 0.08860264865758916 0.10841514405021344 0.1753291578271555
0.1597872713081938 0.11809677400940505 0.02987660107438214 0.006003671097343114
0.1696225205138447 0.12399370462021773 0.019008947531094285 0.00634526941026895
0.17633408265848863 0.12180420223785621 0.030667704960377313 0.007740407093952709
0.18100023537381754 0.12823207189991323 0.018329690753450225 0.009753519469647793
0.1862429197033498 0.134631450555377 0.008047869194315254 0.008305117915355207
0.1941532715006878 0.13249491266279942 0.026479360498098757 0.0064705519375453085
0.20253259878866145 0.14512432275976905 0.011585833439761054 0.010004392038279825
0.21192182466084286 0.1515941970997415 0.021051163671800235 0.008008622241536513
0.21323737805057696 0.16084476693147198 0.00628652263637734 0.007649009030024494
0.21902953462303337 0.16399120865079922 0.01876180016299826 0.006446129979243233
0.22195950568307304 0.17566042314964203 0.012017722218339319 0.007447442403624111
0.22510640440095164 0.17403573222906066 0.025562924857014273 0.004693944526265628
0.2257030094292435 0.1863119382161968 0.016663776146384937 0.0037445768472483872
0.22934196938663923 0.18947715455263126 0.0300497114669935 0.0029328045835333738
0.228121808508348 0.1993005716751268 0.01913371784525993 0.0027458673841837516
0.2333476024290631 0.21646120393468407 0.03148258861096589 0.0013937866273227679
0.2302389700645455 0.2106086841323883 0.021606877502339094 0.002013519887333762
0.23074192123157772 0.23189013435102707 0.010945625460640195 0.0025809594864642225
0.2330214044951932 0.22974698369856578 0.022211990593191205 0.002257323397889619
0.2342840237491235 0.2576677518563499 0.010719895741582096 0.05420793905752154
0.2295992319215331 0.21984654298198658 0.013289360373699374 0.0026785293598468153
0.23338003890188674 0.244896837576565 0.01454979458442789 0.03084327512001433
0.22568470443005642 0.2023966738064099 0.006814400676299527 0.0026216507353920317
0.23783690806132166 0.26495578691320837 0.022062246913457567 0.10033396675443941
0.23686125320598428 0.2441305907283153 0.030336009618827597 0.022654977981626318
0.24226458857431193 0.26755971026288455 0.04036568708067065 0.09135202070236992
0.23983133645863747 0.2505462632531381 0.0398249389320106 0.05051014804179226
0.23975646818963867 0.23199996752301016 0.050817295761833824 8.285596726823846e-06
0.23801609991308142 0.21272571301853574 0.05445385982352867 1.0431020985355686e-05
0.2373110247763977 0.22152627314316897 0.04600432004825346 7.118876091436309e-06
0.24265474253527575 0.24039152643283465 0.058924127384782816 0.008660388314988245
0.24363157603757993 0.21653907430673353 0.07817004530817018 6.714409002867043e-06
0.24160525724389953 0.219045194081945 0.06713954273729622 9.079902098315268e-06
0.2447085414569695 0.2297937318684164 0.07501264968823848 7.441644890571312e-06
0.24748058711655602 0.23238742113763558 0.08686359524253322 7.127890535631001e-06
0.24060938352843075 0.2068977483957736 0.06997230244561045 1.4870441075252441e-05
0.24484010983744417 0.25288299680072257 0.0617937663509958 0.05019451338733398
0.24521402553833854 0.2644071067956911 0.05672940347942206 0.08928659769826573
0.24603634381486966 0.24586385387973442 0.07150240986769406 0.040438271464642475
0.25070501169308906 0.27002917237674784 0.0798230687874763 0.08229126519972896
0.2502494229563544 0.24775771340774488 0.09056477733677987 0.030658792943871305
0.25358056699218234 0.24415248973639248 0.1098232128501874 0.016066807701547732
0.24955939347793632 0.23017350043318172 0.09846856440548893 1.318121685462906e-05
0.25270531242685157 0.2614481809651115 0.09406242332949363 0.05767242361321146
0.2568130865043769 0.2559816559679502 0.1188036994846226 0.09763697417461908
0.2571559384313976 0.26766327375301435 0.1129941138004661 0.10230375907211742
0.25961846864711974 0.2733352910030678 0.12475364372045372 0.10024519997353375
0.2609946348868607 0.25492840759014584 0.14230447874775046 0.06549509343081929
0.2644929093074712 0.26194233969701497 0.1587576755495954 0.07112681189750353
0.26915492860638135 0.26649284939323814 0.1814708271386303 0.10036599205356987
0.26662466270677093 0.2612464142351777 0.17121635244375588 0.06472341815880228
0.2529774845901175 0.22630371356230597 0.11782355144149059 1.0790415423789852e-05
0.2594000366851755 0.2610268953611134 0.12921365014474961 0.10309741698142007
0.2582074209445079 0.24885139937893758 0.13101274886051784 0.05098529968482518
0.2591102388491309 0.23623914450254055 0.14397811879985073 2.3790956749378305e-05
0.2559703908438455 0.23629087480991706 0.12717250605558827 1.5850851951623143e-05
0.2619047248727537 0.24128944232274602 0.1559654270114717 0.003551463451791776
0.2621212997679402 0.23026747753009275 0.16432775291921048 9.677364066770917e-06
0.26653249993199934 0.2431631807131895 0.181193084847931 0.021587838017039354
0.2670065988120758 0.23068571422412448 0.1915893280261296 3.035198690168085e-05
0.2708035221951103 0.22437283175460848 0.21673997706228698 4.8781262676790054e-05
0.26860867946502376 0.2248015307473747 0.20386068924805628 3.558897703443217e-05
0.24682403361136177 0.2192755828939283 0.09173066957206222 8.339071658196328e-06
0.24769506940269326 0.2104480202677874 0.10140960037935279 8.741854361025721e-06
0.25159277276297376 0.2013886924473231 0.12614088291557068 1.0615013467820474e-05
0.24986975273989673 0.20502024100310545 0.11529450585800594 8.481595746722527e-06
0.252240719411036 0.21477427407048882 0.12129916400121593 9.55747117444902e-06
0.2562469565009076 0.20726394253854613 0.1464447455481764 1.167843061757526e-05
0.25904362280534193 0.2086968888569718 0.1602704717971006 2.5011740139117812e-05
0.26148322580363487 0.21217309005082516 0.17155341814908617 2.1985798824272457e-05
0.25914830612320056 0.219102402042781 0.1548562546951269 1.5983483842427423e-05
0.26351492274564736 0.20769056918423784 0.1848046830218535 3.577781888042595e-05
0.2667867290515461 0.2022608397786737 0.20484887607010335 5.9035704899557615e-05
0.26605806893040196 0.2169767991513529 0.1940052975092751 3.811076082985444e-05
0.2642396230279008 0.22040626880517383 0.18185794630833915 3.200353374339875e-05
0.2709408270620747 0.2648962077999354 0.19361829520689103 0.08650782299832013
0.2686523230671899 0.25103168054354613 0.18885783643407292 0.05539383888006442
0.27283478251847093 0.2647030720725392 0.20554787925821363 0.06753872165197015
0.27404647776371066 0.26045894541145836 0.21600184364662134 0.045797459857099744
0.27069326353620615 0.24297570548396746 0.20584163773901626 0.021474402341314206
0.27218187311332265 0.23915134461812942 0.2169975279029394 0.002162317873973969
0.2769088859120481 0.27423051636280915 0.22601742925964174 0.060164057173325805
0.27325206571964356 0.21045339686690942 0.23689267311918238 7.917865110827132e-05
0.2756281385757667 0.205164908172406 0.2522358181923201 8.039868671221388e-05
0.2694946469110236 0.2076308962040328 0.21734178584545322 5.7681829981532116e-05
0.2823734454131971 0.2656513727901507 0.2704755879070715 0.07739160720276614
0.2803469419039235 0.27423821555428235 0.25077166742929596 0.10123182177404347
0.28526702250656577 0.2694339821167087 0.29102149037003444 0.07763981624983486
0.2885170392205474 0.2666344361522461 0.31978753231574564 0.09106835372254275
0.27630043507217683 0.23595867779870425 0.24420954855443722 5.4560585546568744e-05
0.2737129800968062 0.23356090459871087 0.22955471147107898 6.587608660695764e-05
0.2772026798463584 0.25197493415025024 0.24160426006872313 0.026315057047141883
0.27470270747542225 0.24623569644620164 0.2286725506277258 0.026750141502926737
0.27938951227555897 0.23373931450864321 0.265080990107527 6.298100037400225e-05
0.2798770594934184 0.24994792924428877 0.2606852614473155 0.04571136899479384
0.2793011577931946 0.25939475149709773 0.25167970082727714 0.051683057005658645
0.2775735642191042 0.2644809151030075 0.23654717662331384 0.044480833120984276
0.28311419747962935 0.23652576009992476 0.2895347359379098 7.916165025275161e-05
0.2808707023065376 0.23056459357458964 0.2768811253641711 7.201571525544261e-05
0.28507708064814546 0.24623230859739717 0.3003007913923028 0.050162470083647125
0.28225916463942136 0.2544165050757238 0.27485762877264047 0.0544462643164036
0.28666038845187564 0.25566436551852934 0.30834119403686017 0.062464688750375294
0.2847498947597464 0.2572626361454327 0.29264526977710176 0.05361674984643405
0.2742233851283357 0.2249546560752319 0.23689547540077466 4.045028421935229e-05
0.27677137819914915 0.22621623919663736 0.25164740698901616 6.127296732278809e-05
0.27925338912076547 0.19378400430253184 0.27731280695412924 0.12828694116034492
0.27884877642211253 0.20785638111554489 0.27079442433860446 0.05755706342193403
0.28171812456444584 0.20684422235134245 0.2887181686081143 0.08788404084679129
0.27748912715402435 0.21605142043240416 0.2598334722454513 6.919723831981863e-05
0.27950700043495763 0.2195433643797788 0.2713492242322932 7.999328961698052e-05
0.2833034414668423 0.22314019841273336 0.29595170410559646 9.049739255026543e-05
0.2922137989443079 0.24668888536713707 0.35930332366631795 0.04050102842634562
0.2910879920427969 0.2517523287277208 0.3477468405775872 0.0622419413603232
0.29018856929583736 0.26408757053049997 0.33579473841565843 0.10042090623656386
0.2915511711856489 0.26310776516835455 0.3494245860715872 0.08328925173033831
0.2926471294438794 0.258261871935552 0.36063754753039723 0.061089740937861445
0.2930391453230068 0.2728679887423879 0.361468530009487 0.08158960867156123
0.2947370046100341 0.265342690978321 0.3805109567448891 0.09858878285115631
0.2969544340519995 0.2591584076600807 0.40792328272209233 0.0676513095504447
0.29819298206633227 0.26366918043911786 0.4221294706341316 0.08721775433299227
0.29579237475152764 0.27072581606029156 0.3905848370961541 0.08150671226479382
0.2849391033427857 0.2211477892102111 0.30823468287423983 0.02986815734550242
0.28601760145532323 0.2329762311555411 0.31232248824834097 4.595621855608617e-05
0.2909983763364724 0.23275437353641915 0.3529822547767728 0.0651761853645585
0.28869153303445927 0.23927871641064224 0.3314987368922282 0.006226614741976645
0.2880068763415752 0.2505061705441737 0.3208831459387148 0.047573662959025556
0.29249300528191247 0.2335917681500817 0.3660132601505148 0.08729448394277871
0.29500671804737355 0.23684619010038752 0.3894425942961726 0.07516250723360954
0.29426558782850487 0.24782798041780268 0.379318992798912 0.0828190362322409
0.29616834618942456 0.2472440885672178 0.3997306869504877 0.04985981777627121
0.2834417889201071 0.2027725784552814 0.3006546594899454 0.13330717413725346
0.2853855018827575 0.20542126657800847 0.31352043109684397 0.11584305904010911
0.2882353323553443 0.21741662096380326 0.3340759788927634 0.12227226476846625
0.28955640996305904 0.22603609472122094 0.34299193417638096 0.09432177658194518
0.2926164486947334 0.19616802663884203 0.3678862232760087 0.07060484930362809
0.28976734714114233 0.21402955320033473 0.3458364757523996 0.11122100463153513
0.29387931465228007 0.2025284925267378 0.3789356962687527 0.08414031929778544
0.29490959052581156 0.2138763316963067 0.3902389139313725 0.0938365952282896
0.2930579177195231 0.21403074790480664 0.3739551625884614 0.11505662118238309
0.2916341538310321 0.21306073396759304 0.36119429289288596 0.13093071804286865
0.29394284370193546 0.22338501502377572 0.38177254117448123 0.09994233826092389
0.3002090427317575 0.2483097197618242 0.45103761788587754 0.09906840094591748
0.29937804883947805 0.25671620562041125 0.4395773964536741 0.09531475375755992
0.3006443663854883 0.2611912430848613 0.4592032335058458 0.11390767983657428
0.30176345597899584 0.267080776797843 0.4747849914778517 0.10771436227698526
0.2999144185340465 0.26726782844684127 0.4460310570726106 0.09309284124887801
0.2963888105867105 0.21879509585306664 0.40482625643821846 0.07522398746435247
0.2976219896136698 0.2221307373435005 0.41839625039854983 0.09119104298549978
0.29877187671149585 0.2345038788033495 0.4315241264958123 0.05615240467370063
0.2970218848943616 0.23292785982138203 0.41159589000964586 0.03498800242356517
0.2984072928556424 0.24566848138370512 0.42695951229328694 0.05255548300379076
0.2958095593886264 0.1994934308182447 0.3961942076754137 0.07601750587732162
0.2967948157711216 0.204716281977413 0.4064839067181873 0.07631324838017543
0.29841222828410013 0.21120780871972825 0.42443285660482694 0.1023719548346504
0.2049635986115508 0.1396820057893041 0.030136188977273385 0.0046272669722276175
0.23544270023033964 0.1969929790132855 0.05239666457160226 0.0004037014005014647
0.23267402577002097 0.1998010640574896 0.038455157061578864 0.00043236355205756156
0.23603190167796603 0.22968805103856743 0.0353716202943624 0.0008342169169827301
0.23247846438925837 0.17826923309873113 0.050610715486440215 0.001800632503649569
0.23648549412028888 0.16773461311491972 0.0763873138872367 0.0028829768128674116
0.23986406027405363 0.17198038648960165 0.08721850647290537 0.0017136034922748625
0.2367673078057701 0.1778584785555236 0.06980156492522883 0.0010413632615007596
0.24202033611576385 0.18667343734514688 0.08833815174243681 0.00031199535635363114
0.2358063467134542 0.18548027938764045 0.06077219543556131 0.0012244233820774017
0.2414020107642626 0.1971302940773488 0.0792889697522304 0.00013650241152272607
0.2448280947898931 0.20002610524275768 0.09370756033558443 2.445472819551083e-05
0.22409798655893334 0.16226464992559708 0.03824686716571288 0.0072006950660350325
0.2313806176611091 0.16310035062779862 0.062076625630747215 0.0043950711935323164
0.24316721424667034 0.16115380291866166 0.11056594137241882 0.0025027195634738358
0.24019746626140015 0.16318383179111257 0.0958224905552553 0.0016161444675802106
0.24456997102359518 0.1726390787951083 0.10864264704936746 0.0015088121216807317
0.24704096168097622 0.16075066167448648 0.12835628666004167 0.0029243780851558143
0.21421588797162497 0.14113738462385825 0.04793026886719989 0.0044308876299617335
0.21825235966789902 0.14998541851120856 0.04136858858855309 0.005549593999038544
0.22475384196756104 0.1547629426778932 0.05189001003790075 0.005886090761848001
0.2286603322103901 0.14946233014045857 0.07232783978226852 0.00460762125900017
0.23506530369569162 0.15273584129811899 0.08865998735245997 0.005332502392969749
0.23764042819988515 0.13880550936840322 0.11861798707047935 0.005065577741383867
0.23707528923987597 0.14426363971777365 0.108033702539472 0.004638497192901994
0.24298178670151233 0.1506347942192593 0.12148378969815916 0.003736536818346579
0.23046276258128123 0.138109338625856 0.0964298523067965 0.005388671856247053
0.2203274844632216 0.1390432771861287 0.06697923871347235 0.005425659534413355
0.24321274202348445 0.144080517267641 0.13108935041861758 0.004443557996730235
0.24714794458325356 0.14117454736773008 0.15121769768596977 0.003945669241056871
0.24801365418758115 0.15049305418948347 0.1428249389925483 0.0024353485882904207
0.24584458754651908 0.18595422765610775 0.1068445223639037 0.0003072242105280956
0.24967217953406812 0.17916608159513284 0.12939180679992074 0.0003188259022156412
0.24916104460481447 0.19127119464539585 0.11981537852793402 2.744852675270861e-05
0.2520042248195298 0.19120591431334408 0.13409376236647447 2.8707716110775403e-05
0.25495055226713215 0.19147579039210827 0.14891658841013222 1.983643149367672e-05
0.25698554009935787 0.18729407814101745 0.16176751778750934 2.5645774255152727e-05
0.25969910109041877 0.19998463979104686 0.16889081218874713 2.3961525151022647e-05
0.2612659521226001 0.18791712823314816 0.183061571450993 4.6414565935953245e-05
0.26591572138353176 0.189192205928686 0.20592634727518352 9.206992210422715e-05
0.2642071002027264 0.19759106577672542 0.1933890498792184 4.933045427012003e-05
0.26758465273749854 0.18301212257069316 0.2165355752146492 7.30977469737614e-05
0.26979729468162017 0.1780750807304362 0.2291452791883466 0.09002850023428359
0.26511601153570813 0.17727972398038816 0.20665221715016036 7.769726934352953e-05
0.2682583100493061 0.19590486019195105 0.21546908762655498 7.820250848199011e-05
0.2706649177227807 0.19231096545054693 0.22930039262293217 6.20200686587453e-05
0.2499520899543879 0.1621000481636084 0.14093203408630803 0.0016248055952842362
0.2511834373725667 0.1740473883012964 0.1396681166957075 0.0004222212318654283
0.2544931682152971 0.17272680727889614 0.15689534597245183 0.0003945801006166222
0.2581617460396939 0.15383105616699422 0.18365233639818046 0.0013732240378657432
0.25536200923430175 0.1569449457438869 0.1693855674168549 0.0014546820026124622
0.2572728548735842 0.1724596775352082 0.1706512888168551 0.0004037051542742768
0.26081942485181525 0.17277593608781955 0.18774103148065605 0.000294469284293738
0.2690979438757779 0.16059788988030754 0.23044949058399833 0.13457841964570802
0.2659537982175705 0.16636522953735608 0.21409174125183866 0.00017709106883794125
0.25204816241174627 0.1569959376525727 0.15471736005992093 0.0023275511187353945
0.25574198429998246 0.14237536909763604 0.18224945594764758 0.003837217266702778
0.26345760925024875 0.14800736573553208 0.20846225279218555 0.0017873532238312402
0.2604017334252825 0.15097834914301017 0.1949511513724258 0.0014653615543625575
0.2628194162588222 0.16044963925812636 0.2015221218159475 0.001094404274513906
0.26685291637598185 0.15419419378687943 0.22126556612666842 0.04983263134695204
0.25098659757787173 0.14226800753237268 0.16423408281973548 0.0031067582012251635
0.2601162310302221 0.1372242098342833 0.20148391579448333 0.0031975781095568132
0.2656779312702139 0.13856650690005856 0.22072388607223964 0.17432858215281408
0.2669079121229685 0.12996368498362915 0.2289081527782208 0.20858331540165795
0.27051077407934176 0.13278566306803538 0.2412692547379701 0.20738399497552892
0.2734272048421629 0.18506874690137531 0.24645208777152303 0.1497144524025086
0.2796945001426777 0.17615643735541697 0.2821492144963039 0.15204567816794362
0.28245245313937367 0.19143261838136372 0.29683155236047265 0.15672034032888363
0.28305701914631676 0.18107374603238752 0.30254482157783125 0.14515265700049923
0.28766681133794497 0.1917742287017603 0.3309248243245258 0.08876069704414558
0.28544083804710657 0.18899454230158722 0.31650047115761537 0.12020844867414895
0.2921970030487371 0.18316471921121666 0.36399965057878597 0.04142070149629062
0.2723576500712265 0.17191239673292916 0.24363899214014945 0.17258797989449556
0.27493001376265425 0.16593978715134722 0.2577331799323064 0.17193928837918823
0.27615903927948865 0.17837449898698188 0.2626293661292244 0.16816062512031207
0.28405268748354456 0.16856285508517507 0.30779310312274877 0.09477163766325629
0.28904635850884786 0.15953913168154646 0.33761789772408446 0.04897954889110525
0.29005423451289775 0.16808879323733533 0.34641668419304156 0.048467327052292716
0.287282119054769 0.17746355019290624 0.32934175216271755 0.07055208981674652
0.27471037789459485 0.1448549952269377 0.25892516134235727 0.1514596200377223
0.27217328847039124 0.154066039911746 0.24609922848462334 0.1993496630946867
0.27818154310660104 0.14557118115718273 0.2765045433202654 0.14856500210356005
0.28232078550409145 0.15202705909410055 0.2981398994093843 0.1017524564424474
0.2814313275205576 0.1651100576631993 0.2925193565385984 0.1282505812529737
0.27877434716576566 0.1651298036401534 0.2778074613406576 0.18064849387189696
0.28518513211477753 0.14296789074992716 0.31346202754684593 0.06613175108973057
0.2882757280541491 0.14521793276241118 0.3311183134368223 0.058682927650455775
0.2901823109210083 0.14873028487561418 0.34310833123672935 0.04785093480487498
0.2867983728465103 0.1576969785739874 0.32328523603834103 0.0610186188296196
0.26879223084202947 0.14199141937214113 0.23243778292351716 0.18380694478285928
0.2785271654840085 0.1339502365854105 0.2766122812703331 0.12656987785542978
0.28201774061252155 0.134465625820213 0.29421703240165265 0.08862579835180293
0.2887592603374689 0.12332187957547343 0.326402167791081 0.053706216327296975
0.28758794819716943 0.13511364241315935 0.3246853750512955 0.05305730702194208
0.29013440813873714 0.19326492514493948 0.34852053459635196 0.07754966495303306
0.2930486100513 0.1703530116627076 0.36796221778463717 0.04632971591112143
0.29510616576034954 0.15720166208088351 0.3781091674720572 0.10446483904580116
0.29331216402578897 0.13739272918337597 0.35924558299181286 0.1295625157464081
0.29222098116203166 0.1530229646187588 0.35659742465217004 0.05720723743924724
0.2955021529070829 0.18083277013305477 0.3891856276837965 0.06919684116943842
0.2965104194381706 0.1686848958030249 0.3935055547723711 0.08664825454191419
0.19525384144849728 0.12495578207460711 0.04629388626243089 0.00713640080396122
0.20299384934029205 0.13308983732761054 0.04110403306102128 0.005702646166728774
0.20482704837664584 0.1294434246900718 0.05279348681805304 0.005223826931406488
0.21492715259596878 0.12787905363592209 0.07621505925478209 0.004645363363595118
0.18780574297394548 0.12433992912014977 0.037061186558068705 0.005989574230013247
0.17660540255890828 0.11225237089339697 0.05542858715206954 0.00625713186698884
0.18468371866437475 0.11109026059340321 0.06611990209739019 0.004841819442503826
0.1964961920997137 0.11668323902836995 0.06756211736263376 0.0058380229521546815
0.1882472433348776 0.10680554743574507 0.08071699751558582 0.004946230242404001
0.1897365442691758 0.11741660999582082 0.05661105130639767 0.00667686409537941
0.20152664135240575 0.1147242675360364 0.07967258384595492 0.004626179170738038
0.20815915826176448 0.11368252360057603 0.0928899884408547 0.004566501259190742
0.2028583012842144 0.10588566323864992 0.10225179153641574 0.005149113614848237
0.213380536203303 0.11238838344180717 0.1060882619499407 0.008014852004007884
0.21927115267658523 0.12181662924771897 0.09802212870747962 0.004710029902159303
0.2244811400695799 0.12043617549395608 0.1136269569624544 0.0035742460553747205
0.23163331318015878 0.12810008902535344 0.11798475053823579 0.005896946956602957
0.16161634760015595 0.10864480949630724 0.055926549992237146 0.0073876206252702315
0.16701391688014658 0.10462263320014409 0.06884874804736146 0.007229214357838027
0.1703413578785202 0.09559895708977348 0.09459711473999217 0.005870165760270514
0.1650591997017614 0.11330643324377276 0.044849527757766364 0.00770828426217513
0.16508025833579687 0.0890518115166588 0.10978904909802059 0.1160077606456261
0.16479758499866298 0.09906128180725704 0.0828956727569039 0.005316005942283087
0.21472349267037402 0.10132492002879347 0.1360868195127981 0.00658828396512606
0.21819171210052618 0.10805237308338726 0.1263674248345474 0.005104494219900289
0.17841072458442525 0.09338260872561974 0.10560796655145457 0.005648941967686389
0.1889855266813737 0.09899755519872147 0.10091087820066115 0.005400838191678989
0.19254496124606887 0.09596118759246099 0.11295596917753276 0.003175151080631109
0.19847495328044637 0.08919238983654562 0.1391252432466232 0.004173679015789371
0.2072422463828839 0.09967401243024426 0.12527102960422312 0.0036675925677213898
0.15343588867587463 0.078816859480969 0.13505129581774947 0.1574066741732491
0.1605495912654623 0.08413100955412604 0.12190241928049358 0.1432786524801501
0.1809563129034562 0.08673856369557457 0.1254555980973937 0.0053966771500361275
0.19444032034321743 0.0914908078808037 0.12725852727255177 0.005139844161691557
0.2263371396710424 0.11363099678894355 0.13382027264610422 0.006695362620173028
0.2371222492213376 0.1303091630427139 0.131821527534773 0.004754095279751351
0.2389969064386793 0.12435908010051323 0.14989543494417024 0.00458405812639524
0.23754429445714045 0.11457177019086201 0.16260557128942205 0.005629824655740124
0.21007441981360248 0.09466309897831937 0.14418766110235576 0.00469736018468611
0.21871388154684562 0.0955352235086541 0.1573510419057177 0.00484618850098551
0.22555812638475328 0.10497083451988339 0.15180945430151638 0.005353135877193741
0.22361264269957895 0.09468142045855182 0.16848469978602285 0.004730583617130234
0.22622786912518958 0.09070508334550695 0.17915569524397162 0.15086519264537818
0.22553130509400504 0.08124107633549044 0.19113079912702674 0.11701212768461637
0.1819611795228613 0.08107078365457039 0.1417303596081374 0.00540470867693428
0.19665950219796285 0.08156669384852985 0.15475161845697738 0.006145370765957971
0.20814158200496705 0.08585716678342564 0.1603392600953571 0.004136094194761094
0.213015053871965 0.070643583669539 0.19090676298078754 0.19796096679757802
0.21465112127049607 0.08550961871867478 0.17111954911604896 0.11301900747836921
0.15393484901285578 0.07087768423186469 0.15375450165325677 0.2182730393025313
0.16813346126671955 0.07479851406808027 0.14807176913123585 0.1283851655302602
0.1775821114153885 0.07295354636399676 0.15709691269004372 0.15181376206387528
0.20467239865603912 0.07238449642046813 0.17979276009904127 0.22032806791782247
0.23443868866417658 0.08992037951227949 0.19275266007368747 0.16589213812638345
0.23643228637093427 0.08003502129512892 0.20776258721286558 0.14928629155592935
0.248872587745103 0.1257331813599301 0.17811579719914522 0.002489701420582483
0.24628247967506284 0.13120868375494943 0.16194229207818947 0.0038706458594378176
0.2569562602336109 0.12228028993602079 0.20373458453155088 0.0037349897832264817
0.25311019010992575 0.12517393167523855 0.19073306757589678 0.004451581357119861
0.2607911555907481 0.12219674260639375 0.2147520687315444 0.12581117846812237
0.27129047479213325 0.12252929768121285 0.24719421732237412 0.20380031814036662
0.27576891179985863 0.12108252460607993 0.26415195237355 0.14197197843304812
0.2432204312990262 0.11582825583956838 0.17620246512634874 0.00429146020053398
0.24808649909782254 0.11298506681782906 0.19106393667913324 0.06718970217664309
0.2549474111457014 0.11137360615628672 0.20881781384911602 0.1516905116667271
0.26661064272118773 0.11851076849570327 0.23389447884190945 0.14238478968180668
0.24295707028070707 0.09949570144675285 0.19581927116918066 0.184745944040632
0.23992485416373113 0.10595534725747291 0.18238364046198813 0.004979558901563841
0.2507513732205284 0.10087789803800938 0.2098042883816151 0.14278045475848025
0.2614822786981009 0.10608218522792728 0.22871885233411623 0.1442493962370041
0.26579651363349116 0.10236892629390709 0.2421960009461742 0.153014881185291
0.2738499414380855 0.10237041513418127 0.26477920931277077 0.11638084532829734
0.2709974235161636 0.11121782040788261 0.2513408064708341 0.1448663905533623
0.24156013345132077 0.09041879755821393 0.20403320402535038 0.15523188806042634
0.2472361708600908 0.08958918274405117 0.2144482749580807 0.1363608385497996
0.2535246665420833 0.09062159195656043 0.22502337363369734 0.1369274501512949
0.25198144969002767 0.08093057944786694 0.231806367043549 0.16103328325542862
0.25940522275608896 0.08823205678463354 0.23906133406544655 0.1253722059111699
0.262004756808703 0.08233492129758076 0.249964742897598 0.10253338541195464
0.2751881834409585 0.13244044474513855 0.26091250981863934 0.1847597449820806
0.2800044660915476 0.12256508367751319 0.28177512018995055 0.11138237143290192
0.28381892616107635 0.12245162109445515 0.2999072827519948 0.08069181177372416
0.2861177116661492 0.12319315330869064 0.3120432990755775 0.09751676846241254
0.28345591122243297 0.10965912199992756 0.29691983503845487 0.07419457476638452
0.2886269573846616 0.11217083508153486 0.3214108087865638 0.05744074196342414
0.27969735777728 0.08991479933998486 0.29091999726237394 0.08064653101015114
0.2833565958412143 0.09472340880912673 0.30078542618276105 0.04824514400800553
0.27884492332578437 0.1029697617938564 0.2808471150172414 0.08891219082775037
0.2892601306111415 0.09865377648266234 0.3251917315437154 0.12432240534376506
0.29311440682433826 0.09859412764931906 0.34449042245756545 0.12724057042793732
0.27155140845792697 0.0742540883466124 0.28032641853615886 0.05878426173588778
0.26814316899815344 0.08304805333753015 0.26309357353647805 0.08990277038453738
0.2734696009397354 0.08522789386425761 0.27548438038876644 0.07334354227070274
0.283261383910902 0.07752358235033285 0.3149936845224227 0.10184621680316369
0.2883308974284128 0.08509880230395134 0.32846318047575873 0.10987360395946716
0.2909720003509162 0.11773281807782983 0.3364967865179164 0.11952281714772953
0.29161500815261643 0.1276517937315534 0.3449834068854321 0.12449565462845343
0.05325367741760228 0.07396452089997088 0.23354565117488701 0.1353743834286024
0.048154380969418466 0.0707862721045214 0.2456513248328378 0.08662461050374609
0.05776639794455481 0.06388377384972314 0.23770206472284539 0.0829477137803546
0.08019912822956299 0.06283672786565242 0.21045379728241673 0.14436692437822196
0.0657130368943364 0.05487382476525572 0.23763290090086575 0.07493921873220415
0.09305006533684042 0.06757280374663253 0.19136394017005437 0.21495917434911554
0.07172035823187947 0.05872218524806094 0.2253519714478775 0.10203152593277412
0.09590609660823161 0.05864240509979146 0.20109980277383047 0.15325094094856118
0.08990118778268974 0.05423963198083823 0.2122527251856165 0.11001776114076257
0.054181468693649384 0.05481596620636463 0.25439512810822845 0.05244807685740722
0.07565152306233461 0.04762109484933746 0.2352265939468807 0.08433236527753064
0.09033870276236836 0.045165166827141445 0.22462636975495026 0.09558733115243344
0.06605368311307744 0.03909730145580896 0.2590045527169639 0.07243663129765227
0.0735622610408431 0.04003792934901301 0.24841286169443955 0.08334479535476601
0.08420880781967231 0.03879995556463185 0.2391311741808252 0.08807762262749176
0.09420786169780614 0.024423270638466454 0.25261783227389467 0.1158031917235471
0.08256717097268314 0.03283682953361898 0.24974759551268483 0.10116303268527121
0.030505698599467695 0.06569385575193074 0.2899461737942374 0.046188390974396434
0.04138728061344553 0.06895316573867952 0.2606073771613633 0.07730293817959624
0.03728094345012585 0.06747453804350334 0.2711773095093161 0.06960651510290308
0.03340047123476089 0.05428430815288178 0.2990662316526148 0.11321637716617841
0.04167624694026707 0.054706576463486666 0.2770352583259699 0.053267333447129354
0.05183956145894187 0.04566337418551958 0.2705482366009749 0.03925821847939047
0.04133742115889957 0.0456979501531768 0.29314009011780146 0.09500093416977082
0.058667225347618535 0.033704556379338585 0.2792914716970317 0.11239758632757597
0.07307743775630487 0.03016157392903998 0.26418120844972526 0.10338472490798407
0.07007969198678826 0.026335354323947187 0.27497602251448217 0.14771034663297397
0.08406103027215563 0.018149950569457944 0.2726894112326214 0.16727515732664128
0.08476197294160553 0.02430682424633346 0.26114699071702396 0.1502242793373297
0.020856042498986073 0.07279968624211314 0.31241859292774565 0.10489087840035682
0.02514320547567242 0.06893606276461776 0.30237028051969683 0.06517780124447821
0.10480078672510042 0.0690412828064747 0.17838223311306978 0.2045045057721148
0.11470998537126118 0.06836569457178071 0.17218846152457962 0.1869558303037308
0.1274536372172093 0.060273083710199925 0.17863576687747607 0.1298377695277273
0.109006460508694 0.05992514342350651 0.18943505303468774 0.15002980727958626
0.10444893582215982 0.05054352584698348 0.20606946229353967 0.1079435615673041
0.1238453642823115 0.0433823812835262 0.20668287061905982 0.09807224730036937
0.13070235599026808 0.053170473730164786 0.18901587169920978 0.14290242147413623
0.1429184335057709 0.059298177894933524 0.1761656165912936 0.15138138371323648
0.10176152321738 0.038105619042656746 0.2262663880229333 0.08525249472797727
0.13784631814446716 0.04516037354590556 0.1999588940115403 0.13189813392822963
0.14818854178127466 0.03856659809568626 0.20928616033283476 0.10274235630862874
0.10468328558116857 0.029085012086377333 0.23821946004844047 0.10628694907828497
0.10521401618733964 0.021325412505817924 0.2501038988458383 0.11092798653619955
0.11692076932711062 0.03743505855510905 0.21873227009877438 0.08007253822756058
0.11245116920896189 0.032675264207467566 0.228308591754824 0.06991421785015854
0.13266898731983084 0.03550015837402087 0.21630603350625507 0.0865404114521294
0.13093788071473944 0.027811080359607603 0.22905194434778464 0.09498675589130522
0.12674610661295804 0.019456231261033484 0.2436050378063075 0.10887528021049088
0.10257565178130096 0.008030768895362231 0.2743010193997244 0.11682766657886465
0.1044966147598815 0.014431616530268941 0.2620921784125414 0.11861101441085
0.1292599807138334 0.002911762594741007 0.2698020165673798 0.1319508857075156
0.1176777344930803 0.006314432896279271 0.26852611533477244 0.14618152671306434
0.13481235297917815 0.013430382658320895 0.2513795468778864 0.14208175663227998
0.12722463465890926 0.009603780923070427 0.2594409158095221 0.13962798182495834
0.1461356005199574 0.027259205820264698 0.2276731762017818 0.08935624457276704
0.14522127630934223 0.001889534419073281 0.26877302445700735 0.1263398660609716
0.14379314837706317 0.020593626539741453 0.23861552251019041 0.11946264680738104
0.17633456552669036 0.06306005191449064 0.1747527183706507 0.18958069702282013
0.1789447903540734 0.057097651748246034 0.18576610122785817 0.16391197901677326
0.19017674571287344 0.06822031094520828 0.17433268301979518 0.2229368484951212
0.19870289908561564 0.07709033581770315 0.16716999743249916 0.13718413138142507
0.15026486638254014 0.06478884240732156 0.16605320418727165 0.1780242482511297
0.15358498306716012 0.05517628019190149 0.18255437833944949 0.1648460031096694
0.16108411845908527 0.06733548570762246 0.16290503904551587 0.14685229372205533
0.16738631254633057 0.05778041463789851 0.18039292547695773 0.18047797968082782
0.19078688135138908 0.058879773932288534 0.18958387278003808 0.21235061427594518
0.19200893714159373 0.0486314594518248 0.2054399648143172 0.12864559831655317
0.19802391996817126 0.0558611144096265 0.19879405801359767 0.15188248742838614
0.15941011938578448 0.037808385831262704 0.21091280307755472 0.09873331002209661
0.16189883652245254 0.04885502175611362 0.19372585036810258 0.1221130947386234
0.17612051705852222 0.049214073907046636 0.19684561046524046 0.17848599656879616
0.17967596499191824 0.041991528803827116 0.20941868935166968 0.11782670559283094
0.19999974889968425 0.04534248170307071 0.21536079817203135 0.08695002281603305
0.16648386023994927 0.04363688853949752 0.20273490246646228 0.11486092901727238
0.16607572449491156 0.02420375968269698 0.23381691666262538 0.10075210438454889
0.16497554635552883 0.03158754728816275 0.22175856527669313 0.08065933017661002
0.18270721843468185 0.022806364483770623 0.2408027954301637 0.0750411796658574
0.17868290477336005 0.03156049223606357 0.2253453898932794 0.0714526579721768
0.19407841705910883 0.030975065637856777 0.23330438730640007 0.06632739104013505
0.1538886622937829 0.00921476010003 0.2566939193400314 0.15544688005376653
0.1662137793270089 0.0117002822240433 0.25402680771459685 0.12255784939859489
0.16556867706519213 0.005400511662409309 0.264157158712635 0.11666278163961404
0.18631832152685168 0.014463399623744128 0.2558260534755829 0.12859070349301374
0.19360735247996064 0.021553858316930734 0.2480002197347494 0.11653631515119542
0.19989995918109105 0.00958490401844466 0.2719489599732383 0.09361700587280583
0.2014017340420377 0.01923897584499341 0.25656204214351686 0.10426242709651626
0.229274315124088 0.0689497633992941 0.2113620883066111 0.1396276976136726
0.24444775391018392 0.07248062099672568 0.22818419841903984 0.12698815762283494
0.24617804154528689 0.065352999431649 0.23895032897619983 0.09304113132649491
0.2544367830157529 0.07346095067249854 0.24381757126687578 0.10284013359633509
0.21349528639078508 0.06303500668660961 0.20169941538778874 0.162171318615712
0.23354021851286777 0.05900090734302916 0.2289689480143388 0.08715590795547186
0.25721663801781924 0.0664674928412184 0.256509388916584 0.05932542129458572
0.2528515973994609 0.05402925945905922 0.26394590023839043 0.059429037774906254
0.217071658196558 0.04108802209721752 0.23503522892604312 0.06207866525599738
0.21475213561280102 0.051503724318714694 0.21842152504420942 0.1014430287012163
0.23273580153831042 0.0504850250642388 0.23864421823052656 0.0727306621604293
0.2462414090753755 0.043220046931660684 0.2674797588277619 0.044169829198275175
0.20903222849801997 0.033195935661776005 0.24005620432921487 0.06300819852727593
0.20942306721974333 0.027152246604736256 0.24970252565459047 0.10011722477663852
0.2203580512941204 0.03198473123982753 0.2519137509998872 0.11496019304785936
0.23563159973091802 0.03683635561776692 0.2618641587819685 0.08092179644780202
0.23307836840697174 0.043121309444614925 0.24950605355809963 0.05979108945015441
0.24225832781112916 0.04799851775111436 0.25503312835460357 0.057152462065573756
0.2648225386746609 0.06577249552473721 0.27328555364169715 0.05519186082644463
0.2693946736406216 0.05434140972264986 0.3011484029944686 0.1371064686212786
0.2701383502136102 0.06448416183226145 0.2874644981808747 0.05894189466339982
0.2537238369669129 0.04295099954824552 0.2824067268795808 0.08635611230579908
0.26389306486107716 0.054066658682417494 0.2869590658832927 0.05801961878441423
0.2204902695030605 0.025734358248047026 0.26206749124638146 0.10200575194789618
0.22353841357151844 0.019010998476441204 0.27744333799853815 0.07546353691355341
0.236104039894374 0.028658727261609264 0.27674957601180517 0.08857689679188464
0.2764908778707696 0.07359252372998501 0.29513808313203244 0.057046154507809234
0.2759156733211437 0.06184707412904419 0.3092451598170487 0.1114903045957413
0.019195710295965184 0.2751461730836728 0.2696727125924721 0.07105609506309651
0.032701198196205844 0.2756124722797052 0.1815934382152788 0.07999529186178436
0.015934897597385048 0.2755816077619232 0.3017418520205111 0.06884629994121808
0.002825210021280772 0.20506357421185442 0.4312928583679813 0.08089296745847718
0.0016889308013309928 0.24019503917830062 0.46000069440337116 0.0898156674240054
0.0031275102732308373 0.2235169797411521 0.4484860275195756 0.0678126309764563
0.0007835532311886499 0.2626611388313154 0.47647758774608784 0.12937586368477133
0.06370411550116109 0.2752584653722565 0.020326126166138644 0.07285683564158582
0.07590896035844423 0.27599171228665764 0.0018704663530226824 0.08883161666295245
0.15801829603866444 0.27593608827628796 0.0031773518151443905 8.003962368755612e-05
0.20942249238817784 0.2758840784099019 0.0025860115430142603 0.04694974578508449
0.1084804339684233 0.2757974116990887 0.0009227994917395564 0.023708865504777903
0.07381110717334609 0.22873802900453272 0.0038446588295054326 0.0017104833089039472
0.042244887511811824 0.2757653201569834 0.12694512916425824 0.07770673388370702
0.26723615869190387 0.27587630050529216 0.47863449539078745 0.12382629220035563
0.13990289517443005 0.27595318481652337 0.47920078591391 0.1058456446478615
0.09603109992138358 0.27020452041495113 0.4808644093516733 0.11247588220267468
0.04729798298405445 0.2719390889129733 0.480982590455477 0.11917696527700723
0.008102503725012747 0.27496178874238475 0.48099968478638083 0.11711757507387567
0.06952631947420347 0.27472329898673037 0.4809983592222792 0.14698148511248207
0.23816590284841618 0.2745485286059026 0.4809973878206262 0.12811101404587527
0.03136741942185735 0.26480375407182943 0.4798838749417115 0.11111819395649877
0.1372563216313334 0.26320026178571443 0.4793296219389284 0.11179172895709207
0.018586667750972983 0.2615345669305977 0.4786577152745921 0.14808166825467858
0.1184797255235665 0.26051638304211117 0.4781347657203646 0.13409874536868796
0.0865999903227784 0.257443019893516 0.4762920553703094 0.11507628596724853
0.2966003178144425 0.275107904011131 0.4057528796347974 0.06018291338692115
0.2996295620513274 0.21885965806989321 0.44290430415697885 0.060648379350389234
0.29925908430263426 0.2488490077467692 0.4688907643154485 0.09187089651251153
0.29790679424956645 0.23603475758106973 0.45941892706179066 0.07753897202513893
0.3003526917253145 0.27503818600370494 0.4570420421595704 0.08185985127777469
0.24687152869796503 0.2642637459942063 0.47972532601759554 0.11423977646507458
0.28744443011998244 0.2640731921613563 0.4796546362383107 0.147319139474668
0.15185921409317196 0.2695814578597539 0.48081504404218695 0.10491458919275534
0.2056987501820887 0.2690644286052328 0.48078021780903324 0.1221944636869547
0.22564680933411152 0.269579118309343 0.4808213971739428 0.12002938553577557
0.18179422576845164 0.2681484678490089 0.48066706378533863 0.11598370200554056
0.17151077171220636 0.2580866186553233 0.47670171850000465 0.12818834127397122
0.2110283399386208 0.25939679632521423 0.47753635359730684 0.11463035571335185
0.23561817272257063 0.26069680538350015 0.4782456060632646 0.11159300217021965
0.19327822198021438 0.2614536708348282 0.47861116181286245 0.13803589641848882
