x y z curv
0.29945231567883096 0.08789021362693764 0.32483686783913 0.14346418228233923
0.30048633423032794 0.07734040672850874 0.3331059487458893 0.11592522572030059
0.2937730527822955 0.17288378134876328 0.32788539778423637 6.0840787956980866e-05
0.2932178077759963 0.1644975709617399 0.3053800970013556 8.190967234937574e-05
0.29240886255894555 0.17663573361733131 0.31467866670629363 3.57753364589164e-05
0.29300659048777783 0.18322734098378363 0.33381817419129733 7.189570033423132e-05
0.2909430074250622 0.2059429292871333 0.3437508760925865 5.7678763891564145e-05
0.29098336857385426 0.1999149839784162 0.33422320914321874 5.398808835024683e-05
0.28881202997404454 0.21873986587523886 0.3332628600742084 0.00011023923602183328
0.2889469420588579 0.21173107621634074 0.3209091259184631 0.00013004400416309064
0.28692193782403974 0.2168333646451914 0.2906445385588204 0.00018717878817604676
0.2853360384337959 0.21843425536596708 0.2617818013120387 0.00019752062588840116
0.2907157780423205 0.17766806207930447 0.28354978485650917 9.901120187109406e-05
0.28688021852773515 0.2062769207025339 0.26704749667235383 0.00015177925675640316
0.2920555299288614 0.1652468025883484 0.2840815973348053 9.459342465953351e-05
0.2868781802696304 0.22399111693824192 0.3051765099570075 0.000192960225155829
0.2916688470027252 0.17407652030873672 0.2952292934108388 6.239385681617377e-05
0.28966532053787253 0.19260014527632946 0.2943226008039488 3.1836455479591935e-05
0.28985897750540884 0.1959483049370998 0.3054829300213736 2.4945640117309926e-05
0.28576228395576553 0.21999306609932304 0.27382538062336 0.0001682880872819461
0.29120953873265176 0.18875907085628435 0.317508946406755 1.4123018506739657e-05
0.2937107489354771 0.15467984704740456 0.2950366332805293 8.396927626233833e-05
0.2886993148593011 0.208299281930598 0.3084689497644739 0.00011136823428934931
0.28314164843944567 0.2327283292145591 0.26454187838327603 0.00017775500400484245
0.2824885437032348 0.2405831313065256 0.27906939774618567 5.860647046571923e-05
0.27398542319132546 0.281189097790334 0.2503443135405005 0.05347964941359432
0.27635475962858447 0.27985572483147825 0.29361553942409013 0.05570765174723918
0.27207602397804237 0.2874476267904788 0.23378983383118637 0.05368393543008362
0.27586892082894493 0.2898053812912009 0.3189323114829269 0.04803012320310196
0.2752585754386985 0.2713739687541122 0.2414471187475898 0.033338961244763446
0.27783956277774347 0.2688258343523584 0.284712394402551 0.027269223923044112
0.2729404569351296 0.2787012311483663 0.22039169788596633 0.03868674877970342
0.27892711542969306 0.25983126792510813 0.2749558804491156 0.0055930602776502235
0.28041369505445873 0.2470322467485938 0.2598377365569917 2.9707331077961665e-05
0.2776166038036714 0.2610548071832178 0.25273931646424147 0.009923433678720964
0.2820650353553606 0.2346503958206347 0.24953024875492816 0.00016561205323898778
0.27922052777448886 0.248424100110453 0.24059228067906724 8.117086437601081e-05
0.27668644701624395 0.27059993199457033 0.2676286466117406 0.0190508756580994
0.2796779001935711 0.261928967820598 0.29757229316019207 0.008098438064844705
0.276943119570847 0.25986878567479205 0.23490963970212422 0.011018628189347155
0.27677501581705966 0.2812945536388401 0.30721023875639386 0.04759706768800793
0.28065383842288366 0.25367650322816054 0.2881775373666373 1.3344993662141184e-05
0.28003299497093903 0.27054385684821286 0.3333596300464125 0.04629432564808095
0.28550063774886725 0.2340061528208075 0.3109817057125944 0.00015371560646733825
0.28126608927101454 0.25882426076147186 0.316975098392275 0.005746348081518126
0.2782177274128212 0.2824362475855484 0.3400129776752788 0.04774161176016539
0.2834312158062985 0.24056594106513168 0.29576454672456765 7.616771390575753e-05
0.28307470785329003 0.24608564652513656 0.3074467371025529 7.183465012820082e-05
0.2846785452786368 0.23033362745457464 0.284478080244876 0.00018216759015583732
0.28227850691771844 0.2593005049056794 0.3364289620913665 0.003668203520051973
0.2839229686091208 0.2537986337770758 0.3475790426930595 8.154530695817049e-05
0.28618890886656506 0.23648425532437015 0.3312269827000376 0.00011117452203458803
0.27943271163197403 0.27002366301922165 0.321050092836305 0.036724594495873175
0.2833624480724919 0.2507286707661162 0.32766411248905114 5.769727775734214e-05
0.15677497815220148 0.01587090767725696 0.2261059305636497 0.12785530432439376
0.16259576779373475 0.04018209462518187 0.20243862624368258 0.00016706813810941042
0.16093328098393528 0.06891716024859235 0.1742864394712268 0.00014024231617283932
0.15381007387778675 0.02539070209371504 0.21672888974026058 0.06581583147272556
0.15305886050942566 0.09586678414017591 0.14781935478476432 0.0003285062890197019
0.15371419126351732 0.05273767026355288 0.1899913183292958 0.00020178262516581605
0.15472408584443442 0.076618052335578 0.16665984077647583 0.0002648454621352968
0.16212018896638486 0.1302956412992388 0.11949175029562441 0.000153851485849576
0.15710428814385852 0.11616146291928416 0.13096354570547303 0.000242155686787544
0.15912722011840247 0.15356378987896166 0.1003133793274402 0.00033219611558221534
0.1514031933397301 0.14571211999260827 0.10663050386416284 0.00028029584168727295
0.15374489171308042 0.16853438872254267 0.08796541044562765 0.0002223799107484979
0.1544547286084446 0.25896563887712387 0.022691229367493758 0.07201233198458652
0.15472480458247714 0.27042143496208354 0.014825593799166962 0.12936774971552711
0.15267966328553984 0.24465463936177317 0.03251449387272638 0.00013921992978577037
0.15202516080711834 0.22085139122676684 0.04885780253208821 0.00021723146627449094
0.15381854857018668 0.28078845718283774 0.007705297395460313 0.13990168064267047
0.15492395089540303 0.19856773192248045 0.06422540618636179 0.00030042723600894413
0.1588047801567973 0.23290205633005656 0.040658737660918126 0.0002685912476275606
0.15356683508103386 0.20855971666891404 0.05732413432655638 0.00022278415907224595
0.1672245598880775 0.019249369095619345 0.22316172537476092 0.17583646085834304
0.17168601271072664 0.0048692422740643435 0.23747139162858272 0.12294151634335379
0.16968648424682337 0.04759292751649996 0.19556475803290427 0.00025880765216029436
0.16387825011822646 0.030107046484510385 0.2123563945878379 0.00021230031159626475
0.16860625972646026 0.09363898220636752 0.15045286242495187 0.0002509360801385075
0.17030722301456983 0.060426024845002126 0.18304271489762816 0.0002844531663952163
0.16627812725428315 0.08146925281010131 0.16223287742764794 0.0001447604015352294
0.16597530636411648 0.17282064614613754 0.08475780543980181 0.0002685936076548633
0.16363282609363067 0.10545096465633948 0.13994384564036488 0.00022962544218521386
0.16750069818666985 0.18720589481293867 0.0730212952084342 0.00027500618835667244
0.16989357323641024 0.1432164057273251 0.10926482574040339 0.00025418927481896765
0.1703731509828182 0.15596508164398395 0.09880534135563598 0.000227917716054936
0.17122725583276618 0.1133042828440746 0.13396212734925164 0.00027427663768301495
0.16385109579055893 0.2441416482869202 0.03301421991383346 0.0002321805845215137
0.1727707334085153 0.2362508563266825 0.03881369713217148 0.0006470359901520999
0.17101737398353536 0.27143966837639516 0.014399949639502745 0.12568246111572853
0.1665699447393333 0.21582817825190978 0.0526197186234848 0.00021179725750571906
0.17267373451279705 0.19765838094995083 0.06548727779052013 0.00044916494073721957
0.18470670200697767 0.012350264377603615 0.23109479495885804 0.14847436889400825
0.18339087190681186 0.025240677267853374 0.218409831643722 0.12958793411516342
0.18683967628802817 0.04995158691112103 0.19456148454065006 0.0002331361165148065
0.18382516547601918 0.03421299877821377 0.20968649485865626 0.0002489162292643835
0.1765547264735925 0.06954868700935563 0.17449521284929806 0.0002478967560613735
0.17834717362707944 0.08717108289544248 0.15742887274770526 0.0002588531066348586
0.17935854886618446 0.04124933703047976 0.20243896608600012 0.0003742208335620975
0.17843343411399865 0.1497476026081776 0.10453152279033837 0.0007286178662207493
0.17991178813430195 0.16438747640123302 0.09262253484268862 0.0007047800344576934
0.18359631147187447 0.18978874566741613 0.07205914542163577 0.0004847929869803093
0.18445329620904655 0.13010646258788183 0.12128575224640559 0.0005727630530470239
0.18054149745102285 0.11892525562208475 0.13010131367436342 0.000387122486739911
0.18239838026360988 0.10337917156780285 0.1430946650204608 0.000431896407640209
0.17627970534880588 0.2568586226499606 0.024766248293069268 0.05551177888404753
0.1747546372927464 0.20954818222797508 0.057379705312915565 0.0005117752916271634
0.17205361686070483 0.2871507989752981 0.0035917064730981115 0.10472942471940663
0.1817609980606588 0.21935898621589936 0.05118830385373341 0.00042024649247926016
0.18348169924736235 0.24787193690508863 0.03155527344904735 0.0005435277308166611
0.19410038671925856 0.006412407954514025 0.2377905862775234 0.09979415124806756
0.1983598999582783 0.03162502181177423 0.213766158906242 0.0006827779307802474
0.19860680775160505 0.02322351548922492 0.22194938435113892 0.073090777692213
0.18988158027900232 0.0594206939071527 0.1856455607763374 0.00030648691477661185
0.19270607465108874 0.04240971348544666 0.20263649237251447 0.00041617305259935
0.19719511293519307 0.09243263082119907 0.15449531853796517 0.0006203003259845225
0.1943594682741288 0.07767846192664857 0.16847912204309803 0.0005426350181189539
0.19174868318467242 0.16116248897895857 0.09667578253545354 0.0011676567560273523
0.18740889282949585 0.1384782622489556 0.11470837612515955 0.0006774029522121268
0.19232343608028768 0.17209648657053933 0.0877642428246597 0.001013259108786676
0.19991318559411025 0.10143783351222514 0.14700850666760928 0.0013123936804811422
0.1942721803518397 0.11035454886200079 0.13884583619423904 0.0006311968955478882
0.18701696422295788 0.2735274470696119 0.014156922327456805 0.13125856142281897
0.18567990586125754 0.23089756549669344 0.04356731673064264 0.001135685783103638
0.19568835673441434 0.1993869940577924 0.06686410492357932 0.0009891672421902
0.1944039610127604 0.22467927493485168 0.04907942014186321 0.0018019510552151562
0.19239826150830247 0.25628282488639986 0.026798240882643053 0.0580708831239347
0.19291015681655285 0.2409238531180519 0.03755894819342732 0.001814780322399623
0.1937714664238757 0.2133112310892395 0.05689610471301033 0.0012095370702582047
0.20773162452237043 0.01539469282164729 0.2309259035949185 0.11378052851386894
0.2066488371782441 0.08055562764922485 0.16777330024354797 0.0008173315121707652
0.20770439452004752 0.0698999065643953 0.1783220606072417 0.0010185472880137043
0.20652714018276971 0.056188990580739506 0.1913457779688388 0.0011048901210388548
0.20208814129407562 0.12456020344631859 0.12849861610061508 0.0015807073511407872
0.19886048602423573 0.19019148204191508 0.073956252546068 0.0019071574750034522
0.2015932021543919 0.1421908060864503 0.11393036459311796 0.0011677482418168982
0.19865746971729092 0.15159291710559852 0.10556164538684702 0.001181605350872486
0.20567045323993244 0.1769687130520281 0.0863275356168348 0.0017501101192484783
0.2066129790076202 0.11198205526414687 0.13979455987877046 0.001708597159821062
0.2100025345112617 0.09606042601662546 0.1535766588827721 0.001631105957296261
0.1997317430722178 0.28656748982078717 0.007110827624458473 0.15544623256848014
0.19546169834470956 0.26649110386380787 0.02022284884709747 0.11289210556313635
0.20372536922807438 0.2346144119839787 0.044052031304670905 0.0030172756040637077
0.22717658184094852 0.048619990617532916 0.20374429459712118 0.0030610422993620295
0.2256953779609374 0.019835367405322605 0.23072418913026843 0.109128760194872
0.21691831748819948 0.052571487262129256 0.1970525430105304 0.001481849691260403
0.22058523484714015 0.07963862094110224 0.1723355465159057 0.0012676836740588635
0.21387101748019421 0.08761850714500624 0.16249774434645398 0.001787065312540771
0.21801988310625328 0.04124571513939247 0.20825746929910274 0.0013634233258757967
0.2161000449033344 0.031305963462210935 0.21714661022173515 0.0013094289536994068
0.21470634832339014 0.14698520844866503 0.11335013988652885 0.002839120849593349
0.21683480147264445 0.1759832778312262 0.09046657176325935 0.003360074059350284
0.2137727626692133 0.1659551198784996 0.0975990955277438 0.003946381537793665
0.21424379060409493 0.1373595809058045 0.1210280452273883 0.0024272295716672165
0.21826120447945013 0.11172014156522006 0.14318821781839622 0.003219916208796303
0.2219653603421896 0.09587742448630968 0.15726058171344903 0.002300666618018973
0.21935204300354597 0.12986012970048982 0.12879452724808432 0.0028881307931781564
0.20521063819846017 0.2623097722401971 0.02519061041550869 0.0823969504399967
0.21091747611714068 0.2809610823071622 0.01399704870897249 0.19837156310004067
0.21094685117907064 0.19330096882084666 0.07466380124521567 0.002020028039856572
0.210761676965331 0.24507307012583224 0.038759033465003964 0.0047835225005334395
0.21080333727574993 0.21554884067289135 0.059213282985228446 0.003974746643027632
0.23852777743095063 0.0600497382472372 0.19805555743247039 0.005067105913216253
0.23142683092708266 0.02772869420990753 0.22542053535815543 0.06803487889783821
0.24040132925267046 0.021552308641068364 0.2347894517717764 0.11323253120247982
0.23557018613465452 0.04361480075354923 0.21223209617876077 0.00449978631843024
0.2308099259033129 0.011973640931279266 0.23989945937076107 0.1325653408349248
0.22826796026511068 0.03604497587616471 0.21609616215238692 0.0030196834321102772
0.22807273887740323 0.08755218328159121 0.16749661701858276 0.004532377571825447
0.23339091612417787 0.0762312382442699 0.1807159541201949 0.004468803592945096
0.23057360645213176 0.06693980557297097 0.18811076663971762 0.00177101216116449
0.22435123558886783 0.12154791529763827 0.13722634244267787 0.00244648470825499
0.22272038580286396 0.15873412590633185 0.10654158328229513 0.0025161654043263995
0.22744634743456488 0.16753618096500414 0.10174541576282131 0.007079213306746454
0.22630838049179774 0.10606778595036391 0.15062701969735 0.003375648923381138
0.23125113987813628 0.1473453917351335 0.1198313478509167 0.003660956992823078
0.23525177951188897 0.11694880866243335 0.14609497001102859 0.004997188216823559
0.21701321407187762 0.26953580022010404 0.024109273854799555 0.09917323050140016
0.2219347792922053 0.2225657011121271 0.05847989401164549 0.003540720084213306
0.21924705062947558 0.23775528248388472 0.04687836254594519 0.005498656224652585
0.22385954125176233 0.20504909182362238 0.0713444993747994 0.00373161042870949
0.24406108007388577 0.031325741571470375 0.22777196869333635 0.05750937592541905
0.24349040705174085 0.01222720766683864 0.2450724383051437 0.10564424932680296
0.24161890949115603 0.07215420912545538 0.18872447860422892 0.004990272163361812
0.23600416553542258 0.13680620149535552 0.1307959873871937 0.006616466150808116
0.23568673940439153 0.17690817150742255 0.09888908782684219 0.003473576603592502
0.23933744051478728 0.12756231750752994 0.1401595302435936 0.006195898655154415
0.23785012398368102 0.10878640823331487 0.15409916195181217 0.004743432529004112
0.22660223352366127 0.2468701284946408 0.04431103932415974 0.007672818524516636
0.2274189106638133 0.23379876497958266 0.05362409851199439 0.00842762614254794
0.2564213811154927 0.046625957851011327 0.22272820858359882 0.07124833230400753
0.25533448014265914 0.028282595082925403 0.2383128514044715 0.1190867963516949
0.247681636430961 0.1435203654809049 0.13414072794962656 0.009256478899222863
0.2484239021725134 0.12530805401204256 0.1487884968106284 0.00678287557910448
0.2339727321170068 0.2655540047507059 0.03680938338470001 0.09042273149734438
0.2333593823066252 0.2834240226970993 0.024552321144327434 0.14942790189148672
0.2384549332111644 0.24032572262546814 0.05709100468722642 0.01359674261608555
0.26491570027193057 0.06090574271665069 0.21907168222559598 0.005332389684688292
0.2654522309213608 0.049775458647663695 0.22928752364141583 0.07324421853010521
0.2635173888907395 0.037554966277770885 0.2377137732470278 0.08404926064245098
0.2601524764033955 0.09945001638346851 0.1802564852631971 0.005830227516755133
0.2568257810360733 0.15665898722260002 0.13378969780263306 0.007420099615548603
0.2579497494173605 0.11266488925992822 0.16766358088201705 0.008930927769752406
0.24199955516579638 0.25940665592474854 0.04813881368917214 0.045040271738801964
0.24768182921456686 0.20980460829397884 0.0856231914667668 0.00934176852934038
0.2505709240613382 0.19807104251126417 0.096265607883837 0.007769317178611303
0.27246945607252593 0.07125259132862355 0.22062624831087846 0.005674387110937978
0.27188985663104626 0.04581378784677164 0.24067135837568943 0.11280188598945937
0.26486346166092506 0.1572998993579745 0.14463113911819017 0.009225284444861363
0.2658706116485757 0.12014107167401183 0.17219209600795707 0.005576056743498769
0.2595348919664259 0.18273232754770818 0.11872535352956862 0.009507364617222335
0.25035061689797095 0.2520089697497753 0.0629234545168372 0.012654675242186006
0.2572426313503521 0.21580342307228295 0.09436352168322872 0.010551564623091682
0.2761855586806956 0.10771346117211682 0.1980892653697085 0.004892596279328411
0.26683404676011185 0.18547948316946442 0.1296656073659767 0.010445734612970475
0.2699648522618683 0.1558295236330195 0.15485465567195655 0.007308688538554277
0.2630516553240231 0.20953164694078172 0.10808831741362103 0.006745033403904507
0.2893625346875388 0.05950761890402648 0.26332025694228595 0.13744278126565815
0.2801185339972535 0.13703797572134413 0.19015099517933423 0.00854102089786984
0.2754904071267282 0.18254125604051333 0.15412641917841763 0.006839097347970279
0.2763157700287937 0.14903045786573 0.17335001835567018 0.006048239491798921
0.274972533737349 0.16895135515849427 0.15947989779692284 0.0054057028706771485
0.260582585231657 0.2527644370006808 0.08279350561558188 0.010432236491009692
0.25476952006472214 0.2895587585797617 0.05290181577319424 0.1238503436874063
0.25582715587115157 0.2799884698184659 0.05920231405121281 0.11544864803484739
0.26749771936796046 0.22124058771751393 0.11422266751804194 0.008239928266338297
0.2601982957677448 0.2668195849132606 0.07716097709078233 0.04825339723373275
0.26897705845560166 0.21185050370935443 0.12178567453423556 0.005972731290011793
0.2659115922671774 0.2320494372826078 0.1058621005818625 0.009148646510328783
0.2897966139787681 0.09506417424450819 0.24392650495052104 0.00527657409511491
0.29292602030012993 0.05347287965303282 0.27776617248787383 0.13146979481897705
0.2784501096330147 0.16474480599848784 0.17181195116747813 0.005056120027058466
0.28061940276589853 0.14996961268628245 0.18546640455770952 0.005901582309648372
0.2749606894933476 0.19398155674751372 0.14827906460860418 0.00488927766358005
0.284349399555911 0.12472265149470776 0.2088991896371586 0.004033293587469824
0.2781984473933983 0.17946463442367397 0.16649742881419033 0.004148508835594822
0.25823439022584005 0.2911007353619208 0.06668844195121532 0.06112262537897189
0.2651264908129415 0.24536087887444652 0.09962712639973374 0.008357858348165942
0.25930169355861316 0.27674480168074267 0.07177676123658094 0.08716519656864544
0.27207317475765563 0.20803452576595732 0.13270045170802594 0.006824262162645459
0.2693435958350968 0.23233422970825926 0.11887440195129956 0.004357378318630313
0.29884200343288014 0.05566082577889257 0.3046068090582217 0.105633141280091
0.2939664405250291 0.09731498118683936 0.2656090661576276 0.0029885676879821137
0.2970886331517911 0.06627877295669118 0.2915657207424885 0.18209948128251774
0.2947096878434134 0.07839166763504757 0.27434766502458074 0.11253446302923137
0.29216653479703497 0.10014487264672045 0.2538832499534161 0.003771899461149981
0.2889844939879639 0.12891560324150722 0.22889732067514634 0.0026639636093614373
0.2820382351147852 0.17218602276982525 0.18725154975963673 0.002973353658256402
0.2853516787331153 0.1584252869173337 0.20680169371146262 0.002452378666557379
0.2859846384718465 0.1386643922939788 0.21114524397826404 0.003023429449322638
0.2771962976015956 0.19986590262896403 0.15782593946633677 0.0035963587441174196
0.2828075498572301 0.16092963506670646 0.19187153069072818 0.0029283879380967116
0.27405606827808515 0.21849708876112728 0.14198106948529804 0.0027527337581987315
0.2720596229644601 0.22861383772269273 0.13291127887409834 0.002194460634971569
0.26433448058436315 0.26471504342485264 0.09687433571588246 0.022641548955882624
0.26746989911484953 0.24783709569232582 0.11093718900233059 0.004963225896157834
0.22195619747941187 0.260393732663066 0.03263426217827336 0.07558056597275237
0.22677164137476727 0.1943453405914017 0.08012093115659884 0.005212749841504647
0.24547664343352488 0.08469706932100042 0.17974421433060608 0.005447163796554328
0.24721056309140976 0.05091015487116497 0.21181163801399677 0.005656998068835505
0.2561285486188053 0.07238007438303053 0.19965255924089148 0.006812931418609457
0.2559862611998198 0.0605566442745504 0.2099174257366318 0.007717938595713725
0.23931767901876846 0.1641620893779691 0.11142830259619854 0.007627789336919588
0.24233134947422316 0.1561755263586354 0.11989617286082976 0.007231619488429332
0.24464183579871837 0.1013423021105672 0.16440569100751598 0.005143900563487605
0.2355674759905485 0.20527512830019992 0.07801292743137787 0.006578586463660112
0.23620180963649956 0.21580715379985882 0.07147050253696138 0.005526029832674907
0.2523705983932214 0.11681911208850815 0.15880053115427886 0.006909863222648273
0.25080668238155723 0.13535809338856863 0.1432116666284124 0.005537577882887624
0.2482968408464042 0.17631619648172242 0.10973242003783512 0.010290817499903224
0.24652503665879727 0.18519568448609966 0.10122602164868877 0.008505393590060951
0.23773991340578457 0.2758561901072819 0.03336144716884925 0.1539741931786278
0.242435202865329 0.2319301466072944 0.06616900326550944 0.008127083696456374
0.24531838785034954 0.2242101887319976 0.0739986452286465 0.014383529787232613
0.26783331555612033 0.07844846715205922 0.20793717199791106 0.006082689070280885
0.2717462159030427 0.03619848903892474 0.24862278583289357 0.12595769728822484
0.27026379380593957 0.02490226314820867 0.25634375923031544 0.13371925477473448
0.2640102586640078 0.08918651252594681 0.19367331892703282 0.007447583050976239
0.27553946474734764 0.08800374816730025 0.21219640792708944 0.0044074369960406526
0.27888591325065104 0.038034043832233064 0.2577059009224133 0.18508328620627987
0.27465631298439436 0.09751272156376478 0.20307232448595652 0.008353406072391259
0.27529257638923826 0.06011324586667817 0.23394666060149394 0.007201948488761297
0.25512370609396 0.1924854326487774 0.10559142464481863 0.009814102858506882
0.2600165707445838 0.1306228414743606 0.15676551069860975 0.00611946855819198
0.2618827811517537 0.14462953480455146 0.14912231312845856 0.007142657109491058
0.2685607057093778 0.13081756071269604 0.1688640882883613 0.00455730321654967
0.26512395151431556 0.17367603452185912 0.13407460932573267 0.008811115119888448
0.27104497722942894 0.11049347538132305 0.1868552982542347 0.005448891532633576
0.25490409101537226 0.24325330942973655 0.07505115806956444 0.010196433548384485
0.25028674791873623 0.2767810397301865 0.04859325668002519 0.1308866037204684
0.25809034083987825 0.2295750595216756 0.08810862662544112 0.007561585497236086
0.2858907315927339 0.046582611749015 0.26422409622859844 0.1526109163507155
0.2810978345986564 0.10727700030157294 0.2093510569767817 0.004242519272729815
0.2877012999602217 0.033705506938744315 0.277548390560638 0.09391355026465589
0.2842745710043914 0.06659176347680834 0.24605759106436614 0.059257670153002796
0.28113580799831794 0.08720205047373952 0.22393919867722167 0.007842272004395122
0.28380052018140184 0.05574667921706182 0.25292616864907186 0.14064335521014346
0.2821744393960879 0.07396587180582177 0.2359419204411262 0.008900236851547996
0.28814617652367613 0.08053562654926155 0.24661327850744547 0.004552932729784174
0.2854826699998853 0.10934049805351849 0.2205818214671539 0.007347668869464797
0.27081651939031365 0.17289607823688252 0.1460926059068664 0.00950809470174449
0.2754795257698207 0.1332234996213593 0.18046737149911748 0.007120615418538077
0.2786749960686128 0.12140735174612231 0.19477241106394275 0.006184872793715959
0.26898403536891186 0.19839099588364797 0.12680218909186725 0.007197069902517929
0.2557115752024729 0.2688265623036145 0.06342953187991449 0.09264316337508996
0.29496779899167214 0.0644243856814634 0.2801479496457494 0.1525654710200052
0.2968017627430013 0.0475972441260505 0.2955853064159383 0.12330745679721365
0.2924701687887832 0.07706283601747796 0.26350041983888894 0.06329294367027305
0.2887813055285598 0.11007175663727903 0.23266444386544052 0.0033676450846231226
0.145748281095468 0.08884900520240346 0.1547036664120342 0.0002686054194503582
0.14264125834904012 0.06495027384503149 0.17810986889095376 0.0001595497142822723
0.1427610652333505 0.07527942561158615 0.1680104609150622 0.00017437856040631027
0.14498096712596129 0.0014577933933826463 0.24018369267774783 0.07817850202591937
0.1430473084582805 0.015813782427673034 0.22617656250072493 0.15361484771681483
0.14422855716865646 0.044368900471245004 0.1982104931804963 0.00017560616717763138
0.12691560271824767 0.025371508348630518 0.21751706952317304 0.10981626624277922
0.12915565943543927 0.014849239754988634 0.2276905749194429 0.1517225170905235
0.13414475855832136 0.033657455201901026 0.20901956604113628 0.00013207049470415893
0.129179517251455 0.0668148790386314 0.1768485968029717 0.00016158317042859913
0.13265260863222345 0.04212667247522009 0.20081455788789504 0.00023862208235480355
0.127031717016592 0.09124716090708859 0.15306056759481965 0.00032145622843259523
0.13332021249303247 0.05089355369663463 0.19220019590567922 0.00028137090670559843
0.11166232668542853 0.004061136952311467 0.23951190879841452 0.1269395738384816
0.1176805305241003 0.013694409694825565 0.22963695945443552 0.11271640146023891
0.1176326737332577 0.032259585718794934 0.21152019157402116 0.0002472403950501811
0.11934154144807327 0.05161722211740792 0.1924714318114386 0.0001345059562501978
0.12182508365788597 0.06063603807257695 0.1834155812123581 0.00011814474838403644
0.11432438686171892 0.0932385712374063 0.15223750993472454 0.0004750718832145768
0.11939063535381633 0.08350982766090106 0.1612737495766413 0.00034261720228903744
0.10398325233098342 0.048537129105559386 0.19715299154206875 0.0005786725018228563
0.10732094507282765 0.038577974711483984 0.20644455319127325 0.00027891180574692823
0.10246106269146284 0.08910871981520607 0.15786099404696805 0.001028599137854939
0.11124716383133998 0.022083575196297365 0.22197000567336744 0.12761169403539746
0.10896749235470496 0.0712859896528242 0.17431420621727023 0.0003516397604180151
0.0928866607650857 0.013447911562986574 0.23278511613913364 0.08447520003758344
0.08613177163223235 0.03621028203263535 0.21197796626372317 0.0011310482454031517
0.09494530650620457 0.0704878932144197 0.1772928739042141 0.0008842281009066898
0.09568535914309377 0.043621424397950866 0.20315238400827054 0.0006404793508867475
0.0891832463586346 0.08564635394592725 0.16386099681745664 0.0015147186857177829
0.09538427594213424 0.024408957952494783 0.22182473572761857 0.06664395083301532
0.0983239140291615 0.05744781733764422 0.18918973758201937 0.0010680835273803604
0.09842486280667676 0.0787506249043612 0.1685362902644636 0.0011024491040764616
0.08082185368069948 0.02940031387890591 0.220079308931296 0.06612991295982716
0.0772332534661185 0.04462123745852446 0.2065397809163696 0.003442052886875051
0.08071730989801476 0.011090939155715965 0.2375120098816323 0.10989005920196895
0.07889938132904907 0.09473065392071323 0.15822652257774217 0.0015832443328134865
0.08401753737401241 0.07728426002563935 0.173256747760208 0.0019954474486627966
0.07857483261535086 0.06682998681983487 0.18504772021197374 0.002037875127268061
0.06264187088809282 0.06738549148664962 0.19094209389820577 0.006098850319321063
0.06312415070935595 0.013944963203971372 0.24069923198475518 0.13022815022722115
0.06730235135483621 0.051124147109207985 0.2042740625783175 0.004317634490323677
0.06759415709205625 0.03867456364155895 0.21579365475654688 0.06599056912382176
0.07355890546994873 0.05829361424485768 0.19451963742223022 0.003629873676893254
0.06701173241332284 0.08408286337665051 0.17338252928446424 0.004395134184237542
0.07059145586283543 0.027111971224726777 0.2253115641072208 0.1598958144556135
0.06640036933188784 0.07508451044310357 0.18215058008085552 0.0064050555484433495
0.056687471785772735 0.00855056550812015 0.24865315953205702 0.1324245413835806
0.05573507887728667 0.05086558957647658 0.21015250367605612 0.0053340561715757235
0.055815096797694155 0.024159971581796506 0.23473381111801397 0.1526014033559831
0.05999296456921587 0.03223489550468705 0.22489177270641475 0.14030028977149892
0.04230390296654946 0.022738590705330266 0.24557336632193913 0.1575689244218519
0.05087672367613696 0.08328403182726687 0.18414896095749653 0.005565994858035497
0.03396861989322503 0.050595469275418414 0.22978359631025355 0.09722307251924378
0.03271976637412675 0.028539555240820767 0.2502294874635639 0.1633536819403968
0.0381633229510597 0.10069174376679088 0.18182105292930162 0.004918774750228166
0.038299673483511015 0.06897058435822137 0.2090505450342988 0.010300797060432645
0.030039699130284245 0.07730821875300006 0.21260128590355445 0.005477653049563286
0.020078272463474843 0.07071800318199438 0.23491361260531038 0.0059082519932525945
0.016972584415755672 0.04042641458018053 0.26406322568682516 0.15657975265948393
0.020201707846679684 0.049777718466670645 0.25072691952123094 0.14051219020816205
0.022084553313991964 0.08776354939863869 0.21791586978956617 0.008159822196090209
0.013916261403786372 0.08108722281355922 0.2416460733699754 0.005106123281967435
0.015805691470929955 0.09296706861979653 0.2287596817319612 0.006025093103112204
0.013592062825982052 0.05747212222302715 0.2586404687694001 0.1307481824620207
0.013316690529658254 0.10598892477003553 0.2283970799851947 0.005268537430374628
0.007447573308427584 0.10465434884001681 0.2585785599533448 0.0018921860929792904
0.0027892549550497595 0.05663215278203759 0.29769286325228733 0.13929361482761327
0.006700353462332365 0.094835477961343 0.26532975275732373 0.056763974903036835
0.0042507435510502935 0.07767207680973057 0.2840744301567395 0.1280254384019633
0.005316160658486635 0.08800991296523769 0.2752740136110811 0.10205079472730566
0.010731676311148615 0.12348316200862701 0.23417862363846334 0.0024500292499621637
0.009407462928119063 0.1144442281616528 0.24435920159553312 0.003743137949561521
0.14680682006457846 0.17697685952403802 0.08105081531636651 0.00022628472167929685
0.14584040740799303 0.19056826782459496 0.06993034690030538 0.0002887596470029153
0.14755740541897436 0.13548778563381486 0.11502173742124745 0.00031849231234077203
0.1427664548332502 0.12770120871529586 0.12150792719415926 0.0002242998680878191
0.14845938936910494 0.10401092171687952 0.1408065141771728 0.00034104458126695035
0.1404672110826872 0.16434963326464366 0.0914838245117474 0.00018645020349440772
0.14122386866703582 0.15587081378509093 0.09842421491344511 0.00024418242173778886
0.13606578544801357 0.1093150440466861 0.1368146363965836 0.00025871596571059994
0.1276696318791183 0.1286054775260301 0.12147559891612894 0.00036784975103687636
0.12550479361310674 0.11534661115895974 0.1325229648109582 0.0002696269129837824
0.13712601468234545 0.09789112527276285 0.14614716659781354 0.00033972365787388243
0.1292569391194428 0.15035158574407398 0.10348140176641865 0.0002760586076985007
0.127147949048139 0.18147504144515791 0.07800620242982301 0.00034655374411293987
0.13442545318984495 0.13873111836369015 0.11274279086566281 0.0003977309145173792
0.1342069409008762 0.1892630312770432 0.07127861576563702 0.0003702458258248108
0.114696388543102 0.10520828321200587 0.14193456425911874 0.0006400641300332409
0.1156666142861979 0.15313938672566768 0.10235388579657745 0.0007735695045669727
0.12286310410713716 0.19080766238678007 0.07069353794755788 0.0005800273797407215
0.12602051487272242 0.1668218700394702 0.09013966695455385 0.00029407236635001845
0.12100617545701492 0.13811080963349293 0.11419904647022285 0.00022691837693594507
0.10206273629204375 0.11503337524694418 0.135610199775664 0.0006049052789008295
0.10708590030032833 0.1445502580217773 0.11058820422170833 0.0008006413755051276
0.10202605998543257 0.09814025281306293 0.14951521270797602 0.0006778080542150316
0.11439640279800715 0.17889515262286348 0.08127490619119644 0.0004702676996086092
0.11170416360437604 0.1277623943329067 0.12372868697965271 0.0006440038934508429
0.11361210773120743 0.16841729354698984 0.09000799693034807 0.000681013362477299
0.09196128005235472 0.13122555648592377 0.12445097261172076 0.0006779476385299051
0.09580696597517924 0.14103928277519823 0.11557460067850824 0.0009739539538751623
0.09727786310385128 0.15646217771794263 0.10259986907624816 0.0010314490982783414
0.09641121422432239 0.17806192289966088 0.08508252842999839 0.0013555928576736672
0.09953207344358131 0.16914174507493482 0.0916965983287907 0.0011744307731192916
0.0937487912939573 0.18773605648049807 0.07774731150955742 0.002999856637811293
0.07984223795599887 0.14113498783429185 0.12005982782409552 0.004391888603986999
0.07876055364041144 0.12789828943311593 0.1311682795520569 0.003511824644171065
0.08550524499620099 0.11031089273704774 0.143289813884608 0.0015969630413976738
0.07621560719964694 0.10568806464814785 0.15004282051293324 0.0043695474590902585
0.08097615386743513 0.15624226291214605 0.1074140037620684 0.004411498401920916
0.08456892273652569 0.179065263351952 0.08766464355075279 0.002392526440338363
0.07824693632595517 0.166645948224254 0.09997239292306145 0.0040844615497841194
0.07411286922756255 0.15047456502452253 0.11494102906458475 0.004523979545392907
0.07046205710331953 0.13864145897082392 0.1262582797513272 0.0035460321523522807
0.07013626209379031 0.18641080845932587 0.0880876648743619 0.006280211588453741
0.06998831747921343 0.12281838695087813 0.13917486308143787 0.0047725647946028835
0.06668441490374691 0.0968423181712829 0.16156507848934565 0.004493615862603526
0.05976182742622081 0.10692102509756049 0.15736287779158106 0.003370663950523787
0.06732087932609951 0.17448732682937323 0.0992352897227296 0.0042009232496466676
0.054527688564351126 0.166246058589999 0.11521536759881601 0.006663951158464012
0.0539721355428709 0.13645888871010303 0.13860150020090536 0.005658048494468144
0.05777051742633786 0.1901178354148525 0.09402605794019021 0.007218195595637783
0.042086763581491216 0.12170888499878857 0.16153240668903862 0.007807370741728611
0.042976692513116956 0.14076242458760474 0.14639790540079006 0.00837688763531418
0.04704186628296167 0.1609873213981901 0.12671274407987348 0.014148890440420983
0.0432240781854722 0.11134968838612577 0.16788865562652044 0.007358453012821486
0.04854085093404162 0.17977617412559216 0.11106384382614255 0.008636421851935805
0.03029565163842976 0.11230119886517426 0.18423897606211953 0.005900706682616335
0.03160802117968787 0.1751086023109191 0.1404840485363901 0.008331326062563526
0.031706200382130775 0.16089040528621712 0.14930096461005518 0.005483320689086491
0.023297928169903382 0.15537503329983904 0.17289440861903577 0.006833297399257629
0.016334387898980306 0.12099744970711263 0.21008436156453808 0.004601428764283149
0.02503480441354602 0.16444448786069088 0.1632828824030693 0.005719755200620914
0.025517489355644823 0.1741058097200946 0.15707209514024462 0.005968780964702146
0.03096801719245849 0.19879716877901799 0.12830574899571182 0.006735014506884767
0.028086881789598405 0.191647860647397 0.1406187978132179 0.008099416477837134
0.021449250807017324 0.1743124512493733 0.1716977421715541 0.003048006945561002
0.0136921242609572 0.13242800883411754 0.21645550215971332 0.0028819312667293187
0.0185842282041722 0.16212179944083985 0.18709431041169314 0.0040887757399484135
0.024701397988902626 0.2028627710819382 0.1494494638733677 0.0028129510517179842
0.01859402359133504 0.14537661172399596 0.19249331123719107 0.0036107409199990725
0.0241856719243609 0.18806110978469995 0.15597783974843138 0.0030796514963216167
0.015486301528997323 0.16008391400295435 0.20495991028668317 0.0016107266911911638
0.02152712143440029 0.19603943186323158 0.16881939337737603 0.0026625068021351975
0.015038432588157865 0.1468599490931606 0.2081233562293603 0.003632419330408679
0.14822111743164687 0.2905098895013965 0.0010271300307236474 0.1747093171944593
0.14204384529003358 0.26543374420684573 0.01826042801588974 0.1267700092885593
0.1408196065116325 0.23285945492380092 0.040703662176459716 0.00022140536906133017
0.14412267814231347 0.2018610419943644 0.06198406317884046 0.00023119762092054677
0.14173061638428253 0.2112734278400426 0.05554642592671015 0.0003095677676912274
0.13382117292938916 0.2415369189497004 0.0348630315390595 0.0002674050838902131
0.1360770153485797 0.2781517168534342 0.009616312535348493 0.13333211071458215
0.1277932559467709 0.20312614289097916 0.06171059318554721 0.00040006871378187676
0.12957686829194245 0.22340662541057701 0.047601251870252805 0.0005029134206318756
0.12656474981949153 0.23461160811877213 0.04001231530371047 0.0006284734810528673
0.12502174708853328 0.2715171343624543 0.014591361175899806 0.07732217628936172
0.12799543598523652 0.261281457619012 0.021498624596811202 0.058178806608240825
0.11728707210557883 0.20737602913927713 0.0596416700304691 0.0006456251700969185
0.12126000903216491 0.24473861992998314 0.03334336189544897 0.0009828511192635648
0.1185846824299874 0.21922404130303186 0.0512987748304109 0.0006328771967302125
0.11537452330007882 0.2873717021693398 0.004347729432808732 0.12107598060320143
0.11112759701757215 0.19868202020176556 0.06643501673280786 0.0009640876529982191
0.10825621983931749 0.2733001027827913 0.014940263083176308 0.11120525971070143
0.10895576872137472 0.2631209740450523 0.02191996555349861 0.08978726254185795
0.10951324185564382 0.24687984379837175 0.03313801964245365 0.0009319336374835949
0.10252268962692983 0.20731461942319435 0.061757590630444496 0.0014473159919974842
0.10297131669693588 0.2347684550396162 0.04262790275812468 0.0018183550840692117
0.10217193026661531 0.19385891828039 0.0711922487652154 0.0012258872634450494
0.0966507562534221 0.26490742231196474 0.02301945760439492 0.11878825563261314
0.10133601034764664 0.22404845398013074 0.05038468809575347 0.0019374139644466781
0.09141710193371294 0.23442062061259916 0.04562208139854928 0.003890848408769769
0.09360050090503003 0.2510571824825376 0.03347687916127177 0.005363211086256084
0.09555270898680329 0.276353377185654 0.015416172222316515 0.1500936149287453
0.09189591443447352 0.20433533006569188 0.06627008922575946 0.002752382812792204
0.08747084980173997 0.21458242047609377 0.06063230761464808 0.0039798254305812636
0.08422417567698585 0.1938449768434221 0.07606934410566187 0.002500595263948453
0.08763923490458561 0.22520592595222522 0.053221367366226895 0.0036846305306720683
0.08230272203781906 0.24384380381721737 0.04225370875517525 0.0054847600763770704
0.08510579361430617 0.27417669669034417 0.02028461632555517 0.14297765816923405
0.07814290390631336 0.28578046194774664 0.015557008210206846 0.1483473034651908
0.06953963912451792 0.20221246572889043 0.07709947863040124 0.005545119032271774
0.07125062670678901 0.24223706142428836 0.049043669663981784 0.007530826155997928
0.07366663630478046 0.2776091928105413 0.023686634786840965 0.11657872159442179
0.05955029828534431 0.2027810180374731 0.08384299704954568 0.007102528411161534
0.05513604787005613 0.23331248090403436 0.06829349557655545 0.010111101457418182
0.058341425830302246 0.2643513697598254 0.04521493062882648 0.07256958488546786
0.06128597555098114 0.28258904389766565 0.030510886642321704 0.12519766988767592
0.049639763540241605 0.24398006169008732 0.06843088338139235 0.009402398651586354
0.05210647084759937 0.27620341046469443 0.045882778036776935 0.09863764582495488
0.04709167409504587 0.23342812902802618 0.07835967865342662 0.011242944266087442
0.052741469159971535 0.2855591740228733 0.039464827329967395 0.11631270383421444
0.04545207375525412 0.255615200860571 0.06860297182109495 0.02960350033460702
0.04017349873154269 0.23270699789910726 0.09088985893185825 0.009796844920100684
0.04067697855167193 0.26246267339100926 0.0775151576089196 0.035631598054898815
0.045090098325159575 0.28216253193248686 0.05728993996656032 0.10748021735031231
0.03886172167540047 0.24373202270082928 0.08901973212188145 0.009765246876900847
0.0348541347714818 0.22940979977595105 0.10605774880383437 0.006877853013107444
0.0334173320462299 0.21579434957423638 0.11492988493937839 0.0065619409940501725
0.041636080657536254 0.276915682739218 0.06987181297982265 0.08216982704148267
0.03487062943398943 0.24414694404906304 0.10217180304393245 0.0069328513859186255
0.030111494797549192 0.2205722651427331 0.12453796788221391 0.005544636646592599
0.028662975808351962 0.23020690265374727 0.1321663778039911 0.004046837516304797
0.02747060369094755 0.21914211009327536 0.13646625917719768 0.004694688236705119
0.033462620454920045 0.25407308285598096 0.11026044545505212 0.0017570131266888818
0.03949966732377742 0.2794228169781671 0.08062566842016186 0.054700416726964976
0.03635589766583046 0.2627935219922517 0.09486143144786541 0.029890554272548366
0.07604224305554798 0.2108704125580619 0.06766812607262808 0.005797879158626957
0.07737170628913935 0.26162225887890245 0.032398010867825 0.07622202239503595
0.052270915665633216 0.06406745726313891 0.2005952573034509 0.004321718587273614
0.05567749728847887 0.09432469909516521 0.17050788828656968 0.004801636517604058
0.04134385575133917 0.03507351169441678 0.23563511726694472 0.17831633626731422
0.04311727543818413 0.044527386295884853 0.22550755355062568 0.05815724430793482
0.04540116992905535 0.07358918499429888 0.19755231280273267 0.006538824585758462
0.04347775159617108 0.0563404687089833 0.21473171524409468 0.007114183020410162
0.05816887305000064 0.1533994755093178 0.12208510584869467 0.006734313517944067
0.0542530940842231 0.11967827701092792 0.15127537479204073 0.005871699483751684
0.04747923143274317 0.12921131710166955 0.15011685225594307 0.0054994546608012436
0.05032439323538197 0.15006449362461666 0.1314944781210521 0.006914801758658722
0.06774605472595727 0.22847868976990038 0.06055626568874735 0.006690542303829529
0.0640132057347685 0.2148414011463272 0.07234393457988295 0.006881314501224922
0.06738977047797629 0.26167353958087364 0.03869421773473916 0.046783107291721304
0.06149732069957606 0.25102797093232093 0.05061950813824952 0.014638949575656458
0.06057581444845529 0.24027407728257275 0.058432715002867515 0.01026813817707799
0.028601642837688162 0.042504249587595556 0.24350545865176912 0.12816392375947408
0.02721119877396349 0.021944502777447115 0.2626626436612046 0.14597749270093052
0.030554836222886603 0.061391826262486945 0.2250625777333964 0.00455523083415765
0.03339895217178983 0.09361016578532033 0.19419005616782986 0.008233782347274813
0.03547888608302191 0.08085130113990757 0.20212829429326967 0.006145020672592536
0.02520311033075278 0.09482675698728496 0.20637650972551114 0.0040369266819843316
0.025688720457994065 0.07357956605003085 0.22243189201464938 0.009022975135981253
0.04076538809307484 0.15291823569245547 0.14034405429592905 0.007201915856140833
0.037284119562851284 0.13291710209995286 0.15937863240063005 0.007232693693396322
0.043849044520911894 0.1738958485314238 0.12108394888545941 0.007893412538210015
0.028163957239899534 0.12531701535918857 0.17912408462020873 0.006232970684484381
0.03090183679475708 0.14326950203363525 0.16232488774219644 0.005994206616909161
0.036159708954685066 0.1871990232602177 0.12368336252584747 0.005484833091906658
0.05325119072441872 0.25859860323428496 0.054773043201772925 0.02824300200010175
0.048933293983596145 0.2172211992467713 0.08557489147806537 0.007779048643863819
0.04658387142011754 0.20823864355171126 0.0941136148988061 0.008091710751325424
0.040260157159987715 0.20335811030192197 0.10632385467361778 0.013721060104888489
0.01965881348566087 0.10523643158543672 0.21029344534890412 0.004603256740267366
0.016886836544505145 0.0629642341136777 0.2473419631451623 0.08724648161026008
0.008492433013431376 0.0462108454884097 0.27966941859223376 0.1476975339371581
0.00989671763919044 0.05416281348316294 0.27057170482277115 0.17530974396763258
0.011780194736421532 0.06945895652901832 0.2552631308352759 0.10167948891840753
0.02339568265977438 0.1389197181964638 0.18080941556416938 0.005576838748415605
0.022598229560624294 0.11267719488797094 0.19830980484674282 0.004993316773451695
0.023959820780329204 0.12234965034501172 0.18943520979995546 0.004849605731489525
0.03454664450669515 0.20285056312335017 0.11744782512618818 0.009464207474502204
0.006273131244982829 0.06507231342968545 0.27676050596440094 0.15211760163531554
0.005021829956579068 0.056138734571818 0.2861649334814912 0.1263905967412132
0.009435042005216684 0.09792738832856192 0.2484426728151244 0.004684587840516861
0.008918624910718514 0.08684300408865843 0.25545826928114634 0.0043837942043883065
0.15373818935459393 0.2808585356432466 0.5077989643918696 0.22656319293611715
0.16329902199575552 0.2916640838378241 0.5018734519522031 0.14969607158655027
0.16431082734134403 0.2721468042786951 0.5004641101900815 0.18652733156063234
0.16661316086718908 0.2703264156407225 0.4882979106769887 0.15625713426801596
0.1637056545971971 0.2598900741167407 0.48164551675987105 0.147841261165096
0.16242283871497842 0.27798556629272037 0.48010021212002485 0.1559557692936689
0.15015667311479322 0.2808820061725334 0.47481785249441005 0.1531529312985677
0.13951520650230306 0.26775945906965165 0.4787596432611219 0.12116282743460645
0.13855939928897015 0.28239183316720873 0.47964670696375533 0.1501261042984878
0.1340012618863311 0.2688126437187732 0.4951696112185479 0.15560621290202634
0.14079690446010476 0.278855157218348 0.5052421644644085 0.21386525503527307
0.14933846153109975 0.2690985848340632 0.5081325938902757 0.2593742578283199
0.16507139839006457 0.2560151405632496 0.49387353499532133 0.13398755194505246
0.15424531601800923 0.2560151405632496 0.499810851328695 0.15662663296057924
0.1370584974121878 0.2560151405632496 0.5005148966814339 0.1592621965991507
0.1447951032203844 0.2560151405632496 0.4903361436273655 0.12966711796081848
0.14256204700797662 0.2560151405632496 0.4770889875727946 0.12549742502353572
0.1507275880065394 0.28597641259581374 0.20775350293475733 0.10555692093305663
0.15850634307494121 0.248190909259919 0.20705221364231585 0.07973890002191943
0.16331041199341875 0.2714363344032382 0.20611861925769773 0.1082739398492613
0.1663043360266956 0.2856504000143588 0.20518567778207494 0.11606842187814592
0.1689457749852236 0.2402102206656498 0.20436257474661162 0.14710214988076833
0.17404902718446558 0.22401744822259356 0.20207062766147607 0.14710018034103114
0.17712011791485996 0.28183627943931316 0.20032903266411586 0.07642069901866122
0.17615879849948235 0.26313333381033077 0.2009101701464068 0.09691079911932425
0.1774374108288801 0.24923646436470026 0.20013722253082114 0.09619188305025468
0.18068314246615713 0.23610913407916895 0.1980971887387703 0.126909426972368
0.18452566171169027 0.22381369213553792 0.19508677528216734 0.14578308848080831
0.18711728755817786 0.2678466400335927 0.19265527145465902 0.07974134277838862
0.1881124151181032 0.2535048794008751 0.19166014800746667 0.09327577369147827
0.19331154720603066 0.2835234655311519 0.18548264549997212 0.10384795049286939
0.1962359070451608 0.2707216099950618 0.18079295979347443 0.08210500791795117
0.19629742022182606 0.2286286141137214 0.18069120507914618 0.12622155723400694
0.19746587415861538 0.2559367920328064 0.17849389755809647 0.08591904133831775
0.1980172171197129 0.21563804343389417 0.17726887348281528 0.11750914038206967
