x y z curv
0.1402324362251946 0.1967309468996501 1.16525857740514 0.04672051934548974
0.16248281875851847 0.1964129171361746 1.166157504439731 0.04463705635190956
0.16431526787328787 0.1847823683477913 1.1952616820998638 0.026296271144167865
0.1680436629558771 0.18933983061603488 1.185439067236279 0.038032860979266794
0.17470776682721584 0.21646417089772696 1.0912925028888987 0.25238262168978737
0.1530892799182656 0.21688979689750465 1.0997533631276513 0.19422540975530034
0.09437385885267754 0.21495427683078208 1.0457759808800933 0.16713711450518434
0.08708941614127873 0.2113212546680354 1.0318164316963516 0.09954722705809822
0.08596318650609018 0.2106455310838421 1.0197501415869352 0.003614066336537915
0.07619736530096476 0.2026701949511754 1.0159435816774185 0.0039020655191130036
0.06265260958649822 0.1906984527449399 1.0306969753164164 0.003666945858854296
0.07230559584008979 0.19993958739760134 1.0294092044809302 0.00397430383317162
0.06312515793404137 0.1912571611865108 1.043529091132814 0.0034947256505519536
0.056018582721022066 0.18339940357678358 1.0513175232339662 0.0034843794267112285
0.05156828582990793 0.17658349944429436 1.031099583196021 0.002768642118618289
0.04577606380259276 0.1695135393743813 1.054667672296247 0.001374981873736374
0.04809316521145699 0.17207508570376373 1.041472680734326 0.002539465523715312
0.04140239543446625 0.1591038921321103 1.0378192893728515 0.09650884446180613
0.038616265383840644 0.15674483404124995 1.050494384295321 0.1450381196568297
0.04319954940339119 0.15918506319761908 1.0267133691523598 0.004397929417216026
0.03724816994597683 0.14676289806930665 1.034112033648666 0.20378254257551906
0.034533823568448224 0.1458199462245296 1.047307382486156 0.2120576867141828
0.08324191720415255 0.20816184216279376 1.0457324250797526 0.0026659666050187106
0.07820989830482955 0.20231009668708086 1.0659674798186558 0.0025375713511126808
0.07104473500257426 0.19539314005580777 1.077430555740549 0.002774668900865643
0.05832219601636032 0.185555884872327 1.065526071320569 0.002684012246532832
0.11360157246141256 0.21959963078849853 1.0659180736901588 0.20155120209166777
0.11768314269179479 0.21872949079757473 1.0764029586084989 0.16243351233415285
0.10318257544997567 0.21183861765785292 1.0859435538808853 0.06601077743177568
0.12517964620302657 0.2223332816617473 1.0678101648423448 0.2006521943545491
0.12183746510993494 0.2147352959611033 1.0966365195937269 0.10968452611395219
0.09604346145303168 0.21109465524598775 1.0746290000571852 0.0014507218531643073
0.08326953570419415 0.20299537384776936 1.0812274538106563 0.003012343052444283
0.029906437008713385 0.1326867673792479 1.0524643570419274 0.2075745062779175
0.024242662648792948 0.12664591283309456 1.0841812453780386 0.160794105950827
0.025963783696880245 0.12788519672918078 1.0716838298192017 0.18183808862088552
0.02881250902385097 0.14020895372980752 1.0818588439965584 0.21016659925732853
0.026958895254413237 0.11359942863827227 1.0534890075572068 0.1619973734680664
0.028730245277032294 0.10362343215742002 1.0445140183207828 0.15857624093198866
0.04893790612491415 0.17422110308147776 1.072638831261068 0.0033770452457427542
0.024497578784515542 0.1303280413186881 1.12633040951044 0.1592297156508156
0.024793207779977317 0.1310811693460734 1.106702781337618 0.17647115271480693
0.020276203218648477 0.11664415966331337 1.1333548714807875 0.11600737173682263
0.03168107088057452 0.14714436005222506 1.0920500439896474 0.1871695014782634
0.035379361131584186 0.1536285086540502 1.0825728165218718 0.21739511964719063
0.038558583941299115 0.1590426832911066 1.070418828900838 0.14621432335771228
0.030334548764097167 0.14234295880398384 1.1208519556051246 0.16037474072791036
0.03201019783962258 0.14680829841795337 1.107368824007589 0.18006675791493484
0.04058483557429094 0.15281976423944443 1.1432888644765746 0.13638557681334276
0.0482294065786828 0.16626299356081717 1.124222471435291 0.0019707226545079143
0.04506217719243142 0.16480476200872024 1.1122219502032595 0.003113422663255698
0.05433267769671264 0.1776078335070666 1.096229899006266 0.003698099784649916
0.07062424925063479 0.18595243651768573 1.1209022192513092 0.0027042680001533046
0.06287365518136823 0.183529306013834 1.1046524258940216 0.0024266338469074735
0.05815288980430171 0.17715018213152273 1.1152018968853605 0.0025739079395564963
0.06907077932377706 0.1917221288894054 1.0905237102298817 0.003576744921735441
0.07877362727453599 0.19656858646173117 1.099210007905207 0.002614687165752046
0.08074816732877618 0.19459214267431355 1.1118410886757488 0.002216169115707905
0.0865299561146331 0.20209380259694046 1.0929284101039274 0.0018064342725995196
0.09618822863755168 0.20512311848177567 1.1012014343302372 0.0024456809470232033
0.10059916736234735 0.20320486823506556 1.1152647515519318 0.0011329686255885502
0.10808119974267211 0.21014608813089936 1.0988519806134307 0.0012350094849608285
0.1141353462772475 0.20706757335269643 1.1164011415584398 0.002285346367178118
0.0891911332769925 0.19530853147545874 1.1263046830598027 0.002240431423294928
0.08321873112652153 0.18981104755585965 1.1344120718968695 0.002671505922134156
0.019402776060085013 0.11339245548791557 1.1096411250968856 0.10515821949022537
0.020574694371068833 0.11988685922519299 1.1199851297534829 0.13519497915899026
0.021467651180849166 0.12053617158260166 1.0988062150143043 0.1348355218186634
0.07044726153253256 0.18032127925741598 1.1405870172377321 0.002141368254337438
0.050544923738105506 0.1573909671977091 1.1668616408335735 0.12949229774888238
0.045751156372895396 0.15512479415299982 1.1561257643616556 0.12734243466995895
0.06360622167961918 0.1651725230652233 1.1754719347207592 0.06801670532044145
0.062268433880197885 0.17344995431465665 1.1451082894197997 0.002843850142706007
0.057026794502985576 0.1580747740507768 1.1811441004174417 0.09963766757572884
0.05366429631371107 0.14851429958517084 1.2019223292435863 0.1253497864694823
0.07614403104293288 0.16742686437716245 1.1925633780178693 0.09253120994621804
0.06741748940771167 0.16055896857817933 1.1954278335523227 0.15049892441833027
0.04934353755673565 0.14810769187357573 1.190767557927252 0.13874419862734957
0.08645609112871681 0.1725224085154438 1.1931925413887268 0.041801438313780574
0.08547090052599639 0.16756426955193301 1.2056625851705687 0.10881764403467285
0.09531555564813196 0.1685159515109958 1.2140086038126978 0.10910402714865365
0.016301723444585033 0.09845218378198418 1.1284304863150731 0.0947212364972456
0.09596277721180087 0.18834292029524521 1.1582199964422633 0.013697640702939775
0.10287177408302986 0.19592292701661643 1.1412382453424021 0.020247556536193617
0.10645349920797395 0.19250838880326152 1.1582380810726896 0.029539969267599702
0.11630851315668844 0.19854387533898274 1.147187461801937 0.01862587024028065
0.08393416970312578 0.1838042754963979 1.1558716731294525 0.002223457097849677
0.08804681390956676 0.18908343909334255 1.1455431907359477 0.011034561312243235
0.08309443515699186 0.17944569578305875 1.167719396730093 0.0017876327947741783
0.15540916761438797 0.19188783182930488 1.1790530704649071 0.042896410272793326
0.18723711426263756 0.18621202057521727 1.180596817569884 0.030731274011785475
0.19666617559269833 0.18545434608624056 1.1737060868643399 0.02439295280428153
0.20960779978143923 0.18030764021415113 1.1733180761643827 0.001648415125058554
0.19607234020388992 0.19476191901088483 1.1460551681153563 0.02363442133495576
0.19660778663666878 0.19906919293455594 1.1315756269264994 0.015702291060792323
0.1830824767585621 0.19637166810257745 1.1550961236551744 0.028724997262645408
0.15794235913531257 0.2086852117694209 1.1261861826967574 0.02276509877203801
0.14192771629039563 0.18672936852226907 1.1927932648742146 0.028301117824953478
0.17174211793377384 0.05125448541483002 0.9528096376698323 0.09678515446196022
0.18212632668474935 0.04582515306432684 0.9615038517779644 0.15409332537024958
0.15200468494195407 0.09739471020659124 0.9330739674891582 0.13837985018864601
0.16552063230570552 0.07169122301474518 0.943268136888949 0.22017672771983243
0.15589400964453415 0.0799972818963045 0.9402155873572082 0.17179423908723954
0.1760128847801652 0.06531142828114415 0.9466999866518264 0.16339902351225552
0.19809023410408705 0.024438530647379535 1.004575366936208 0.10612937648294715
0.183009003397344 0.1112171692483555 0.93276974720983 0.15534267792486847
0.18731504692113432 0.09847212097036953 0.938269694587015 0.21761971325525611
0.21984443207096172 0.03833058099918395 1.00208184763239 0.13240028042971402
0.22683754212841623 0.048469569723584766 0.9964850073337868 0.16778691676148874
0.2398585622676887 0.05614154178520057 1.005757421393161 0.17718780334124548
0.24159318261669926 0.06695876782225105 0.9973647021675998 0.22473042715677066
0.199889291297657 0.09848427958451483 0.9429241771018866 0.17081181569392434
0.19150007568568744 0.08158957404167308 0.9450746990745674 0.1550507531448445
0.20364350780940582 0.06427687506715628 0.9572033356138273 0.09904245839864544
0.1924474030580304 0.05650463305463556 0.9563932008993581 0.13956292439320384
0.21024014403628155 0.048280867977496825 0.9784488704104607 0.21987874589336265
0.22635204597320926 0.059943737518361864 0.9819989103277924 0.24831587879448902
0.21907164286025022 0.06544509800625681 0.968829525660761 0.15283822237079878
0.2415033823352257 0.05053463065069946 1.0160436336704186 0.11847610013689633
0.24731660635196745 0.049075119388616174 1.0277091608010482 0.10195710939400165
0.24927032201471744 0.05991722160927666 1.0187382036411319 0.13942215273817649
0.229369862846856 0.07017946171519464 0.9769312395007815 0.1629080486244325
0.22346366021031888 0.10184821670621533 0.9563261309884139 0.0043018945004801665
0.21202543185515824 0.12361817341861925 0.942826822661297 0.1674970135384586
0.21032188948955782 0.09917930635252908 0.9478908768229544 0.08113067673391283
0.20267104502796104 0.11408952410987151 0.939329813445993 0.2093299674114557
0.20830839631823694 0.0867070550350752 0.9503429664996614 0.005177750924994456
0.25077479148653226 0.07013310456027265 1.0109246055159176 0.1783178205503055
0.2399412637077491 0.07791851188714172 0.9860087590023752 0.23265207648570974
0.2577523640020392 0.06007939236454885 1.0366073404399376 0.10354725790455566
0.2680994890176993 0.07416758480306188 1.0511787333373726 0.10139184231020737
0.2629762360117795 0.07156940448971337 1.037982728337102 0.1143850128618395
0.2589473663741381 0.08170797097911209 1.0201303229860856 0.1641734958872733
0.2555677018246515 0.08884157003072783 1.008690969641035 0.21134219283658937
0.2501344488116757 0.09790579617305759 0.993858821391094 0.1814975277698
0.24737580525903913 0.08430743282856293 0.9948060828446936 0.20182668152958
0.2588230183777951 0.10222894452545836 1.011811720402216 0.20881338304812144
0.25906213288290225 0.11408451384455573 1.010292740628619 0.2587353065253012
0.20155811824254377 0.1265754082323654 0.9359232466308873 0.19679865100544525
0.2535647337535982 0.1084031223871689 0.9983139670330614 0.2083303244354693
0.2532189561835321 0.12025149095604348 0.9966749149283413 0.16914454024944803
0.27946356868631167 0.08862242224012326 1.0903185665997341 0.08268815586734946
0.2731504299194739 0.10767680510432195 1.0582281043301835 0.13904490625721408
0.2479064991676456 0.12260021856824191 0.9855205711794527 0.0031692866645772312
0.24436218303102408 0.10326233505580942 0.9813902693041239 0.0031326267500155825
0.2398562426308013 0.09283118762437534 0.9774529278964802 0.13505636203820795
0.2343380491004613 0.1101727820686354 0.9661522955622255 0.004545921191264285
0.24171082440533326 0.1354160711282107 0.975393744523353 0.003152225153742748
0.23558702658220637 0.13402268226050096 0.9654795088188424 0.0030514671954087872
0.240919574985202 0.12345747725900698 0.9735530832787171 0.0028017509254920966
0.12982430423505614 0.13386585854238503 0.9158056729276793 0.16167222570776787
0.24821432719015632 0.14366028312229664 0.9099863623072848 0.1684632857170767
0.2414349751388338 0.10939207951122355 0.909986645611471 0.11131582724579484
0.2552700965646961 0.22254724454522412 0.9099868095716868 0.17460724022478472
0.24763849530590623 0.16133296265156316 0.9099867397906514 0.15502342604183297
0.05326187157384423 0.12127383057914295 0.9099874303834872 0.15711018629947254
0.1550021659770817 0.1749034470703563 0.9136186519447238 0.17236141167454525
0.17057896239511988 0.16390996143720954 0.9132156627057837 0.17026020804294975
0.19493838086507628 0.14503972891495437 0.930047285601222 0.17239164394868545
0.2786808035330855 0.11457302418756465 1.1015134558337285 0.10733394464303325
0.2583215454106351 0.14349121117980015 1.0177465590716643 0.21790123385297552
0.23984288593652064 0.16252362500007156 0.9819259579746784 0.004842223433103104
0.22739068824752562 0.1762767714063616 0.9686914495144188 0.005963927089830382
0.22566368679330728 0.16730656760422558 0.9593216487443985 0.0070214386764922854
0.24904537472557453 0.16944129532566735 1.0185181370896617 0.004775849220450219
0.25165952550468834 0.16922265986510762 1.033812113414682 0.003996630314914042
0.2717067435302642 0.1361467900959129 1.116947216925678 0.19665336862199856
0.276666197944016 0.12312473967759577 1.128331215373599 0.14122768320934587
0.23494161391213053 0.1788828942289355 0.9887960179746476 0.003881797783632005
0.24447004235156872 0.17915775993056726 1.0276534404141393 0.005665748074166644
0.22326397219105754 0.19184089226125672 0.9808223864678485 0.004728083120396437
0.2617964131653869 0.15552975020110243 1.0997118793231624 0.17915202945055145
0.1978022066589884 0.19922684418671818 0.951564859348238 0.006055463197569196
0.2576563475389156 0.15741679125969177 1.1253279789661066 0.0461452155926818
0.25121844856312125 0.1479782275742688 1.1849547390472779 0.14970861791384502
0.23491436975605465 0.19224239728941747 1.0442956054398063 0.0033244853553966985
0.2161592886780874 0.20752238627593755 1.0385274914682379 0.004115904209122263
0.2063930789782413 0.21417879208756993 1.0403043036066753 0.17466297397016356
0.20403839229781015 0.2159451451174118 1.0117282742945721 0.14857431435661436
0.2052401151323324 0.21287238087981986 0.9953097380194956 0.10501992327925595
0.23422642588568807 0.1739664925767869 1.1478742333648204 0.0020328322969686103
0.23262700810127496 0.17115180394850313 1.162325284821722 0.002177200054526055
0.213350934153572 0.20190718577940986 1.0927267126635363 0.0018891090801193685
0.217432240288221 0.1661764755587951 1.2029929382978515 0.09536448658815048
0.22216713880998157 0.1582577944457824 1.2188505797561995 0.15782084438990776
0.2036040476798303 0.20875196690380265 1.0838145965736719 0.0024230356780112366
0.1911905758887633 0.22239081474330474 1.0062920040773435 0.19215621494246607
0.18039120113413032 0.22714202681002366 1.0203399052347337 0.17430655118520177
0.1841554132231778 0.17515179634631708 1.2121959782772929 0.07058399673208875
0.18038429297456782 0.18251292605811933 1.1947455748777573 0.02451485471866502
0.16830448083148022 0.22821509766677628 1.0389674853619264 0.18146401203439846
0.15498509906337934 0.231882515914501 1.0177523074072181 0.13913820420234646
0.16241980710013018 0.22902021325576738 0.9854552157432095 0.1746436858222661
0.2748231274601595 0.12614012684465714 1.1422168184207928 0.1406156329832513
0.20099095296868072 0.15755299921262367 0.933380625811865 0.19923509326156888
0.18420480670059336 0.16636421047044087 0.927373206035853 0.15791132207982256
0.15040974177782462 0.17055167688298223 1.235254503171913 0.13369466547317432
0.15504187925576002 0.18101483239802277 1.2071854768719958 0.01928670779091035
0.16610086879255828 0.179447679392156 1.2083989245744777 0.01438718312013821
0.175903531339611 0.16986609385700416 1.2300507002442447 0.11797965797563484
0.17183829795423622 0.2116247817551011 1.1111849375846372 0.18906804922053666
0.15607641899279012 0.21316631011359669 1.1116603958603815 0.1804329333953021
0.13163102668184407 0.06056128970216791 0.9469188545359262 0.14119104120007656
0.11926590964576317 0.08399688551075345 0.9414565553395218 0.17523713604428598
0.07133657317168984 0.1162219997919023 0.9571872145814522 0.00505766232551242
0.06363761610562624 0.10941600803419782 0.9671527357755425 0.004972056174421679
0.09202488087344012 0.07073886984347202 0.9553781285064384 0.004894669987443344
0.048062557922673714 0.09874506653506848 0.9946615133258225 0.1941704052118075
0.051394250536630506 0.08783070004822546 0.9929499784692002 0.2307030359057657
0.042084525049917984 0.09296042685793747 1.0094434394416465 0.20982095482358193
0.04483121777640445 0.07523781198500537 1.0135132902119084 0.1623448994174666
0.03556069188946416 0.095071162491094 1.0247334580756071 0.18049555074915832
0.033658744693481395 0.0817199669977163 1.0366541284016417 0.13293293656566796
0.12725399421226508 0.028225611787219666 0.9833318978272563 0.13919672904137392
0.1128558498585271 0.0358689471864404 0.9771674511852345 0.18814012464307978
0.07097965897614841 0.05476016854818885 0.9899735400974117 0.19425260790054408
0.061595620292009726 0.05971248124115136 0.9976449404628744 0.19633315577696792
0.03703470506840606 0.07065386909487274 1.0360095353197187 0.12239466560877622
0.04185840594436037 0.06997419862094838 1.0245595428082737 0.12642769104734491
0.03169593511415987 0.0931801850075732 1.036608629484669 0.14172819002364184
0.028532035608640764 0.08821485324332988 1.0490698389664257 0.12985461062063908
0.02475290308070379 0.08231783020609287 1.06687046163102 0.08723540128818812
0.02540820039363475 0.09274043867099568 1.0586975251313606 0.12301280953870426
0.029052437686031066 0.07684265238239975 1.0551725319136445 0.09662602193665129
0.02331738513661677 0.10455099770369009 1.067867777625244 0.12812277903633063
0.020225152307832752 0.0882606821606067 1.084660000445327 0.07895754871207117
0.021093798209104907 0.09940740946710894 1.0803054887719765 0.08634107389458784
0.02005289799618419 0.07827738861706879 1.0927129463171266 0.06875971108506182
0.01837493780814063 0.09517915876161731 1.1006823112273345 0.07948369810832402
0.018111067007807114 0.0814881840651113 1.1043812531015766 0.07278907545493947
0.15669269328227037 0.04009523324993712 0.9608184029957875 0.1790319310159053
0.1409420697037161 0.012610886736902437 1.0093100275532818 0.0988032430108351
0.13801619888210148 0.018912229064808307 0.9975312224556346 0.10838440434304482
0.10034948723232759 0.023999551541411285 1.0057356590470794 0.11209356790127449
0.09802366651310412 0.030888390667531226 0.9951135787472956 0.1356811764097112
0.11583566636571312 0.027734120402630614 0.9887428150472053 0.12919772859855005
0.11686373100841636 0.020957029649392063 1.0011506660388463 0.10156215429408069
0.2980158440322351 0.26705480877809695 1.0725797444464475 0.2261086899134461
0.2984818926127387 0.24347495593819876 1.068005006926725 0.17253445496414102
0.2977667144866202 0.2792554571108619 1.076834192702698 0.21914973948181266
0.2982294215711079 0.24767234996994056 1.0827933006809771 0.1878768038247675
0.29277124869403104 0.27462194157815584 0.9547107243714572 0.22322732725221808
0.2934401985756248 0.2677202106708574 0.965207582432144 0.18900145094540166
0.2911131244164327 0.28494094298999495 0.9310821169892569 0.18660453656963832
0.29075175908295997 0.2616990234996327 0.9349070207221113 0.20206924878126545
0.2921583233860243 0.26049472162813425 0.9522930460621438 0.23224154006444753
0.29128321007023833 0.2747112978967568 0.9367347182570094 0.23118955708879468
0.2861418553766125 0.280152325446902 0.8812041396346971 0.18259722398370673
0.2950454139834015 0.2587256931037778 0.9878248869083526 0.167998347498765
0.29554815126059175 0.2519154894825076 0.9979192238033892 0.1446742077861984
0.29666528322403896 0.25736255697822 1.011406709340491 0.17812538393538924
0.25839754698756234 0.2504486176746249 0.6967454162687694 0.2549298829347015
0.25999678851358565 0.260184419616774 0.7019395225026279 0.2558425241810088
0.25904651612134993 0.2685386305160752 0.692826938433478 0.21398982335234062
0.29858126578989125 0.22258416106396203 1.080377244129066 0.0003534826413170933
0.2982603903210576 0.23349493814148678 1.088256277068727 0.11758419003742597
0.2982353843393052 0.21382509411793255 1.0938839703621974 0.0005001358289583852
0.298537889920917 0.19598001955408556 1.0830911020138783 0.0002085143223309521
0.29614485633245974 0.23042178614806627 1.11163275567309 0.048829540275281885
0.29532276148770387 0.221278908207331 1.1211646666458064 0.0014847153379015253
0.2962386587652246 0.2015230168823854 1.122670549158697 0.0010141454265022592
0.29335426766669925 0.21823422930772574 1.1329405475292047 0.0026404402983755647
0.2953370816889284 0.19325232719151725 1.130261290417869 0.001529023168176828
0.2923673038949436 0.20530399244574943 1.138980908307528 0.001954450136776993
0.29845762360570527 0.21812672797923172 1.0625062501999252 0.00016064994454524883
0.27884471446293657 0.22364023715599554 0.845171373031841 0.20702034430349617
0.2787475934908962 0.24379382480606335 0.834063781263677 0.2107933983529784
0.281496442896963 0.22578206222253053 0.8640349184494311 0.21950548422618024
0.2800857580905186 0.21382860953618177 0.8600272869360706 0.19006131052029263
0.2796693463708299 0.2014835905586721 0.8657784278617682 0.19451304032763095
0.2780579984247713 0.20249904883347447 0.8515224228248789 0.22451747493719837
0.2753133455958593 0.16510531546035645 0.8565192137043048 0.20185539865473406
0.2764258857431257 0.18630442104865996 0.8499723026338877 0.20139388462070656
0.27787755415377613 0.1843699265295301 0.8635786861028409 0.18674176463323225
0.2822349551234985 0.21927311067011923 0.8739535664816325 0.1982170379300924
0.2673769996019233 0.2429990319153796 0.7552195583469175 0.22976018560062783
0.27109810062399264 0.24679156529545893 0.7771292767165787 0.22584919648858515
0.2687767215702588 0.23704667576500943 0.7668393486210284 0.20214024045246104
0.26454460584830475 0.23102543103321457 0.7427027078054411 0.1949758713222355
0.26654397653290046 0.23111751266388503 0.7553657138645091 0.21870443335008413
0.29821379563834205 0.18460611222126524 1.0889293280867918 0.0003550269323673552
0.29774188778507404 0.17332835951432415 1.078586855154314 0.00015316728905899216
0.2969350622280253 0.15469431280880153 1.0691578803314719 0.19108876119992455
0.29400002231121725 0.15134727214851676 1.0260476083755425 0.17127095116589866
0.29643951978964594 0.19907245314656666 1.0289385517712863 5.158816455690131e-05
0.2966206583902646 0.18983686892953341 1.038968790701996 8.660574698596866e-05
0.2948197204328552 0.16790884102884193 1.0266154606765814 0.06255218502705855
0.2467489584071187 0.20596189275077356 0.6605190038524797 0.155357557390415
0.2536365142202453 0.20849084552792224 0.6943766078000092 0.20664471910630106
0.2527111786261702 0.22559124305042122 0.6794106168548635 0.2315117515577711
0.2562110300493001 0.23259242134906302 0.6932007462991443 0.21524128960003733
0.25619602691773763 0.208260832081204 0.7076573131781053 0.21634425793918904
0.25387332917696687 0.21893571054516586 0.6893538041769789 0.20489769421886722
0.24974259919012537 0.2137511096667876 0.6712389918446422 0.1831462755452605
0.29104520247037613 0.1707036512547071 0.9827076804325638 2.755781722602275e-05
0.28960686835117705 0.16210563563261587 0.9740584779180124 2.2372046292788445e-05
0.28939571781843365 0.15134686771740213 0.9789063616420033 2.412516086007303e-05
0.2912305384113268 0.14963716836057206 0.9981067181363793 0.10594185079849554
0.2916430723409622 0.16080646185671466 0.9949808573424829 2.403909519080036e-05
0.2909868778668051 0.13762978999086237 1.003438262007785 0.20427286997240318
0.27937005292090744 0.18016699255272742 0.8772447039354035 0.20160140713918867
0.281267181453111 0.1685168237878328 0.898040191928453 0.2217586306013159
0.27897057675350667 0.16964281303618273 0.8807624493645381 0.21266998996450712
0.2797955414239208 0.15728229653772563 0.8942439743920072 0.21144569159901222
0.28195460900812813 0.19182246121076096 0.8888254140975707 0.2031724443949814
0.27934314863681753 0.14342366582493027 0.899408397708386 0.18576679708958455
0.2757684839778466 0.1455858810042022 0.8722663486592208 0.22476246370449154
0.2802458250105791 0.19338265913930902 0.8755303648353597 0.21840008578223225
0.27738944170866603 0.17219493454878582 0.8677860634939595 0.21009617252507318
0.296370935226339 0.28065495423478176 1.0938126085164037 0.21355533560510215
0.29750888544391074 0.2598336303315543 1.0910257551769134 0.22729538146411565
0.29665619637524504 0.29680558804563606 1.0867585953694594 0.17357454811589756
0.2957885245502389 0.2698871687423076 1.1023292173031116 0.20105359516351803
0.2965875060334713 0.25234571793380267 1.1015440535133578 0.1654202098435034
0.29154746211863686 0.29105001657716695 1.117740851672331 0.14889598560682665
0.2947823035322066 0.28141976958215076 1.106551701589852 0.1728168868718071
0.2926043543641863 0.2506071796357585 1.1271974721772964 0.1897996909618744
0.291624715808901 0.27249476429368774 1.1239030373921135 0.17901261420575218
0.2874312381798634 0.2791896889905291 1.136013074164715 0.16935375268533406
0.2875582269101732 0.2952655335138835 1.131204354864997 0.13008649179972404
0.28987228446288094 0.26275864039364505 1.1332290000408938 0.16358162443011842
0.29551712853503215 0.2917236223661358 0.9866138023949006 0.149628657059802
0.29580623756516233 0.27466960473944935 0.9947122015274124 0.18237404895349751
0.29619181037578934 0.28738963665971595 0.9989243324723982 0.15514007005379074
0.29405968946756245 0.23701411992373003 1.122170759192473 0.12015671434212262
0.2947094328025362 0.2521937833691815 1.115124256785433 0.1814698540543982
0.29691890320618347 0.19183790801367143 1.115862982218224 0.0011486446128243075
0.29821944248998433 0.19436245203019498 1.0980454532229293 0.00042161520455378984
0.25498994722826895 0.26336351568209926 0.6723715983273995 0.16842800065506516
0.256360739334867 0.25052632770097355 0.684967742419294 0.21533553316942144
0.29693968307844726 0.14733833790983167 1.1151328745179705 0.16390699541877157
0.2974520509316325 0.15751446338474803 1.1086741446964647 0.1415929816215195
0.2960626239133608 0.12039124299217466 1.094534737917351 0.11587831162568754
0.2972119170755126 0.13783293370642966 1.0916993366432604 0.14454987922447382
0.2961915596394476 0.12710732009358847 1.083457257983234 0.11298343333303537
0.2966154816929298 0.1422649672873416 1.0705357270435891 0.1681682487680772
0.26870093675549067 0.15317938021104938 0.8205070186628407 0.20389109498450353
0.27348316351647056 0.1544829770600278 0.8501206013785924 0.19819530888605552
0.2701083384641334 0.1743635528952237 0.8160084361997099 0.20697772106490034
0.2664931649421465 0.1572831138219098 0.8038462897709889 0.194282332036975
0.27431965250102863 0.1849518889625639 0.8360895659362011 0.20549296280269883
0.2724769608030295 0.1743767657165596 0.8310777287864849 0.23801578128811146
0.27166581060479206 0.1626704404271813 0.8333508764090491 0.20433179174215513
0.28549706951592735 0.14844443128108753 0.9467949929222732 3.337014799230513e-05
0.28714838729576037 0.1505442761165217 0.9595532908768212 3.6789666041875206e-05
0.28477569227390376 0.13736774444692876 0.9470907998821481 0.0004515083391501895
0.2856356657224925 0.1303081847448026 0.9584452788714367 0.0004955471456539928
0.28868609305732945 0.17590274170261946 0.9579133950696646 2.4023063925150492e-05
0.28244750067592445 0.1321217818307347 0.9304232011125763 0.0010922629813940148
0.28821756517057073 0.16237456104782402 0.9617647767543387 1.321272155028002e-05
0.2878480127517033 0.13613840036742597 0.9737952093967829 0.00019715895778824508
0.24772099501710848 0.3002483699256346 0.6435686099510116 0.13214674022285008
0.28855120153427016 0.30024801803094764 1.0995187777747422 0.15938905727506625
0.2744244725856599 0.3002481954529275 1.0950834430570886 0.15776929050186458
0.2838209213255889 0.3002485069701105 1.0854761362660255 0.1613786500155597
0.2633646232692378 0.2882226923018437 1.1070506623984286 0.1753129483897098
0.26275832210362937 0.29958686222814906 1.1064153602630267 0.10823802005250177
0.26540979812675114 0.27694330442439136 1.1011614757832922 0.16972389423406864
0.26686032303427765 0.261822979328346 1.09512875326562 0.20927282915585177
0.2645027468307617 0.25866503543594427 1.11114202111576 0.21769505751853688
0.261782738625542 0.2785934336532126 1.1179782283457231 0.1829649822096165
0.2604727448214216 0.29335081622485215 1.1176032552318633 0.17104964405193665
0.27361578685571747 0.3002465028677085 1.123267994034813 0.14776497106090294
0.2595673801147744 0.26498028574614235 1.128808778261695 0.263458783434318
0.2426914662824057 0.25024897148495007 1.1617146603826876 0.11408389719469617
0.20187838688439697 0.2502509034342584 1.1909894941327688 0.14179733226435834
0.08778229171360884 0.25025367539737386 1.1902975909218356 0.16289804797364607
0.09839483421783515 0.2502541569245328 1.1961011660701553 0.15013524728190814
0.08706735753438798 0.26321070395933827 1.1881737482607293 0.2678912552984906
0.07756913579302138 0.2533096851894903 1.1842093219857568 0.1751463436405458
0.09810114946809265 0.28764910396444826 1.1896006433034714 0.1933914597828624
0.09691105580995757 0.2659267683567395 1.193516051552714 0.29135686896852264
0.1148959752715521 0.2785826467454563 1.1982478305709974 0.21500292648790242
0.11831122182982834 0.2919145647172339 1.1964671014213408 0.17691057906140087
0.13974287723081935 0.2972882686138707 1.199430109278524 0.13060840785518546
0.14650800950660586 0.30024655324739713 1.2206469848565757 0.16018799522787908
0.14690704990657394 0.3002450188558768 1.2089721600056313 0.18649238157032275
0.15139643728105934 0.2553198543165807 1.207906400678951 0.1883442428525004
0.12666840015726544 0.25853010357319506 1.2049387115369115 0.1748348530568618
0.13079403754164787 0.27063649020672814 1.2036936456244358 0.2448546899060664
0.10701908112534603 0.2619208937159731 1.1985661332694337 0.2289224677559577
0.04345997060341867 0.28414255920650716 1.1343953778503135 0.2138289265042231
0.041571902908938266 0.2533865386018638 1.138207322888147 0.1737829723743436
0.04972113747341614 0.2849861375670786 1.1463912531825666 0.21423393536805943
0.04477673344586281 0.2707717321703485 1.1410578503440911 0.25421149578852953
0.15017906347614954 0.27356618234067126 1.2046470795165747 0.21399500350788345
0.23567952786324792 0.25598165217655955 1.170529529601827 0.1559530194842338
0.23249165887001805 0.2725671154375001 1.1702406237725635 0.17879699778112057
0.2379573507545768 0.2828909593814122 1.1622744943689525 0.18226515129007412
0.24847470011721495 0.3002485983076609 1.1685165633151025 0.16424783900874015
0.2608718717181797 0.3002486191746929 1.1705191809980802 0.14209761479101096
0.239559630231636 0.3002476438851038 1.1761845005825968 0.13080247143166346
0.2192305462809651 0.2721212662660184 1.181804842238479 0.17829681372411685
0.20381623068489452 0.2852297445450253 1.1884450457180633 0.16466124830791584
0.2189161607762442 0.2503649011150916 1.1865185284162005 0.15216925601137413
0.20948815060711556 0.2587969742476045 1.190632232610894 0.1841901178529905
0.25542134484509293 0.2908046628837529 1.132170582076196 0.17060616022303143
0.2540189513133399 0.28121275021699793 1.1379054959117278 0.18437890375394245
0.26573986616260536 0.3002485300644656 1.132525827937282 0.16892205671801477
0.2776645078995214 0.3002484884629762 1.1367090847347299 0.14502658090497286
0.20153939096824713 0.27100149346685304 1.1925435434276075 0.18341427885403375
0.189927511618512 0.2821967157853622 1.1954249648907922 0.20303362649071297
0.188536586830577 0.2982206753561605 1.1924477118473291 0.13052373401107464
0.15194595410237113 0.29143594931936356 1.2010651590257322 0.22778710942075794
0.1755854122030921 0.28976425251898025 1.1978677341949844 0.20506448930570298
0.16014627586429442 0.28130816181998425 1.2025248890179685 0.21658310488367036
0.1897048980453374 0.26879870223843605 1.1982543341626188 0.2172346068075548
0.19228268265487639 0.2504206413614098 1.2005904598064931 0.16525385752187574
0.15898541326309806 0.26577735216240617 1.205672630063848 0.2675977999040125
0.17000976170440096 0.25198851695496266 1.2068850658207755 0.16155107895659002
0.17979095311179139 0.2605167903320247 1.2028674626805804 0.21997572465726023
0.15111876703505425 0.29076447255567034 1.2317535571922305 0.1807272634489085
0.13524266544578523 0.2907413663411119 1.231074718445298 0.12684418815568946
0.2582520401190216 0.28631220947161246 1.1839482082470416 0.15917678689037895
0.25494707648662585 0.29986906225534354 1.1845100287557893 0.1495706166247151
0.154342801495051 0.27451719668478436 1.234734624401227 0.19060460755268244
0.16855419041015274 0.2773101896154052 1.2331970019348368 0.17476784609599352
0.16660183666565026 0.28969249408743525 1.2309422028975203 0.1718601421271949
0.15922073523188215 0.2995011370669691 1.22986350298629 0.1326246762358988
0.18623607309657514 0.30024856720393933 1.2220130722300868 0.1382716857845676
0.14834347265941933 0.2650897535123755 1.2367468704041815 0.19063279028228783
0.16021355951236066 0.26024813929552626 1.237125534664285 0.17990219630464846
0.14289328964809717 0.2828789180486356 1.202588920138973 0.21074430280782547
0.13890741509042537 0.2555725717282512 1.2075386883706436 0.18608927896761143
0.2564162090185478 0.253564137261017 1.1403500058961344 0.19880097408388386
0.25185588452613483 0.2711256435314878 1.1450326972350047 0.22158320829633543
0.24574642869181174 0.2923215598498463 1.1497659979064287 0.13273878978636647
0.26476697073089384 0.3002484434787115 1.1520449132294803 0.13379177457580316
0.25346990869687913 0.3002482872689326 1.1434313319342024 0.1307358218853075
0.2802393903300285 0.2618073322950224 1.1582796405975877 0.1601266438357782
0.1399364012543575 0.27466316359257087 1.2346507632852808 0.19209620910204966
0.2639072517162728 0.26999731153897083 1.1815035725420104 0.1503320546283369
0.27051184491604985 0.2818659668048527 1.1697951927127501 0.1470419066025765
0.28115571096655423 0.282836903519494 1.150775514373041 0.19417165592276278
0.27734416669073064 0.29989294478680734 1.1543630416589088 0.15537335581549114
0.283855400258218 0.29222173459921763 1.1424298438233438 0.17632621830524173
0.28515502913000784 0.25827102809219127 1.148294937907735 0.1661118710473655
0.2837465604390198 0.27041738925316233 1.148441157113109 0.14407712584436297
0.29009112884572685 0.30024845788739474 1.0757625927196066 0.16351425179427956
0.28989418138189815 0.3002465183116965 1.1118486141143995 0.15247895563757471
0.27639834984493156 0.3002453207721198 1.1106295522490939 0.1633342982691286
0.23033403072081907 0.30024856453562254 1.16915259286906 0.153278748587835
0.2329506207554959 0.30024709859721677 1.1874433792080898 0.15613026551021894
0.234668085958483 0.30024419508638883 1.1999374560668032 0.12125936416022791
0.24572546669444495 0.2917454736363473 1.195166596114717 0.13646166035265817
0.19945836232691422 0.30024872967095395 1.1957905660231432 0.17932256544397965
0.2112190319752407 0.30024783070533495 1.1992881696452424 0.13711303075541467
0.2125526191886105 0.29920926104005374 1.2155906901952163 0.12046623046595974
0.22338519596144257 0.2973952208654941 1.2097311897544003 0.1418611635264644
0.22415944560387954 0.278443819367883 1.2132922474188992 0.1928533279681016
0.21633469419209123 0.2879250937209812 1.2157970265539095 0.18444519464199785
0.2358389088815589 0.2689443783606425 1.207778845925866 0.16555200218359986
0.2293635722709942 0.26051882814223215 1.213928461321381 0.14670959535488282
0.23976105632534014 0.24868301238704277 1.2090103786364785 0.1446890483186272
0.22190098540101835 0.30024728305894943 1.185899122225398 0.13431197408149403
0.1800210501294738 0.3002485026940283 1.206766072899362 0.16684861334990378
0.16070317994106598 0.3002484652097202 1.2164395105921302 0.15482639559528993
0.16107587020387998 0.30024757790558126 1.2022465003449596 0.16375461941423639
0.12204295245723776 0.3002478794902711 0.6401252144773658 0.20921710796877319
0.13241282194623036 0.30024844983259974 0.6577839266235717 0.15541504183400331
0.06352923216580322 0.30024800809823904 1.1747655753991677 0.1275363531011377
0.05562580223452383 0.30024709235486785 1.1843030790796882 0.16946860125603666
0.07287288621296012 0.2804477215009464 1.1742579825843495 0.1856796847352981
0.09647236520157386 0.3002486181485485 1.1956951513659968 0.2082509913912816
0.10872408038570157 0.30024843014140556 1.193752034168226 0.16933483099276767
0.08452900404787698 0.30024826963205575 1.2026972405511047 0.17234512963984833
0.037672163384285196 0.3002485469137306 1.1363342610542762 0.11317112168768277
0.033365087608289976 0.3002484831466483 1.1474010865404378 0.15314001796898294
0.048968985017523475 0.30024822246039745 1.1420886976430589 0.12229685610920893
0.06199919974215893 0.30024835513388426 1.1601492042801118 0.12673048556345018
0.05931928747951017 0.2857762162024849 1.1595062002682959 0.2375633775018844
0.05542901841756549 0.2699173285243448 1.158379594039473 0.24106157838424389
0.11522312000618204 0.3002485503885542 1.2117140966940907 0.11325836797890702
0.12805632877161252 0.30024850775974643 1.198011312921213 0.11109718835477071
0.12428289683032007 0.3002461561772629 1.222234683328854 0.11859690873850527
0.1360352595401914 0.3002475689400352 1.2149322618036535 0.1531159997098926
0.02481341518262372 0.30024665177671506 1.1158605170180476 0.137519781341193
0.02125493589254123 0.3002485422225661 1.0723760113236287 0.14202915831735272
0.03014540799117522 0.30024865313798793 1.0900662871826567 0.13277015220141639
0.021776494376302753 0.3002486617250894 1.098847689696672 0.11933992117632014
0.1592411463122125 0.2759311872439659 0.6600619281559181 0.19699884216257438
0.1489612598760599 0.25109873933485793 0.6600562900145185 0.20354328404747363
0.1415539551365609 0.23204649049601686 0.6600540989029088 0.16894359086690336
0.16681972384987112 0.2438932627188281 0.6601473869922144 0.158269325205948
0.16226582290662653 0.2596452503707247 0.6601016865873037 0.19555990969486794
0.1506599634752982 0.2382955439110179 0.6600845242707972 0.20387354294289428
0.1121107388741242 0.15656902776558917 0.66257100836336 0.2310321617017877
0.11636374998303026 0.17798370686843626 0.6615619096638525 0.24128434628581988
0.1263028187030408 0.1536339227925047 0.6623273671054497 0.2306881451239517
0.1226062570614806 0.16565591918357428 0.6619181504889263 0.2876073139343315
0.10440782654388164 0.23985436557631654 0.6610376644881291 0.25106326806108503
0.1030013506090064 0.22538985554158478 0.6614544010714791 0.2139605509396996
0.08921351515897565 0.23169368147299904 0.6618765607332864 0.17005039733507568
0.09713420214536292 0.27564004108488754 0.6613625487000532 0.24020207475455332
0.0847893025693966 0.2756983138439511 0.6621785245585996 0.23191540981419762
0.07353660626738014 0.13106953969735138 0.7934386577016161 0.2528523941977223
0.08340301051471462 0.09156833046729376 0.8565953789968405 0.2598103984658109
0.07243829876646385 0.10995667376206808 0.8423376872552466 0.24135148960952574
0.0679329501548349 0.11136961866970672 0.8542514296478011 0.24119959505102379
0.06641057671367606 0.10243603510614853 0.8807801413584986 0.23328874277669837
0.1396969475541476 0.07715632958980931 0.8250801895545903 0.2884944697985411
0.15146717456145503 0.07780336721903051 0.821584637906029 0.252127286979592
0.09576661230980454 0.06946087410417404 0.8991813460691893 0.20204028895578238
0.10351405498586438 0.07111528919873507 0.8807920592415113 0.21474799435576003
0.11725246993290397 0.12642161887571934 0.695960837848292 0.2641125574750746
0.06875830495759347 0.09131081100599202 0.8994504272671602 0.1846858681030858
0.060583867492446736 0.1091666222865302 0.8896939093758176 0.18030932109265904
0.05615470924567764 0.11474213595645612 0.8990890645190122 0.22066301582533973
0.05879801405807518 0.10294953052473199 0.9096112153526775 0.14722359420453465
0.1689342228601083 0.08002705440890068 0.8201209140839834 0.29281908358044884
0.19894614743456585 0.06976818075446416 0.8915370873202342 0.2780466620778851
0.19661798069055667 0.07910206584129177 0.8552759007980014 0.248842422913704
0.19146840059269865 0.07070480998117769 0.876082827365778 0.2487283431263596
0.21320800314120264 0.09135268497751066 0.8525354881395161 0.22798497407915846
0.2418716321055703 0.13443931368837006 0.8645566805784579 0.2291683645750803
0.2392340599128215 0.13885155194594265 0.8441116919186047 0.2497435095575849
0.23671167637651816 0.13860134641795627 0.8314289555340331 0.23168445670313323
0.1638521263181173 0.06185648866627342 0.8816915905396567 0.22331075831835503
0.1586255025300429 0.05764875736978257 0.8956370327912936 0.20586314357366067
0.1715548662929081 0.05582474504201535 0.909469809439904 0.25261033965891344
0.15681334910678485 0.05401402279158021 0.9090685870287297 0.27020568828271485
0.20623462097645806 0.1381393040722376 0.7172493682020777 0.2637205002654456
0.047312250889230745 0.25486812331443975 0.8523087605567659 0.22893965875594277
0.04580575014612743 0.2665445605281056 0.859140953234386 0.2017733867029881
0.04794066915586764 0.2692421831381717 0.8421692289191471 0.17888568658800974
0.04870302179973894 0.24427067003913344 0.8459324818700108 0.1879685172823348
0.05924415614593384 0.2651754381768448 0.7613183322573318 0.20888352032807064
0.06145424618978927 0.2710277456385449 0.7442299398340808 0.2084547371741411
0.061802702611398065 0.25651533928793396 0.748307620895946 0.21507566030131658
0.05570432395930865 0.2690808638235123 0.7828623516290076 0.20611099500944025
0.06748847502289713 0.24541703470897697 0.7195087058929617 0.24611536201530604
0.07031626884106332 0.23530153743006327 0.7079035621384125 0.21850376257031862
0.06530316168775385 0.2496184469836692 0.7298700447857782 0.2256523958357962
0.06698061658203763 0.22253121435337797 0.7359445835579674 0.21485216297933435
0.07033129977406041 0.22014197735597996 0.71697814630381 0.20840117477098208
0.06954338086743089 0.21161963933052214 0.7275699254069441 0.19875642620920334
0.06840334562702347 0.2039865536417283 0.739724083507201 0.2603295315997599
0.06961086530029004 0.1929603372553853 0.7397504246907242 0.20392747815179396
0.06796931809858124 0.22811067386957407 0.7261060757936768 0.21792187410047317
0.06550097423678854 0.21298769975470627 0.7501673935141847 0.23695207211214983
0.06382939898661845 0.23520180541703792 0.7458316563698457 0.22911722674692217
0.06707275229621568 0.19837508030614942 0.7504465055321415 0.20558981149543384
0.06363411624705712 0.2244164820613507 0.7534229884488425 0.20907412969834202
0.03249922218881285 0.29841943290889694 0.9998635136393428 0.1716337635791038
0.030931629922513672 0.2856063115085291 1.027678947112543 0.1495562494966655
0.03146560532805613 0.29950096090227285 1.0172954393277303 0.133805209530987
0.03070312287654071 0.2969976796888106 1.0304694256850808 0.12615917098348997
0.03353209695968273 0.2995003072146081 0.9822380079827053 0.1018818483891909
0.031073274645697008 0.2634112138819432 1.02739212229867 0.261543874368433
0.030376110222442177 0.27919473126267713 1.0377144920438817 0.16489915005190178
0.03251735790359619 0.28487994001527606 1.0008467381137671 0.15448025634303433
0.031539260862924856 0.2740220465256681 1.0184751214718333 0.1750100713033413
0.03058893226152278 0.26824477843660055 1.0749630824578258 0.2200824604369802
0.031069364002082163 0.2590196327109235 1.0854736245415932 0.18383701152361318
0.0302990396287521 0.281235933662121 1.0512031677144724 0.18059765985318982
0.030323956497769068 0.27334563050618016 1.06120147406781 0.20420406180746964
0.03040167156211463 0.26868897466779995 1.0501561656100438 0.24648485719375246
0.03051591090714074 0.2571617343998382 1.0438292312936412 0.2101321259319035
0.03848770249137909 0.27789607958526197 0.9271777745197705 0.1980943424684674
0.03775803680001839 0.2969975028836605 0.928276372091399 0.10987877218132917
0.03947717388900438 0.2776884971624509 0.9150905373209743 0.15121655109661108
0.03878740471104386 0.2890137241187923 0.9189054598491 0.18592892962691157
0.03628268203790136 0.2882862898939137 0.9500195204472697 0.14731633071591818
0.04734530509867105 0.24113639992049313 0.8583338697535292 0.2115056837913378
0.04468975010942154 0.24996643301219762 0.8763076745221019 0.21766616011844134
0.04549110277338775 0.2562271393817268 0.8656238126079603 0.21740479673075375
0.04854031684570585 0.1990285756864054 0.8737473888678584 0.20211222961072467
0.04646377425669731 0.2034303079065172 0.8863866933384004 0.24096949386494793
0.05429093626199524 0.1948020822203826 0.8332816795874796 0.21893735484219912
0.04926343897188526 0.2186441009125156 0.8548367639527463 0.1883283531087423
0.05126737694451735 0.19982519596554318 0.852636118960372 0.22120454515298762
0.05263403543447111 0.2064138003120793 0.8378099349028023 0.22446579015047177
0.047871013718745685 0.21401834443104267 0.8685106094731582 0.2149468569760488
0.08025403787493429 0.1917617580880907 0.6849777216143402 0.191444042524253
0.07476915102966113 0.19898534803653667 0.7077588071889227 0.20370270574446567
0.07141983061430511 0.19850332787925518 0.725069681452727 0.22133171707334406
0.07342227375306434 0.2189739417488428 0.7006973326225042 0.20391035939141525
0.0772061603498842 0.20512190346396708 0.6911431870598511 0.1869989783424631
0.07985012354168414 0.2024991764549013 0.6795645839563113 0.2002881087671086
0.07526354116729729 0.18618822307720945 0.7141444563009005 0.22356133189720148
0.06905978786670482 0.2693956729633933 1.1732126995140877 0.21454323831869937
0.04921954730028487 0.253555203089516 1.153090653384791 0.1681827470668051
0.09404753621020734 0.29958239390432057 1.1848617144480142 0.1256362053556197
0.08513698895296906 0.2764719604422702 1.184111726489286 0.21058387120436312
0.08268527186352255 0.2894212089572783 1.1801261457384773 0.18655175764954732
0.0375951637903093 0.2587928966920541 1.126252839839409 0.1630373674058466
0.03870492632574084 0.28462996329341383 1.12224892830284 0.20418290915053502
0.24422336691767746 0.2644780914053134 1.1583742924837839 0.2884284061451931
0.22945258602089985 0.2871841733757885 1.1699124002170467 0.14354059318374546
0.2053369324262418 0.29905716165435375 1.1845962176169826 0.13218730555848268
0.21419838357057588 0.2916880020648616 1.180858376449386 0.17224414249861905
0.1706453826848865 0.27231083061834566 1.2027231202181472 0.21379475623380723
0.23029483196676648 0.2511014482865123 0.7114561033406664 0.23277323227817115
0.23424781946334103 0.269219938857986 0.7265114252110071 0.18800641937551696
0.2320011017548333 0.2621716919157901 0.7166745705150462 0.20594612805664417
0.23465911734244757 0.2570043579964576 0.7336322500345259 0.19680145995323392
0.22865325569010686 0.24099319011457765 0.7062218982618214 0.20399840533154998
0.24517735723096049 0.2703118802462923 0.7962910803727532 0.2018237440005413
0.24076148891395427 0.244034590061913 0.7786808792945766 0.24016496775280036
0.24321819960617305 0.25769721268010637 0.7888912296790657 0.21299952323420207
0.24008357631210261 0.2572609961999602 0.768521298588049 0.23514994100769873
0.23810319121731235 0.24973087732812013 0.7587858195807988 0.2337208502391676
0.25010339851590213 0.2676139291183998 0.8364812832672855 0.21911440883265523
0.24553767970506926 0.2575279362354972 0.8057651883884274 0.22398078050664588
0.24738889083801058 0.26807191925395807 0.8148414081216595 0.1909016890789861
0.25199122614050706 0.27320847444279883 0.848436397799256 0.20429851232501225
0.24454659346110577 0.1627170763694699 0.8557833593676953 0.1967561519422767
0.2484731576373054 0.15225208701115953 0.8899916625859985 0.19439547996961004
0.24967402159106244 0.21271563750341677 0.86031586340678 0.19696418027616194
0.2458815634730232 0.18471066215903492 0.8513043932290425 0.19475866394883967
0.24698121440051202 0.16024420498777103 0.8744620007880148 0.20180360824814408
0.2504372949434199 0.1935184765252891 0.8777860665800221 0.19513498845253158
0.24821051342568004 0.1944012209862899 0.8615714093062244 0.21962375565838518
0.24266680710940697 0.15467072204374438 0.8476381315116218 0.2303745468032555
