x y z curv
0.07621448224197841 0.2366180253877874 0.9487282373870708 0.1082680640916088
0.07444322019277323 0.22230261113914618 0.9487295997564344 0.05419935195967975
0.08313947678415401 0.24689590728547406 0.9487229110151696 0.11229324330078327
0.06900008198469304 0.28823685654445746 0.9487311684221921 0.12312915073948266
0.07298054128144126 0.29978128941549637 0.948728474701408 0.16147741955638345
0.06456785544327762 0.25530995771013104 0.9487348183495183 0.12496286997640467
0.06620062991996704 0.21170283443821514 0.9487352800288826 0.02762288761367071
0.07142970018683259 0.26544852624851156 0.9487304910696346 0.12712393701175553
0.06521124250319915 0.24298855764515087 0.9487348427166056 0.10416786296761002
0.07084117712607188 0.15251068480879099 0.9490211854076713 0.033142775290146954
0.06791520613601379 0.16578591896129266 0.949090028159014 0.0455915195446314
0.07229287211621027 0.3000172876943893 0.9641192662614304 0.15733265422559695
0.050830702860011026 0.3000173693119861 0.9888790971206411 0.17140946614260016
0.05526891941529375 0.3000173320990047 0.9996283454118009 0.12411241504087077
0.0657027187385552 0.3000172521519243 0.9875253618944991 0.13942383468925915
0.0425594413857085 0.30001733404232744 1.0149297782441002 0.18516513105715166
0.03108006287337474 0.30001734600046615 1.006233181135027 0.18649302999953876
0.036088711362965896 0.30001747268490486 0.9840365351547792 0.13855941643844777
0.038461725769601655 0.30001739743530853 0.9961141817526902 0.20557996566857425
0.025039743191320074 0.30001736135054835 1.0237869928773917 0.15267566521937434
0.03907014568514224 0.3000173455205698 1.025983776683682 0.18708366435399393
0.04273041107864554 0.3000173227172747 1.0487203547126045 0.150547339061977
0.030813215929131967 0.3000173591981103 1.0507933056538916 0.17759527325854138
0.02253182801641764 0.30001736510969507 1.040040695598354 0.12235372532611984
0.02607279399042942 0.3000173370160951 1.0739603113245009 0.16250150244738754
0.039943522122597545 0.30001735320565787 1.0609380964006232 0.11493470196306073
0.0064340955093812185 0.3000174282713439 1.1125802907149152 0.15537121262384218
0.013111223240513836 0.300017439209401 1.1298364080746033 0.16040100458977077
0.012348467135482613 0.30001735599347157 1.1025733183955178 0.1432545834167036
0.028689961053016865 0.3000173487189734 1.097209240459454 0.1381223779057377
0.01375851565006736 0.3000173471923969 1.0900711629884552 0.14908225391834162
0.07811629661943692 0.28421646414954727 0.96359939494348 0.19565023380836988
0.0744434572512887 0.27549792412637447 0.9714318861235529 0.18465868009968273
0.07005553129133713 0.2606301431868547 0.9807838979619167 0.20469283643371375
0.0709291183819371 0.28489788744554223 0.9789480204433225 0.1366938752477663
0.058681327802661394 0.300017313017671 0.9573888370489955 0.14618466420717327
0.050324696446791634 0.2888739119931689 0.9543696782945623 0.1165712812957792
0.0523690926177264 0.2725523167036176 0.9525459682068969 0.12497068348958885
0.05194787870833563 0.2541560791634475 0.9540344412826891 0.1556730624018385
0.05443948072285321 0.24109770598054941 0.9520341548452825 0.13688975974447534
0.047340434995829066 0.30001731457241254 0.9750939341469786 0.17075185765602366
0.04856544923905017 0.3000171609290654 0.9614933509155588 0.13417316529934994
0.04672823047429957 0.26239948949798675 0.9628188111163177 0.16159361646121445
0.04583903553085601 0.2749295540170044 0.9637062086267503 0.17139943925762485
0.04401657912953466 0.28646014296666866 0.9667214009381015 0.19186389340368765
0.04388061227211578 0.23800767201284215 0.971547418254384 0.1056277305386257
0.04273169994607908 0.25634664481060143 0.9721096679398495 0.1572656983662207
0.04912008927651837 0.23536939556021347 0.96069533007788 0.08048454466583758
0.12522349714723657 0.18773021411786836 0.9644278579528682 0.18298617228410077
0.11285992246961898 0.18149430318320814 0.9559179104532736 0.1215108438162883
0.10743358895737061 0.16351839280083044 0.965799467174508 0.24919736875140375
0.10676826915134305 0.1365257225765909 0.9642550595698846 0.17046503364931234
0.10756262361332883 0.1473701751874545 0.9708124223051926 0.22387974179728412
0.11528412785711217 0.15273827035084314 0.9789229715346347 0.25030760837424637
0.10018575483475886 0.14943567301761893 0.9534820324712805 0.09701745782724487
0.1262715608155004 0.17781653264595648 0.9944496229575873 0.18627143268196805
0.16269728901011238 0.18897178281721802 0.9969681337430358 0.12870674741491483
0.18191787405232102 0.17754198729483464 0.9974361335768517 0.10914748040060498
0.19313921436893755 0.1730892329691861 1.0004273415620708 0.07973672881822255
0.20064372632390912 0.15675183891688044 1.0017436454884867 0.06267765837092339
0.2144001630119635 0.1550038220131625 1.0113521610641183 0.005520880263474639
0.2001812924456242 0.1318568425372176 1.0029474084578076 0.07886228857572986
0.18620882206471995 0.14866143356435177 0.9955071544626272 0.18658385189365773
0.1798321137342596 0.13574104151324773 0.9926189230757936 0.15808356084876232
0.17189913342546564 0.12333740452722859 0.9936350301121405 0.209114182457094
0.20643613645492925 0.1454983974903556 1.0048299244321663 0.03461811437129429
0.22299013975056398 0.16172261373549776 1.0217638604230506 0.00511829614092592
0.2138355259138136 0.1679295725081561 1.0138406989291782 0.008851026044316507
0.17959142801758515 0.19611130979408092 1.0043029734201219 0.04742492514952291
0.191986142151573 0.1964094183433955 1.0118458212856294 0.008164743250438134
0.19580168099634349 0.20315132123714347 1.0230823282680377 0.011511386401108227
0.19224387672919308 0.2113397101856173 1.0330090616590055 0.006200320710455163
0.18173207812786357 0.21717803650913103 1.0332820725790572 0.1838289887340726
0.18534706176402085 0.21060549619020139 1.023217446038408 0.007695830613171772
0.15874701350000253 0.20968132120604227 1.0095123615686936 0.012956452125064475
0.13822713986016352 0.2128431693426559 1.0133795053922192 0.13143590557574275
0.15062088821809821 0.2176227062909954 1.0192376089217412 0.1801450596179813
0.14911000787462036 0.2230840314943845 1.0298209155681182 0.23016754426227906
0.14342308909594026 0.1137846923531801 0.9951775190168966 0.1530068693078578
0.23554519568087978 0.2266464184443035 0.9488147950182184 0.041255190607244835
0.22920864713207953 0.3000171131599169 0.9686063723752107 0.1899400159971893
0.25290264391210704 0.30001743617013327 0.9758743184870822 0.20190293704543696
0.23827081510996 0.3000173688477654 0.978711423620787 0.17588384853933725
0.24458471439299978 0.30001746433230714 0.9673251696157253 0.20309171465787657
0.23674749663921618 0.3000173194335142 0.9940141474592601 0.11939222541016359
0.2497042110289717 0.30001736936938206 0.9926404981351948 0.186609171632466
0.2646606241374394 0.30001734795333423 1.0060544122202704 0.1732325924481383
0.25252376777794433 0.3000173399451241 1.0075103122206657 0.20284971077708483
0.25991517043000556 0.3000174171651291 0.985289879191692 0.14375490768095409
0.2492718352098105 0.3000173225746754 1.0250626333175326 0.16036433595450636
0.2600615953557402 0.3000173349968734 1.0173882071234441 0.18273582155177737
0.26516962814221834 0.3000173485716846 1.0291748452990144 0.14312737318369115
0.2560029340152388 0.3000173049642768 1.0489858525399751 0.16242690365705667
0.25781453940170157 0.30001731830198447 1.0605941336347522 0.13096008705588433
0.272554155058192 0.30001740213742273 1.0557887609237762 0.16215831862380997
0.27697191196339455 0.3000174440404828 1.066772341291077 0.18371536192967663
0.27544965175286273 0.3000173503823329 1.1149727951791766 0.1499017213908696
0.2838485932611581 0.3000174386364595 1.0920508978071544 0.14894304454189414
0.2897869738915338 0.3000174211145023 1.119865210025816 0.1201046803756804
0.2948059662244299 0.3000174307270376 1.1299216487175021 0.12399292684231146
0.28508711502851997 0.3000174663013549 1.080601054125708 0.15780514589751468
0.2773872123260202 0.30001733171390477 1.1311816911020973 0.13249848694902028
0.28470828358185374 0.3000172192699405 1.1717979945949708 0.13095894317182255
0.2828375529927401 0.30001727174114395 1.1533672299889801 0.16311544198580863
0.2921022509249541 0.30001735514146843 1.1433469306596877 0.16234925245450024
0.27930394979226864 0.3000173017456339 1.1824462652844452 0.12978408842659706
0.25500174667596587 0.28273094462648507 0.9670520083802008 0.16797398523608212
0.26047077324014245 0.283548101807381 0.9791000365682896 0.18555117904589202
0.26545593870376416 0.26944527073716656 0.991922397344312 0.1894514677378684
0.2595312286298917 0.2694841280029656 0.9781237606234148 0.16918699517413874
0.2660506715304961 0.2585529578281921 0.9945380588966933 0.19799028013894485
0.2543462437454731 0.270854639119382 0.9666388112003063 0.14700757098927286
0.25447027869962385 0.24796282518793872 0.9690649096760263 0.13800080444791948
0.2487491465596559 0.23353537282223177 0.9583312234973544 0.063771353181803
0.24230663067947117 0.2026744709932177 0.952504370202383 0.0308151630817571
0.2448787733660236 0.22217163678854973 0.9535062259921288 0.047337156056559054
0.24283474783395553 0.1792765823281867 0.9558800873896671 0.03561771225177084
0.2490768710146707 0.27915512566197054 0.9551687274421682 0.13824789054628478
0.24645163117345553 0.24635350222325647 0.9535911478839153 0.08930945416361726
0.24605364510883937 0.29940010004998724 0.9513727634495587 0.07194150375696795
0.24627880947078512 0.2608998913342254 0.952836584123204 0.1246864335110491
0.060086663719353235 0.19100768715903838 0.9506083896209944 0.037263977516379304
0.058397449544506194 0.1666210587791866 0.9549064956334944 0.028749332247275137
0.05334978086490606 0.1999164654406257 0.9570247541946577 0.02317233555107564
0.051940458386338664 0.18882655697890768 0.9621539773283537 0.022779340375673335
0.04158060014440538 0.21558128182321445 0.9801494279413988 0.0005573863696352858
0.049397404614941465 0.21175698541433932 0.9633678642175112 0.025666962082990488
0.044933752679845576 0.19653090615807134 0.975791706365573 0.004342575286724321
0.03422703917088112 0.20104482335549836 1.0002544130221662 8.386383036302424e-05
0.03512923399414102 0.22256419350825035 0.9938306897980342 8.653157250810766e-05
0.02826621282238328 0.2166755188234104 1.0122853535308334 0.00012510579220041212
0.024261300779585875 0.22109573418233153 1.0229005175634964 0.0001589864805979054
0.02289874304440176 0.23254079220994553 1.0247071066737834 0.049873206070483754
0.02554892128403006 0.24074885735016577 1.0159602551193965 0.10030516537086036
0.021089180065348746 0.26156124967459715 1.026219996893317 0.21031502247453884
0.020567563020866448 0.24820309124135992 1.02949522531038 0.13975010703827004
0.016963519873857705 0.2590458577172378 1.039556719500478 0.21573664014896324
0.05359780820240484 0.17602142357219025 0.9615602345121114 0.02753277138867735
0.05721136553388702 0.22805880002305406 0.9508678335010639 0.0625179767545522
0.13732074960539858 0.07006598702937976 0.9518964266528777 0.05698901213084862
0.13042048952926075 0.0641717772343077 0.9612509066058361 0.02544652755753491
0.10994227441778193 0.0785464753926482 0.9525868233950583 0.04641933833994316
0.11541014372379636 0.0650850136010496 0.967036274491837 0.010537536343671055
0.10927919979354214 0.056046348124842424 0.984393943960129 0.09418526169550567
0.1033280956713213 0.052712947822885034 0.9943523661093838 0.11527569238329027
0.0963759497913588 0.06685585839625874 0.9788945258624069 0.0354241368577072
0.09197761127763265 0.05988942543976818 0.993472087126462 0.1496660144590705
0.09654201412380861 0.07496925350216066 0.9677611952912621 0.010197637437410902
0.10259433552837227 0.09062098018416057 0.9492124349102714 0.07139103352700933
0.09288630163503464 0.10465181439771806 0.948786910246382 0.07934350713937204
0.1025248538724133 0.11256420588292315 0.9487458894777736 0.0803282596520586
0.11186073430965347 0.12093616207616478 0.9576199274837354 0.15172756836393378
0.08835326837213706 0.09378922752571119 0.9538983265554499 0.04157338298239142
0.08641866713108182 0.08707540008596575 0.9634547319086584 0.01788493888620172
0.0659963445561074 0.1221151508822503 0.9606106072603972 0.021991244226728077
0.0669324902427017 0.10778319658800387 0.9696080054005392 0.011570141777845896
0.05853736039941681 0.11823603472768844 0.976905389499525 0.0019401594342971866
0.07673841762860827 0.11995848195377606 0.9503459253877116 0.05528078354261279
0.06472627847375415 0.13658238119106503 0.9547087569085271 0.04187083411368664
0.05489815819443057 0.13634494068357914 0.9734528379401661 0.006477360804907472
0.048966043034459956 0.1393220436732967 0.9834096999455222 0.0010201885095044076
0.05938224406061446 0.17848878943078872 0.9520100723912293 0.04613597613593792
0.19903183291108112 0.09450311410941795 0.949012132423263 0.05946748194023766
0.21112413902083255 0.10086853868061857 0.9503939355089228 0.06959972280798818
0.23111308388742605 0.1267044791074475 0.954692709549809 0.036341841356335794
0.22287376565383946 0.10842848605694236 0.9552829324284688 0.03564218016124653
0.23480739575991383 0.11992033661565459 0.9651949319555156 0.01424804374093429
0.1987415166450649 0.06545811329069726 0.9779468857772005 0.003477230448406769
0.19205619827612463 0.06899349453528617 0.9674716934048697 0.015628673068185057
0.2045780139781587 0.08156008844832598 0.9611706062474833 0.02101440941362835
0.2088494784580342 0.09043771382033923 0.9550441714409504 0.04228302639561526
0.214263796857239 0.08688220073862687 0.9657937984282361 0.02079706121557323
0.17053314193115066 0.046236177548848414 0.9906997000771761 0.12289278844112003
0.1674702348429415 0.05220075010361775 0.9799205546732808 0.06645919684905811
0.1788790981208136 0.037923685148058564 1.008288892198871 0.12340314001364473
0.16592262637909042 0.036477419998037275 1.005952447327996 0.13559067565987706
0.19607158621501042 0.055557911248513135 0.9896750010217555 0.12153863080349833
0.18683425224987854 0.04920352852373636 0.9935883727440226 0.14509964348270196
0.20898451268155477 0.04539517669758629 1.017816130022722 0.12243905541319261
0.1989013284589178 0.04401196876210142 1.010581850362378 0.12942088789419257
0.21140063918799976 0.0577398581074787 1.001688129937861 0.15227061168969777
0.19534607208091032 0.03245779213401793 1.028145770764579 0.08794156579616899
0.19404981875854416 0.026067609938699478 1.0385397806810217 0.0675565298148798
0.18536122055369628 0.03371064160644862 1.018816335881582 0.09867317497758091
0.18236967639155915 0.02508694404207158 1.0338747185097512 0.07113371143849238
0.12229059558310268 0.05823758465134587 0.9738083886668326 0.004623875302981533
0.11558138910544308 0.049294677504998705 0.991302283152988 0.12729575621800973
0.12649913656730272 0.03737664871308778 1.006970848483209 0.09854698969742516
0.12929230907796202 0.0469634140592365 0.9889713937408203 0.12323694089521693
0.13881508312999483 0.03999799023931639 0.9987288200724215 0.11976472372981202
0.1465177240426828 0.04850801389803567 0.983444402138301 0.11135535746729758
0.14222176400012032 0.033568637027864126 1.0094888943587341 0.1194414755852869
0.15345784666977963 0.024265876312090377 1.0265872294340213 0.06839449128050681
0.13673438560983853 0.023819253203530483 1.0285224347847446 0.07592262573560883
0.14085844524236113 0.018276992689967887 1.0385993389579768 0.06455939933752557
0.14684382228466106 0.01366829903370271 1.0471576220538787 0.049920601838482966
0.14267149427429848 0.002937365497119001 1.0697034567490045 0.054924820787976676
0.13313047215012136 0.010941965485388668 1.054654207974779 0.05490460232380729
0.14947341604860206 0.05543801068799091 0.9718622416839698 0.007626098777746631
0.14788768385264245 0.004744104943181526 1.082544044477199 0.06015474720935837
0.12326768495427079 0.010318084808319148 1.0840697676455844 0.06096776600087074
0.12580139341205454 0.01916576827179479 1.0691875906932384 0.05576719310132182
0.1400574646008158 0.02769820593107554 1.0494328944426643 0.05274535662420468
0.12858188883437455 0.024403882799685625 1.058266713127544 0.057010011777584836
0.11082296251520418 0.012008543606260302 1.086689088442991 0.050631797830965136
0.08476197350791904 0.02214638282322371 1.0930187524599106 0.05825949720567549
0.0958458507049836 0.018327316332202095 1.0897305233767542 0.06806655085887031
0.06744795971122505 0.03601535426880585 1.0911742357990468 0.06052219429790172
0.059910170204566515 0.029454911560807998 1.109876110967322 0.05738829071861044
0.04950581524467619 0.0378114806244578 1.1176544098229597 0.0635061384183381
0.04000521363655659 0.048171728759722046 1.124178720458219 0.06059507068659958
0.03247250840280992 0.0613485240355637 1.1262561476915727 0.07004314772315648
0.027945802772332277 0.06307745584311983 1.1396758974231174 0.05888419801069516
0.026374565303432053 0.08960266557884251 1.1259035341538726 0.07685166480876031
0.02675665291329421 0.10578033957445994 1.1222759118839054 0.11008616279407464
0.024096804776388227 0.10122381059573624 1.133429314735608 0.09757282152835763
0.024673635779213145 0.12120890142026708 1.141260164074539 0.14263113071212385
0.021426456076446745 0.1036286095220401 1.1487845560853103 0.08931252829940535
0.030557314679922704 0.08869964249864914 1.1103378591093054 0.09077805162347649
0.03110349729690168 0.1000811430702295 1.1053811311511774 0.10283068252730246
0.03366243431625372 0.10986329410134535 1.0968881696608523 0.12389923323171538
0.03436159193686387 0.12499281724574876 1.0974298431418288 0.169660831259641
0.037724582567395235 0.1388532006499919 1.092150148190138 0.1839423712970172
0.043724756863363974 0.14054679471834347 1.0739098659795723 0.22638752670966564
0.04840121900215155 0.13234437219393574 1.0596777417962604 0.18916763065308484
0.04361635127192741 0.12774742757562513 1.0705506924831099 0.19286084949856494
0.033218280312695116 0.1358838699873024 1.1088780322479619 0.17103820972935035
0.031367145892036576 0.13831897956262362 1.1223551308542108 0.21265967432990035
0.03071265109327382 0.12251150086643202 1.1097991907227263 0.15231100607757775
0.039396414375445415 0.11432695800998408 1.0804007068962838 0.13294041501318668
0.01989048731290875 0.0700158898152289 1.1634078791798035 0.06811308055455956
0.01641792697147952 0.07595481284089965 1.1742414200101927 0.0724936307143245
0.016880273210548694 0.08606108400606964 1.180498207363222 0.0753365047782043
0.01842861070311343 0.10099889468334171 1.1724986956641774 0.08751556529997027
0.021970177873647148 0.11832221721335638 1.222731141822616 0.11572791486962462
0.030292161037511454 0.12899305363601002 1.251716283072661 0.13912188404120862
0.03241583778079472 0.13787686646045644 1.2233232971725576 0.18123540449312486
0.02728436571361284 0.12722468286840385 1.2300822533928777 0.10907345501482482
0.03243117406362464 0.13494539995982602 1.236492037938467 0.1261112754510134
0.04028583560766742 0.14555427260881482 1.235056008351288 0.1304317124185429
0.05237664472964343 0.15421086917137747 1.2485985281544867 0.159501600065157
0.03629217576141438 0.136893710211823 1.2659521408599068 0.1350483151747332
0.05935447530510837 0.1498995645840061 1.278179249426986 0.15255749617020975
0.0611889956194476 0.15494168334173639 1.2670419347641202 0.14801337650438923
0.07052898855584194 0.15734945341834833 1.2790722211795753 0.1437931951955799
0.064689252417708 0.15406193722568295 1.2923160418051063 0.13248865940360058
0.1592796246922226 0.16770763536196054 1.3142265038115328 0.10737802541406558
0.15344652436971581 0.1786128113651691 1.3178881547889176 0.11108500208849283
0.15684405506811683 0.19246373270169004 1.3160871207419618 0.08717912328326383
0.15626331582864963 0.20933687586303557 1.3138484264498604 0.06378394427003126
0.16595791025055737 0.18086001498721724 1.3170329361673605 0.10997482352445694
0.17584420039752063 0.17327957202273986 1.3163389041334117 0.12573041427877274
0.2145273114854313 0.17426369110252696 1.304283372381072 0.15609017502234024
0.21090986057185368 0.18896044219508457 1.304077099492756 0.11533319854452197
0.21054324535942665 0.20455009327631976 1.3021448966282703 0.0023306043009140723
0.22166099894878682 0.19773497609931862 1.297827480863238 0.025556316014306718
0.22330694330185671 0.1792644883904667 1.2993200932633164 0.13506967461635622
0.23249873114196246 0.20942473686727525 1.2895197639918048 0.0017047876246361418
0.23263156387727735 0.1839842768812354 1.2932889698608818 0.06424444718319121
0.2275886637791073 0.1639834892751913 1.2986408588577856 0.09655569200800287
0.24097452486754634 0.17517922685181947 1.2884216798506523 0.11514967716120322
0.24145534324423834 0.18700237462375968 1.286703260829954 0.07199037586281282
0.1892172435710602 0.17297761664638153 1.3135687965184795 0.11329129444471601
0.1882937373322535 0.19079254418551586 1.311572386922132 0.08697304057524828
0.19019888007023902 0.20859225422699856 1.3087045340240648 0.004221329889969301
0.1857016172174844 0.22352992348504572 1.3076291624519614 0.04382383316852013
0.2529221732348557 0.1445602659804317 1.277950421807724 0.1156863225411208
0.2545884003076466 0.15730192641810295 1.278992854639766 0.12890498495062827
0.2621203885497839 0.17027345203947097 1.2701647666115516 0.08910042647455625
0.27060775637745027 0.1916327873040582 1.2564779249065425 0.0019347961876631566
0.27116679258103604 0.1804571767949285 1.2574822367150336 0.060198565263065544
0.2955974125278116 0.12567929578894577 1.1999132041977907 0.11814392504231098
0.2940494506699176 0.10363669667556344 1.2059277754459543 0.09561177238770745
0.29538122534404443 0.1106674283411794 1.1962543986157053 0.10240516632570136
0.29629323596372986 0.1231830774704859 1.1866081965741764 0.09305454754204961
0.29704499765322656 0.13360797491388587 1.170471589106798 0.12038827363046968
0.2953512623636478 0.10319962407920638 1.1854752648441254 0.07429118857860914
0.29481098446838727 0.09566158977787127 1.1746251325639947 0.08342409032235154
0.29486012411791857 0.10619297192971532 1.1602899848962134 0.0913281322649031
0.29338800192965764 0.1230097434666633 1.2133397943838484 0.139388218176671
0.29545508402433424 0.16847176165499447 1.2025086730425891 0.0828137725491639
0.2955427312375235 0.14496201350856658 1.2021100958569153 0.1284301818612255
0.2962717523909809 0.1555128104604591 1.1970845833357595 0.1164110828116523
0.29636457430274543 0.17875654430826612 1.1962662341490318 0.0017187625794430935
0.29615177088044353 0.22487160524417982 1.1896265457661495 0.0016073079205709178
0.2964738662805776 0.23729567955527203 1.184158077182806 0.05952317457186991
0.29593625140715496 0.20119487175135914 1.1956498500025927 0.0014693761874256213
0.2947224284998413 0.1875615079711139 1.204024435290011 0.002343744013816286
0.29302099177880264 0.08349050058643989 1.1842146630110075 0.0775389347521561
0.27303269189496476 0.1275023657033542 1.2518808682706022 0.14489351261764055
0.27639076339315505 0.12135517259496509 1.2419043463946582 0.1532336555149968
0.28198997729392017 0.11124569013350702 1.2271068308632886 0.1270668471348742
0.26371663664851286 0.13472228841012024 1.262145834815948 0.1524121055612869
0.19691611192305836 0.1639984484059379 1.308957915006096 0.1005074412892444
0.20942543151664259 0.16053330371739813 1.3031378023120785 0.135451558221853
0.24287465194202076 0.1482080925813151 1.2833125019705904 0.1397740121630843
0.2819025075442021 0.10462748882468124 1.2006915262242925 0.07991938503475308
0.2879100182150852 0.0753973025577478 1.1766315941754828 0.08370537694341923
0.28314676983991416 0.0897583867420861 1.1902972501565472 0.07900605746640411
0.28158230321388866 0.10240743718384726 1.1875433347040352 0.08738617022049883
0.2790396411050156 0.10836062052158432 1.1633615945631934 0.09414175160311655
0.2808385118636031 0.09737912180158217 1.171321773652796 0.08000175542195276
0.27579020936814547 0.12088408797110935 1.1519254174665177 0.13980321765199621
0.27567866464128404 0.10819135673007202 1.1388270953547115 0.11448270411309572
0.2730415904087297 0.11814585133156484 1.1295569039813593 0.12879389454465656
0.27066885551663955 0.117132341405878 1.1181878106198515 0.13794403151360052
0.2661347817910086 0.13116605978478765 1.1058249320890265 0.169475530338873
0.2653137516308365 0.1409127841712569 1.1131090349586203 0.18244802090285855
0.26330536873876353 0.12731579554306482 1.0937323094130267 0.15921608508513896
0.25807152301632935 0.13236322069307732 1.0791631680426652 0.17668753067455262
0.24368202962651186 0.13892980083000864 1.047970306770764 0.20255400853153105
0.2546842222813669 0.1273560547048487 1.0687148034859857 0.1858694765857181
0.2592195368539064 0.1080508780816511 1.0796118790480025 0.13947456092272031
0.2719594404808318 0.13249636803091783 1.1439640346747635 0.1521342072753276
0.26988538835786274 0.13272516655797315 1.1300424448962283 0.15052113948341125
0.2507920251793847 0.145534353602166 1.0649462240455827 0.21429666329075156
0.24100458573729125 0.15822790044025814 1.050110841915491 0.18547708002650104
0.2763161347589659 0.1237336263421032 1.168720394751144 0.14295193425912672
0.2733562254058616 0.13097434298829486 1.159023056573114 0.1838649874360951
0.24643065024194105 0.16303335737503316 1.06752429482918 0.13989184394087742
0.25718116633077115 0.15829142025897533 1.1024754025975327 0.14121640766749652
0.2762058962873156 0.12422442411474237 1.1855232453073747 0.1348227887365679
0.23913145140678171 0.17369974827496568 1.0606841143203942 0.00519728401553191
0.24411014825671812 0.1727976335134228 1.0743723695858165 0.0035720340848742487
0.23449191839551692 0.17249096469872177 1.0479823526492464 0.0061096620325156534
0.23489515729367588 0.1847876885096953 1.0686892198225109 0.00456057592125996
0.23794249448573201 0.1855944226812533 1.0823227829074142 0.0033700387723304805
0.23022463839758403 0.19473662296867875 1.0824364689490849 0.004697110404603887
0.22598438740419047 0.19647543536027856 1.0711968148830975 0.004311829388103865
0.2186805584808831 0.19921160108387345 1.0551661227954021 0.004318178115040096
0.22713724012187536 0.1919570722237287 1.0594899952953107 0.006186941431255096
0.21709833185763056 0.19307359216614367 1.0388062042341455 0.005357377915877834
0.20971129774135924 0.201668541992678 1.04056295121954 0.004603284228964465
0.22659944250126518 0.18456639074220121 1.0453359572211438 0.004640977169983421
0.22217452091915438 0.18157282797329843 1.0330923223353286 0.005308347661984904
0.1796234113833986 0.16890214118521715 1.3001058650106891 0.11705193404620885
0.16948491298723833 0.18199969173044056 1.269501327539024 0.020685827816462696
0.16646634426118814 0.17711732288347376 1.2830543275632964 0.0591284428125516
0.15262562714050704 0.1776536090018821 1.2843476256943496 0.06180760601302152
0.13483508222173707 0.17658968853826099 1.2848138824957274 0.040311935597707814
0.1437868659187807 0.18120353533192743 1.2746937731586763 0.016527124127882906
0.12733099771049705 0.1722928168033042 1.294357519092439 0.12611176546197314
0.1647751889923903 0.18709492922408805 1.2593157178127186 0.032316199485154413
0.14605455646270682 0.1878353910265165 1.2582501819727503 0.03219840631959445
0.2007505581623825 0.16481780636801535 1.2955366616130162 0.14754706784279192
0.21133149908125864 0.16521886143941067 1.2822203278468447 0.1302426130846117
0.20051377619154928 0.1746924211038653 1.2686367934153209 0.05150783021870461
0.19118208939840547 0.17466671283047128 1.2767747799297942 0.07597504945794188
0.1811786603925098 0.1809527601085204 1.2663561250737922 0.022909271450754637
0.23010502953318496 0.1561315814437861 1.2791956319012177 0.14325592359351014
0.17819248999952553 0.18724652423172283 1.2527656075043447 0.03659167216763541
0.26008319407397607 0.13945765616750858 1.2496260141581905 0.1795898482134409
0.2674233468317577 0.1320309247421016 1.2422788377657568 0.17377464238346038
0.2768021577897878 0.11916002222540609 1.2174860195933421 0.14613311492272688
0.28204529008522716 0.1056389303828774 1.2148534931769281 0.11065822414884877
0.0763595202720566 0.16093570546271757 1.3010819284898825 0.10691670254087916
0.0637589460451921 0.19196351207998733 1.2904599123016314 0.030987657141052376
0.0678004298840586 0.1691801610539178 1.2956389071930166 0.13482283934244088
0.05459089393825741 0.19466791600260794 1.283570666599712 0.0013924891607045497
0.05968257587618504 0.20792211839817915 1.2851834803250024 0.002261511929837839
0.05304424838638598 0.21922336927700042 1.2782458280860427 0.0016010782435629534
0.047726450981621066 0.16456245337114034 1.28101892187644 0.13516108718059602
0.010024966843858403 0.10785192430072021 1.2210540769835083 0.10247808388039797
0.008323888389067547 0.09847436356358287 1.2078822639227358 0.10943008263983377
0.006070847878085357 0.08378687499305039 1.1848051496350047 0.06803648662759343
0.004117687651805037 0.09595291610099811 1.1698382986614577 0.06451440565011043
0.005218252073749049 0.09282565253446932 1.1587334726621918 0.07557843373583396
0.0036836916984539538 0.11289212081095959 1.1570526011730875 0.10519008564509442
0.002784600090960915 0.12664371951212994 1.1666162450669109 0.1338732903252398
0.005078310383917481 0.11061888102933368 1.2091105825887807 0.09389277274057845
0.0030174511873905224 0.13833299530610826 1.1979612065881626 0.13215114601103564
0.002719782905300003 0.15064765045966996 1.1970364446214958 0.12051172996564029
0.0020825446581445753 0.17248967348758945 1.1893020214428573 0.0011654927636717328
0.001244557645356118 0.16082792373907692 1.178831283458048 0.10816561677509048
0.0013230595816811684 0.15230965198886517 1.1690525815552903 0.119571702624402
0.12702182617023874 0.170665769127135 1.316689778037333 0.1037656533496784
0.11890070327432517 0.1875350241782407 1.3138921204479237 0.101293881123745
0.12883496161358005 0.2039912190877057 1.31334975895174 0.046032782960330004
0.11356856169624119 0.20189079578784264 1.310843876741559 0.04009644242192198
0.10398149711036304 0.1667981802739009 1.3117767456109524 0.12397521853277776
0.09591782190438307 0.1881005825070579 1.3072586028173594 0.0929931081007013
0.08725859409288392 0.17702790399836618 1.3052454724576115 0.13317476947502677
0.08303492252100488 0.19517527435893495 1.3010214269653193 0.06655992443823666
0.036734667157630393 0.14981074892415833 1.2719969470954517 0.12814419258502427
0.032817928601476094 0.16958825155964075 1.2654198263248324 0.1020717681136084
0.03546534681185412 0.1816626883667588 1.26675960298942 0.07128289151742478
0.006860717182123908 0.13859844560807683 1.218563695920412 0.1691547573816717
0.011692277861551807 0.1399166092657992 1.2327876767296517 0.11985159574202903
0.017937699517654317 0.13718684368523426 1.2460973950642742 0.13765466748638222
0.07554121581472896 0.020444786078413296 1.1007062863698032 0.06516076657314224
0.02322408908489644 0.05611627468501294 1.1496748329640898 0.06161661251525687
0.026142687746051815 0.04774745490580523 1.139255696312158 0.06713820821464235
0.062112499526385916 0.01990656142129433 1.10263146367154 0.062091210356540624
0.03570533727652782 0.03609158203343517 1.1215252123714117 0.05544231585051312
0.09922800015415897 0.006863294082394133 1.0868880623145811 0.058819308736532926
0.08588685245577062 0.010377619393528235 1.0856645082700276 0.05725838704130059
0.013375297052357165 0.06149726235893761 1.15345982384256 0.049059635455786774
0.007702532386510878 0.08270168389672267 1.150285127192586 0.06460265875560674
0.011582249437996376 0.07423677720027069 1.1378458764082375 0.060034473842832135
0.01995938287175611 0.05473018415108266 1.1311362066095993 0.06008686682594901
0.027782742657306916 0.04377161804436999 1.1245183951429916 0.055365542227073815
0.11410717132112018 0.013303633764980593 1.0575796507189001 0.053527698834553654
0.11308878598326852 0.008155719644889146 1.068976199526051 0.051558070797299294
0.13133198208195565 0.0011024178227144134 1.076893061475214 0.05557200447533833
0.290406362993765 0.07042104591819245 1.1632069377511196 0.0786703993615452
0.293724906184948 0.08410914094728279 1.1710829630905066 0.06387966183243515
0.2919705709610495 0.08140284927453745 1.1568844306723085 0.07096008563020624
0.2916201353731418 0.087755017353099 1.1454669009010647 0.07772341014167532
0.28987957846749574 0.09220452620492514 1.1293460734780818 0.08475624106160605
0.2858476650207124 0.07594418988267183 1.1277700271616937 0.06679499086348444
0.28498134854174817 0.06694299386627937 1.1364059913466538 0.06264248950138207
0.2868255122437366 0.06567358792920655 1.1477167264561838 0.06569283045041524
0.2769581491813764 0.050558873619921826 1.130171982575875 0.0632525510386178
0.26990431549009475 0.043356459744894736 1.1219161614923163 0.05381967698297881
0.2608732772808281 0.03826190998505019 1.1078760570839234 0.059862959063325324
0.2530597609266242 0.03365296459169094 1.100790587849231 0.0521207482820064
0.2664053022693128 0.05045458776191132 1.1008969843542382 0.05607661209245423
0.22441610603404716 0.014028253748667757 1.0951988174759697 0.06195083920980812
0.2415992059680413 0.02317249431242469 1.0981639568830017 0.051582688516769955
0.22569602576092787 0.02164857337318694 1.0792310027068175 0.054260023893723516
0.17389369922699593 0.005819791890469625 1.0680126408946002 0.056022694551833105
0.16020163863254738 0.011974506320262614 1.051220385462129 0.04933209026173226
0.1950142515882628 0.005320286538673927 1.0805432975703 0.06400182789824756
0.20538422467532175 0.0186222315438494 1.0624873760097018 0.05273353595323258
0.21048555799677443 0.027220437279701557 1.050293794593953 0.06417022646293793
0.1833409563109522 0.01058712325428533 1.0624048697693653 0.05792098064572636
0.2569203482336707 0.03126754522592792 1.115984648868771 0.05380945243352163
0.24594407826413983 0.026121262052931003 1.1113815553219017 0.05916619340169709
0.17177683119304843 0.002853305883619338 1.0821592837754632 0.061398859547720404
0.23255716194397247 0.02100283459663252 1.1041102804952887 0.06336339607548729
0.27765074976200826 0.055976496395437995 1.1502386646766487 0.06940747019236215
0.2624892620064495 0.04384727217792379 1.131511562074888 0.05784952386666067
0.16018727885615713 0.010530640984414488 1.081507689031171 0.04883480030330894
0.1486322317239284 0.02150064152616852 1.0602465327569985 0.051117303281166045
0.15506841918351766 0.03223888504188677 1.0412427403755975 0.07110316220672182
0.1429022399566488 0.03473065463129952 1.0372270320216663 0.0825019910542409
0.13860587268646535 0.041420379466482055 1.02854772358019 0.11295156404756469
0.11731000427163796 0.0637883639118616 1.0170736638131335 0.19173987702419415
0.1070639917252584 0.07275107749527247 1.0167233442385304 0.20408176601174835
0.09585221151362305 0.11613499922767984 1.0079252700743893 0.017601871243344766
0.09384788690156826 0.10478289030527482 1.0121832576786167 0.054450820789924595
0.08504971951308632 0.09701363291709092 1.0193206917401199 0.1649520363119203
0.0833254586585217 0.11148185509748428 1.0167539041261349 0.14091875869107748
0.08926717535415128 0.07976531298368482 1.021977163343477 0.1895972665126383
0.07321275962574077 0.08928173366805157 1.030475140618931 0.1932404880953254
0.08595689026800868 0.07017393818977972 1.0285514164266234 0.156458374685406
0.11045875777010633 0.11253921371285032 1.0027800652995995 0.05803029010735079
0.08798286731987569 0.13959593569213968 1.0084365427202577 0.006482851679295512
0.08859143499525679 0.15101238805513403 1.0077361909817673 0.010145451825249837
0.07908408294087865 0.1484698483401815 1.0158190820379973 0.007247480809214899
0.09666219716514053 0.16177957461899184 1.0030585496490851 0.060748327279305736
0.07804963921196116 0.1353402487808958 1.016931608844215 0.08455646088485426
0.10774461269288137 0.08866874312142785 1.0114855498742064 0.07336314370313587
0.10642404965781896 0.10043145893758325 1.0082850337658071 0.004722163408209143
0.1339690895492326 0.09143223657775687 1.0051269044864701 0.01755579181565632
0.0770275230949765 0.12119893696835868 1.019820375807677 0.1550592573594073
0.06849590853145825 0.11428228229547352 1.0293269382420962 0.21577781230152532
0.06862618931497794 0.12738947355196514 1.0275514988332708 0.21107128031140893
0.12875077569909774 0.04661400657268505 1.0247924260525973 0.13139559131813774
0.09523402252726432 0.060397572200557345 1.0287736117025175 0.14495775731475496
0.11701685011275495 0.04642611570626779 1.0292689025478285 0.112442613680592
0.12460505208815709 0.039106759391516616 1.0350694339294912 0.08313259018892374
0.10629491514660205 0.04874445675013514 1.032447224835125 0.1070124792335567
0.14840411915132581 0.08671916077605245 1.0061227703967255 0.024224728570664954
0.15197146023474017 0.07190216698701164 1.0111779853049567 0.11311375152942635
0.15954801354184256 0.08118354523466569 1.0085568954991668 0.002927519873338911
0.27073039910332675 0.0684749766898614 1.132387220635124 0.06283396501919289
0.2535510695294534 0.04329009278599219 1.1193244623477108 0.06442705463274567
0.2775449598319107 0.06820216244619441 1.1602501613044525 0.07355570586543617
0.2747757219263788 0.07349716086505793 1.1432942960158532 0.06972914806259418
0.2391212422368976 0.03928432734369057 1.0976572315342967 0.05557780042624398
0.1856646643747421 0.013152028450125426 1.0854635562278019 0.05635018368220858
0.2957720284718 0.297058124141547 1.1735082813448574 0.14522818130236362
0.29533863065520793 0.2756421295086267 1.1819396320990492 0.1450806950643555
0.2950180239233651 0.2474529963541202 1.1907975198219243 0.12717031456124878
0.2950638788836804 0.2592118913241612 1.187776135876029 0.16352813063346905
0.29220581116306155 0.2806984767155809 1.1944280744033096 0.1948396274201408
0.29560719680725844 0.3000133751976124 1.1072679385398332 0.12307814995550545
0.29583228649632576 0.28856856926602703 1.103029923766703 0.19172601515924265
0.2947882692272354 0.2988002639007761 1.095629955661173 0.10442725327516678
0.29459314438717055 0.2792264470336493 1.0936953584207532 0.18365765911631093
0.28859463383795764 0.29337047292567064 1.0613231550546203 0.18876505338181068
0.2908573564037793 0.28690641541469697 1.0724527439786837 0.19939013457566426
0.2700188969248789 0.30001742152185307 1.1031862849630514 0.14181616806620134
0.2756195913123722 0.30001725757126474 1.16303841125271 0.14014731986486129
0.2889613952283317 0.3000171625936088 1.200055155810104 0.1347493271459352
0.27143993383508574 0.3000172797439354 1.1923221039362941 0.16834807248501488
0.27661100025418445 0.30001721603884324 1.214403326655121 0.13752460560615115
0.2679333417715809 0.300017283191086 1.2037756436223854 0.15121210159631993
0.26032637622169824 0.3000173208645368 1.2138818697403768 0.16731272372705297
0.26283282063696156 0.30001731153580574 1.225051678196832 0.13790273214735993
0.2369958482918835 0.30001728145534234 1.235875725652875 0.11125173107265142
0.2499064423355265 0.30001734571266375 1.2357787470496548 0.15191401130383902
0.26755747248417894 0.2968337526492622 1.1240896343062516 0.11396224041282131
0.26700643683922887 0.2531021537054143 1.115549982493823 0.21784794433536078
0.26757605306520804 0.2821760640524062 1.1239420083011598 0.16907433757220106
0.2606002429541633 0.26088085413062073 1.0734309303496226 0.2352842886425845
0.26160065775673713 0.29893521404076634 1.0785873919013342 0.13100874737724194
0.26054276003301546 0.27626803523132887 1.0731707568086055 0.24831351952973657
0.2601958225997935 0.289294961119545 1.0714364161979204 0.21734795359828496
0.2583739559563636 0.2694795906862461 1.0636590996581365 0.23854094217031704
0.25371822054437465 0.28011844141333675 1.0461068867485783 0.20812763396173523
0.2910815054879696 0.26371513527236606 1.2023299692695595 0.19824022106876046
0.2972924358666612 0.25571382053242764 1.1734519539687722 0.1644923281000159
0.29787448525592264 0.24464144892647688 1.171107407939614 0.10375548098314893
0.29771740389340495 0.22711066882178568 1.17692734917155 0.0012114043217287141
0.2984079153146586 0.21544493682745697 1.1706488862408146 0.0008928751102289611
0.2988903479037049 0.23842863870129338 1.1564997202495138 0.05241533634003317
0.29861059025570624 0.22676536772172007 1.1658315777921704 0.0008867706349242731
0.298580184331588 0.25264451912489105 1.1584814694568268 0.1581516492798112
0.2975438220692865 0.2789945161041698 1.1652309410326325 0.19110443823017517
0.297385679062196 0.15724430512943957 1.183501905458784 0.10555901271368887
0.29753934874147325 0.1788599738280195 1.1834948102946579 0.0012757776419502367
0.2969566919827242 0.1679227168768194 1.1901916068714287 0.06826836834142606
0.2978960702009785 0.1922155147781559 1.1784726737020925 0.0011101761929364503
0.2981932965723013 0.28503973827284795 1.1299311089651196 0.18979859745294747
0.2887498919657835 0.2805989263112601 1.0624721619851254 0.22469100556884578
0.2868224343123723 0.2686955395550332 1.0554503437929603 0.19793223717378686
0.28563958001303325 0.2799916721658067 1.0503124996464106 0.19897961567454076
0.29336824427500774 0.29247294063349943 1.0852091067007397 0.17600719353854768
0.29252532755087063 0.2732085050561508 1.0817897519925121 0.19245892862169028
0.2654023808522142 0.2533739210229824 1.1020718193009287 0.23075384545285021
0.26669072144315537 0.26433362421471646 1.1126138848295362 0.25919972400078267
0.26661149211219687 0.29034105702779045 1.111326880526942 0.18114687205782845
0.26545331503200315 0.2710916043388961 1.1020748450208713 0.2163477465412361
0.25982091273834823 0.2500173382620929 1.092293390574345 0.13191382407197044
0.2318286244549016 0.25001732632517815 1.0741930843981633 0.03958899036642587
0.19731339191998457 0.25001732632517815 1.1457977841421425 0.20459542074241116
0.19431458976810453 0.25001732632517815 1.0911306334741626 0.18572304438694814
0.23157464885488516 0.25001732632517815 1.0931617557902193 0.019338383161181354
0.21109947153819913 0.25001732632517815 1.10805709706273 0.10758669585803383
0.22316553147114415 0.25001732632517815 1.1118397401454951 0.05740065009288603
0.2279583211380243 0.25001732632517815 1.0061176014450302 0.06632623930873771
0.22502590290928332 0.25001732632517815 1.0602873222389189 0.0210520182749838
0.1867702323078562 0.25001732632517815 1.079237114062562 0.15965061554621626
0.19114244547146408 0.25001732632517815 1.1160648358711116 0.1753138666355344
0.1567442057449526 0.25001732632517815 1.1055681656016327 0.144542659908352
0.17718828546896973 0.25001732632517815 1.054480242819594 0.15581937574871269
0.1013101104139558 0.25001732632517815 1.1775659724719727 4.8175572168373385e-18
0.1557543730564517 0.25001732632517815 1.1619804849129838 0.212804977414623
0.17045626760360388 0.25001732632517815 1.1383317278061094 0.20723414817016747
0.13158129244552366 0.25001732632517815 1.097417813079745 0.12280787507154278
0.2133348863624796 0.25001732632517815 1.0447929324161231 0.09933977031494721
0.14355839608005833 0.25001732632517815 1.1042077245529955 0.12401330957470147
0.0936011065699756 0.25001732632517815 1.1609653809304934 -1.4811498919079984e-16
0.21667986376504272 0.25001732632517815 1.0824252743075047 0.07571600822815747
0.21557820650192677 0.25001732632517815 1.00743094628801 0.04546787454279039
0.15303106914453807 0.25001732632517815 1.1330877892959732 0.19403785018952774
0.25164517380447843 0.25001732632517815 1.1104044147350496 0.06010998151357808
0.17747793483013627 0.25001732632517815 1.1504574659725202 0.20583827937180488
0.22717933009171434 0.25001732632517815 1.1408013842417153 2.653399911931884e-14
0.22718849816585932 0.25001732632517815 1.1254298738205566 1.8477653083548382e-14
0.22492248716208685 0.25001732632517815 1.0364005904109277 0.03864230851379448
0.1390990071850463 0.25001732632517815 1.1577108854706601 0.17391518135293932
0.19134968357676396 0.25001732632517815 1.0639933236420949 0.22519119427047654
0.18939778425816706 0.25001732632517815 1.1321396304684463 0.1764201702904252
0.09581319209967873 0.25001732632517815 1.1473728846461972 0.16007531929033905
0.10634194651597079 0.25001732632517815 1.1580422744402399 0.13896711087748675
0.11005251494242005 0.25001732632517815 1.1449341406762328 0.1692824908507267
0.2504781520564281 0.25001732632517815 1.1222332352334086 0.06429481311067942
0.23967409532503603 0.25001732632517815 1.0829444556807828 0.043208611336640446
0.20298086079425232 0.25001732632517815 1.1332171173628165 0.15788162634223524
0.23492742694475688 0.25001732632517815 1.1108145783952181 0.024694214414729337
0.23849912923674554 0.25001732632517815 1.1222926773430233 0.02539303083420702
0.18427076804562323 0.25001732632517815 1.103961496633941 0.16798261024168196
0.22943577340205956 0.25001732632517815 1.0219024028946182 0.049983043306002575
0.1546116037073698 0.25001732632517815 1.0823276360534744 0.12694705639796794
0.17518348389645735 0.25001732632517815 1.114032958136169 0.15339056143818094
0.20206364860104908 0.25001732632517815 1.0364816994466548 0.11307853537556806
0.1705630803881899 0.25001732632517815 1.0641014981821646 0.15769632403002937
0.21459531743603197 0.25001732632517815 1.027874377052487 0.03394232847348116
0.21396017081731136 0.25001732632517815 1.1230036943653667 0.09136886592512312
0.1977294011414888 0.25001732632517815 1.0484551815894672 0.20558681351913177
0.16435930399287335 0.25001732632517815 1.1187664939431068 0.1710487872001853
0.22744906460447667 0.25001732632517815 0.9935135502497732 0.12249840161019393
0.08558807447039696 0.25001732632517815 1.1804217308082143 3.094367582579687e-14
0.1195948121219797 0.25001732632517815 1.1248132108597073 0.21375251232005432
0.11867847073554974 0.25001732632517815 1.1642828787508859 0.11152260473901537
0.22023809525373367 0.25001732632517815 1.0995193451975036 0.05585074020545718
0.1300102521431196 0.25001732632517815 1.1170879906481967 0.15447693962779363
0.21049146307086233 0.25001732632517815 1.0610935523678457 0.16593740699737114
0.07373709476425166 0.25001732632517815 1.165991679289763 1.7659140357785924e-14
0.16682862722355946 0.25001732632517815 1.1557582352345288 0.1804868737871349
0.16236834619697094 0.25001732632517815 1.0719330276070598 0.11938087758431719
0.24167536641769197 0.25001732632517815 1.1357059205830822 0.029570876776099406
0.2017948691103379 0.25001732632517815 1.0722519424804475 0.15590116105347282
0.1442890696770055 0.25001732632517815 1.1235729070673812 0.16717865482777794
0.13200938286100178 0.25001732632517815 1.1492174860364972 0.1887247338323903
0.14318306630201033 0.25001732632517815 1.0914493781166998 0.13209352508783662
0.16313868818895316 0.25001732632517815 1.0948027213600018 0.13363615725917494
0.15359977503542885 0.25001732632517815 1.1475732574824504 0.21049632462529094
0.23478276243561783 0.25001732632517815 1.0499777012834122 0.04882372892611462
0.13585962785806777 0.25001732632517815 1.1314126719197575 0.17575526164050365
0.20619771312016466 0.25001732632517815 1.0908633940014343 0.18057241199908303
0.17961988555625855 0.25001732632517815 1.0915643576613292 0.16498093387043192
0.06501629780475618 0.25001732632517815 1.179353312489487 0.04269670860840862
0.14341525130992944 0.25001732632517815 1.1433960575871085 0.1695430659379633
0.15896093883325238 0.25001732632517815 0.9579732775732517 0.05966665542812671
0.14689078684518236 0.25001732632517815 0.949896525945157 0.06523375885404768
0.1971896755942258 0.25001732632517815 0.9576530408385288 0.15588198344060583
0.1980051017907936 0.25001732632517815 0.9697547467452854 0.07156206734395293
0.16927592260782945 0.25001732632517815 0.9508162466582091 0.07462547630609805
0.17650082975997639 0.25001732632517815 0.9680888224465061 0.08184910308428613
0.11617918723104974 0.25001732632517815 0.9514445503513344 0.10026714049606975
0.12994098319794706 0.2500173266271014 0.9625638737908118 0.06674715613809763
0.14192944759251777 0.25001732660235715 0.9651873408263507 0.07617551701758313
0.09656990380757366 0.2500173272778895 0.9612030892083895 0.1393886710052234
0.11659125675319516 0.2500173272525896 0.965748039215583 0.05577409150721113
0.15567086341089253 0.25001732735306437 0.9761495076822105 0.03788068961308484
0.19801876855499329 0.2500173270247865 0.9829570650342083 0.03323667781030377
0.17846509573088515 0.2500173274135725 0.9822358813646198 0.0178925074278895
