x y z curv
0.1891680340106892 0.29433380334698744 0.05656651986430607 0.0747901038725089
0.188779953330916 0.2588216287849101 0.10152439335596704 0.08274521663893285
0.19072821386891828 0.28709131423444323 0.0665465355223504 0.06142193825223765
0.24233796322405787 0.2949628675793562 0.10505457496621243 0.06956728377166028
0.2412798537793419 0.2619575937733699 0.14551549642596662 0.09980991589165507
0.2393551267365982 0.24506927755869146 0.16425073320018663 0.13379642036029377
0.2518822518234252 0.3074955378968953 0.10556078309781519 0.0617280535382556
0.25273677687450213 0.3189525918776511 0.0927596403815228 0.055410207901667126
0.2496290687108669 0.2969702220583409 0.11476257356180727 0.06946278200310824
0.248248641217758 0.27289207566090706 0.14285661913068123 0.0919574501844323
0.24851576226839056 0.26115794184702207 0.15817437697923425 0.10598595830043754
0.2672682530824344 0.2969659365054968 0.154025552419019 0.07698935987866505
0.26173784892639396 0.3020340455829467 0.13341938260662647 0.06176244338564747
0.27352066589258794 0.3014479479486583 0.16729151369676257 0.06759225221846275
0.280347957108652 0.31240216557335965 0.18032529972632422 0.0653686073509989
0.2896771631739156 0.2804149242474087 0.2725349483216684 0.1521394887184779
0.28929317071340566 0.2980882246261712 0.2504737173435697 0.13184568593021112
0.27073663029846995 0.3192622288452719 0.13659090543204264 0.061057521538762975
0.2695629129580303 0.309481386302897 0.1450136957311942 0.056564487263761724
0.2850560139931687 0.27428217495101237 0.2483072632719987 0.1350433289297552
0.2171253966631279 0.01452377502432246 0.3690594292924318 0.13571747275908788
0.2729354817742542 0.044221169807550885 0.3911215698912629 0.13331400088859288
0.29164360741135953 0.3204808759455111 0.26482292996227697 0.14406886451119646
0.29173841329562367 0.3233073628061836 0.2884400951339001 0.1362208958966306
0.29176419636426243 0.3256276441950217 0.27546410627804807 0.16192506588808803
0.2910789715007214 0.32452002888308984 0.30357375648055973 0.10806359987159729
0.29138150980395583 0.3158213721883088 0.3144114563156376 0.07930585256992133
0.2919140739716829 0.3004836621105639 0.33353624517840197 0.14299466182036988
0.2898849468896616 0.316124184219611 0.3348757380690832 0.16360261681778196
0.2898948249399662 0.3220264657965562 0.32462092595908254 0.11496505446604534
0.2870729830026329 0.3242353339437721 0.3462852380048811 0.1109639982040625
0.28767420030347024 0.3155508440531837 0.35600853512593955 0.13150367983164196
0.28406823030649625 0.31575616793972977 0.37939716619017105 0.14238972193257335
0.27691422153309464 0.3180012285567889 0.4102071835173011 0.14602311431801185
0.166075620417968 0.3201713111887922 0.5604679305171467 0.06794420348709301
0.1132827297918786 0.3295684806740932 0.02094469580448651 0.07505825464633362
0.14085853881802116 0.052076361642850275 0.3298691324532622 0.20313613585091128
0.03576520039460972 0.276496481673517 0.4749944629316496 0.003145011396971313
0.09756706524237685 0.314816700249233 0.5382153875584701 0.012620595527318377
0.00617380513439488 0.13765585758334287 0.43857221773595256 0.14248632099884562
0.17742005938635141 0.05235848157719494 0.3295655091060824 0.17708517284975406
0.26876874568728515 0.09595921010583724 0.3611308131967189 0.18233258159461552
0.2931172262070628 0.2600564369164882 0.4252024989772138 0.0019973133628761338
0.2894624913773367 0.2665682776920037 0.4525904080932298 0.003108377823111457
0.2446380440518202 0.30776064383879076 0.5194509215310614 0.003507029875007758
0.22200393845813404 0.3125347583861064 0.545762032977914 0.0471284075246229
0.3140403094169393 0.13215532035837993 0.4415332464028889 0.1584667271750934
0.2952873226809687 0.2476629222773145 0.521240205634679 0.1015798428395635
0.18207320477640832 0.32981445360228157 0.009373917197520908 0.08330516380412689
0.16591802491166888 0.3250136357440061 0.5399564528198799 0.10574409645275726
0.02730440670301195 0.330656757913059 0.27764667848415814 0.1655089783849851
0.05072843546540365 0.08829122033071496 0.3641311020370573 0.18562959719211788
0.05411633992940454 0.312641991663546 0.4612715370565671 0.12150314831028204
0.05666162079986882 0.2975663537929343 0.5056781839005178 0.004242921938239748
0.07252355005263697 0.31007463206847885 0.5091467730415974 0.005537553296415404
0.008809619832904795 0.20926429247749656 0.4949269146509184 0.10548378502669882
0.09110625886076962 0.3048007722677021 0.5669622242166417 0.13443854899218496
0.07994107064761163 0.3011532579306218 0.5582122854241346 0.11506479864831977
0.29707035272690385 0.2400036032524552 0.4199405629587343 0.0011801784846459614
0.28360583885121504 0.2794733746099311 0.4592556074900447 0.002790578846751083
0.2848434100291233 0.271749862355993 0.47935373225498756 0.0025804525314796637
0.26503255744965487 0.30703309623497466 0.47096430661604044 0.03314947107550463
0.26540222801348684 0.29445632343326056 0.503661272680717 0.0037062617093968618
0.23097877506320752 0.30522747008931833 0.5589204860822076 0.10671147218869746
0.2436565844124105 0.3230125141981212 0.48607614972789226 0.12958892280133397
0.262421230705561 0.2846107091580547 0.5560956915833841 0.1137985197940803
0.2535053609721148 0.287948714048351 0.5630614146620175 0.09277520787533555
0.28971914762605033 0.2536905645712102 0.538746817279946 0.08321390100182446
0.26356871158724293 0.03449031226939013 0.38802897770550415 0.09659626910206603
0.30188041396717324 0.07685343921910293 0.4180063025514259 0.16833723946994883
0.24519411637002103 0.023391356955178917 0.379696001719618 0.14569609935291705
0.1709846831328599 0.0026866420793252087 0.3645777081203828 0.1362831895886598
0.040711599390810135 0.26001332291564494 0.5462163548266281 0.06931964714634521
0.14238163261039458 0.31031613921782225 0.579683248555151 0.0954398427220925
0.12452185377093836 0.30847522836520525 0.5783447117446175 0.09384331131046224
0.14134054984763234 0.0028641216254487 0.3652918375728611 0.13492519011781837
0.043476539970999414 0.04363220336866946 0.3946701887391794 0.11526477357328399
0.00011357596430784889 0.1540824839382267 0.4702806699237485 0.09820136074457167
0.0037110597011394924 0.1831067036886026 0.49235200073478885 0.1200851947062593
0.015770581667014588 0.07999236454110688 0.4178903305573973 0.12220226701345584
0.0007584099665629639 0.16793824725242001 0.4789326439709843 0.08674335155296889
0.004984349863385089 0.19422206883485668 0.49832235915541295 0.11579930974484216
0.017354914413298294 0.23456159566137094 0.5236920242574246 0.05884193905827412
0.04517730334865702 0.27411361014182967 0.551052906458695 0.07825119929848831
0.07299240834700738 0.2926778729218924 0.5660327759532948 0.1006841083784808
0.27557249180260746 0.2696003373538214 0.5506335191361881 0.10864604148663035
0.29706907067295724 0.24064536247191584 0.5306936932837767 0.07992780602674703
0.3057337793954132 0.2239826531404857 0.5173178678200328 0.0776629555150824
0.3086772106771868 0.200312573214009 0.5057713082001557 0.07424696240244529
0.31771673902951586 0.13109454316251323 0.45304394499673106 0.18088932502548358
0.3148379549122522 0.11517047757940421 0.44624749856938584 0.15954897270453325
0.29560954427944763 0.06665349155976785 0.41278691732809647 0.16147887948397055
0.022374491264056967 0.06869739876507086 0.4154507898837342 0.11699957892662012
0.008224768216738898 0.20754892506032505 0.5073730673433614 0.08891087164292642
0.013585463411073738 0.2183012898385639 0.516996830458667 0.0815567793711343
0.08436694672311001 0.29599568202156296 0.5698732504456518 0.12934098038409234
0.2889068920822213 0.05937229226098775 0.4026069784473103 0.13448777427219952
0.07878856260139896 0.021172325212578624 0.37735508836847914 0.0969327449281272
0.06253283612421166 0.28897648576893975 0.5596071142581489 0.08362135693525335
0.3163490728669657 0.14313007258657018 0.4666542364594216 0.1535681302313661
0.0014054994316831573 0.1429692470070384 0.4655652939762072 0.08626301577477546
0.09741229989053153 0.33990586534170925 0.4876660252667072 0.10300397830736001
0.03337975884267713 0.3386015817805882 0.3348028635906601 0.10805726158094822
0.027685636545418862 0.33867859169247305 0.269622752822154 0.15082420469943805
0.04194647912524213 0.3408948556152959 0.34675603310477865 0.15460826650472734
0.031283452675239416 0.3395243003441597 0.2922783153499062 0.1370152911338447
0.029780390007883246 0.33854820787892953 0.20159319164485615 0.06210107535570948
0.1207784975114759 0.33977758184285856 0.011567601044707722 0.07671535476263826
0.21350250460486442 0.3387657041955161 0.017725222902727 0.08817811723960534
0.23869544374265916 0.3395261648770531 0.04900539550813459 0.09184857702387243
0.25367428961520866 0.3386946032985894 0.07085109215655477 0.0755652087159637
0.2599757027010304 0.3394456753862112 0.08970582329351472 0.07968911213370594
0.2730655854597676 0.33864208089879266 0.12062240936988709 0.05960829979741872
0.28916216215538526 0.33940717498499334 0.26374302549248807 0.1505004993359709
0.2854684884262809 0.33860272661560126 0.3339714919114618 0.1122441218558627
0.28288898495149556 0.34059589407693136 0.31016070163409054 0.0664284768294191
0.2893396442978923 0.33885384181259914 0.21357091336409434 0.08037453603313899
0.277721228228821 0.34085998336341267 0.16613877092952162 0.06816797803316013
0.2718817688855022 0.3390035326108116 0.39218749469807457 0.12254773284656462
0.2629578409535801 0.33994544386210923 0.4111808629659987 0.11132431730700677
0.2559330278792702 0.3389756111774619 0.4367166309530216 0.09636524455952744
0.24716505306522057 0.3392610557868927 0.4527001027054435 0.0910986574968877
0.23308206304318532 0.3400345861302141 0.4715042034687693 0.10549771556488484
0.21289540805719145 0.3400862280503201 0.49641312703412543 0.14514229532658196
0.16872730382434153 0.3404391864361358 0.5227285205816722 0.16016388288781477
0.05003719632451436 0.34045845950494297 0.3876270648608812 0.12461378102361303
0.07346366254947898 0.339821656024373 0.06128731865063256 0.0860434038738164
0.11080916923029097 0.3409853269850903 0.021027046342753 0.0846134000455793
0.22624798251968464 0.33870913094176636 0.028930985853045564 0.07789749117879213
0.27992145331052765 0.33998248876790427 0.3442115361518 0.13034063753400407
0.2619490652391862 0.33871744399753656 0.42415588284144323 0.12572200868261016
0.18886499961011197 0.3391699875718445 0.5191738380859353 0.13714823876142343
0.19643851965230452 0.34057781231020035 0.5092665506111836 0.13059744772990892
0.13332305769839234 0.3389757610480446 0.521864417190719 0.11797648181669179
0.1623878198681643 0.2687346003211337 0.4823636186700833 0.30056208983292215
0.1505441733970451 0.2615544316621489 0.4743739926913208 0.30046842039782046
0.14968220108180275 0.254153533683123 0.4846914170046393 0.25620235354562915
0.15584916212458955 0.2643210261566403 0.4909554178998928 0.2498481610014364
0.15100868138866125 0.2470620024442723 0.4720878532361745 0.23888574273483487
0.1588644114604461 0.2562997059156227 0.46893282461296226 0.2499524932567295
0.1698361587050467 0.2555480724880619 0.47697100917880536 0.2795614077586502
0.16521235321764538 0.22600529829154653 0.27900465828240695 0.1876327436728322
0.15313151606668385 0.2260046506928719 0.27159535972049575 0.23591361246293016
0.16261849953029966 0.22599710795132483 0.2573059043751081 0.19577811599113207
0.15709251302925395 0.2653617664248662 0.24816029595563915 0.20534617090861335
0.1404967354527399 0.29299824074236724 0.2214357066840767 0.10466831946772928
0.16610434027132692 0.29299767886506345 0.21252382455007784 0.12753244815245424
0.17650997738838792 0.29299820223504164 0.2247405785149299 0.13264070806965167
0.16946790704496623 0.2929978432572545 0.24915367054922904 0.10242630240395897
0.15396359455383346 0.24364029527201014 0.22116304505204773 0.18440016625777433
0.1542267684722692 0.2662445328234507 0.22063038673616825 0.25293547018015794
0.14536996030831575 0.2564309434039942 0.23219365597219377 0.2760064086879667
0.15181203545996658 0.23528969401872596 0.2454590715717494 0.14609977119418344
0.14626312992647122 0.24492606804275835 0.23911624667642017 0.2011802502471702
0.14528803738562757 0.272384714688316 0.2376676545683385 0.2065665302386483
0.14449856009332185 0.2896407841527986 0.23308689083616543 0.12353651902599083
0.1727489475270535 0.28075023813072325 0.2279105700179572 0.16691366055237522
0.16618390785975984 0.2687776392438078 0.22123415807805558 0.26687239030114707
0.1672905627901378 0.25611832642063137 0.22211822680836302 0.2330763382334487
0.1733060618553329 0.2653305306674155 0.23117964691884646 0.26077353924120455
0.1727129289944569 0.23196147488555224 0.23063888630819637 0.18083719111694577
0.16707245204079543 0.25988924743827185 0.24560788860326935 0.29844880322351863
0.16783083425424547 0.2731564382414674 0.24553551352086206 0.17472521744994055
0.1729253411455862 0.2487641704996464 0.23812023789447384 0.23796124239304942
0.16007527098995114 0.28230831913526566 0.24874078563196247 0.14482378813805702
0.14778062101747874 0.23378338819761696 0.22643400472385578 0.17027485469019854
0.16206716274499444 0.2776326815620491 0.20910722213845065 0.1558231834281794
0.1508986422187801 0.27703621751912383 0.21033174937007001 0.13767719847692922
0.14751594684242259 0.28914106481720564 0.21198387998628893 0.13918435390500217
0.14160006941055567 0.2673496381940231 0.21605786904726887 0.18435661060326297
0.13661496456014205 0.27541194174638484 0.22333623879658593 0.1594918421451557
0.13422278787427275 0.271039818013056 0.2344499978200604 0.17060615274964983
0.13863392782898717 0.2676357150499731 0.24806411042972715 0.16323445684594717
0.1477121967564709 0.2848164427711003 0.25560958002988127 0.09670632001902162
0.13533039830358629 0.28136264758499857 0.24074419811173117 0.15603499024200174
0.17797331113748494 0.2837306409995196 0.21725601019350993 0.12373177918449715
0.18451012275411155 0.28003569097125225 0.23450497938224912 0.16202013115302533
0.1786051686868288 0.2806009450243674 0.25005039795942846 0.1380376312461177
0.17968053174229373 0.2656097701833315 0.219113627653367 0.18946032407815175
0.1804383428802217 0.2924706045102197 0.24437544096464964 0.1253167997281415
0.1871434852943777 0.2643808688731694 0.20789396414011152 0.09822456558876957
0.22610357167188683 0.2624780961445727 0.17340635313073924 0.21824644667199608
0.19659985804698712 0.2609018477078993 0.14483705378095368 0.2017601095709609
0.20844542337206073 0.2631455000979123 0.18550301246267437 0.004096496015133626
0.23035360467103252 0.2632084791665046 0.18664446634801202 0.24553135852502928
0.22055807866778923 0.2619445077963518 0.16373512602966614 0.18705466249431466
0.20850692210672728 0.26213582164328436 0.16720269013555947 0.12601155596753463
0.20542403905282064 0.2614548613651531 0.15486035737459844 0.2423908732303317
0.2006021870137684 0.2639739121256516 0.20051791132584668 0.01800271652336775
0.1841100865006909 0.26127630583965217 0.1516240906643214 0.14477967058482144
0.17888572575453726 0.26368067964439684 0.19520313677576076 0.06865939528797907
0.1867077426273688 0.26243789452633914 0.17267776662767625 2.009212274332573e-14
0.19597501699595055 0.2629185560310683 0.18138969388747428 2.3159925037360434e-14
0.16836689160625765 0.26422168886865083 0.20500889552204227 0.1504730746466222
0.1730058965061354 0.26291618425350927 0.18134674806315537 0.01230884104151383
0.24129126993841654 0.2642661691909045 0.2058150064517933 0.2565734910763681
0.2157102662639459 0.2645455103345583 0.21087806179266183 0.0004397245644070552
0.23473586868175617 0.26508908753560617 0.22073035427364973 0.0467849249423804
0.24871989934727956 0.2651118792303577 0.2211434444732853 0.2643293143827035
0.2252653717848055 0.2638481740856471 0.19823888000961842 0.11617019836830654
0.21677971681463992 0.2655791208838553 0.22961205960716066 0.009856352996134842
0.23405533923813412 0.2672705819777393 0.2602696484037015 0.02164143839113763
0.20578906602489452 0.26583039924611457 0.23416615865757948 0.07594323988034148
0.21467313902351676 0.26684788385598673 0.2526081091676232 0.015593734395153146
0.22644911395153067 0.2681159967166462 0.2755927123643535 0.04418525829694821
0.1939378331654239 0.26583756345808096 0.23429592043778316 0.13044926221108694
0.22334423319167657 0.26609588750450586 0.2389782592106836 0.0026764809093081806
0.23911314423655913 0.2666119645180452 0.24833226130901273 0.02154635529333173
0.24309443303859557 0.2659818864003625 0.23691214096626712 0.1090208560130466
0.17684477249153657 0.2606381700085504 0.14005792422658958 0.21183433276179883
0.16017819877991835 0.2597120783540348 0.12327254103675173 0.1630235223240656
0.17021293562344753 0.2617933805340897 0.16099602034177285 2.3648596568156303e-14
0.1589828577303041 0.2614993668273167 0.15566701788774526 0.038119082228664385
0.17400173212085845 0.2599285960209905 0.12719693879477487 0.17476646538623067
0.16450060068024996 0.2603906489949085 0.13557159618228848 0.2203036267941571
0.15995326171289959 0.26284947260270997 0.18013759341445745 0.013469997289832416
0.1452175198659171 0.26164901306659877 0.15837933804791238 8.545376788706204e-05
0.1408529444607985 0.26007335969568657 0.1298207473903341 0.16629061625264585
0.14840277282542647 0.26289789879971265 0.1810152919644601 0.01320006020346666
0.13155886408117418 0.26055545603196106 0.13855872101924493 0.18013144363949812
0.14250928478984812 0.260938759814316 0.14550605609392214 0.1359767764668714
0.1538691614566775 0.26216643636930714 0.16775759035502508 1.0080306394782734e-14
0.15340447518705536 0.2635723404054589 0.19323949986040573 0.09450920502426237
0.12149337349007228 0.2610475488797297 0.14747783892204525 0.17456061745051696
0.1415704127111474 0.26352814202468805 0.19243839980101032 0.0728403846164136
0.13448622783260075 0.26293714853617095 0.18172668353344332 0.006910129484325766
0.12554703946160467 0.2619098087590699 0.1631062274820416 0.09479700864338056
0.11563821235999241 0.2623035558651203 0.17024291392430618 0.053362845553205876
0.09903396368431217 0.2613986114217586 0.15384091560235513 0.18318389263009055
0.10706916466551046 0.2618982493646098 0.162896801221779 0.1707110256677866
0.1277561514214937 0.26352548700208844 0.19239027782864826 0.02875834280769088
0.1425134348145501 0.2641885929447326 0.20440902304828895 0.19868042275856346
0.10361118089221556 0.26258650847695725 0.17537135667153453 0.1583355572908493
0.11419139596626014 0.2631494793104709 0.18557516051393952 0.0006091081503588551
0.08410773501115137 0.26305997579632384 0.18395290595209302 0.2036084994494346
0.0993004307340219 0.2632410782945405 0.18723538983518273 0.11406373082682353
0.11123341957952997 0.26376025638478556 0.19664543850488592 0.00443045092275747
0.11381682698961829 0.26581234530635095 0.23383936383798154 0.07185418535362091
0.1065719070527068 0.26637168116852705 0.24397729309070645 0.00998724264961025
0.10383952827669701 0.2650043834057097 0.21919511190190633 0.005294722567769613
0.0918122410972421 0.2649299507503205 0.21784603047500195 0.014716435607987624
0.12500500882088733 0.2662278808651876 0.24137091345276773 0.1057862139894075
0.11569055385996505 0.2671203771795104 0.25754735505427706 0.020496144071606475
0.08628942138018594 0.2640847767953358 0.20252731042292976 0.16041434798752002
0.07133988156429587 0.26533869204137067 0.22525433670696254 0.15720233088522242
0.07814561713455788 0.26465588805539175 0.21287862672542332 0.18632728161110054
0.08300133106907526 0.2674219472941063 0.2630131483855335 0.058502133478813764
0.07979072297234951 0.26598489990407587 0.23696681812001658 0.04690564120354287
0.08844521948113546 0.26672287612145273 0.2503425911412696 0.024037395390870478
0.1013689509658591 0.2672326820103187 0.25958282387076403 0.005815496081637542
0.07505232188609864 0.266894933067475 0.2534610399891689 0.06196325597314293
0.09109171253027046 0.2656457987027201 0.23082070191195977 0.009520261000759245
0.1173851984866894 0.2649474485107011 0.21816321801699534 0.06383843643270952
0.0996826701545621 0.26420535497815345 0.2047127887811793 0.003529445464771456
0.13020873097182062 0.2645198305208819 0.21041267170837064 0.1576602181475406
0.061355718045333865 0.26499423274601847 0.21901272457397802 0.22315005078656758
0.06421468502259939 0.2643327389159472 0.2070215824171524 0.22522323310803447
0.16645365802095713 0.2705139173489953 0.3190548311388992 2.6212591059325202e-14
0.17247411268977392 0.26831945565538967 0.2792804681983754 0.06217037611582406
0.1814118162297676 0.2678796008552936 0.2713081368548567 0.07750248952443693
0.1760715587720084 0.26892939753202066 0.29033558404619375 3.370518265960117e-14
0.1587136941895697 0.2680559192581282 0.27450392835773907 0.05194461758052547
0.1519568941082071 0.2716725032435227 0.34005408658181524 0.20036442722203593
0.16407459912641592 0.26887576958792836 0.2893636061896063 2.209691386929962e-14
0.18883201357305995 0.26915016965580585 0.29433702846447707 1.760068267828948e-14
0.15780538747038791 0.2710902542755057 0.32950088392421567 0.08933048608257947
0.17572333754770647 0.26995614340434504 0.30894522900087973 4.639244361696035e-14
0.16559193228266977 0.2674354187963973 0.26325742012070463 0.15621566188625433
0.1505385322329437 0.27038422693940695 0.3167042332669838 8.851885068979747e-15
0.1046649755548517 0.2696524634246702 0.3034411359261613 0.05475617241761327
0.14483068366955787 0.2686842839381509 0.28589297287778054 0.013556057019208279
0.1418883974982712 0.27136500660456697 0.3344807531096254 2.0395415195205122e-14
0.11627846618333004 0.2691257793761995 0.29389504306239 0.0230030619624705
0.12303020120107863 0.2698859545911143 0.3076731238299849 0.010174346080012641
0.15237679760245348 0.2692422070557571 0.29600525801891986 -4.5555111811090835e-15
0.13555734826737603 0.26999987377592927 0.3097378875320481 -4.578602110794334e-15
0.12765698882236537 0.2692571838335791 0.2962767259694541 0.003111449509048786
0.12114147047684698 0.268343328655654 0.27971322827861766 0.016055161916900634
0.13015148590494297 0.2677046519868006 0.26813729100309325 0.028155381194105936
0.15178592746702416 0.26737517030905406 0.26216544474798975 0.17101301609202718
0.19800675072933094 0.26801354717567094 0.2737358121756458 0.010301399142771521
0.19326020478221417 0.26722585858493264 0.25945885934723056 0.08085922780953439
0.20878141100202863 0.26743534274844405 0.26325576259545397 0.016526326812586898
0.21273206334457512 0.26818922879331963 0.27692002925068787 0.023921825491944597
0.1910206726782152 0.2664710641407843 0.24577812004758304 0.12943954834377103
0.22800133888358431 0.2687429950028174 0.2869571062748238 0.08055198404876891
0.1958664569380629 0.26965089922204655 0.3034127164746535 0.014137750158578842
0.17472867283811844 0.27099320429764207 0.32774186013028295 2.903927675673512e-14
0.1931248519685546 0.2703066439221832 0.31529803136468715 0.00793818458722117
0.2107427935290331 0.26909399701036946 0.29331892713811536 0.033785245366658355
0.21241483707602893 0.2703689170239779 0.31642681870457445 0.054332703442606226
0.19143427199562593 0.2710135306200725 0.32811034173684234 0.00812124699929343
0.21258920915004514 0.2709944030001766 0.3277636626567653 0.05222211594992597
0.16672856064106828 0.271839393032539 0.3430789607792517 0.13468813492949602
0.20467537347023235 0.27160445439327896 0.3388208238953736 0.010566482862112368
0.19193958391648666 0.27180901874056335 0.34252843814041006 -4.800503403787588e-14
0.2211951932015355 0.2714736605368704 0.336450221376472 0.05230304764933879
0.22082510582338796 0.2728323808042328 0.36107688173633623 0.010575338076426733
0.24654472635530822 0.2732095198406654 0.367912536236399 0.05846451490035969
0.20072805092026189 0.27247255829212874 0.3545550999931256 0.007462866108461795
0.23143263435053468 0.2724059558099835 0.35334801021787 0.03774112604593106
0.18572703694831538 0.272500671078704 0.3550646056508992 3.408889033363509e-14
0.17443819816019712 0.27234082222969164 0.35216734035030123 0.15193830369325326
0.22284358807368965 0.27348462851463967 0.37289878224372364 0.008271964237586615
0.21762228064427813 0.2748243096667553 0.39718028223851454 0.01321126166987215
0.2379453373613918 0.2737379456093812 0.37749015505028793 0.04802651944718558
0.23001604282352334 0.2750936671784966 0.40206237801446193 0.046892204543549275
0.15925916477731594 0.27242709108217905 0.3537309129288126 0.1985438859424098
0.20976001476954162 0.2735459070471867 0.37400941182687564 0.07357332601620026
0.24150685383064574 0.2749853852499176 0.4000998149665462 0.05214006370318042
0.22284025911521038 0.27417220807817894 0.38536105548973676 0.014974155296802067
0.24891951276427526 0.27389123346262995 0.38026850249005434 0.06002628368968653
0.18983960357890953 0.2732344869365464 0.3683649181944949 0.135467087641237
0.25205350667578735 0.2723093517619075 0.35159702686330924 0.07819795170753355
0.2383617502341267 0.2717723044513861 0.34186310511015555 0.06788035672205826
0.18630240260554248 0.27389685774330785 0.38037035133423586 0.16556756516539636
0.19919197525949767 0.274190235195091 0.3856877370029821 0.2117351920698468
0.2344319551852957 0.2765804386818795 0.4290101463050295 0.042998791890242985
0.2221652789147102 0.27619358381708714 0.42199839011089396 0.04608087668785985
0.2146578223211795 0.2755845427344001 0.4109595888569103 0.07595749538234293
0.16939379139179392 0.2741339207587494 0.3846670457294614 0.24300687440566088
0.20950734125602066 0.2769291354746353 0.4353300676451108 0.14244451274521575
0.15688505509741643 0.2767531486006007 0.43214030472503867 0.2612269097052741
0.14044392748209233 0.27689753721411076 0.4347573296970907 0.25669620713101055
0.14525093183998528 0.27611363394579547 0.42054915682007643 0.21970556897772836
0.1617653412276466 0.2730342135149239 0.36473495089268965 0.17083109270138316
0.15448054066286732 0.27559498000818644 0.4111486050308447 0.19033178850057936
0.19920442537102007 0.2771761707314186 0.43980755554896606 0.20448712744624847
0.14700664531989366 0.2734277572504514 0.3718678900161071 0.15674625528871244
0.18916986669495003 0.27778511140765366 0.4508445458872956 0.19799510123534378
0.13564527348902236 0.27454753484737865 0.3921637519951458 0.2054677146471295
0.16704932223336386 0.27599680172465824 0.41843159065497043 0.21377838288718076
0.15662854448929095 0.274693060022935 0.3948013891824995 0.18718547051981463
0.1396675282243489 0.2779250462236534 0.4533808354717744 0.2109637771241154
0.19963056962225034 0.276296353665198 0.4238609525111795 0.17571272289854709
0.1842915211097322 0.27457380630222644 0.39263993546231624 0.16765413231992143
0.15715237731117582 0.2738584594486184 0.3796743309216326 0.17138843184171626
0.12241207856815656 0.27750597667257065 0.4457852329167421 0.17013127244316753
0.1466382329598831 0.2741626671964895 0.3851880648847093 0.16229955552358932
0.12144837194669303 0.2781664599162762 0.45775643047726533 0.16744342899228784
0.12713842141575293 0.2766331781789295 0.42996584225373474 0.1853864676311707
0.22461744791355043 0.27765630298097066 0.4485099165263776 0.058581852534823176
0.13844106501547893 0.2755869948364186 0.41100386932903765 0.22542361013403064
0.1940572098812074 0.27532798498663813 0.40630935772218973 0.15204087136985323
0.17802401380001742 0.2771471005718111 0.4392806547206257 0.18916940577249602
0.16933163104381263 0.277568061632421 0.4469105322990527 0.18945164458358948
0.1830485534977115 0.27554313003723274 0.4102088383514442 0.19879464330181953
0.1566110023391905 0.2776144442816715 0.44775120941460095 0.2053559354493894
0.16442421119230227 0.27519362436223427 0.4038740741904675 0.2109784051744398
0.18397627068184735 0.2764466001270268 0.42658415069880495 0.2154352146627632
0.21806733370038858 0.278196935964812 0.45830889249527323 0.052209378928056126
0.2037057974588106 0.27798919042194925 0.4545434749561835 0.12213424296672587
0.19152741604911944 0.27842104864306905 0.4623708966882758 0.17272647392938717
0.11933590401530614 0.27886532006496717 0.47042320807153915 0.15953456404588523
0.1351562628383638 0.2786785240527869 0.46703755161386284 0.1551126133645579
0.16819457836125817 0.2783381674652015 0.4608686342225582 0.16602007365092253
0.12107809832747207 0.2757283520705831 0.41356594980620726 0.21431529700297847
0.11630055897098325 0.27634378631064405 0.4247206370173795 0.1520153660093376
0.11137215789022176 0.2750192314034139 0.4007131981719064 0.14241482892227433
0.12412453667046255 0.27511442939751035 0.40243865883233476 0.17412765900728
0.10166863682208666 0.2755072096729524 0.40955775535744865 0.0918673854633379
0.0986272272276733 0.2778113576108719 0.4513202247804863 0.05958287345185656
0.0999328708635309 0.27660796918460046 0.4295089201236556 0.04487677840734001
0.11431171353230948 0.27698109354776446 0.43627177155159574 0.07375277665122391
0.13068809244032176 0.2739097695425876 0.3806043120050081 0.1701498464170583
0.10608628063851502 0.2787441607444878 0.46822719966814774 0.054701123186457826
0.1923443794736175 0.27915381882596213 0.47565234916078725 0.15400752733126602
0.15502080751934982 0.27900472274960053 0.47294993236882854 0.14155726430865806
0.17449601137513604 0.27932191196193595 0.4786990094351422 0.1601028810993576
0.19104160699212316 0.2797854315467672 0.4871003180973179 0.08568658360776303
0.16639354351681715 0.27982146911189915 0.48775346359223026 0.13879578780207888
0.1787203465105762 0.2786602024116857 0.4667055400579394 0.1436788076206826
0.2030537754469922 0.2788295921209582 0.4697757602837431 0.12705570503066638
0.127943704098493 0.2793917510217395 0.4799647697738757 0.13460287262974194
0.1414393881474969 0.2796713481626114 0.4850324746534498 0.16460083502004988
0.11576882967989997 0.2796776449642154 0.48514654253369505 0.07702987721946472
0.1819801012947399 0.28022109801770856 0.4949967531373492 0.12600641939135185
0.12834290207041887 0.28031203601510335 0.49664491394847227 0.053708395071050505
0.15433818076497582 0.28029164370628873 0.49627534248650684 0.1418745699937933
0.13011209382765773 0.27310480657865277 0.36601443683308543 0.13296112931215823
0.0935016031722657 0.27439302087138817 0.3893632004202998 0.027148960306611142
0.082653884790343 0.27424167633527613 0.38662010002474534 0.05191406860015833
0.09286331075493007 0.27507523120918626 0.4017281925984409 0.037506141119346664
0.07246426987294274 0.2747519967787383 0.39586960886775535 0.0623851109726506
0.11315993644398609 0.2740484128300532 0.38311720853191034 0.1760942888926402
0.14591318241963935 0.27238400136135904 0.3529499112744405 0.15734494456889048
0.10436361708865921 0.27357129000043845 0.3744694094909345 3.0029027516058306e-14
0.07815828087625928 0.2760361813424252 0.41914531959883994 0.056635588895359044
0.08739487523556237 0.27248808565827787 0.35483677962137244 0.040290504564257056
0.08949540836322567 0.27342012083953443 0.3717295816418094 0.024732086891696335
0.12666599265977915 0.2724358737333846 0.35389018767830954 0.07065514868428835
0.10133360106867363 0.2718633455709644 0.34351348547261606 0.042591094127131475
0.11193646612501895 0.27290062893820266 0.36231381638969185 0.0011169341656113575
0.11553433979529404 0.27217295382479034 0.3491249311540745 0.008586587249727193
0.07456968467876932 0.271800824899444 0.34237885290233794 0.07607316721011624
0.0608116003364617 0.2723611662385469 0.35253576013102206 0.17269921789266812
0.10006378210729519 0.27086612417102285 0.3254384296620614 0.05986179129137124
0.1276470068387614 0.27144636102394104 0.3359552598586769 0.007728707282556612
0.11580515180128283 0.27099287516263015 0.3277359018209553 0.029359739443374125
0.10618530522799235 0.26852223622314036 0.2829559060741031 0.03502717285318924
0.09341566854906332 0.26870262068204714 0.2862253028870906 0.05995523649991079
0.09946521725024982 0.26793163511049906 0.27225127780172703 0.04130502507616436
0.11076044289171162 0.2678736904588544 0.27120107657025944 0.002936027370004382
0.07354727471319572 0.2680242283052604 0.2739294098610264 0.06168658002421501
0.08169325443080558 0.26857681413931617 0.2839450187617454 0.06055625263756185
0.06590676661825273 0.2662222613346056 0.24126878655920955 0.17365541136562584
0.05636454000324808 0.26558131493036446 0.22965295436655658 0.22797372165153368
0.07237212721739096 0.27350664734252894 0.37329755349117605 0.04805606039832908
0.1977977018590574 0.2650844779237863 0.2206466224954936 0.08042102133328603
0.258740333272101 0.2666367984353992 0.24878348256392988 0.26134755054790226
0.2632464172026958 0.2657614652348666 0.2329225404719332 0.20391977949763482
0.25032177800889394 0.2677325671134495 0.26864037889761866 0.1263737526429628
0.1666399839906381 0.22599753976504716 0.24594389018435303 0.17494219036728884
0.1456366046842385 0.22597388146876518 0.25865914891435704 0.2019967913881911
0.14514124929509992 0.22480796272749717 0.24040866030976754 0.17122981219167382
0.17560434076197418 0.22362926764422764 0.2704976359165548 0.16600113572262562
0.14481409648867155 0.20684902175283978 0.23248741087966096 0.12153261885347444
0.1583315400177207 0.1940917539862139 0.23139073425676274 0.1496362182935088
0.15746803495184908 0.2060298877390228 0.2199797911004651 0.1363263525605871
0.15497941380010488 0.2180528664509431 0.21907700301951277 0.2097549910004886
0.14646214276112976 0.19748181632595646 0.2546039998724434 0.15729917896777165
0.14403053745394845 0.1969768565758041 0.27555489800923605 0.190320106367426
0.15106279095322317 0.19027408679629937 0.26589957119569013 0.16805996171167015
0.14222271416260665 0.20923859090864014 0.2851465361680167 0.1944737048140755
0.1422646407287645 0.22147882498946314 0.2705063695966857 0.1746033610111536
0.14611718407068597 0.18958902171012185 0.28970258840499724 0.1480460143958372
0.16346476282753136 0.18935618449215397 0.2607612867779364 0.22183078963561764
0.17296165610954817 0.202095317796246 0.23603201078644628 0.20280641224962126
0.17256470950160283 0.19440617499700946 0.2675997250337681 0.19462729507989554
0.17401581014397308 0.20181771005578727 0.24765254401064235 0.20119245661985935
0.17646272662212792 0.21461954577096273 0.2785175646389993 0.19548165961353237
0.17708996060789517 0.21955143396933188 0.29010797345687833 0.13984764158087992
0.16500996976636517 0.1861743967016712 0.2803652720718071 0.17757256235408464
0.16618329348003588 0.1928476352561403 0.24678359539535555 0.17159282390846425
0.1759632232388174 0.19982248645058578 0.2855613735288538 0.21947817826117416
0.1684249871252862 0.22225770260426514 0.22115490989020406 0.18368077175145675
0.17238820345292805 0.2099822202028198 0.22626789065700914 0.19747925429455349
0.14374466721424853 0.2078125165263078 0.24560583994023072 0.13762438558474469
0.14277630267284344 0.20742268980001077 0.2719185947793629 0.1947835559236517
0.14313629901237446 0.2117699873591633 0.2574127275339627 0.21786656899397644
0.1758733754070574 0.21651045304009928 0.26008575580899695 0.21171064864095046
0.1750419024484555 0.2145699660584353 0.2391821980194492 0.20523624425385617
0.25466410885475266 0.34099765095835677 0.10136253725676772 0.06986221188198033
0.2727103900576088 0.3409975765236235 0.1444661474335127 0.0816028400322631
0.2659782741855829 0.3409975752006629 0.13039129040196357 0.07077260130071289
0.27861742177091586 0.34099757579105616 0.26705647852393666 0.18183379772972097
0.2595543942041214 0.34099755740670923 0.3046668394158004 0.10327883475473781
0.2514959825760118 0.3409975564739134 0.29372976856791566 0.07398757558265592
0.27792261082853364 0.34099760315065103 0.2820185835952682 0.18009561634235435
0.26340877333176266 0.340997939056053 0.11249114731555707 0.07573119892990669
0.2235590636806984 0.3409975653868911 0.04887250932795921 0.07912705439031724
0.2674760965963565 0.34099755888540034 0.2934909468139132 0.16396975181560836
0.2673369392073536 0.3409976634810039 0.27410203127184085 0.14192104329697175
0.11032066200101931 0.34099757715545687 0.033500576531514885 0.07609724158530756
0.0720294490166607 0.34099758248206063 0.07937407949634491 0.0724776494460372
0.06245360489831124 0.340997697981068 0.09967478839855518 0.07100684762425162
0.050276008455337716 0.3409979904028542 0.136390298858329 0.07935516186239681
0.047668802611063814 0.3409977858044019 0.1514770084569026 0.07661471983337226
0.046464248977079174 0.34099756577374163 0.1653383739647397 0.0727257507159204
0.03541842921284463 0.34099763827418006 0.21884722760703948 0.06652000045310555
0.03420918752842836 0.3409976124106732 0.2512814969980862 0.15361087678267815
0.03924815058081309 0.34099758284421944 0.26935776423500984 0.188242059461044
0.042187534896273526 0.3409975683371501 0.2844717789280812 0.17576668015564872
0.05486542485740363 0.3409975618124008 0.2893783678754203 0.14087655160611703
0.053517725366398594 0.3409975713852182 0.30768280558660716 0.09901686391420678
0.061549795621152384 0.34099755555409494 0.29910884406937466 0.11687814351214194
0.23264719184466098 0.34099756133197734 0.45940004540463525 0.11192401903404056
0.20128453436456872 0.3409975845843884 0.49820987391447036 0.14765280698317965
0.03675817358353409 0.3409975664219942 0.30332572118324985 0.1280744037424072
0.1557119528713624 0.34099751067778505 0.5211302392106394 0.13099721220729996
0.05865987374019008 0.3409975766300871 0.39817507633387084 0.12168238342316821
0.16741412098948474 0.3379975457216334 0.016578019311340172 0.0921365673866676
0.07366816258383828 0.3409976173166023 0.297246105626696 0.08050304777271956
0.07658398057073143 0.34099444798665335 0.3120711461347857 0.07259200125459181
0.1822129597568772 0.3383845564119159 0.02064590584237003 0.07542582415734098
0.2696875561110084 0.2790915046908734 0.249041829980163 0.233653383100013
0.27271117670800277 0.30260618449178434 0.24287673971713397 0.1295115140133546
0.2707333128004502 0.29143441297845174 0.24304314324083084 0.15309958262780454
0.2749411215967337 0.31730644776387584 0.23786802137426682 0.09972971476033769
0.2558092642752285 0.27640802336170517 0.198761260043537 0.1340137728973835
0.26239356899203387 0.28981271572711287 0.20449280791613172 0.08678098585936318
0.25653602005642334 0.2859145147558206 0.18908003374399862 0.09740114591698976
0.2500262611420337 0.26641724663389094 0.19372892708765116 0.17480475894901276
0.24252216127484336 0.2685796204951675 0.17643451065403376 0.17193645645027875
0.2511940485958441 0.2859102869273409 0.17532465546845993 0.08528470977882914
0.2647344318094345 0.2782523350309248 0.22671870803856997 0.1448783812802272
0.2687500161556813 0.2970702019829054 0.22444946216320408 0.09205366597352577
0.2712849512446393 0.31082292636987596 0.21970480308086549 0.06776067299283237
0.27373831985246194 0.32287902554456116 0.2165785463144984 0.06925808954111547
0.2796745486952497 0.3402547166585634 0.24431592448951342 0.10322212322395669
0.2780997773180538 0.33476848215207033 0.2321779680880902 0.08704791942746595
0.2681495958847907 0.3041582133461145 0.21011119875586362 0.06982987835610853
0.276891817737815 0.3353193048844459 0.21673757464163687 0.07694379190278605
0.2742124107283288 0.3285332203599366 0.20666785582342698 0.0771253719210997
0.27695679127532336 0.3403217168506983 0.20305252098753612 0.08643395008122957
0.26930475685386446 0.314072108232737 0.2022162945729184 0.07363435557492296
0.22946502575370156 0.26762388061535636 0.1547010195202025 0.1345381138612784
0.24133537770798175 0.2936932809813161 0.14216497364954317 0.07874820940599642
0.2460469192808769 0.30983483056226324 0.12997969132275244 0.06754338648393612
0.24722585218942322 0.32044590845475224 0.11784598096209112 0.05970847728206127
0.20301704280304406 0.27592829228870636 0.11515158042637041 0.08525187867046409
0.19411787643283857 0.2624641453700108 0.12571794277512427 0.13480740020545867
0.2100864686856634 0.2934161502293191 0.09860984675776095 0.07327657711067707
0.20995198518404143 0.28454974782283715 0.11047592608342674 0.07264117016837088
0.19219462416538957 0.2697619270811089 0.11527167522234755 0.11122310603310671
0.17372496808986598 0.2733632642047043 0.10272490410679391 0.08160345767134036
0.18080687211038507 0.2660470590907751 0.11422002347668204 0.10887377299152777
0.18375420607058018 0.2886487204989527 0.08696368263303425 0.06953725014250725
0.2209616865205164 0.3265779261279702 0.06583967763485202 0.0631631976048613
0.18535592486685504 0.30503524171873353 0.06642110174363539 0.07259910134668339
0.1844001661528521 0.2958828874517921 0.07802160367742504 0.07210403387668543
0.19051842756886705 0.3300438079196986 0.036540898715024694 0.06704979549495915
0.19358153002364187 0.33800372197309203 0.02764596705057422 0.07248071287905655
0.2095145110124517 0.3077167057120898 0.07970780108589372 0.07809500669898285
0.049662831822696464 0.2862770683892053 0.23798710900005549 0.1399413596442139
0.04695734587323215 0.2997244414306445 0.23792972154726413 0.10770411471353089
0.04244578691897394 0.32359043889699557 0.23667483807359443 0.10185209803411725
0.04648699405831625 0.2950465412694351 0.24944796587327073 0.1302580147856969
0.051700513978855465 0.266885069315227 0.2457736625299388 0.2578859014903579
0.047712702184009984 0.31388043714389813 0.21381967333182322 0.06694710703089825
0.04133261046220086 0.3406677269388556 0.20692380051436832 0.08382251247612126
0.04514355239545953 0.32545464127789814 0.20875708216774572 0.07408277392535519
0.05273383539884558 0.29403227876738997 0.2156663324048115 0.09293065945748481
0.04519832117346243 0.3399368473234333 0.17904229197152666 0.0767916792392531
0.06239414526572463 0.2832385171560533 0.1917298413846509 0.10352256008217167
0.06569891452975138 0.2855932335610406 0.17959835938685162 0.10267455720254925
0.05826825096784176 0.3062584510792343 0.1770260503179789 0.07163921704606326
0.05209554062263561 0.32997285093940504 0.16211066633512777 0.07297234297476402
0.055094275065080266 0.3164768370459308 0.17321194921399202 0.07403450985013497
0.055103137080120816 0.2960328523593218 0.2022452705515247 0.07550420141030285
0.048885107874915554 0.32040947727113367 0.19372685235395087 0.07223673305576786
0.0472042587305282 0.3083519976786188 0.22526567087121324 0.0793262683205381
0.04223981201824813 0.3208299774843013 0.24910998595762424 0.12503628849560688
0.062445633239769635 0.30888350678440557 0.1621841322630932 0.06544872080246453
0.07268679360145391 0.26728861210725446 0.18413179534832638 0.181625438789778
0.07112224069981872 0.28724227921918566 0.16749098835860302 0.07464132284496276
0.06497229945234352 0.29831858106383485 0.16789482469547234 0.08231874222216685
0.07487619563951214 0.27489349236257277 0.17270431841239697 0.12979526347942524
0.0645353502851783 0.32264557863160553 0.1318562406368103 0.06785961096852998
0.05986596112650909 0.33520726450457916 0.1254984457064479 0.07432535415353668
0.08027418890880271 0.2782030122763566 0.15680981585778786 0.11873235097120388
0.08040456321519923 0.304554726426692 0.1218971364617536 0.07067095047747603
0.07100307735241548 0.3307428886168979 0.10315271760001263 0.07769356113231904
0.09783317704145066 0.27398063229370984 0.13585765347515197 0.10784184080558819
0.07292373791384349 0.3361967198698633 0.09108662089233946 0.06564235424943457
0.0781373005350822 0.3219272799531563 0.1023867458023645 0.07096226548397813
0.08742196088673657 0.30377830198534306 0.11127767179799274 0.07713390305759109
0.09548023117117735 0.2827040014230729 0.12722622499731875 0.08589418465593832
0.06252283003126052 0.3389783707687867 0.11133593308366048 0.07967831987566938
0.06592641384193673 0.32779348431448474 0.1199324043300978 0.07607905252099031
0.07238923763103963 0.3117032185987244 0.1277069673288236 0.06737626475328523
0.09483530921763483 0.32417978766203875 0.07326150670535446 0.06966157805459555
0.08663898614940546 0.33804519300807756 0.06454727007131218 0.08679612118645663
0.11853540421047584 0.33315509253862896 0.037955806785206055 0.06814457544193964
0.11713036328959259 0.32100205494864403 0.05573332755912513 0.0652719349415044
0.12488477208471294 0.3049628190044634 0.07121734038638369 0.07227470737859858
0.14333142607855975 0.2722134742967268 0.104687713958483 0.08963655627789609
0.09933202387741609 0.33696510590592 0.050168886836783 0.06984615668333008
0.10250899320132206 0.32752451266615523 0.05992219111468869 0.06676559076409903
0.10946488515175501 0.3127946740848544 0.0729655529930589 0.06715644183791214
0.11803385540464342 0.2917364701296163 0.09310878800520425 0.07496296946694832
0.0838754538356089 0.3250065416521847 0.08790091284606498 0.0683751018052709
0.10741492179691142 0.2700745642306691 0.12980308775885144 0.11578455735633374
0.13099245943840854 0.32805336388913214 0.03768383657877233 0.06319368010736917
0.13129888457592379 0.3361186143367205 0.026694964236297858 0.05961918052195937
0.13843104221100114 0.2865999176246602 0.08780101970898545 0.06830588035443731
0.12638139404307275 0.32210204263760583 0.048200311492440695 0.06127489714735623
0.12775261099608118 0.313524129631829 0.0584733662556175 0.07053875325227614
0.13428920914941386 0.29570425852562005 0.0781269501766134 0.07039260331176957
0.137456454664113 0.3038348612024872 0.06634532541725482 0.07702145420386153
0.2649840087027588 0.2865307573540722 0.34993155338052767 0.26823485062483815
0.2626274666455457 0.2770915043659955 0.3573212966106256 0.21168047498098244
0.26330478541585994 0.30458708596311035 0.36738101414307794 0.14611938491180884
0.25940193146545354 0.28719587327579427 0.3760347513704425 0.1426246598540488
0.2669943863476827 0.3362768747280058 0.3659904735184315 0.10534231170443785
0.2642220119044215 0.31755028606999924 0.3692968017391172 0.14003817440294414
0.25500718456149596 0.28806068921614664 0.3919114113204628 0.1869690643644626
0.2539165546632467 0.31885566594668857 0.40540685862343384 0.13136174266429593
0.2576066793364326 0.3358524044472635 0.3999195223968449 0.13669893918408538
0.25100890857437286 0.28791162489054106 0.4040271063366859 0.11064951817616246
0.25117236524485165 0.2991182063961487 0.4071810826708694 0.13351604789127913
0.24541144927633163 0.3234751494169717 0.4285993057825592 0.1281607909445611
0.2526534356754564 0.3290482544649477 0.41221760942172914 0.12524223576039775
0.24587368829244838 0.27687366862052576 0.41453094143823954 0.057892735916099794
0.2464630778118993 0.2903069503678819 0.41697489547274796 0.16466246864524264
0.24578992848192796 0.3009583215937802 0.421688956914931 0.10600703609523893
0.248585696364256 0.31537523604886686 0.4186745049427202 0.1407475415915812
0.24888519071072676 0.3395387303114968 0.4246888271532228 0.15372752464851058
0.2610813268824062 0.3098515541173361 0.3787604762386652 0.13462389250279147
0.26384176387113045 0.3366042108455216 0.37916478944446796 0.12266444139751036
0.2568330129237466 0.3019799993561899 0.3908013380194537 0.15695309057429455
0.26034382216343943 0.32575205236362514 0.38741131130272294 0.14089353451458134
0.22935592775609098 0.3185537581877811 0.4582644319954863 0.18698828450588278
0.22824813976798558 0.2946003363042342 0.4550841066177022 0.04711059522697963
0.219560796197466 0.3099376294026968 0.47100200482411825 0.0940439393496315
0.21695548920583158 0.28189384860599015 0.46941096036917673 0.06252906287456537
0.2220638175519808 0.2990841061502009 0.46549683437035866 0.05987273231238348
0.2244036624579262 0.3249321625946171 0.4668690896375385 0.1567033599926793
0.1972675330854011 0.29992851861873937 0.4945426212677974 0.05966462023153767
0.204646140713811 0.30696679959460194 0.4883104361362668 0.08170471553182222
0.20585802616609777 0.3218317014715638 0.4893121848402594 0.13444953604292845
0.17235091678068631 0.30438735424006513 0.510347874436461 0.0733940227770524
0.17575652434246974 0.3302211642413226 0.5119532696581758 0.1590586125394029
0.16785538350346893 0.32010799441853116 0.5138954310571782 0.159426777179027
0.18050637217732182 0.34066335641958595 0.5112819142776557 0.15852086033971827
0.17620697372631253 0.2854832735255145 0.5066639460079556 0.03016563442556923
0.18119808287519373 0.3152447373027712 0.5081068025997891 0.12380824477557589
0.1879050992581371 0.32682267913697094 0.5053363682444892 0.126216199051831
0.19597091408172218 0.3212453500238968 0.4987118486153171 0.1482464518646586
0.19162052963272097 0.2883585267350904 0.4975733296783045 0.05098026377002621
