x y z curv
0.2649509224298301 0.18010312635498615 0.46405680963645374 0.1058765257928058
0.20785927953523842 0.23179592896571088 0.5066691021949745 0.06245793932023071
0.2519747076844822 0.1792481231762851 0.4633519928593359 0.02415171143791739
0.26513619379342573 0.1667700236248699 0.4530658327836318 0.10966158893180404
0.24680032623208714 0.2003661213392564 0.48076034901956166 0.017093305696864906
0.2568660398401501 0.194056966802537 0.475559480492611 0.03463590575359036
0.2623244932529542 0.20784299599274272 0.4869238240465373 0.1062030195374963
0.05676719586959019 0.12994980847845472 0.4227135471610419 0.042320575776651485
0.08233489409450709 0.12597517724476587 0.419437145797982 2.142311235435867e-13
0.09230532333473704 0.1325580001144715 0.4248635730222722 1.2672087888511647e-13
0.1422322658713457 0.13147344250247664 0.4239695573615801 1.5161521014677196e-13
0.1809535073085613 0.13766369602179776 0.42907238827610983 4.588606785301211e-14
0.06821543871025801 0.12996723340268918 0.4227279153188554 1.957167229154971e-13
0.12924275025357718 0.1347374176794428 0.4266601477389018 9.220165827042232e-14
0.07832790544125688 0.13616175246763218 0.4278342518173119 2.086198931376764e-13
0.10780388949532879 0.1267558418256956 0.4200806811109434 1.9122551756606601e-13
0.2180623917897799 0.13735990989522653 0.42882198181807196 5.742488014075509e-14
0.048510777647996786 0.11951417587418665 0.4141111309165038 0.09426620605216876
0.16366803273309116 0.13408335797368265 0.42612099899001743 9.635315511667192e-14
0.20349023660352866 0.1368053028671918 0.4283647967556392 6.612870508918187e-14
0.1492471538896874 0.13922200570962798 0.430356939129814 1.428146106044177e-13
0.038593455264791764 0.12906729699003597 0.4219860590196347 0.21846458985086675
0.08880307733494364 0.10108821590179698 0.398921929453027 3.217255564280969e-14
0.18849146527860852 0.10732871653868356 0.4040661823049838 3.693495757056797e-14
0.24915983774762157 0.13170675433212298 0.42416188181822484 0.026222320905000884
0.10049231410545237 0.09014641481485988 0.3899021982553651 -2.3086751935257186e-14
0.1069269315352736 0.07905105500145858 0.3807558840711606 -1.9518941337957084e-14
0.08031774415974016 0.05887218284425528 0.3641217038758077 0.09361712741417458
0.11491597243671746 0.11186264259506451 0.4078036797691944 1.7553028633789315e-13
0.1607038944578034 0.12400963373062107 0.4178168812199806 1.4570601958210524e-13
0.13651393341163026 0.08239429968627113 0.3835118372445526 4.800647585737329e-15
0.15157121550590266 0.08836296829067211 0.388432026914161 4.269434094664581e-14
0.049875888470317695 0.10267130803211517 0.400226938727365 0.1347729037797673
0.09827419441097571 0.0665203712358571 0.37042638280897827 0.023836715738698014
0.14949519893690288 0.11533371566178541 0.41066500551624596 1.643310397890288e-13
0.22756591563440343 0.13036137339244236 0.4230528394507456 -4.4267368125900355e-14
0.17376585868409122 0.12237632946617227 0.41647048572459905 1.479664769606448e-13
0.1297203811469707 0.11637375872107297 0.41152235542329696 2.3835667887257347e-13
0.11406619535502045 0.08996238477347039 0.3897504926504683 -1.2845535324807027e-14
0.07002326329099828 0.06708209863620258 0.370889441339398 0.13207916517808457
0.1231120956944034 0.08463567829336494 0.38535949083779325 2.0391553071394746e-14
0.05718769138648903 0.1109358835699336 0.40703973049360204 0.03795004316027799
0.07899750072353781 0.08873163966082757 0.3887359516659198 0.01920738206894404
0.1311846084632106 0.12562971752903412 0.41915238209016115 2.0216184587529662e-13
0.07438037595789057 0.11488227029886465 0.41029287844680173 2.884728370120676e-13
0.08606337608235554 0.06735449150057404 0.3711139813849428 0.03448162789957275
0.20078121452820244 0.11895100076079831 0.41364685567073795 1.5314734083323272e-14
0.1764106543042796 0.11057963020618428 0.40674603246606145 5.442474131724629e-14
0.13441272818714745 0.09629184294645132 0.39496809329761573 9.838096464025763e-15
0.03743324460631138 0.1159096644563262 0.4111398050416903 0.2241894725906362
0.1848681806877731 0.1273155908666428 0.42054209804689985 1.2111917057041184e-13
0.11952625989620075 0.10084510613654923 0.3987215186231846 2.235265918684337e-14
0.1744891851869444 0.09978773216708489 0.3978498747462458 4.188636854366717e-14
0.14750264404634317 0.09732776907811733 0.3958220424989898 1.8134867635233925e-14
0.07681134051580417 0.07561713439753324 0.3779251835176628 0.03361329832633319
0.21033129873387768 0.12693066382552662 0.4202247831408632 -1.563970246818935e-14
0.15783654848123785 0.10174985750625727 0.39946733029844705 1.829869509003604e-15
0.10252782290346292 0.11472463097148104 0.41016292458604386 2.5612318388320825e-13
0.08564315822021769 0.1134797987466857 0.4091367672202618 1.4839857816586384e-13
0.06451646730392069 0.09015854968567487 0.38991220910615404 0.03299117293304033
0.07735216366608098 0.09736678415185374 0.39585421893761896 0.0007065491443122547
0.10411180205004876 0.09923114989284905 0.39739107845244037 7.25088153564122e-15
0.18175356674603635 0.06585360246000618 0.3698767526319603 1.2831373677421436e-14
0.20326731106799412 0.07017262375165309 0.3734370807631311 6.0496215739160225e-12
0.15665595184740444 0.07221308818938371 0.37511910008583466 4.036660215609556e-15
0.16814383842431282 0.06636403592603678 0.37029751870659267 1.484142724654334e-14
0.25368582452940497 0.11405248530738546 0.40960883349932464 0.05985417593676179
0.2522144730610893 0.08285843412602406 0.38389445826501506 0.11912225705822908
0.15589627624582908 0.06212951514068231 0.36680684909862943 -4.2767338696254353e-16
0.21214595584012405 0.09303671674899594 0.39228477414625307 2.6397394554433437e-14
0.2001361829471031 0.09452565630614485 0.3935121581775311 4.022724931792275e-14
0.17912240213443195 0.0898175013823221 0.3896310533327318 -1.6190075578077086e-14
0.2658503471958249 0.13335891264934735 0.42552381612219775 0.14565515925801042
0.2387750628750608 0.09892440393644755 0.3971382107780487 0.0044397391611966375
0.25042758984332986 0.10416300863756903 0.40145658265188444 0.03336350071696576
0.2013900000798523 0.08426273552212948 0.38505206479597764 6.375800444392705e-14
0.19089295553724658 0.07410663937319945 0.37668002860311717 2.196305085335345e-14
0.2169769726269552 0.10470182258086223 0.401900740076274 4.004705049211564e-14
0.13977521521846742 0.07156583441258374 0.3745855424440693 3.663422662546098e-14
0.2459745085019036 0.09102330456119807 0.3906250525824462 0.03646018512537582
0.2135352105970818 0.07528313158561556 0.37764985753812336 0.00047525654411823866
0.23348928446015102 0.11897790843488827 0.41366903263997534 9.223222386275098e-15
0.22776738653204773 0.0871449230815933 0.3874279602648713 0.008895311881888168
0.23517183135229827 0.07730734575579988 0.37931849389364686 0.03575637886170192
0.14784748631347233 0.07933500065996875 0.3809899462757817 -6.314189245407916e-15
0.1654569617414615 0.08950186768985084 0.3893708626167164 -3.5673418776834535e-14
0.21869503825835918 0.11325494197205851 0.4089513834123438 5.542481078806656e-14
0.09281282375263286 0.058832971314098835 0.36408937806411884 0.048526002625844236
0.11918053810904988 0.06315424498055083 0.36765156381265174 1.0001821946368134e-11
0.24260414564244734 0.11267344343491303 0.4084720377695471 0.013068104919433011
0.223764390020392 0.0959878319144426 0.3947174863635686 1.6163760257095353e-14
0.22967807771982135 0.10772031542454044 0.40438899433146314 9.37121633701665e-15
0.20538554361876654 0.10902113556353828 0.4054613024930384 6.639024903314397e-14
0.16622240667075958 0.07794108769765211 0.37984089725963155 4.436119235214086e-14
0.18323564012696397 0.08040710656608496 0.38187372820927146 3.7417993253851844e-14
0.2593706044265537 0.09669299310633767 0.3952987826516571 0.17948186782467843
0.2673913263640533 0.11579279793931636 0.41104343815942906 0.20303028000788625
0.058259584625522776 0.1903729199751704 0.47252253991185983 0.03039118096741288
0.04593911418239961 0.17178786632609117 0.4572021786639772 0.07704143388125233
0.057448419006958684 0.1792491678783041 0.46335280087849234 0.015611745292139942
0.07449783159550132 0.2083969186716568 0.48738039565554375 0.006497958801012673
0.14311333417238045 0.058953779603960296 0.36418897407180956 -1.7356561922074627e-14
0.22625542302773125 0.06650431152262158 0.37041316396079293 0.03577990581115658
0.15823408739722244 0.04632561305130785 0.3537791277685056 0.034044199298714384
0.1060134105486174 0.05450662167087692 0.3605230154282627 0.041834192083394034
0.21637573256577114 0.05414358654446599 0.36022377437633635 0.036034302428260404
0.19485092606845383 0.06343191323964698 0.36788046998419527 0.004613111212274083
0.1784868304196445 0.056375020298220335 0.36206321753915893 0.00037742565099339827
0.19697050372456487 0.04571909110694439 0.35327915768630663 0.038926508902858314
0.18432652003490663 0.047956012075026956 0.3551231291394385 0.033851372166497695
0.16527915199690052 0.03624468448905771 0.3454690573974346 0.04155625556584255
0.13832315990943156 0.046480955360226756 0.3539071779872117 0.043303115431880194
0.09165988413283824 0.04736255325753581 0.3546339008701994 0.08979354272897555
0.14462569540518508 0.030282804230747248 0.3405544605883082 0.09733616559875552
0.1571681872088066 0.02772778869871557 0.33844827204477773 0.10205376343459244
0.12643315745688133 0.04729958510119849 0.35458200139170426 0.039460891507005616
0.11362376728901961 0.04192683486728398 0.35015304733508157 0.05014466694443712
0.2062004672778787 0.039219492341936106 0.3479213072904097 0.11417751449148154
0.17439192218918587 0.04290787767432577 0.3509617692152021 0.042772889798662575
0.13360082395475179 0.03657911623015747 0.34574473473749273 0.050834223559281244
0.09834162683054533 0.228788713946353 0.5298286577974984 0.044187276594654074
0.08764367062160852 0.2307836700572389 0.5224019531423234 0.035969666761965974
0.08765284818641751 0.22398989589512142 0.5343231181288721 0.05140900722070031
0.03324559646070346 0.18189376008310756 0.4656344524426599 0.20758396373270316
0.027089845419452585 0.1649337072961294 0.491317396817477 0.10156986804469773
0.019253934857499294 0.1725427609394076 0.5003926761111945 0.1335591867294367
0.022115518171967618 0.145437601810009 0.47598762751623425 0.0954086358906311
0.025033361601568518 0.13590931987119662 0.46740739564808864 0.12558926926467517
0.025003498147585925 0.12228796208771173 0.45514101328004997 0.16314458883634814
0.021736369535403387 0.10256088226867377 0.4373850053476826 0.1313255318805295
0.02179547403493876 0.09199984728531992 0.4278734034236189 0.09578246452918375
0.03193908875677707 0.17080690124313672 0.4642197598521237 0.2127634765811911
0.028768081244017044 0.1763659586737603 0.4942175664864222 0.15560209360414406
0.030927662918306315 0.15575257709315027 0.4587594268362021 0.19667949453551875
0.03328850820215355 0.15748804009810616 0.445464379009142 0.2237523950450181
0.03147828773788857 0.14663516866251647 0.4485432525573516 0.2360647268610653
0.012504996721246189 0.20409144002482746 0.5080304818276096 0.1279973977736523
0.018792373586951454 0.10769242685200994 0.4166393396755115 0.1541198677708945
0.015794416503091057 0.13381139850593915 0.39132495873272966 0.0296377321280297
0.016928025683254206 0.12383600086831305 0.4011636175022011 0.07995503406140628
0.01321548974074911 0.1719085071191853 0.4895670148833746 0.11303319298798366
0.01036940633396174 0.2179805894181974 0.5065573992290459 0.0961075315856246
0.01250658787318139 0.18565094520807623 0.49565018950957773 0.1197805953222195
0.01039308228541675 0.2058528332739399 0.49584215181115787 0.11869183249892624
0.007087255747796294 0.2422698919962383 0.49986177318559827 0.003282393421252415
0.008521061838755362 0.2461517716569622 0.5110748020289628 0.00366263030775384
0.00989699886547675 0.23377457936475748 0.5123189176756605 0.03366237647906514
0.013015585382326295 0.2229074918872018 0.5174109999173888 0.08639810073400986
0.014694118358935032 0.23270102409632507 0.5242768920066707 0.03176505456332078
0.021374458491411723 0.09666939523702531 0.40840791024375767 0.17347215514882205
0.02320001602126549 0.08543011586713643 0.41590178941618816 0.14348651660678685
0.035001663597941976 0.1992700333656867 0.48251130616610677 0.2366536090326064
0.03241916093464266 0.19140326241276184 0.4920702019966481 0.2377656959562965
0.029590277793655702 0.18300850696876533 0.5056549757436549 0.15982516867086716
0.03476076313400673 0.1979412506761955 0.5124786657476728 0.12862684470847321
0.2692058338675252 0.21026837937155185 0.5076508212627342 0.14689987158908124
0.2616764041554719 0.2236910381751161 0.5013545551171295 0.09775204273749329
0.2589590663114115 0.22071699238468362 0.5131768801631169 0.0779840416465107
0.24952365395297768 0.2295307782972582 0.5081176259723559 0.04442115464009348
0.24268240683515627 0.22443968857121477 0.5006052952328115 0.04991885132204245
0.23133189869077417 0.22692546181046844 0.5248586822629572 0.03585986953885202
0.23469523202923132 0.2330084849762536 0.5122831234846921 0.05569531017028981
0.2188716306231882 0.2261595368883547 0.5314778981852818 0.03335667598512236
0.2756437559360001 0.1900134588366141 0.4731482647969341 0.2379851784664146
0.27469693459443667 0.19855179458004607 0.48618611121732686 0.22836550781563386
0.27770832532008194 0.18611549626671486 0.48577469854098504 0.22912485836261223
0.1951097647920213 0.23081341309868408 0.5314708794155709 0.03937259570854825
0.1823087137028722 0.23468771254182558 0.5274841382014093 0.032019007358542274
0.17867381114027464 0.24066523454388974 0.5176617384375679 0.10926132323260979
0.15533970328276042 0.23861465026187434 0.5232250308245541 0.1622806926047672
0.16250959026196 0.23215434715356473 0.5341824519588798 0.10012402866032451
0.1690015855745522 0.2376047191954131 0.5243752656734936 0.09395593879656883
0.22485238043756478 0.04746642498657735 0.3547200360347253 0.1301701512421617
0.25028184915040297 0.06745631594229753 0.37120188742973526 0.20299423900217287
0.18826554323685682 0.031203727761015706 0.3413159822276107 0.11305198806108532
0.10022872991235712 0.04083158892220183 0.3492498465248218 0.11719663669791604
0.11662659070867334 0.033166915095598284 0.3429312977809044 0.15039700755105415
0.13540492384641892 0.01798129285233117 0.34803712861505715 0.11775247168770601
0.12776163182111774 0.012493088347360282 0.35510199130203557 0.09640291117802353
0.11871869921384154 0.006486820386540911 0.3508757873045825 0.1463634395856797
0.13674631214956665 0.00346180173010396 0.3481519737292973 0.13276761185968175
0.10402692686609617 0.007465041599083396 0.3517563608629305 0.15938783205255058
0.10750584205192706 0.011569787908898429 0.3222892748035353 0.05637461792771603
0.09883313653697916 0.012233467307426648 0.3374616561037063 0.12486708860730651
0.09437069909297878 0.01355281104148073 0.3572370753025246 0.1406083279607724
0.09089481330243963 0.021725031638047343 0.3645971706454137 0.06757142749536642
0.06575303138922851 0.03099062324587837 0.3524113880290842 0.13212666396653677
0.05855574547478891 0.03633850973985977 0.3777536717641139 0.14463582273646214
0.11974915536398315 0.022894711260990266 0.3488377825006319 0.11199573460684892
0.12899538285041914 0.026430658395479353 0.3422634046965038 0.13548299983906947
0.10802516115511188 0.025094424477956234 0.35279215569704214 0.10749375119782409
0.15880095941583455 0.001286230921054282 0.33760045030092184 0.12569315682423718
0.14174427085190838 0.0023277977696124245 0.3325163121977458 0.11141112328756939
0.10316297911730431 0.017801840132655365 0.3037193624518271 0.0028871545751752736
0.1005169946601481 0.022765298586936898 0.29131538594309786 0.003747711751010417
0.08528893946112544 0.024566959778260136 0.31618449610054955 0.04470084444511823
0.08503670726312144 0.02806418848174494 0.30517766171010663 0.0018320468067636528
0.11350401354391085 0.012314693138941422 0.30988816871583574 0.05098589435634537
0.07426750486982357 0.031343213502521866 0.3231702584269513 0.07350438206736847
0.07243225809021972 0.037211646971704905 0.3073565400149778 0.003374641069752692
0.0732026781109693 0.02709716368576675 0.342140550550363 0.10013762921647912
0.07031824338070981 0.04308980903471079 0.2951840827450868 0.003145122669919302
0.07074148425543872 0.046446239307987344 0.28374762377105744 0.0028396175971296374
0.0806018133372051 0.045179653943722614 0.2624109730828549 0.002113714200858488
0.08183709199332967 0.04042974966406147 0.27291756337336953 0.0023864311097083887
0.0827870031392321 0.04810910606755098 0.2508166912804503 0.001721894388564253
0.08621466529075608 0.05038979109052497 0.23946366947284264 0.002456214659195041
0.09227448999941251 0.05559346500867507 0.2198532539633254 0.0028511791316374246
0.08933040792491273 0.06784598058483271 0.20074579571224266 0.003130929651313716
0.08500232040032267 0.07802711967217944 0.18983717373010633 0.0023318090891468273
0.07816133410596841 0.0719278570154185 0.21010188783001163 0.002024425144851182
0.10059615252035442 0.04481844659561571 0.23092591585989777 0.0030586719614959304
0.11044264546899504 0.03521264018804342 0.24196559772572843 0.0029024599517538186
0.12146504467076354 0.034660183456960585 0.23416784744830005 0.002574576515525153
0.09812591122170708 0.06869322938516906 0.18950628879379883 0.002016535327083523
0.11109158528066033 0.06450832742427251 0.18532205253129308 0.002239900512589589
0.11389059456406354 0.05710651604746952 0.19536590563689152 0.002719441845241614
0.11945428261943768 0.04885824117775216 0.20660994283923295 0.0030499296468584664
0.1257436545360061 0.053822093768543036 0.19489855363000744 0.002880326930506384
0.13866439797690722 0.048990688779831294 0.19845668652507928 0.0032655815316534735
0.15084602167640113 0.04689837383294159 0.1995490959126187 0.002383680067899595
0.15689409112186692 0.038864199407902617 0.2155914516430663 0.0020343217455941194
0.16404389917089435 0.05124312967766164 0.19266761776493624 0.0022235786704158543
0.15241952726363794 0.05741553244328531 0.1821071371108267 0.00236723746894167
0.16432412913865208 0.06687539718751259 0.1682701479746258 0.0016318881765802098
0.1665497830203998 0.0603124783316074 0.1783705893523727 0.002049897940473173
0.18327896590240683 0.060267718378874076 0.18402310308687075 0.0024607940997344382
0.19439003496905422 0.07578738109530435 0.16561937387795284 0.003159861537263301
0.1893823886172304 0.06704344168909152 0.17607999521298223 0.0036258376596034004
0.183415961768637 0.07244774544701468 0.16534236350692277 0.0027655892611664276
0.1433879816013641 0.06294735398141521 0.17421949883682555 0.001463298259265739
0.1448903872200302 0.06967192630997981 0.16444767125406812 0.0030923048836906304
0.14943851987686899 0.0859232370587951 0.14237460040990446 0.002415641393149019
0.15908097614590652 0.07920897895969738 0.15096277243169037 0.0025188385580779903
0.15611770001500733 0.0713636017422913 0.1610137750364988 0.0030763818695991813
0.17024953634777537 0.08253683454724187 0.14829774503273974 0.0028612456267035967
0.14712275563170474 0.10498492489281541 0.12089794225498789 0.0028459970396484107
0.16309438401100787 0.11267406189830922 0.11292285493705546 0.002710896963006138
0.15272946155745887 0.11755562737207845 0.10774690979571348 0.002851865286199487
0.1796539764154359 0.10911248476617989 0.11950274629660011 0.0021825190827392095
0.17832740689121077 0.11889683226164366 0.10937424507298613 0.0022185421583450736
0.1353579737139874 0.08816004739553046 0.14189269926051248 0.0031788785161542214
0.13893811080112894 0.07946723677359188 0.15148136744809054 0.0016774642551858944
0.12462606474395285 0.09865282873166396 0.1324732757237315 0.002504413990901984
0.12261275259238638 0.07848082315550282 0.15813825800978443 0.003241145731774586
0.12092651676952759 0.06674747308239666 0.17567019821022134 0.0030547814997515794
0.10618067897725922 0.1086811893348992 0.13066782911347435 0.0027858645864706735
0.10204940803859835 0.10070037455203222 0.14242930236569626 0.003409699781999689
0.09802669857256112 0.09295988800779877 0.1551277677795355 0.0040584044095215155
0.08395473097002916 0.10706339400148909 0.15193696096292175 0.002493234170339382
0.08622344422525194 0.11440405721871583 0.14076593393539444 0.002777451909783496
0.1176252417894468 0.11002512013541961 0.12325433781982957 0.003370699828023527
0.10983831992639267 0.11752111031540215 0.11903956803531181 0.004368200967354615
0.10432031352171516 0.12671224951274462 0.1134196863061055 0.002922130340368229
0.09811029635519554 0.11843913227390031 0.12638194207237177 0.0025756076588994313
0.08842892544458604 0.12634477465810856 0.1260236349166521 0.002649599658078408
0.0798563182033419 0.14378087602601036 0.11792297345482963 0.0019707025282342046
0.07726192480353636 0.13526488802083703 0.12923082632395477 0.002837296073611944
0.10094742321377782 0.08447096256728062 0.1637047106878214 0.002956600547829292
0.1330822082946194 0.06780357649894109 0.169378654920526 0.002188522654992405
0.12544814537045465 0.039922976671610266 0.22033722986045048 0.002130976813911207
0.13856574319099668 0.03608659103873897 0.22289990233909257 0.003800147955991979
0.13902209275199223 0.041494554764166726 0.21194284888665738 0.0027480538688565135
0.06683385312037761 0.05931111279534139 0.2600093037151034 0.0013868046012653797
0.1329017474852211 0.028437244748200877 0.24224172788891024 0.0027933171457175574
0.14799938296433596 0.023046740328052456 0.25119343285407014 0.002084447051543393
0.13904105544928025 0.01550134786128529 0.27501875412253496 0.0019829640101313613
0.12697755010933434 0.016667500227021705 0.2787593794093511 0.0024254200290665788
0.1561929123259709 0.014681895579477485 0.2756977592898211 0.0019383718884555744
0.15542468849442825 0.018483295709538272 0.26370691625371445 0.002000875975454623
0.167916047306086 0.013464542299977334 0.2811254442107504 0.0019890964119464393
0.1843505670017972 0.019893715625275126 0.27038060136584446 0.0027626861469057153
0.13878070223946443 0.011937414709527472 0.28779522523154294 0.003159207828610062
0.1323801428206163 0.009728029030924465 0.3007106063695001 0.0029291245324990535
0.12509336533057708 0.008685573389303952 0.31090629185233154 0.02814042017601847
0.12473208435481153 0.01314691160546203 0.29301495200102934 0.002991363125640069
0.14680856723848498 0.006449357785071698 0.3086189797761663 0.05567233561894983
0.1615449047778079 0.0037115702295378054 0.32248700620123877 0.07651705089702046
0.16888675008118736 0.005803086672317586 0.31350631924836636 0.05196963405407345
0.14343974293396639 0.00443665088232394 0.31979473614742265 0.06788700310659543
0.08994598331826234 0.014979857755740171 0.34538608484055755 0.14308262260305618
0.0947651931142325 0.017488988620350643 0.3226991307365104 0.08602964311213346
0.14716426349567005 0.00040664501754939826 0.3440549725965554 0.12075515434537354
0.07529195999004173 0.021337600105261204 0.3583089948388015 0.14201640293485004
0.0659300281874103 0.02676238794571151 0.3653991797941831 0.15485893874264872
0.07817423335374271 0.04980658518312678 0.3569381140346559 0.1632003132066559
0.05002173905759902 0.07859754287536329 0.38157399667980285 0.22058641624070247
0.06754890267885597 0.05125447712098927 0.36906718943321704 0.1499364687186701
0.05949080145890381 0.05732468634753684 0.37703316771794027 0.1688980682660602
0.04490064662234406 0.08751063607138962 0.3894997929779781 0.1975173523404248
0.038089539554898716 0.0842024035244487 0.4099356780019377 0.13160130441210455
0.13684427742547467 0.23502092176877531 0.5283083293673618 0.15534702557674174
0.26918249826756474 0.21402819360781947 0.494003706275284 0.15747818716028456
0.2532561546828469 0.21887963930386917 0.5241607820248023 0.05906794772383417
0.17015423094876797 0.28876658713557923 0.5311212250297376 0.17520298769585718
0.017698607782886788 0.21717246219916758 0.526400986581903 0.07029758615268944
0.010677415363084357 0.18633833581532308 0.47502224404650684 0.14905367337447045
0.011842804816299343 0.17168530842499508 0.4722511722458279 0.14222142416804362
0.013788174413106863 0.1559066981543473 0.4783667417704193 0.11064310882400999
0.014045882913174223 0.1429785775900245 0.4657675926091698 0.09311214921687083
0.009708289592802226 0.18727520697685573 0.45676409896124653 0.09293647369288054
0.012855498873189151 0.15205300203019242 0.45657229367681584 0.13052214080830216
0.01111777060375651 0.17066294002565252 0.45481825371589724 0.09792531778990034
0.008118687216252255 0.21040577049648343 0.4687145604644273 0.0767610399403454
0.0134260937903116 0.14426654846342807 0.44781477128628916 0.13668735465131635
0.011109337340578227 0.16541133007439368 0.4218892577800959 0.045743166489971135
0.011315121508564362 0.16391965206829912 0.43713036919966125 0.09830049181408074
0.010324457758465262 0.17399195652398425 0.43133746207031826 0.04143918139333423
0.007858248370016332 0.2097727466797126 0.45738231184373546 0.044803131529164084
0.007263080191814718 0.2124026607215086 0.4347120440720484 9.44283598303182e-06
0.006802868161159659 0.22409922432478308 0.45994389288929094 3.072824717633124e-05
0.008294287840411151 0.19953495067650062 0.43721251270864003 1.0712966771263102e-05
0.006986679501526996 0.21823992226711317 0.4446105488187836 2.9039869896412344e-05
0.008579466760726056 0.19890639966530493 0.45087009980535625 0.036736206303422454
0.013342743811768296 0.1526864864484493 0.3832876148508211 0.00016115610873340956
0.013922630114984706 0.15218334492891664 0.37076499069033675 0.0002502905753866121
0.012233567259713331 0.16592889903391994 0.36947974877279366 0.00011307235642253948
0.014393370865587311 0.1360516851365351 0.41949234943826674 0.08781343513451353
0.013340465655552372 0.14662140049846084 0.40718880877478536 0.05997022763295694
0.01547251226659492 0.12612193623790385 0.42738653300129176 0.10669366565026309
0.03292932638071744 0.2240789922159137 0.5459399858576571 0.052841993708762205
0.02826009968404787 0.25603080768200975 0.5447533606021489 0.007024966698914804
0.03002197526321294 0.24176141592960126 0.5450086511197825 0.030299277160809348
0.013183148937242314 0.14418661317435194 0.43008821852975526 0.12491044407901442
0.012265887784009381 0.15445646922982972 0.4175812943783733 0.07896638423531105
0.01091390907411013 0.16814747337806102 0.40944822527681546 9.298523567724839e-05
0.012466547656112239 0.1554938706453955 0.39692267224428235 0.00018083287950905754
0.01953268645116804 0.2437273310198799 0.533680375724347 0.011653199990743547
0.007040820855810065 0.21228327405206016 0.4178810804511199 1.9983935273610483e-05
0.009120252210338683 0.18836737155815966 0.43394895220600344 1.8080851560174266e-05
0.008294056084200366 0.19774344960718826 0.4256578209273804 1.2523211536038601e-05
0.005770314294017602 0.22743325786580604 0.40853237734413694 2.1703618533380542e-05
0.007904467896224364 0.2019094269077516 0.4008764722451421 2.6122712387268836e-05
0.006949101811000289 0.21404677844988373 0.38737466910819973 1.7402398585214964e-05
0.00942198486916575 0.18317170944083458 0.40943994501394526 2.6669981977775195e-05
0.00835222324154284 0.19939748146411973 0.38297507958316734 5.323982747765424e-05
0.008579344520448794 0.19988052993654004 0.3688778494354797 5.6122533031052486e-05
0.005541760061449973 0.24224030858506745 0.3543250647698976 2.5535474883845455e-05
0.006133492493947998 0.2246619029133821 0.39305871857701813 1.937107349385205e-05
0.006098739587352164 0.2279449621964357 0.37986398716958214 9.459644467646779e-06
0.030452365623500385 0.2763143379704794 0.547823929850956 0.007004888791817398
0.030886456480982975 0.2882472667768879 0.5488434815435156 0.007616232904014987
0.012122127152331987 0.24858956055039902 0.5226850370421146 0.011112358197636556
0.015339106601102501 0.2627322874013175 0.5309601281583847 0.011081058511980409
0.010544955297625858 0.2814343029330997 0.5259418610514579 0.00914757050296808
0.007517087625692599 0.2133439274097948 0.36533245671021564 4.593325457775592e-05
0.006612194159424325 0.22585890539340492 0.3615783140446203 1.912548280647069e-05
0.1207084810549903 0.31283763933572506 0.5697552397957537 0.061060251839413264
0.13383503818846063 0.314026778134342 0.5706675129990584 0.0899756892982028
0.13254414561327724 0.28187886510381704 0.570523226301281 0.12540874860592155
0.11164601591735067 0.3292806757371946 0.5691548270893169 0.0739152053075226
0.12377046105529306 0.3235538336635081 0.5699858269839929 0.06935927701094098
0.1298572397026158 0.2996064873421285 0.5703671085935117 0.04983714047283797
0.13093074376764602 0.3347143024495438 0.5705013635657418 0.08678352760367249
0.0067169240089491895 0.23071040031005874 0.34711327803987635 3.210800325979182e-05
0.007469632615752029 0.22818436942078557 0.3349350192616054 3.2846740443313715e-05
0.007868637698090007 0.21360550066208345 0.3532742080230148 4.0302027794741316e-05
0.008479642687919902 0.21378345749473937 0.3392153131021274 3.5377144584908957e-05
0.009307013724568457 0.2693873624148218 0.5210991321758678 0.013100183473240948
0.006247222851962599 0.285284255558171 0.515860197105053 0.006193034947010296
0.015979651455242733 0.3018226350353214 0.536315930153709 0.014993560083908147
0.017736571680644846 0.32236204263882046 0.5397631511226507 0.07775435188068897
0.0028091671343823243 0.2830141461479646 0.4772304066150822 0.00021904011644117326
0.002895909959684682 0.2992612176197775 0.4997131106853901 0.004077890812530974
0.0021323192805478798 0.30386032916163214 0.4861863208034017 0.012713213979069769
0.0026767522877635544 0.2923513316357017 0.4855512193019502 0.0006841110409419656
0.040847516368695325 0.2969932279957011 0.5547980117038699 0.006690152843087057
0.0420771192628954 0.3349093091642751 0.5561149249278267 0.08596745887228117
0.03685676599725661 0.31445260919176526 0.5535556284985871 0.03316918707713841
0.00494522666724134 0.27155806853874725 0.5041995863743476 0.005747023247949373
0.010485356492757971 0.23653764118188148 0.27982751137560297 4.940975719936477e-05
0.00893086303366672 0.25253075275456993 0.2824331334180126 2.6923918437982672e-05
0.0024567759717238524 0.2783039997775667 0.4489628884613084 2.876539661434526e-05
0.00338854936534616 0.2701285299540609 0.4700225243238625 2.9995735782440075e-05
0.004778496954224896 0.25219068729454747 0.470491910614104 7.97859271866497e-05
0.003817732845329601 0.26177456414192973 0.46172214137616346 3.0605744304245904e-05
0.005716959538595127 0.25153922522420524 0.4916706272299931 0.0015428301662540993
0.004634613306027968 0.26173396158878215 0.48460829690821833 0.0005384224972722711
0.0016736261057839256 0.2876443135013663 0.4096605783332461 2.5849425514443206e-05
0.0025637145278259547 0.27403762378390456 0.43612179550166824 2.4326924207064978e-05
0.0014153047652805599 0.29433525051048637 0.4373709736109953 2.520823839285462e-05
0.0016851749656939942 0.2885081476401843 0.42343168458657243 2.4018520574956527e-05
0.003656362467977997 0.2574069066848607 0.4346116943332422 1.7320402867601543e-05
0.0020595146014738843 0.28060508026322806 0.39989628132790184 2.2806446278198947e-05
0.0029295494370806313 0.26796518704472005 0.4204338018654944 2.467853970211716e-05
0.0026804384542826443 0.2715858635839192 0.40920240815798903 1.9633471476076255e-05
0.003840285247046731 0.2547395678701165 0.42308994118471477 2.6886621292529874e-05
0.004417073848101342 0.24636704120141042 0.41280717242241094 1.7487240323274848e-05
0.007882634280225592 0.2980129803524255 0.5229404818170611 0.015782895947043785
0.03943560243036577 0.27710965744692556 0.09608113391498738 0.0014297365787238141
0.039125310028739146 0.25779412847355276 0.10697607677057719 0.0006549841967831735
0.04070948426555428 0.24591232834212115 0.10924894667343989 0.0016927954087220716
0.045459291007873166 0.23690269690476906 0.10332734950005323 0.001725470824932991
0.045330009530470054 0.2515746367057393 0.09517083031001722 0.0012036553191057087
0.051993218961841954 0.24192878368864149 0.08784250974535804 0.002044168052157554
0.05063695708120849 0.25383105605670886 0.08502923326961631 0.002150554385594177
0.04097571849607769 0.21663978878439372 0.12652209294908923 0.0015062975118655196
0.042926931550057876 0.22420802397160938 0.11626471871434699 0.0012234826052197824
0.03592090792455259 0.21797188659480565 0.14034549914913827 0.0013556998399271113
0.03721696807943424 0.22785724903089588 0.1296834726700266 0.0009350886520711504
0.03442874031586643 0.2034882153804146 0.1556324656664333 0.0004422424988665682
0.045504826286776046 0.19471298780485358 0.13040828438159136 0.001238075380734734
0.04559833152302702 0.20392860556830955 0.12368630587215917 0.0015904897064817811
0.05109794767374286 0.20700084273192867 0.11004248214172706 0.002434552459812567
0.04258781139256812 0.18533887360329324 0.14541335809910041 0.0016881968803581417
0.05618866049916411 0.21135049299866362 0.09854877824937719 0.001491671118510409
0.06049614095692954 0.19869830920952353 0.09964651349899503 0.0018909908816312163
0.06569226571280017 0.20371706226459202 0.08956062193510206 0.0018796728254732767
0.06716920912311222 0.22004629269657075 0.07796018787143011 0.002143806482092523
0.07193944475175154 0.20819584268021624 0.07926641814298996 0.003487747323526932
0.07573680437848057 0.19313504605234844 0.08435475273829299 0.0024868538128055423
0.08855293326549078 0.19566263903375772 0.07119250035515215 0.0020744440691762654
0.07017419842533332 0.178803431587826 0.1006534021442396 0.002073757338512188
0.06247248652638355 0.1871472996408566 0.1048586919265168 0.0016430063028966015
0.060408951498659005 0.1777154542295755 0.11530432945034201 0.0018018932085633896
0.05362639908481613 0.17913402110854007 0.1257035604200398 0.0023943974050166755
0.06349011259920757 0.16677138406041353 0.11918039661738067 0.002577886183941078
0.044767040269089495 0.17388635847976594 0.149273557918831 0.0015468423866761656
0.05094409941547366 0.17165968066156037 0.13762527401635175 0.0010049311675465024
0.0536704949814254 0.15444344530665566 0.14719055728843758 0.002252171535802743
0.05458552067904982 0.13143008289322036 0.16965099497700104 0.0024098814937149734
0.049013839911984575 0.1528205395192716 0.15898722371374352 0.0017580794201446778
0.04916042580815133 0.14363697294942943 0.168178984698953 0.0020843969810284664
0.048794827908661596 0.13083464362176161 0.18401302067132524 0.0012582826443911543
0.04259654895995668 0.14856551572227977 0.18027645959373093 0.001936923857379762
0.04573521240846948 0.1279772863159732 0.19667725557886478 0.002205336007418575
0.05753045348771896 0.1160722805393693 0.1818518384324659 0.00154990481801843
0.062356259330467886 0.11781081430064488 0.17041275042823945 0.002980403845576973
0.045361131743340985 0.11929153358530392 0.20976993963776258 0.001916240648401536
0.04325931059916477 0.1109994976820676 0.22987061777851012 0.00111385934007583
0.04859389693784405 0.10045304251265612 0.22916879859884443 0.0019280493745920473
0.04103446400685107 0.16604976191324805 0.16731934027138293 0.000641833113332508
0.03373212084473577 0.17622147231883195 0.18267272135662344 0.000749053868118914
0.037492450769653705 0.1651800629238248 0.18078883443417681 0.001292263087618337
0.03899643091249136 0.11551284714002213 0.23967259070806385 0.0007716341800461684
0.06240750419564121 0.15646198700328554 0.12957572890278324 0.002403120815775684
0.037128998751414025 0.15371635468832068 0.1932998641821147 0.0009623044600028226
0.04149494353855201 0.1422494579076687 0.19154156828815896 0.0018225193088815695
0.03738926922765505 0.1454711103127105 0.20295918081884418 0.0006562988133978703
0.028457884055911216 0.1747640621296879 0.20901052445828275 0.0005086922837409519
0.0323617132730576 0.16411224622012432 0.201570032623949 0.0005171163404350886
0.031118790742360188 0.1585697034846406 0.21335800686991474 0.0005951823689534327
0.026926982899476547 0.16761220856014827 0.22432762891287317 0.0003036618842939843
0.027475158854660637 0.1578572242284732 0.2330119989966388 0.0004678747237310188
0.026462733032520877 0.15424951068249226 0.24444947654805008 0.00033163628486655836
0.021993791181543154 0.181489424799273 0.23834719725215273 0.0002248952162182788
0.02087194424534726 0.17245632495374774 0.25747533931100414 0.00021433476987986805
0.02378862563619122 0.1575324639055213 0.2576305579658864 0.0003658633484566659
0.022809806619288005 0.1704072848465173 0.2455220756677243 0.0002927300574523304
0.03804371804441243 0.18326917668331197 0.16026006580183194 0.0010987556214140425
0.02886681535279885 0.22708479736243548 0.16060166707315696 0.00047367791153150017
0.029914105363114157 0.20721449176634327 0.17079761580676214 0.0004337066890599169
0.029692170195890093 0.23704483563589676 0.1503387169991558 0.000644289317240911
0.03254678572965008 0.21797961786348918 0.15148926824713432 0.0006325535130842826
0.0328242199228847 0.23699856082919002 0.13851208839155235 0.0009095840060391242
0.03305031417302472 0.24871940421706357 0.1304321752428061 0.0007347168211663201
0.029380460662274885 0.2608050652038205 0.13674383913406368 0.0004898983266224326
0.025873273101663992 0.25982006329808977 0.1531245145040038 0.00024633001011441355
0.02580705353429337 0.2701647107770744 0.1471711241295476 0.00030225803051254867
0.02492224303179358 0.28790319282567234 0.14123030125969205 0.0003822872671799047
0.024777724682823757 0.3005341116626692 0.13431343259131828 0.010519780686398176
0.022325482596050557 0.3086766232561257 0.14290838419633886 0.027256633178023112
0.028942626911036728 0.30332171854045353 0.11489764475110295 0.016693442972109084
0.030849597045395825 0.2873377757128687 0.11664985014291569 0.0007059760314028929
0.03453759979965239 0.2573496186052163 0.11988024516519818 0.0013512291933826825
0.02273644665219185 0.26614940283595573 0.16581335685391918 0.00010710875615931206
0.025877904153237763 0.24826556711009948 0.15997524371801147 0.00035972241542373896
0.02242184384660805 0.28769172127655285 0.15498469851188987 0.0001851872487070384
0.021972040627403027 0.22666444873003566 0.19616700919712185 7.741659078140582e-05
0.023862932123050504 0.24783099656686786 0.17113678915270683 0.00018927764480661125
0.019857091515986344 0.2534692669636778 0.1907080947126642 3.6239443853486134e-05
0.02112767728803099 0.261160407211773 0.1785149225164949 9.428552454568856e-05
0.018941527956962537 0.2862654555490505 0.17727684395636478 4.5026374125833956e-05
0.01731366171148843 0.27357129268596164 0.19474765678816072 3.0218037975454813e-05
0.01595455628851502 0.2951921283767974 0.19042205022010866 4.334033339627941e-05
0.017632074610669218 0.2613185275147348 0.2004086001244941 4.206023335656005e-05
0.0154156254469218 0.2858064373693568 0.20031953162324861 5.643328870008155e-05
0.014244360909708475 0.2663914940521397 0.22119415601888653 3.421563846220423e-05
0.019325002815631803 0.23019522007863855 0.21056197149216935 7.377200241411409e-05
0.016598938420229664 0.2505069522333288 0.21494323665527007 3.497119147278563e-05
0.019119292059144026 0.24054697479335144 0.20443147502809855 7.048239461152884e-05
0.016635808781510015 0.2407184853558415 0.221854072891354 5.630247770620403e-05
0.0159603971758547 0.22069335561718773 0.24251856914880185 7.287288417665309e-05
0.017360705475696923 0.22967124772803738 0.2252036271774069 8.510546474467363e-05
0.01802487458405507 0.21802110678976128 0.22954023757059988 7.240148451527956e-05
0.019917275985069312 0.20686885228776208 0.22802665425952645 0.00014531704327109214
0.023737499494539068 0.19712910750563464 0.21152598256480043 0.00023997023493026022
0.020522091979579632 0.21718748721116446 0.21278292203208277 6.838393667393751e-05
0.025766842635060606 0.20287099553150306 0.19454666825206804 0.00025311812966111283
0.027103216765805245 0.1917470932550841 0.19738815447237884 0.0003536881363189673
0.001244930980025394 0.29861338423600886 0.38694235419207984 0.0026162230602060532
0.0009743787883493895 0.3109867249919287 0.36889364833549276 0.053620359602705905
0.0014358677655086241 0.3059125746019303 0.35504957895088957 0.02761960318811807
0.0023252549493708837 0.28357387877591184 0.37494861179731115 2.0085264396782596e-05
0.00399694173970384 0.2648839280810005 0.35642547674931563 1.63434294601184e-05
0.001853170038816836 0.2860896364555179 0.3868103166061638 2.5640864176641767e-05
0.003040046301976894 0.27208391860545633 0.37542608512971554 1.6079693876117062e-05
0.001956406074651957 0.2945888187660205 0.36249383921627204 3.159782112223526e-05
0.0007749368685924964 0.3067781997470996 0.41925523331066616 0.02508469181221557
0.0008785278279517021 0.3051347121505417 0.3978820058485376 0.026389833519501468
0.012012496081041985 0.30460105865534604 0.21431062446297688 0.018446190536296023
0.01372507051281767 0.2969084856942517 0.20561588861782298 6.620374547968528e-05
0.012996201228726472 0.2884263270179451 0.21681586784188567 2.2989143837461354e-05
0.011864058587892566 0.3236639353104928 0.2033288991093404 0.09674823788279385
0.013542224564771832 0.3075113172527014 0.20030432262974646 0.02878532621544444
0.010609034261104443 0.3205121926459278 0.21530742848774767 0.05909600564275288
0.013777485583455233 0.31615083453290305 0.19292441419514844 0.06960062288462164
0.001774930099118839 0.31577603050029157 0.48844638987981687 0.06056397152605745
0.0018053294499003232 0.32677912332331105 0.4944989171406313 0.08708839502128012
0.022400490383212356 0.32688304835335036 0.13134851693846525 0.10391119523123879
0.01578527521846272 0.122342638025844 0.43857323886025645 0.11321160007171653
0.014767341238543261 0.13165598438818732 0.4473638265623941 0.14343150290310755
0.013432525801666432 0.32832410272587875 0.18704777628724273 0.09450622687728094
0.011487076029865708 0.33680104427233015 0.19663055328886636 0.10459421183196749
0.010174000046301698 0.33524834678148197 0.20893579307242374 0.10442166930759994
0.0154104463456983 0.3288485362573737 0.17243169631498623 0.08721821834175775
0.0902178734914138 0.3363817455705225 0.017106200136470462 0.0756481146473335
0.13032512743527758 0.3269980367637749 0.003942717435643502 0.05720978608007819
0.14217789365922456 0.3353213773636725 0.11964233112136408 0.14426297879815553
0.1415210601756396 0.31455532021377486 0.1199655822910349 0.13289251469947908
0.16386332652189917 0.2820971463766996 0.13453199781511052 0.13470822400363672
0.17309913356397147 0.2820972048596578 0.1513226520842193 0.08714181791989851
0.14428864560589424 0.2820972359854125 0.12083642065906317 0.09833710952878744
0.1509220435337976 0.2820974046940669 0.13242753774537958 0.1534624128843945
0.15376640008805642 0.28209722292679096 0.14459848984577367 0.1327952802960835
0.15980819969631266 0.28209705530692974 0.15750760725950108 0.12833410964933867
0.13739615019410145 0.2919432520487697 0.12327158124219484 0.10495036336849785
0.1324584370462053 0.30192774365616626 0.13002146235314316 0.09219154067895223
0.1368908282211164 0.28209720497922885 0.15793835753492913 0.07995537268495019
0.1301926921197723 0.3137554601837764 0.135333347323141 0.10712153245105203
0.130437628470099 0.2921591516326275 0.14697314885861373 0.0921997456654155
0.14212210966298344 0.2969350632240667 0.16260071041477384 0.12226629537744395
0.1514665419314771 0.2893831663802707 0.16577197725148277 0.10075418318656429
0.16509719891738844 0.29283973665023133 0.1637270905846186 0.11625535042059638
0.17286665598507034 0.298796394495542 0.1580498509064459 0.0907904834046694
0.17552987727917563 0.3103040776544934 0.15514259207405096 0.10101338120921488
0.17944301269692584 0.3056543671474192 0.13920768557048263 0.0906484735506003
0.17864883751811972 0.2874614056547319 0.13420767846897344 0.06171340266560205
0.1624670034289024 0.29946033891049373 0.11740663416974931 0.08674327762878427
0.16042861620251225 0.31410867119821084 0.11695564472206871 0.12451579418095082
0.16244463072778198 0.28641878729317105 0.11742252107571605 0.08354586686678465
0.17892945279908926 0.29223589840676323 0.5703592066116598 0.11245008078861214
0.17775043812489902 0.278382095706308 0.5703848645593834 0.09427019319547525
0.18015597140065778 0.3049086036538718 0.5703276742584538 0.07931006460455653
0.19008201623435061 0.2940334413240502 0.5696506434274722 0.05620623628025808
0.19630761343216752 0.30468312302973677 0.5691229221613563 0.03981244385826958
0.19183074599249672 0.32024567157705575 0.569580839040783 0.07019537136379882
0.20039271749894022 0.3280648163582499 0.5688320126849316 0.060906042604646236
0.18659324990283832 0.25655869988982427 0.5698399582879724 0.05191568177427812
0.22019535276994268 0.3061461752430493 0.5663526235783397 0.01546519525363212
0.21982043083377434 0.3193579746319095 0.5664802141519418 0.05595785484503854
0.21289725995024458 0.2943011071900577 0.5673710711066817 0.0002675158192180928
0.29496175902038263 0.24394889549726367 0.5262733698992257 0.009130278983982639
0.28663262175379983 0.21976254199923861 0.534674110458393 0.11358042140131877
0.3012957121241881 0.29702766889028914 0.5233872429971714 0.0076662641206647
0.3039484245625146 0.26609096936399734 0.5021278727379694 0.002724240396792047
0.3032916664357881 0.25072920779073943 0.4954452793714731 0.001810859193344213
0.3086131882965631 0.31943329147540733 0.4522289330429318 0.07674054117564806
0.3077375574898086 0.30063750517029203 0.46179653201328935 0.005633373105680228
0.3065447071539299 0.2723775968657435 0.44469238906499825 1.8086689512600413e-05
0.3073174347952541 0.2841343513460004 0.4385716715482012 2.9479988968421482e-05
0.30670902486419505 0.2781865088124092 0.45701889674254387 3.774668518554679e-05
0.3038953569544233 0.2344019560112931 0.4362043444103126 1.0380273737480427e-05
0.3041559193484674 0.24266020074919795 0.45816742872160765 2.745601808076839e-05
0.3049631179088635 0.24703732025493838 0.42607963060289183 1.2737568889311877e-05
0.3039423201590557 0.2332696187984939 0.4026068338038331 9.454052305720959e-06
0.3030502095306938 0.22175878164662327 0.4149524731491646 1.876686369710488e-05
0.3040624441889832 0.23515512548265693 0.4220982897867848 1.3529796891327672e-05
0.3048111034525903 0.2448321519262099 0.412817825513982 9.184567978625082e-06
0.3067343562969316 0.2724445005072986 0.414871105694677 2.007719129036547e-05
0.30608184963421714 0.26278752549405304 0.4223018667850576 1.6692237775623334e-05
0.3074121047451931 0.2821174119925167 0.4213984448640987 2.2804942862132554e-05
0.30584804999728865 0.25911738631055237 0.4333271530957638 1.5991895398699447e-05
0.30826033005160225 0.3103764133566842 0.36784411731730193 0.045183508006782794
0.3077137147211574 0.29833124440558034 0.36768055506661534 1.7601768356775313e-05
0.3076367710677586 0.30249851186733967 0.3559707565989586 0.009486180386470387
0.3066813821121263 0.2934489573513095 0.3412436415378152 2.7733799999083133e-05
0.30664526895780503 0.30609734532957833 0.3275156608434293 0.01353333517192827
0.3072307869247599 0.3057598110775652 0.3395890882678897 0.01075255780349781
0.30564773509291876 0.3044205476851499 0.3090954950491446 0.028910809267937092
0.30590712283632693 0.2929653763855544 0.32523369107519134 1.8413214738957405e-05
0.3029308773529832 0.22018651795340113 0.4031286328559246 1.9134171934118368e-05
0.30072123187160815 0.19220849756855288 0.4090123760769533 3.4080546684674396e-05
0.29993092737730315 0.18616794395805972 0.3817678977856425 4.4830074775079225e-05
0.30224549360341557 0.2133121865975772 0.3916053533126954 2.4064551808368606e-05
0.3018675523515421 0.20679414471682128 0.4054331149363971 1.7873792024495186e-05
0.3055500422515993 0.26747085304742213 0.35803456521576416 7.802287500056198e-06
0.3039715249694887 0.2424044806032174 0.3626064561727801 1.610760044457912e-05
0.3058257586823452 0.2768524010607281 0.34583843457513475 1.6063727493671314e-05
0.3064647432014011 0.2776056327744869 0.36538674528467496 1.0562354871937081e-05
0.3026737293235542 0.2315008613178987 0.3461618090346872 2.2429457452207192e-05
0.3041383844495299 0.25084480822572713 0.34937891606535176 2.1159596122169858e-05
0.3042456992206806 0.2577660154740198 0.33789809869464166 1.9904254839643784e-05
0.30314382812180307 0.24119790214255035 0.3397684271249838 2.309311449903367e-05
0.30227264433324563 0.24236190038277503 0.3199109854975398 2.9219518055374863e-05
