x y z curv
0.3253887503224053 0.18801498306156253 0.3630860266253663 0.041609496324671195
0.3309357323027162 0.21039647402637307 0.36383759202813215 0.11548983085291464
0.3345383347479875 0.21871435512720433 0.37262706450337596 0.14824685738299273
0.3329367996782913 0.20381052108149264 0.38135779814469256 0.0560244750050025
0.3295083759128171 0.19389302213802145 0.37553941406633606 0.047114425522740665
0.3426002909487952 0.23236379474792568 0.4090041463254823 0.1499404754055158
0.33614157425279906 0.20860099503995916 0.39373824412095215 0.07039196146448157
0.3376695126836422 0.22143811841071215 0.3886198222818612 0.11304496058841046
0.34537058793645375 0.23853797581675595 0.4201537865777546 0.10858303776519565
0.33829789867735416 0.19902482622667853 0.4184283179396704 0.048977663990715625
0.3408424617244358 0.22142430763514526 0.4099830101700247 0.08644473248153278
0.338553461913604 0.21036759646652897 0.4075066174456783 0.07219035991559847
0.3362531907684928 0.1869355479420095 0.4201446757302556 0.091654463255954
0.3423280382626377 0.2048800574534467 0.43861723251034856 0.07708401022213421
0.3443820623709995 0.2183445688552261 0.4378420658622184 0.07564607094259261
0.3462300539038278 0.22018683059102762 0.45111899002617106 0.06602849530261418
0.3481130647477053 0.2320218985328047 0.4550946456322125 0.11548371176806238
0.3507053201420659 0.25184195084918004 0.4560762977801637 0.15203018740971652
0.3485841172162763 0.25168241594126634 0.4322726837070285 0.15020674884260188
0.3492073915101962 0.24778753275551962 0.444912490693198 0.11291468506552328
0.34748955208299076 0.23818989535659446 0.4391964754994053 0.1083063471629921
0.353759658191934 0.2696801177765584 0.4651316535489471 0.09013334867919051
0.3502756274078581 0.2381162316017159 0.4716353769176893 0.11651532079964379
0.351759883397865 0.249813330432879 0.47154086723987343 0.14647154861911907
0.2551715853809845 0.03830675241604218 0.33507477277411646 0.17731800435614736
0.24950994540319293 0.03778378023157247 0.325255866294219 0.13258052877131785
0.2542375445379027 0.053618234064302564 0.3173979998294495 0.14949942941750913
0.2608269503270627 0.04798968566042439 0.3356489499879646 0.14552112475159917
0.26522812332653 0.04428925797960866 0.3488677399633841 0.14239480075559177
0.27005563824522344 0.05994671662310998 0.3419636824264809 0.14606489371826084
0.2657703946662219 0.060823266282075475 0.3318498309373591 0.15413202578441995
0.2793942087468738 0.06441690290266885 0.358374262620219 0.1560779403857279
0.2834570908146569 0.07489953373440136 0.3566167688772894 0.15235272581194312
0.28522733441852977 0.08556944737253605 0.3487427344305786 0.1487626327357249
0.27900517788874435 0.0740889206747298 0.34610730927082967 0.1611996126134475
0.2927828449389697 0.09136166687898388 0.36162928806090466 0.16216916516398694
0.29049831483803484 0.08138837513452032 0.3672981195347954 0.15876571069061698
0.29965216044873444 0.09197641837141216 0.3817195279511037 0.16284395497655063
0.29773658679350584 0.10119324463683124 0.36489350705746393 0.16509474849591652
0.29562051885434054 0.08167752322167711 0.38172083198241485 0.1588054570089341
0.3109806548924749 0.10418164053120417 0.4048990969320688 0.1524156756087614
0.3063303114019225 0.1055586436656428 0.38650208643498063 0.16390999628570227
0.31371152850436207 0.1186649554363784 0.397201024772929 0.1520139077660235
0.3101136524815529 0.11748326554039489 0.38566434402808736 0.17743648521115563
0.3176811630470269 0.130506410725813 0.39800346585921204 0.16061180605467484
0.31868439237920987 0.11854722751719757 0.4170506488940402 0.13026648430574933
0.3214735432098479 0.13194064717055062 0.4126417654621031 0.15129542335549642
0.32552910747830266 0.13975474336546873 0.42069296273283424 0.15066878849751314
0.3259867976776817 0.15423742575360194 0.40471167092974003 0.1531646665353121
0.32676487048402064 0.13244620303957885 0.4357349643429858 0.13295592518740978
0.3272760251328093 0.15051632739381268 0.4158915392563478 0.1647347403395426
0.3318745504967573 0.1585512390775929 0.4299054475372856 0.18494704284682775
0.33078721906307007 0.14709895268099574 0.43823764667897186 0.12728847989046313
0.3343260216449566 0.1604557152113402 0.44091050612578775 0.17594820302841457
0.3365661037172544 0.1577785951889905 0.4587926287450567 0.18191704301269782
0.33764975761811317 0.16994462238723626 0.45040329083400454 0.156275562038458
0.3399587077830913 0.18299841517870524 0.44895586132505105 0.18675269155871133
0.3353241881570426 0.1725572661572166 0.4319658439266499 0.1963820010936402
0.3384228141969756 0.18544060801152526 0.4358143893890581 0.16399195963574376
0.34025384833057404 0.17646277137487545 0.4595805532201372 0.17709932782562687
0.3399957428428795 0.16766290743437423 0.4693288493999583 0.1687205697002598
0.34345793729246354 0.18316499970430408 0.47768830160872106 0.13374302078466452
0.3450599796286116 0.18389533041346606 0.49206377695571757 0.14422544420012842
0.34672010822804933 0.19523799570012107 0.49532118281682747 0.13549170171738284
0.3476202893449736 0.1959389806044012 0.5064449214215312 0.15262727088783995
0.34707377904508135 0.20402736475952815 0.48687286806761654 0.1514754794738449
0.34925067934425624 0.21272551278127363 0.5032332189642493 0.14711393484399826
0.3463019941074104 0.21090154796982485 0.4654118141295517 0.15898282663361796
0.3480918664759542 0.21911808269255195 0.47772971238612183 0.16350888907646263
0.3506075238286293 0.21846868651594537 0.5134348052380654 0.13692921321832688
0.3519793825817782 0.23257705697366038 0.5114389507994346 0.07398773310434603
0.34888513330143645 0.21844235350318544 0.4896877063000932 0.12371741935315468
0.3575181451466297 0.28938186013070266 0.5105869658526736 0.1039994775032387
0.3562568735997167 0.2764505124068153 0.5023055772813075 0.09715806177506289
0.3553650458149318 0.27308272754729773 0.4887983844895342 0.11286586790147476
0.3539576949357851 0.2655108934256465 0.4751036012912998 0.127718942171249
0.35288443552790216 0.2501628473033214 0.4881080495273432 0.16238210711855333
0.351911987936123 0.2360494906841992 0.5003458901830333 0.06852149896725805
0.35076633270299323 0.23116731817633915 0.4889475466040802 0.08600695676421126
0.3535943094423917 0.24938213229806455 0.5035699249714466 0.09317102157424641
0.35482668088385333 0.26443164253096424 0.4977133913651238 0.11434743158262099
0.35516409383300657 0.2631928195573431 0.508892659237997 0.08146667229852185
0.3535489004225075 0.24404612836577735 0.5151903630337727 0.046682303737461205
0.34568663497988933 0.19783796469547849 0.47767668436996696 0.16009586556034006
0.34450882181782494 0.20685682629641647 0.45460711972054535 0.12145452939694354
0.34396098831062893 0.198157123582856 0.4621644431142544 0.19153371992609564
0.32143245636586015 0.14749080505440842 0.393454416613582 0.12662658728344417
0.3188343712374726 0.14807942507259717 0.3817259456878342 0.07945415821773935
0.32803954714832634 0.17302577496064253 0.39263310677231084 0.054697423620364984
0.33338966499413863 0.1722565031976333 0.4208360780236616 0.16249662151311922
0.32878367118576074 0.16620308860467117 0.40445884788165287 0.09671049684474554
0.33458923298695 0.18932095820658917 0.4067286461831736 0.05156860635858242
0.33154690328074043 0.18413757117421556 0.3974046618062108 0.04661181259076785
0.3243072860110728 0.1604200938625127 0.39030916823118045 0.07781913348430167
0.31772473964525383 0.16216728557367988 0.36068716795210254 0.029874729574758424
0.3216273914872154 0.16165313276798346 0.3776505961507678 0.06117727301529051
0.32533947160824306 0.17344021703053852 0.3796139455817334 0.03398846563245397
0.32144612830372304 0.17568989417686298 0.360727197432829 0.0332330622645938
0.30551072177935396 0.11345448381570372 0.3740157741399462 0.16605320316781852
0.3147224599153351 0.13179939599808288 0.38510826551432364 0.1438963379850163
0.3123345593694589 0.13368356013222027 0.37438700243023526 0.07913878202251773
0.31034591228928526 0.13922572143991901 0.3607620758254423 0.054387186454348486
0.29409283488674226 0.11142821446806808 0.3421909681839742 0.0636158343430133
0.29964757634817807 0.11909907250879788 0.34994540475980374 0.08982114356032689
0.2998719030327214 0.12709161242900874 0.34132746439556483 0.0419292482055653
0.30382026904268045 0.11938499800426271 0.3620514625476723 0.09780271660670217
0.28208116872904376 0.09341627752668535 0.33206490294362767 0.08191959002675471
0.28079192747731224 0.1061278052595656 0.31480183594612127 0.035919169540302734
0.28738017723605724 0.09529228352033063 0.3432802599253724 0.1365024376282461
0.28850117479028187 0.11166329415469342 0.3276748881088881 0.03790366121555624
0.27360822029079734 0.0804895016331475 0.32724093481711697 0.11422241981995104
0.2664867197982915 0.07010869086551078 0.3232105844663636 0.13961886891683228
0.2715310547200439 0.08911549239831493 0.31385768197921987 0.04369942968011222
0.31348234026195454 0.15006561896476528 0.359375639979035 0.029667864943778443
0.30698847941537644 0.15190011296644573 0.33474780249056063 0.03120089796567921
0.31211464025072655 0.15701336532181825 0.34681810706878324 0.030166249407877252
0.29468962126763415 0.1393171159105076 0.3129257036976883 0.03314723382734578
0.2972745146551861 0.13011826459965667 0.3304251412956538 0.030521218999889247
0.3028477815862507 0.13975140800554753 0.3360683021203591 0.029909921030717768
0.30258979812946574 0.15023073134316173 0.32377116112568505 0.03439149243539644
0.2802783396865115 0.12754740630516403 0.291053377748369 0.03512858693028842
0.2835372054482819 0.11857290246900179 0.3081980292149527 0.02830698719592589
0.29013300878473025 0.12903821227203635 0.3129676846643924 0.029795646333645377
0.29179851779944377 0.14413729807773765 0.3007460936917785 0.04242483966207687
0.2706650223582271 0.11061827464994661 0.2898588151772298 0.03361572409107418
0.2745683816932077 0.10478255757393885 0.3031478365497471 0.03497088193574777
0.26815530447032854 0.12094573060633015 0.2747893753839781 0.035339603458189955
0.2359777318423092 0.03979214409889481 0.302123564823385 0.13680517916150042
0.24471343549184393 0.04833466242260481 0.306413489350383 0.13612063561446372
0.24432587299740363 0.03972602140116509 0.31443980837476376 0.1459675219342233
0.22842530242957018 0.040771020696855835 0.2932171779557561 0.1395605803525507
0.2612037359897768 0.09102228716732813 0.29150858935091073 0.02883456641552108
0.2630793049484022 0.08146911659496489 0.3043706961273679 0.047001688476937614
0.25532203356210903 0.06830015351694696 0.3049293921041919 0.11235653278765362
0.24960858035242056 0.07503630242566607 0.28889543680586244 0.039356599147951234
0.24952179810905623 0.05883037057032667 0.3041619078107769 0.1354770913239168
0.24051732597497108 0.05325542628009733 0.29577985048476074 0.10991610306362919
0.22700793440666397 0.05146153763054593 0.2820400108986476 0.07314135551339407
0.23070829015790978 0.06250722666608594 0.2757152933828355 0.042000951640403295
0.21917246891929265 0.029803725730197538 0.2954956228580282 0.14226588782143304
0.2132841757537715 0.03583019879000078 0.2856720271627016 0.12421335651213918
0.20886103208936815 0.043896789598051565 0.27621849698658385 0.08138814023208932
0.21892366866719953 0.060093050011091 0.268005799198821 0.03371890307012047
0.2090799164014358 0.06155494134631622 0.26077716841403303 0.0429407125045871
0.1914043145391734 0.04030786570009819 0.27354455362530816 0.10500942510041968
0.18756289130284268 0.03147229657291485 0.2806351282136903 0.13587868602939887
0.19917197950875115 0.03330473606156728 0.2813746744858472 0.13579455879043115
0.19286439172666642 0.05238803446172685 0.2630436456822791 0.04069255924931764
0.2568822850028676 0.1177263073380922 0.2595587405363001 0.04168590089179997
0.26227565026341465 0.10198610496031989 0.2826305604208629 0.027612484413284448
0.24578945621908285 0.10082406964275033 0.25879397247063 0.03112153817280907
0.24615266983621442 0.11124677100944412 0.2501667348590159 0.03531313480811462
0.24663207274668447 0.08899746962371521 0.27073335800235987 0.02980240777141444
0.23568714381090852 0.08171403234309649 0.26351575016639955 0.03421610992495842
0.2385193678753158 0.09223296752511298 0.2577295123975508 0.03587916083802435
0.22659919308717527 0.08667919641530288 0.2509004638396308 0.03829312792527372
0.2331323705754987 0.10522025091896395 0.24103871628790613 0.03976428733099967
0.23521161423072767 0.11643737385825689 0.23361625034460187 0.051379925986144465
0.22490244606585114 0.10682312313666323 0.23277282373257208 0.03953054976486115
0.21705314607523596 0.07296691747105066 0.2556040343816182 0.040466977610361436
0.19926842011824442 0.07683554508222666 0.24372566811186228 0.039781404129990504
0.20651883556910927 0.07134944537020983 0.25133146166267295 0.03731137173565044
0.21531766988014184 0.08809987234531962 0.2418027118910882 0.033491351422088
0.22377082195486162 0.09530451207927382 0.24122799139008588 0.04150180768697531
0.20272769546276123 0.08863819661671858 0.23534983505023127 0.04012152310012223
0.18867852693674422 0.08637309576285321 0.23365699603110796 0.0335506404939164
0.1919368459592623 0.06850982909750719 0.2491664479555517 0.03604013134247073
0.2224523331138057 0.11747710697281022 0.22248163627078094 0.06825298758923264
0.20814912718489578 0.10415328837913634 0.22512645865708553 0.04325778148932542
0.185865193485652 0.10603807026175513 0.2175391356287381 0.0438853794806184
0.198435234681411 0.1145544632647529 0.21315020109713284 0.06407780614041682
0.19758829830543034 0.09719254837343388 0.2266878454665295 0.028812488208719362
0.0019480943808990844 0.295080156186831 0.5199225071585154 0.08079104757103987
0.006211087762958079 0.24488872918212842 0.5221089471515673 0.030080920721573083
0.007486437271892725 0.3163601725337449 0.5437923019203024 0.14382966208930922
0.010924857419033363 0.328273796824111 0.5490248077278029 0.10263830781414046
0.019066161253108456 0.31813341315661664 0.5556734072495122 0.1973964248081169
0.02961699986510158 0.32202973307658034 0.5605268350621886 0.14553708712779204
0.03652952420138661 0.2853797679499349 0.5614140461694175 0.014126240798529333
0.03046626081504951 0.3025817752693505 0.5602181788548297 0.10814488624982571
0.03926695247373633 0.2744541103601867 0.561862592514629 0.00494455572202444
0.037929955035455334 0.3142569644847083 0.5626402158778449 0.14451640086603584
0.03497669894475093 0.24743698460515293 0.5598893901465957 0.028263140997472104
0.028282973771029823 0.23249934895123806 0.5571307358366211 0.05954987437800772
0.010139257394073287 0.20747243423725015 0.5201681416629784 0.11710729763095043
0.01808863262182501 0.23287123876333568 0.548930001931405 0.05739393955766741
0.011496630513664605 0.22956206515424846 0.5388732414068081 0.058564640343431666
0.002126251828658333 0.31587602000818793 0.532629310706495 0.14454215795280348
0.003223625943061139 0.2998494752171413 0.5331367521664797 0.12901303943112316
0.009426411403755474 0.30075796388592724 0.5451215609702494 0.1113105758803244
0.0033576075531741726 0.28904484940692043 0.5300453550845253 0.06998586242434536
0.0056221257042093666 0.27672090537939037 0.5350899647866605 0.041619495098443364
0.013153629480391197 0.2732512317127768 0.5475830558800229 0.024349596366001765
0.018628617128366276 0.30553776409297606 0.5548257754023618 0.1094263007680164
0.02296208197265239 0.2916000146465497 0.5567864605807679 0.08548342273908921
0.006780274945980963 0.25839582320659726 0.5340943840838682 0.045142858937860936
0.013352210322306513 0.2608744146695628 0.546381702800864 0.027274291555465305
0.012135473486343902 0.249895212566628 0.5431910842942478 0.0470837093320113
0.023485435769583167 0.27674110418746856 0.5563585549334813 0.020252866527842566
0.022884720939489758 0.26594305160028836 0.555433126547467 0.01749522358655833
0.020984151180744558 0.2510520968620705 0.5532545245108456 0.0315639277159826
0.0025313967666105116 0.2900595350170024 0.5061866606532198 0.09819858389130089
0.024778034721131142 0.22174766452386013 0.3722401935720377 0.11747509551831065
0.03043629314781618 0.21202795517585193 0.35434766204788837 0.12831245867418092
0.05914931773258499 0.17687030205099236 0.28917021680776267 0.1335877320725382
0.06712532558959415 0.17157997526043642 0.27175801808956307 0.13341299212690508
0.08265360274362885 0.15583375441911182 0.2568713681541767 0.1557807246386689
0.07609593479373764 0.16063576581155792 0.2655290474409811 0.12732768102452396
0.08927705769506958 0.15576507225952094 0.2416517225303776 0.1482138098401119
0.10450311319252553 0.14815470122312369 0.2245343725226316 0.15921865059067997
0.10308611081442448 0.1428478225147191 0.23597359724345945 0.14055802270684575
0.12162171122765673 0.1392955793720846 0.2149096020663101 0.16486470220726998
0.13175920109110445 0.13687879171561051 0.20645042090228988 0.16526597793690379
0.14175803039473958 0.12969617694428953 0.20889660129628784 0.1259845221144851
0.14570226311112283 0.13457560073078556 0.19722680561160838 0.15775698503090704
0.1619283791585881 0.1251048748892399 0.2040179276856341 0.09586607075488998
0.17950366309450835 0.3166425324374465 0.5743610193662275 0.11685523904431122
0.15366694255154856 0.2636512753939502 0.5726801821910619 0.01822858167018598
0.15596202952911756 0.25211270507248257 0.5724707778088012 0.058837721378553136
0.16607702852885065 0.2699527517700469 0.5730646577305346 0.01688589313386249
0.17987978367096016 0.27971915687676613 0.5735531721138205 0.022936970801965658
0.17026309522882033 0.3018303896270696 0.5738512834979406 0.10174844875661193
0.16923390140261352 0.2593913012480463 0.5728938652878972 0.03000206580052765
0.1664811910553609 0.31466401754440804 0.5740629386158616 0.12409195605387437
0.16626211863946821 0.3279504029157506 0.5743543602429289 0.14354432532972802
0.15433071326042166 0.30426584825242564 0.5735964410910553 0.10716598709196484
0.15541412995265674 0.2827125074200147 0.5731377805283847 0.05112158168413749
0.1456773763240872 0.3154560826943701 0.5736780167936039 0.1401459196808588
0.14582491100755773 0.28770608096419575 0.5730633535162398 0.08059872167778662
0.15020223420834905 0.32603395354154757 0.5740009597433589 0.15178689971835413
0.16232980015306409 0.29236048231009104 0.5734862920964122 0.0932096394904407
0.0605786253190461 0.3125429236574039 0.5660254739022617 0.08046085351246679
0.046063346936602634 0.3249845260997867 0.5642400150545184 0.12442312179772384
0.05492062281766902 0.30027726687776046 0.5649653509032044 0.06917464295670228
0.04862313253849583 0.3108002855452478 0.5642997722217088 0.10954723544863582
0.04582031481834258 0.2923704244140593 0.5635117690067719 0.037738073159235795
0.04999374596323648 0.2802813690646657 0.5638440201357001 0.0010901854261921376
0.07052353437124474 0.3262165807535333 0.5677210480235286 0.12325750625957617
0.058685384775368984 0.27287195168495093 0.56488592118522 0.0011097277793005427
0.05850815234958299 0.25489986573750667 0.5644578827051618 0.014145166581340608
0.072604256982558 0.2607858289055801 0.5665462143735027 0.024233549776223832
0.0710406245598426 0.2840361305823761 0.5668511494954656 0.019524379172799058
0.07450620718365586 0.29715508631486964 0.5676265876927318 0.05555069539688529
0.043706611638589854 0.26129675873435937 0.5625533009689434 0.019672771897439482
0.04797209366652601 0.2455722384305241 0.5628904251968339 0.05231760120881286
0.1324767273980875 0.3199368436923423 0.5730228212892927 0.14841333721152397
0.14345492781577207 0.2567936264511178 0.5722579565257913 0.058669407825304234
0.12504224786419912 0.31193637086194753 0.5723945437297367 0.1382803946905634
0.13417317365331483 0.29907572939074045 0.5726538942971358 0.10569220561760126
0.11454806031161115 0.3171836163770395 0.5718815515688271 0.12086340710072581
0.11121559132573083 0.245724045547274 0.5701187752813552 0.05999686596211767
0.1173429741970265 0.30031003262743783 0.5716754999409366 0.09620627830360269
0.12085924278399829 0.27319494396426924 0.5712871670578548 0.001254129674973771
0.13056289478536534 0.2780554221670623 0.571963198271625 9.870177716077291e-05
0.13225221175857485 0.2633180861340279 0.5717391188064798 0.03321912842041902
0.1251086198039456 0.29067227032225873 0.5719198354550035 0.036081908557795535
0.11500626683262227 0.2598450441640372 0.5706509165157087 0.030781513334232635
0.1078256647908762 0.3082864986333011 0.5712137734929313 0.0990578352689049
0.09090882475918265 0.3289408147510342 0.569981300117347 0.11133552810424624
0.10322427410807995 0.2755975495352673 0.5700150878422141 0.00021149403506785422
0.09720887440150987 0.2854885298052558 0.5696342379003412 0.021170742903622936
0.099034452259466 0.31656239220848215 0.5705178964892375 0.11797274038732936
0.09189395972014155 0.3011598336628061 0.5694539897760215 0.09855743082485102
0.08274246580499721 0.3074120089458179 0.5686788926803745 0.12621164817096125
0.09192238074242522 0.2493728156183193 0.56832869590399 0.04135349735572383
0.09661344739082449 0.26491652805338006 0.5691229212153579 0.019754157320402806
0.1025452872093807 0.2549882212140992 0.5694903084964923 0.06447032258137735
0.09101451266920098 0.27630098770563716 0.5688194983422609 0.00022575732651460337
0.07872636551658016 0.25131306305874307 0.567077666275997 0.0334216472576234
0.08532138709383513 0.26142225978404326 0.5679414188808369 0.04047444024791351
0.17249793788491327 0.0021155632787160632 0.3085963714739069 0.1628298662356956
0.15764194248051266 0.004544286860094406 0.30979944199622356 0.15027459221295753
0.1400297753264756 0.0075765865144070575 0.3195659401408153 0.10685577504976732
0.11510473357904456 0.023439718993442202 0.33600781023189863 0.10786974926483256
0.10537885088953935 0.03208299919071729 0.3446254135511479 0.13929848100498757
0.07983024204967241 0.05795765035192254 0.37245504394039086 0.17294380019280495
0.05477872531139065 0.09056806274854862 0.4076841703018237 0.13904432842050057
0.017000922127897763 0.17654499668799806 0.4972133345682193 0.14404868397216347
0.014272363010208613 0.19129238735573534 0.5143302202323758 0.13064052705765378
0.01199582062494843 0.21549172774923556 0.5359883508451109 0.08716351070624447
0.17084917147705042 0.2416352865358047 0.5707054130230624 0.06343266473630021
0.13391435456099715 0.24232022865237507 0.5703187194380896 0.06774511718772305
0.09496191334890516 0.23714188375331857 0.5663238255674492 0.08504052837276495
0.06546502100897504 0.2378495045502286 0.564684164704284 0.0631596500394881
0.03830066601841615 0.12377774450360508 0.44609319120317903 0.13534877664819064
0.07436504317118889 0.07003413653962953 0.3899598702964198 0.16296318579055058
0.08823171802426863 0.051467747140454476 0.3697774612760054 0.18140969223489803
0.04679414130314574 0.10342706425851078 0.42201667926962133 0.1523568805383696
0.09589710804175858 0.042281384503824584 0.3592634831517614 0.13503418053113353
0.12439389196526565 0.01581456827219499 0.3292430890471229 0.13549611169713652
0.17769284386076184 0.0372553905849312 0.2748700055912448 0.09489279374660368
0.17677653210208283 0.08236462538764028 0.23624916779858152 0.029835776831147888
0.1751567175062309 0.1003898631897138 0.22188436818486176 0.038903583132629246
0.15257691884010152 0.11746379891929755 0.21431438131071748 0.06572050643549705
0.13198970309615524 0.12788862294492445 0.21833708231889476 0.1149524431351671
0.1162780253086067 0.1339467654212559 0.2279080840453755 0.1181591658223208
0.17870767077009525 0.009065803217310483 0.3008147509239671 0.1366412851271551
0.1649231454471045 0.00949310509589723 0.30249814662216623 0.1406846448184265
0.16156679922067796 0.019966991385185436 0.2934798590026723 0.15879504613530332
0.1491774215198926 0.02466308927366336 0.2945296495721107 0.14776872032234345
0.14488534421986454 0.014693677596477153 0.30657786051529623 0.15359075178391393
0.13985212843342446 0.024351417442809484 0.30129397223817095 0.16336981645181364
0.1329653047848675 0.01969728077692553 0.3115140555977658 0.1562910508172309
0.12320259771390578 0.023999801396302735 0.31848594113956163 0.17102521314650948
0.11405340134403559 0.03161025886687313 0.3252921209515863 0.15250989493855674
0.10045008042746909 0.12971394544332554 0.25234971015352003 0.07629782420513455
0.10848558379120221 0.12906519886871134 0.24198055456070364 0.08663503095021084
0.10665464342674204 0.11955180985092492 0.25291641624568345 0.04755351827549885
0.09100396668507198 0.14724428734123146 0.25088855844944186 0.1362794273792001
0.08096527344734418 0.1361711985981804 0.2799515102318801 0.04838834789836826
0.09082692620557242 0.12716274181884302 0.270373610015755 0.03988565645974984
0.09113516131409885 0.13892886513138117 0.25878235066690525 0.07690217227184437
0.07820759328757086 0.14628552631496478 0.27543669923221337 0.07382504717287498
0.07163409693590496 0.16018481245399088 0.2763398951907291 0.10168140260642092
0.06544909003193713 0.16768155404108911 0.2835494321817648 0.11872881952705318
0.07313433141374118 0.14621632335942952 0.28710050026098255 0.05122571785487417
0.05348569486531833 0.18119661414736038 0.3023729489705963 0.12918790355870508
0.05901389289799451 0.16638221493349334 0.301755088597739 0.08274808159304343
0.056215810844395815 0.1634330777884206 0.3128748137617824 0.047769742511970824
0.06435144594762768 0.14901020884493457 0.3051349647130564 0.037913541972340446
0.04677181402051505 0.18700059766985566 0.3176491154909617 0.11200190487169671
0.04316740149606694 0.18730320389263727 0.3299226888898149 0.08437508062087763
0.05102002897122078 0.16631299223746163 0.3255560129219394 0.041126426802330154
0.05099982617978072 0.17548876872561192 0.31553411017898597 0.08611239406643205
0.0458663854163235 0.1742210448826227 0.33457835262338953 0.04966299144669836
0.03699644924739001 0.19949937180487626 0.34051676936981 0.10316936417054952
0.04117375640618515 0.18090889323456946 0.3439093831923622 0.045603497209803924
0.03535796207423641 0.19095752887441833 0.3566894767702347 0.059279035686571224
0.03290360559209082 0.18794937997847266 0.37026101489054386 0.038084175444744246
0.03040904430798021 0.2024620126032396 0.36612510829271205 0.07585875276181907
0.022996356529379716 0.2161736078332396 0.39045203562803965 0.10057913200630662
0.020034063202665243 0.20023766981367944 0.42770655735797375 0.05492304792537891
0.01974930249043383 0.20990918975405487 0.41886977910137435 0.0654101761876421
0.01651691949739426 0.229455859455871 0.4180491697064993 0.1074739449675172
0.013085989408707126 0.24664131404469514 0.421105158864598 0.11620358412484187
0.019303505201765176 0.22055207151237516 0.4099948180769441 0.09123136848092057
0.024248109574415744 0.20134421601648989 0.39946106872000614 0.038724717057360726
0.01735102822074351 0.212331503086008 0.43157974227869256 0.0656677666984992
0.025116063880810287 0.19158056829802825 0.4058407988281539 0.05761024155137776
0.02280113320587191 0.18889424563369991 0.4237507010792123 0.09831191408031432
0.013683545431745889 0.2203833165391933 0.4515902146355098 0.11329450998638259
0.013339718005895325 0.23810714503157215 0.4304134795537124 0.09449730819925448
0.014494827377456717 0.22572582600765712 0.437388846075593 0.0988728185157838
0.017289642984034282 0.20348932821345536 0.4437616540123349 0.11189339982220776
0.011215791604482868 0.2503134284359281 0.4365015156375787 0.10894613850794273
0.011541372363422566 0.24067786351116058 0.4466133766670767 0.1210207415584029
0.009194217832027056 0.25997328361681277 0.4455695690775279 0.103361129940855
0.007982957703035184 0.2585368285228222 0.4613498659033596 0.11492856610305256
0.0074872986935217 0.254531255151657 0.4734353110587828 0.139282424197241
0.012671705398520633 0.21762180771455514 0.4674578616048881 0.14129219803782334
0.010457909516621459 0.23687882574302385 0.464424021185245 0.13035842315681903
0.010335711263767155 0.2308129605406101 0.47564676635766745 0.10575431499859204
0.00855433871877259 0.24380614743930196 0.47720368138360186 0.14672040920952883
0.10655928165110043 0.03861555566949584 0.3314678413315093 0.1731570858991767
0.10396744557976699 0.04819706724334814 0.32612590128578606 0.17843146389793443
0.10658761410149752 0.0567761760949965 0.31282661279864965 0.16554614927504263
0.09730092142851723 0.05462382106007564 0.3321776619353326 0.16207370392862766
0.08671642116217204 0.05623315579093467 0.3531592981478845 0.17089366673362621
0.08538151719811374 0.07431331310834113 0.3359140730908924 0.18750481213095582
0.08966079960737142 0.062344867213394634 0.3399331617580188 0.16790807787806447
0.09444567063829647 0.04859071795091642 0.3448356501375195 0.17177030647977623
0.09408182249845959 0.06561875854957581 0.3268940375664097 0.17222991626730555
0.0828089337233885 0.0703011073168465 0.3461196589841758 0.15848530719404352
0.07315222298299628 0.07141021872530148 0.3692569226470433 0.14790940247320444
0.07611794913346553 0.07999205331946807 0.3517785296994834 0.14922560722177056
0.08008411375338514 0.06664741131274282 0.35711855575550794 0.15237339212826903
0.06988457383021249 0.0834654056677271 0.3637116078370904 0.15840948656016135
0.06789256042132774 0.07442091169691079 0.3802403864657012 0.14924340669932634
0.062080096177359635 0.08227541964818962 0.38805000249255195 0.11182025013518504
0.059634377489324035 0.09800120580168858 0.37669939463179913 0.13629221892049762
0.06394448651917069 0.09670208844119352 0.3651326896159512 0.16504171617338675
0.05675595912604199 0.0910502780245406 0.39401191746317005 0.162840667712042
0.04875988800272706 0.1064265635744307 0.4031264325416287 0.14042546551247537
0.05065665681795096 0.11169375837925864 0.38991661709443043 0.1641459747437755
0.04579232336045139 0.12385523732672403 0.392688593647257 0.1399321146998582
0.04276413634426905 0.1127455830608628 0.4180602776915868 0.1619139839103308
0.036544658193439626 0.1420710520758905 0.40873720488389237 0.16622029717840228
0.038716569154213225 0.11793431325207421 0.42864674609437636 0.16602981946281023
0.038540195133534565 0.12629643934310988 0.41935816905305956 0.16323902427693227
0.04114832862248473 0.13327465498920177 0.39966251160584704 0.16680011047658969
0.03358382274095144 0.13521210418171828 0.430523134163995 0.16414383464156518
0.03309020468899342 0.144996872447742 0.4208748775085906 0.14998061888581776
0.033409009577564916 0.1530665730392049 0.40916599780110624 0.1571358673507261
0.02840591959262345 0.1536269830838956 0.43439340419059314 0.15571878266733832
0.02674030602549457 0.16757742304875334 0.4259154501752128 0.19985778366112503
0.028544104045254017 0.13927481913637157 0.45147762893175913 0.1292103283002166
0.02590091928087851 0.1520524330282359 0.45036838603386825 0.15529169447664046
0.023715908977720607 0.1737865810562462 0.43677841512449617 0.179985418864933
0.02116775601604577 0.174116436449321 0.4530413749094979 0.16699658862959996
0.023245595810755217 0.1546803033924726 0.46406263168054207 0.16993151123914213
0.020467343365312706 0.16171991726810472 0.4734533660002685 0.17393913245980305
0.023985376067578872 0.16502256177421717 0.44614230618092865 0.16969383070983798
0.01547729170048063 0.1827615530688601 0.48788228398293926 0.17495532617062842
0.017635483860900743 0.17458560126789308 0.47972441755954603 0.17419062592979467
0.013065312887537536 0.19685663273617673 0.4959276242851971 0.10908331324009873
0.01098730484464 0.20724619392085614 0.5085665929916894 0.11643737456497662
0.013263363626135331 0.20814698025390077 0.47574309231103157 0.15727195475107245
0.012051353870588075 0.2078437475845965 0.4929449236665742 0.1300119038131579
0.010090718049607456 0.2212151986268452 0.49971685185236037 0.11638376827015282
0.009295717852445913 0.22011085406741343 0.5123349818713545 0.09138720228519391
0.007794702383839612 0.2304125560881672 0.5177730573000967 0.08017780107588454
0.010887042444327442 0.2238162303471986 0.48485888630236845 0.11059083305055872
0.008368495368919976 0.23228025372811237 0.5070767423499702 0.11247917350425511
0.003709155490287 0.2721016478478119 0.5176052733230073 0.09407368627793823
0.0043097196854546375 0.27032445407899364 0.5036006782864967 0.09776752380959809
0.0065860896051230635 0.24631702991876525 0.5067906745040767 0.09738135739967041
0.00846346378731273 0.2383106357824255 0.4881255622687087 0.12342489930812713
0.0058058729751888465 0.26896183509535004 0.47208723947359843 0.08889380701033331
0.00551489720482186 0.2644504445394953 0.4893450854782929 0.11069926021030654
0.0061911171629615005 0.2540002540324503 0.4977876797390041 0.12079997106576354
0.0052259823663718535 0.25639454508517234 0.5156021070290812 0.07642034597583758
0.01865502602922733 0.17920341776175333 0.4646348220563025 0.17708826235290143
0.018842095941795634 0.1913325856466358 0.4468817516730933 0.1952367266133159
0.01530964692133986 0.19480789172783847 0.4731513986924824 0.17588552528135998
0.016786170258662615 0.19531774145613756 0.4595632166817162 0.19526572586564553
0.014699331031267766 0.20983638244182523 0.4572966235215022 0.1482228333312768
0.03612610831581896 0.1538092386411527 0.39620992791365744 0.1050142201116555
0.025964789903105752 0.17739506438465 0.418026824132844 0.1331396871152592
0.028163343487735353 0.19358353198030998 0.3876767563540687 0.035943999534796905
0.02949808526993383 0.17776043519644918 0.39961631337741665 0.06029381583884877
0.029549934321489738 0.169087908874779 0.4095691567452602 0.10445380063770647
0.03281398182057729 0.18080131210018763 0.3791364329156872 0.032995969545621555
0.03360516411045951 0.16515256942801898 0.39358948031911306 0.05975650418686319
0.03816479160041748 0.17833406553854886 0.35930437008024707 0.04378421703910323
0.035274905604610746 0.17012360341553456 0.38086815068714164 0.03389929044684405
0.039315661177446476 0.1590658628357514 0.3766625755215221 0.03384735098448348
0.04049161587587953 0.16516752760540232 0.3647261523730405 0.030584615999214672
0.04352311398602774 0.13835073539859416 0.3836055020127266 0.07980323211204457
0.04566000759909023 0.1450194570189947 0.3681216103158522 0.053306216544478126
0.05163903072724518 0.1257541734714922 0.36962216611161547 0.11716915685906343
0.05304421305438685 0.11476197144483787 0.3776119445530506 0.16534423358276065
0.05727704533943936 0.1274022053124159 0.3494655222943927 0.053463479224054034
0.06224248994231278 0.114663818470678 0.3494282733937625 0.06505908566796767
0.0586456950609114 0.10701929099323909 0.36897744033344915 0.1694648747362565
0.06689623877277566 0.10524931470865323 0.3463645063605709 0.0973607802171738
0.07623231960813329 0.11080079964012855 0.31689999167812816 0.02796232002165952
0.0702326489443012 0.09302888499780924 0.3517640743297639 0.15022048590150155
0.07670023791798113 0.10132530314461874 0.3263907637826673 0.06553552693955729
0.07836011386531264 0.09105904527441157 0.3335605897326971 0.0781512279275221
0.08398334946168184 0.09901855125160353 0.31220122253659166 0.04445171558641689
0.08772308220545705 0.08826688928679056 0.3162992407087074 0.06851453698734981
0.08973836183139823 0.09775165579158675 0.3018724511688666 0.030006025156153252
0.09374763622969423 0.07775983054267437 0.3147792157800096 0.07456602101773731
0.08706673040672566 0.08012554782531714 0.32621551707521135 0.12530667761989947
0.04454984240894702 0.15461345013798983 0.3611009527995165 0.02885002053330285
0.04844920016298067 0.16301568126326957 0.3381007592860587 0.033107712902933684
0.0424948834668579 0.17020024007294995 0.3506798034308503 0.035087252958413834
0.05594482353592233 0.15466408797637912 0.32310684501838693 0.03646875434822299
0.05911983788539073 0.14215140266033383 0.3277518673756472 0.030287412358655227
0.0614608647426928 0.13103656077985282 0.33308821956961254 0.03226449835663687
0.05612170491824146 0.13729888130274046 0.34173376295836994 0.028375620070632657
0.06900307602031899 0.1370138268924647 0.306474819423058 0.0325531136617147
0.07565966197238733 0.13600744974585482 0.2918147763042863 0.036253282400229965
0.06857878091270342 0.11901092810184381 0.3266149756287054 0.03469242399050417
0.08071970190583538 0.12440533437952615 0.2923119040397504 0.03220636221098751
0.09160104320528828 0.10458974128377628 0.2913454115658592 0.0314668799866406
0.09462658756870541 0.11652320746303965 0.273804125420452 0.031869874223842284
0.11862584508746069 0.04267534147424666 0.30726966268605993 0.13716882788786985
0.12908379797110328 0.035726382237002585 0.3006303083781246 0.14168197411030825
0.1286502969604303 0.04628301761352227 0.29110232929520313 0.10877675205024154
0.13436381992417346 0.0635417278103462 0.2699111375613874 0.03609453313260288
0.13906657689212842 0.0347466457462737 0.2921701151666095 0.13023299815832715
0.13819395414836508 0.05002630757245946 0.27890396176468385 0.06423170441596569
0.14935768669432098 0.03486540711867151 0.2851206257647392 0.12856358383193525
0.15819685098904118 0.0447974199805906 0.2722752487698545 0.05786337684511596
0.14536095859237463 0.06211801083340715 0.26332946889927433 0.036526905440510134
0.1610817674490955 0.03455704178399656 0.28020389743012214 0.1116934994471337
0.16789437654562978 0.051651847874942765 0.2635497478481406 0.04942603361292309
0.1719611562053704 0.027628534507728543 0.28416096076223485 0.14172039752986607
0.16119524436130256 0.06292482713634726 0.25521948106205106 0.039322397894642154
0.10506626659990764 0.10986316890119893 0.26432936187143863 0.03175925273184473
0.10697805473161914 0.09607093395079919 0.27413856932793074 0.03271838620831379
0.1132443905490108 0.08581802987662301 0.27381067409368287 0.03158554812002505
0.10228164476856011 0.09192506931669678 0.2851230626249839 0.031717668229298175
0.12414687353519994 0.09069965795019672 0.2559285790429192 0.033330928953477584
0.11696477773238556 0.06668310043373687 0.28641380414685347 0.044422671847092955
0.1111460944141188 0.059326703376540516 0.3025468995244126 0.12073266602637261
0.10718175626739603 0.07389580572783724 0.2954279698168164 0.043093812202433655
0.11143318558638415 0.07797450193405919 0.2843711470042174 0.03024483307249588
0.09939557120863604 0.07782424763894569 0.30411643990051407 0.0681117047852808
0.11487294755705184 0.11394958078179464 0.24634294756524122 0.04085771888987856
0.124850399546341 0.0783883343114809 0.2657861927304479 0.03350381811060891
0.13262428111589594 0.08349701348541283 0.25433902371401057 0.0334899786129561
0.13026411786687625 0.0958249898034585 0.24602963131231698 0.03183597119403968
0.12525188043050467 0.12177152160123925 0.22877509717107689 0.08617816013506942
0.13057064975740146 0.10746315711633418 0.23604952659953973 0.042366952565085304
0.13469374607185344 0.11360381304871378 0.2277068686833342 0.05600185147117412
0.14474238158995484 0.08504403144553672 0.24426849558102728 0.0399750723674415
0.14270094726561613 0.07652956268673605 0.25278611192767764 0.04310200992614633
0.15905480140401182 0.07375806692208323 0.24698434945858339 0.03440546569071303
0.14223501348314047 0.09686421108462277 0.23621559541956194 0.03328391675148375
0.170983450041985 0.07411555780138901 0.24393642669084029 0.03343551057444265
0.1616763589569855 0.08565934483704139 0.23610922974364013 0.026844854913337733
0.14131802209189842 0.11869459563795406 0.21925701148892196 0.07433672044117161
0.15584563903182247 0.09559839685726734 0.2302991432523831 0.03619829748823307
0.16309625176963927 0.10563870844987616 0.21989953866100242 0.038474772819696794
0.17328869619228612 0.11005391919924465 0.2145323621374018 0.03970319960532417
0.025007588534323902 0.21501668794406123 0.5434397362573221 0.09361334512057375
0.03289624645029343 0.2224458106614835 0.5504801661031716 0.09102351598393624
0.022289125932482428 0.20368198611237087 0.5310878219492334 0.11561716293567793
0.023899497457778925 0.1860540683434176 0.5126119815820986 0.13846594998265613
0.03768542661134281 0.17821333068769596 0.48686651264098246 0.1518219910863021
0.04284202100227154 0.17835249785799528 0.47603732634949747 0.18286890624814017
0.04178954632835641 0.18778149401203031 0.48207806566010397 0.18146190499269801
0.051654307042657 0.16702574928563335 0.4537983232289533 0.1805561839798786
0.05946556793360634 0.17125694635239425 0.43860517921935777 0.19201665129261639
0.06299218908615101 0.15664918725734922 0.42937447694040964 0.20733511725039672
0.046222461152640004 0.16318204786534343 0.46357595610987423 0.1547844605016035
0.0405362366089903 0.16472526396197612 0.4755624103159337 0.14048089752402879
0.052191500657577314 0.18047200616672537 0.45727813355177144 0.188430594651578
0.049136187079707655 0.1885624128245975 0.46686339988713266 0.18458032858919615
0.05758836936835371 0.18554184347580382 0.44662666529234596 0.20269132222530753
0.06857518592791578 0.1537292070019073 0.4187232898677615 0.1923901832822376
0.06789816159587213 0.14225306473070934 0.4186804660753578 0.1948760311411385
0.08143548154317748 0.14321384820280636 0.3960206353717638 0.09165399739605042
0.07410360472319116 0.13935240476844857 0.407864227940173 0.20629690819271176
0.08101739468762269 0.12838925366069293 0.3960182221407612 0.19378122548590576
0.061875825210290045 0.13542270845181537 0.42795833094889263 0.1752831539059339
0.05739614351208551 0.12469948853448917 0.43332955312201715 0.16911413540565734
0.06903243240305126 0.12577614339988802 0.4150529255130505 0.15025133262210083
0.061042461152789156 0.11462583869719653 0.42597097296781095 0.1488664269945821
0.07631070213882035 0.11783730575256665 0.4028033224766495 0.18628706968284783
0.07057296369770008 0.10367590373756473 0.4099002563857187 0.1431806608226645
0.08112103052456271 0.10190612493799198 0.3941965973635152 0.17405717424066428
0.08755583530732025 0.11470467847180049 0.38550937317051515 0.206949316597741
0.09006040473094953 0.1012274576549004 0.3820050345166689 0.1925315454050539
0.07757369129933529 0.0905114017766629 0.39880964701593186 0.1807692415866697
0.08421766330767039 0.08942520936691997 0.3896944871126573 0.15764292459155776
0.09222141543955283 0.08559374599230213 0.37889733445385676 0.15347159050562598
0.08885587944332622 0.07561374283998111 0.38338739432971797 0.17441098350961987
0.10335485465505831 0.09914409571058003 0.364534161713411 0.18334095402047687
0.09984590682735914 0.08651054368834112 0.3693237868708099 0.1765517604803208
0.10681135446979666 0.08234546280282945 0.36073736636985565 0.21150778998835548
0.11346575885885504 0.07546597171117908 0.35335740656088976 0.1976158077883746
0.1139669772551921 0.09539797461755138 0.3516067381088989 0.10181459436644612
0.11881808382389165 0.08460505813414068 0.34659673240985445 0.1735037353785141
0.10416416266082326 0.06961508365196198 0.3645188245498772 0.16366724302389632
0.10946634015905009 0.06101099883007455 0.3588151356004894 0.1660458203448307
0.11701994667772765 0.06205825593981812 0.3502204691133949 0.1788783115395206
0.12469467049261929 0.07141187852210598 0.34103788470811836 0.21191340974087225
0.12064396115374514 0.04961369186369176 0.34728292969665686 0.14972403377510027
0.12225665606478717 0.03850994741234036 0.3466700242989929 0.16594100756431363
0.13078697369623227 0.061884955230633476 0.3353255383981879 0.22371769349199902
0.129009917594205 0.04940008023395431 0.3385641332808802 0.15127360377433455
0.1387967559631427 0.0555191340664292 0.32814505922111536 0.214459263177084
0.04714765769081505 0.15107857360953367 0.4578925070475542 0.159684651328003
0.053955634200634026 0.15676465227087344 0.44652392033695 0.18662213128353228
0.05734060188620376 0.14765906386342195 0.4382376507888496 0.1766513381051411
0.05121499984549527 0.14278251479808052 0.44821222028784513 0.13450589123871962
0.052859372846988356 0.20200216472432944 0.4632286593636024 0.18954528008715904
0.047316237612934034 0.19820686438287372 0.4744890545854356 0.23238916165275236
0.0412699122609855 0.19801790913972075 0.4891376193807538 0.17723301823559362
0.03319278338774023 0.20093395190402946 0.5104281416320317 0.13648165837604245
0.031373052884570686 0.2075478759391956 0.5233451428049118 0.1445300325193764
0.03807602873522488 0.2192971267222646 0.5287954620360981 0.11812858107288751
0.043274827149223746 0.2255199754373968 0.54196593422396 0.10619629357846497
0.06451030309426141 0.23005743247591667 0.5506986901317846 0.07424437072749311
0.05349450452608237 0.22873229754363555 0.5441876463963966 0.08214267341272528
0.06842112209415914 0.23146123745434044 0.5206995585091083 0.0678517788974992
0.10279535971371676 0.2343852778274885 0.52881699447552 0.0007047024356748642
0.08580502602005573 0.23258304083979334 0.5445887816105006 0.06129337707752961
0.07218201704570865 0.23158016418846772 0.5327275941441765 0.006524053408954494
0.11047036878795544 0.23473622880695008 0.5521600575154468 0.07107151407352295
0.09832387244605947 0.23364885765170054 0.5493777206841638 0.06747148144785226
0.11361428102181406 0.23515725644070357 0.5371074996902588 0.01864177754547331
0.13641310009908855 0.2362165998870253 0.5449764489517172 0.037299533777562024
0.12355638829890682 0.23584511095079017 0.5297820821973092 0.0001245009552074328
0.12219877409260953 0.2354000025417215 0.5502078636933456 0.054338280970680136
0.13694884006308866 0.23642276138934187 0.5328829262530612 0.001969436791220969
0.12999994028057066 0.23655227289724687 0.5072050624627753 0.039498919587679884
0.160162376229797 0.23702734815340717 0.5229515962798856 6.67997405221353e-05
0.13331016785475597 0.23628561488966005 0.5211692408111145 0.013979947801988935
0.14426276114532244 0.23713025101642435 0.5010895149409127 0.05797792791440827
0.14516761126514188 0.23678892182575684 0.5152098371901503 0.04169580791419158
0.1560294205586639 0.23740482212129305 0.49991698074513147 0.06547362184116896
0.16743365792239245 0.23759783488413705 0.49576364121183036 0.05407301224941818
0.16475980724659103 0.23744765998877482 0.5105569941062498 0.04903079207707715
0.17645137113005593 0.23767228979672606 0.5027751159216278 0.05784099840089907
0.18446763357863363 0.23757653903095055 0.5136730661155197 0.028774812668864464
0.20296031448716245 0.23741381449496524 0.5006169185016127 0.0615495982617734
0.22148101821638688 0.2372434247517191 0.48851812316674303 0.06059068750590653
0.18909273268169768 0.2376071782085868 0.5010115450936682 0.057283338441043566
0.21198550193687415 0.23689016692345358 0.5145312513158294 0.029284912300713367
0.2255239114877733 0.23668373259886744 0.5072022983560658 0.04822866124171404
0.20098687982003804 0.2372319208456807 0.5138050414358316 0.038046295130503005
0.19995789780833562 0.23704649556397928 0.5303670768539528 0.0004170565079067684
0.2207083218921016 0.23639710561968957 0.5243184421682076 6.537258997711445e-05
0.2335722283458424 0.23600644806291682 0.5289062982638455 7.590514768514402e-05
0.21989775959825195 0.23655055423204707 0.5369951430664038 0.007512770678322447
0.24466177569969025 0.23494521934720783 0.5557973326153348 0.0732048517666779
0.2180731210926977 0.23645938596873622 0.5491233488905177 0.039877680225205846
0.23351214988928196 0.2355595935055159 0.5540922547200292 0.0680687926729404
0.24398624598202198 0.23522803104723622 0.5422497195793646 0.020914280844180094
0.24608954426093813 0.23539192685966234 0.5225515500371886 0.0014075531339570525
0.23422318361706512 0.23653726498034897 0.4988384691263763 0.05553816523609614
0.25842046436479277 0.23385105907451162 0.556330559901303 0.08069235101127795
0.2544601648535976 0.23460501268423023 0.5305838130129521 0.0013332645698279375
0.25444274207468875 0.23440112000138602 0.5443408471890228 0.04747824406162553
0.2849489252808269 0.23195349088913556 0.5262409033612141 0.0024449745672846207
0.2746953710721851 0.23241329101067976 0.5515201828243441 0.07660534126869287
0.2668899633007472 0.23348581886879438 0.5307191910016553 0.001339024457280545
0.2978501244389247 0.23041445889421241 0.5298174757166635 0.02503776254996283
0.28823186845522136 0.23128244662501585 0.5401830988826417 0.03761335166284475
0.28721688013816254 0.23102783953198505 0.5518971557718056 0.06437831183535671
0.3006082069811047 0.22927047533011682 0.5527337231493015 0.07249306405916936
0.261596636028671 0.2341196866052802 0.5191717162291805 0.014367247903940322
0.24800795102847129 0.23533061002433683 0.5118591708038838 0.03862977523262199
0.271224086022838 0.2332742635623053 0.5120212410502378 0.0626264646064481
