x y z curv
0.22708182977222907 0.9320286508140194 0.28299488698053044 0.0017909051225438062
0.22039181617670234 0.9451555850314584 0.26421374480348303 0.14242494745781722
0.2648843906337216 0.874346363006653 0.3900258898227004 0.1627966509837749
0.2618911549403471 0.8910855874320396 0.37602628294232765 0.15609739152051763
0.25614391322681723 0.8910509984435657 0.3627162455622632 0.17719679191712503
0.24276476063835026 0.9104254222638191 0.3245041321764016 0.14523452783360105
0.23819996364248608 0.914930332620606 0.31292777930819476 0.0012285850085381144
0.23692245246856525 0.9323163884032207 0.3007820905557051 0.001914427298709534
0.22630024564795828 0.9598339782334506 0.2640739615954861 0.1810205007797493
0.2675405600691627 0.8885942950295467 0.39071070138156266 0.1828898191557321
0.2702846903148084 0.873739275131528 0.40332465342053736 0.11109934856701978
0.25897974105341726 0.9018470283908676 0.3646238809537206 0.21256825060759274
0.24212361032270469 0.9268317150291926 0.31447656150246267 0.07296614666751877
0.26502233190526236 0.9021935019773144 0.38032991042048636 0.15523005769260848
0.26930759452360564 0.9022098622161709 0.3923200541472518 0.210570427607075
0.25891015590929173 0.9206971394440893 0.3581587585177608 0.22038639103706778
0.2542366700402634 0.9210809692593629 0.34566907951024417 0.1879736527362146
0.25043764174745897 0.9286127020259962 0.33310644623776037 0.17476507276109443
0.22724924918120884 0.9720623358605996 0.2576197981360085 0.1734671183721269
0.27647670235556965 0.8949405832582824 0.41570813829097375 0.10291372581945596
0.2667583947764615 0.9217385036521341 0.3823299285910726 0.196473438537784
0.2626763604276182 0.9250253075636009 0.36867291687453085 0.19801772354073313
0.2601646919586263 0.9321609706798362 0.359415812522042 0.23097301497585068
0.2562204019883245 0.9368723568619081 0.3461313722213449 0.21605652887523033
0.2525111319850811 0.942250184554697 0.33368688241603883 0.16866763418105163
0.23891261083972598 0.9678335185293263 0.28628030548753447 0.055684043562514225
0.2743828798834435 0.9102584871615278 0.40917923585092725 0.22155722798609384
0.2776592791761049 0.9068218941969125 0.4209508867784504 0.13087200494568962
0.27194491412196053 0.919822715043685 0.4013374566249057 0.17040466972838728
0.14098274711750164 0.8146925078006535 0.31879734979034535 0.0033212044299291573
0.14881849925113255 0.7981973075030514 0.344046919219899 0.14403138748197822
0.1534069300089757 0.7922026895267714 0.35593150884061 0.11878174343593773
0.1398104262729739 0.7901923250339383 0.3582977889725895 0.09498834588460243
0.1700502438859372 0.8018659145870798 0.3447486898751992 0.1467170027093919
0.14376572243469188 0.8295561270908122 0.3007421697076443 0.004745340781166132
0.14566547443556407 0.8717370313338433 0.2622445192909714 0.00428650514776759
0.14628949161608662 0.8602994767581147 0.2713512825150416 0.00599227855637431
0.1453874226175301 0.9140785308945111 0.2362592246830959 0.037289295811719185
0.14865592540311673 0.8946278790919204 0.24707514303845035 0.004695451592140712
0.17381194784679155 0.7973332478019397 0.35455611062639336 0.13873305919201936
0.18643128466284703 0.8052500243675511 0.3496436397903173 0.14943313389271135
0.1945049456473326 0.8040342793498924 0.3578202498526167 0.16697440028404856
0.20736126965171872 0.8129959949193646 0.35704762795059797 0.149892221564173
0.22393991246608386 0.8157692991508406 0.37226780783787095 0.1231049066131732
0.23247015665552723 0.823305634184059 0.37410066108569784 0.11109180779934064
0.23137650889601652 0.8309637641202067 0.36450141828250426 0.17309653404130534
0.25022687982408465 0.8404665366440368 0.38411954035384144 0.12033044689776824
0.24605769355517595 0.9637519706052207 0.30765569957744054 0.0010525171987152697
0.2173961605969713 0.9556943439957402 0.2528117906807066 0.17711015420686319
0.24888030421605578 0.9945156969211835 0.3054941985559346 0.023340917066724975
0.24573152935374165 0.9950122248780917 0.29400219196544736 0.07539171084418891
0.24220972232782093 1.0004248570851533 0.2792861575486779 0.1398925482998605
0.26102899136887936 0.9819484283803963 0.35944553312911565 0.20140667967470016
0.25575970283906724 0.9873980619826236 0.33482431818457453 0.0003880407783600362
0.25295349146262447 1.0034098342216455 0.3168263818798749 0.0008316244062831726
0.26953823489552337 0.9858554654829679 0.40377921798726113 0.1643829553352902
0.2682042691120481 0.9950358101368769 0.3960078918695844 0.11620545707419244
0.26544317255937533 0.986801102080078 0.38050079586444746 0.22816820074868804
0.26430210341403254 1.0015528275905903 0.37234261917366995 0.08806365506534967
0.26114688344263637 0.9934818988724319 0.3575453963991799 0.13570878554282195
0.2594040787053586 1.004853180832698 0.34508493018100095 0.00046493356055410937
0.25637671306706195 1.0189013833990064 0.3220996567559916 0.0007764306047382356
0.24959463926250752 1.009075577425262 0.29955464982269947 0.08378212781721467
0.27046037716805316 0.9996975761207745 0.4103311042432092 0.17110322424838328
0.2661217244775564 1.0130183086489792 0.3802001909905768 0.07671232748445216
0.2664476354693133 0.9996954284425934 0.38508874441996876 0.18003365809004956
0.2597175511519697 1.019607679144476 0.3391062971408705 0.0006166132931701933
0.261839544146227 1.0163902268311595 0.3526770967892562 0.000657572997667764
0.27089403495191267 1.0114886565925716 0.4132922153094281 0.07783395700995453
0.27047172607957165 1.0238605614446232 0.4088826196989861 0.0002470248156316749
0.26801102674655075 1.0223458949493098 0.38986037845423055 0.00041084762189050973
0.26905401832764486 1.0155222236054646 0.39956112446470465 0.0002326124713219367
0.26654793602561827 1.0281243751832818 0.3769476052897806 0.0005653230097360675
0.26335188797078934 1.0284034842885577 0.3540320981311779 0.0005484195724934437
0.26546209519861497 1.0380763518261928 0.360815428697327 0.0007558483953669528
0.2558536220345599 1.0268889873243972 0.3126467285647113 0.04515860520198438
0.25524464601029356 1.0339623394925648 0.3021658509617694 0.1325223834245689
0.2764861949076883 1.0272512112639018 0.4638068512015756 0.029659164249767615
0.27703644320044823 1.0114461712829865 0.46447216938760016 0.10791427652634936
0.27839070676551647 1.002469134123595 0.4723956230116847 0.12928024019885662
0.27730349427310935 1.0362720377649404 0.4754057237937265 0.03548789715234535
0.2785194688422527 1.029903539986054 0.4867957433555492 0.07496970868815964
0.27021620174190797 1.0335716371539703 0.4032178456717938 0.00032705426622434857
0.2620448138857419 1.043004907786248 0.3309525086177237 0.07614166553153104
0.26286231657562664 1.0362359770614078 0.34437644312254084 0.0006560383894562217
0.2645172423935063 1.0492329732647911 0.3404194229347447 0.060146404463870415
0.2595530096813474 1.0388127453917206 0.32008187203248073 0.08183556758098781
0.26020231003934374 1.049312948837597 0.3078336411938392 0.18538904505813172
0.2762726524901108 1.0431932304412288 0.46437773861072473 0.00133681253784555
0.27521034976795766 1.0362525160808582 0.4520575509017123 0.00018591367724856924
0.27424447181441747 1.0428052196058322 0.4405890797653675 0.0003380722826017933
0.26823060949410066 1.0413499758531675 0.3815467478310007 0.0003906877207534983
0.2706912383730071 1.0597472257330256 0.3862181128301281 0.0005130575714569377
0.26728924583936803 1.048510391307537 0.36595440110468014 0.0008333315533466819
0.26686285518949493 1.054047894846013 0.3533265055170566 0.029783003309894966
0.26914345426268327 1.0605065296272649 0.36595698190761095 0.0006197720774693792
0.2633899025941145 1.0531991934638958 0.32425465809314585 0.13897772324591479
0.2787474097339836 1.0499325071058858 0.49750573857152913 0.08933540978192607
0.27773038967157443 1.0505213016214117 0.48359250608695525 0.04928070606327431
0.27815871774191103 1.0629379908423056 0.49266282643596937 0.047053439195761444
0.27719764561440685 1.0661673316420555 0.4756984973887409 0.00013822399794268257
0.27580054670056614 1.0566643112772711 0.4570076995196274 0.00019750865815441798
0.2767023399435864 1.0553250127905676 0.47009952822052564 0.0014264729024444892
0.274799811551245 1.059602060100179 0.44130158791892293 0.00022299977874643375
0.275823431334708 1.0671117411278754 0.45208509155048765 0.00016758566074582997
0.2716823281216078 1.0571572437610264 0.4014355386856685 0.0003816663479910601
0.2720734147136574 1.0720724673349191 0.3794291930556244 0.0011073048141805552
0.26678501904713187 1.062838861198911 0.33243060738818697 0.14747795968983488
0.2694544888991916 1.0703130914612264 0.3435595414130121 0.07978874847206648
0.27924843588031245 1.0727859066629606 0.5148994419635815 0.08584967221288108
0.27461855616169495 0.9258740735385844 0.41530397536574576 0.24865337437566906
0.2499117608863674 0.9623122923305721 0.32020673552612056 0.001078888312067769
0.2557929189788371 0.9587659657729204 0.3412252198921809 0.15932797884822994
0.26958102575230447 0.9299717397162324 0.3942436284626186 0.2245987108089715
0.26375993587678137 0.9371723314256051 0.37180796919876474 0.16945407415950356
0.25176755365501347 0.9745763189449914 0.3234397659190033 0.0006308257912754523
0.27760960628659975 0.9879061625175477 0.45912458620408736 0.19453157752670924
0.2766236775450116 0.9682415411550253 0.44387445462687947 0.20431312696848353
0.2783594426940703 0.9720246690351859 0.45708254361456846 0.19352380361663515
0.24780590482797793 1.0177897563842357 0.2860206806738524 0.10786939460141741
0.2769547349969902 1.07444253629111 0.4672215006508503 0.0001043988058103887
0.26519921867350676 1.0650015074692283 0.30916171092999245 0.20142898969016174
0.13842796825032277 0.8006943398649221 0.3393926141870328 0.15773370723611702
0.12675732443099594 0.7987679897798114 0.3440872479327506 0.1401420553304122
0.12417733383246594 0.8133037913742396 0.32283718455040405 0.0041665369445776715
0.12603138131676903 0.8272487196550504 0.30511700765024996 0.003955753455685678
0.12471688285331838 0.8388516892847048 0.292778212756223 0.0036045611148710394
0.12692126004769494 0.8482990705966165 0.282786160671536 0.004928344124131774
0.12298542740741614 0.8615755240802625 0.27222699258450334 0.004076824331004332
0.12257510392214363 0.8737880608065598 0.2627260240913438 0.004692486410933641
0.12982841909804763 0.8883057854183787 0.2512309066497813 0.005136271476621011
0.12309996270523967 0.9016131806945936 0.24432216447754435 0.004532269979492175
0.13653030414434691 0.9031470453473214 0.24192653547812196 0.004044953907914412
0.10661107057725464 0.8018089335614518 0.34650194383235366 0.13944761058789054
0.1092976553113619 0.8071472091578435 0.3370055710637814 0.0982714730034594
0.11485468017232053 0.8229448196190632 0.31348050552314016 0.0021949510027880585
0.11637775649789295 0.8536807110790521 0.28099479785767567 0.005893429818081408
0.11749701521786132 0.8833630260962796 0.25751832366812466 0.0035919478955157218
0.11250696060481014 0.8930939088938867 0.2526171747499963 0.0043601066310468
0.11467012562072214 0.9240129437918352 0.23466003744850683 0.07452363717830388
0.11734270664147668 0.9138067247970727 0.23920040910872567 0.02579358714116131
0.10106127575439017 0.8179731248898512 0.32686198061713173 0.002731158129468146
0.09590634882233602 0.828073696420706 0.3177748357776379 0.003169359507375939
0.10708940355127941 0.8349345625474318 0.30330936902682637 0.004115081048028646
0.10359644714760664 0.8538344535029686 0.2867801059616898 0.0038433477568482113
0.10867788394041958 0.8443942360386492 0.29306272987909143 0.003479008219665176
0.10785286740360112 0.8623044572307328 0.2774819069419452 0.0032525786615986547
0.10757694787702494 0.8774752740857283 0.2656821523152511 0.003180622511596198
0.11061079030356552 0.9054006851021545 0.24597233045519712 0.0057273437647797154
0.0884134550905504 0.8244934082919936 0.3275527343807409 0.08427438907888286
0.08834008235874777 0.8143717925164602 0.3404518050231081 0.06338659406029216
0.090661796947365 0.8428764164049617 0.30575909614765473 0.0025975163483262817
0.09958334063664272 0.8937074513576432 0.2586518392869559 0.00412761093790743
0.09570194254150004 0.8796411219367319 0.2707713395731344 0.002333385929480324
0.07670209457285847 0.8165506298003413 0.3476585976022022 0.11085273121484936
0.07509112243872756 0.8091545936958496 0.3592039372752605 0.16252607764002286
0.07750370878995402 0.8244001155850857 0.3375036912487498 0.14683920803957712
0.08599660171896144 0.8338140012399264 0.3191544226968914 0.003116155925296306
0.08386840210370083 0.8528852050977047 0.3022844210246876 0.0013365121490503359
0.08598270451934292 0.8607883332607271 0.2933578404300201 0.0015977927704720932
0.09234760478171922 0.8673634311365954 0.2828040817220871 0.0031493447546479298
0.0894659036599916 0.891168187423402 0.2673365692415695 0.0025174809894107785
0.0967452648197414 0.904901542475312 0.25332614946242893 0.003644097919498833
0.09326162459786087 0.9185067569043036 0.24721740167876258 0.005237177447721235
0.06068772069047598 0.8274133036365791 0.3520651483022509 0.21358281287991512
0.07112044674265874 0.8345959536944861 0.33241677560511196 0.1516910346982259
0.07285344131653937 0.8515734453026496 0.3140703049966129 0.002478436266853863
0.08331595005163057 0.8748203449765628 0.2843351589943559 0.002666071324668591
0.08382840935332471 0.9190211118561042 0.2536853873374865 0.004685976619634603
0.06039802004656898 0.8182068559086714 0.3632210268043867 0.16481466183268886
0.05264785216398587 0.8285356381355578 0.3610888822667209 0.17255709786851667
0.06420557687236182 0.8445961757860775 0.33037345463964046 0.17671482060710672
0.06591651023426322 0.8623205185171118 0.3126143300313541 0.000939152101333327
0.07153866609083093 0.8670233384254116 0.3022070659758741 0.001509455874402517
0.07036557489953554 0.878830157356145 0.29434698649249175 0.0014653619684140398
0.0715722853870443 0.8887778801481019 0.2856373407369832 0.0018643116553581699
0.07906876000268322 0.9097423661793842 0.2637375177853962 0.003809078419274473
0.0444770798050915 0.8423653287259518 0.35868582139967103 0.19277003341293417
0.05565028257632739 0.8549817245873989 0.3318269923312124 0.15091037984948102
0.06897251450927705 0.91053695040397 0.2738156613064937 0.002769305470507484
0.07114190600850877 0.8993071137877707 0.27876904419332854 0.0026698991929177537
0.07290389837641066 0.9229848759536436 0.2614254318410166 0.003911036196012198
0.07811558336466663 0.9395181072731442 0.24593917975611762 0.12059246404796888
0.037032430669691245 0.8502846067737118 0.36327420610167915 0.18174936191396085
0.039890209732465653 0.8645650991274825 0.3476025892707278 0.14794061521357157
0.04684826902486133 0.8661259348228733 0.335652859500592 0.09366475137612226
0.05326782967976887 0.8735070128044704 0.32028370447378224 0.16315476338073906
0.05583952911385949 0.8822964485039322 0.3102193253675153 0.0014139070714852806
0.05725369460051949 0.8909425098563415 0.3021481471718668 0.0013430854412282323
0.06291788724460762 0.9048280962090937 0.28502604782770313 0.002020489712561832
0.0670412665707604 0.9365989601617408 0.25934538784368616 0.06014319246178417
0.027811599690941848 0.8501281384193041 0.37901698730100297 0.2046335635039703
0.030732566061274537 0.8604867702530121 0.3662047669583806 0.15887304757700624
0.03951663508471294 0.8837337948186087 0.33505384320426457 0.16492336064428437
0.04822366324995826 0.9022096147475053 0.3084757804422146 0.044954659672490724
0.053913097809130464 0.9109717931626464 0.2938495308119616 0.04390057536394989
0.05807216503819107 0.9251975377886372 0.27851508899168165 0.03920863091547375
0.05807263409134415 0.9387986201984011 0.26991061796476656 0.08146965548437204
0.023065063863488097 0.8654480559117076 0.3773580300339308 0.18360314974461225
0.03328761749249582 0.878131665771513 0.3500254079766948 0.14194735150151916
0.042086581546622356 0.8934353908633841 0.3243718038098249 0.1772570302112746
0.04571127731905604 0.9148380403861608 0.3050321196405761 0.053039283158856934
0.0504676864592145 0.9268684538612212 0.2895778372943187 0.05503474741647708
0.05304974736244863 0.9359291462187274 0.27964455146610584 0.05638328825563649
0.016496371307987964 0.8687663379089057 0.3888942197313059 0.17396174078273746
0.025965091043399374 0.8809242439952171 0.36254173333040696 0.19486222063546102
0.030181105872582485 0.899140856323273 0.3441916524348654 0.23167602525259431
0.03557586799029471 0.9012928176682748 0.3318653224124849 0.157587499529426
0.038592699508704226 0.9246582540207575 0.313157680946096 0.1465524673126287
0.04012784804979391 0.9115973646511966 0.31719310375501153 0.1287678196072414
0.045661170138308685 0.938136305675881 0.29159665144867764 0.05573438626533577
0.05058952103575664 0.9479862410750539 0.2764927858191163 0.09605923081150262
0.05810118367535992 0.9510414047780578 0.2620781957956858 0.1358340954806279
0.017939800396320857 0.8796071695742523 0.380203747652467 0.19752087206296526
0.014378320686864628 0.8911503701236725 0.3840311319568934 0.186185283878039
0.02397035552385019 0.9059491161960295 0.35489111478969687 0.2030940160850453
0.029545408179732856 0.9192744131888502 0.3358926122070075 0.18269574178308748
0.03191442988342019 0.9273208364472774 0.3267305856922857 0.16463678088227923
0.04447073794743286 0.9499842842831238 0.28716156735292 0.09460983347668284
0.022808262608801547 0.8954485588160623 0.3620364530891024 0.18909000368448758
0.017548313621435056 0.9023732701363345 0.37209589877471294 0.1951015599500172
0.01625827516028871 0.9148350673762747 0.37215682561417096 0.17417693522556435
0.024468712831482307 0.9207538386142533 0.3480542614652856 0.20821916461604964
0.03433338612872916 0.9362448349769948 0.31706532668387866 0.11756588032420325
0.03660441201917056 0.946597804220161 0.30685464200700846 0.04788878202079022
0.04971815451184652 0.9736658793441173 0.26191996025646735 0.167524787291247
0.008202257522184767 0.9015148783426447 0.3988263150045352 0.17480270111049587
0.011758603823398007 0.905233004625549 0.38740490240689596 0.16504320492810085
0.010828128186751152 0.9199682501574037 0.38936059038351345 0.18991710608032997
0.021294178223440985 0.935249076961214 0.35286339538856587 0.21020941221425607
0.024782563746450905 0.9422654510300991 0.34072880741074413 0.17816293929932203
0.02864309402145223 0.9470215474508463 0.3277263591734817 0.1253067600584922
0.031467960689631896 0.9540898968333524 0.3171097209699542 0.008766119857079292
0.04220246175310742 0.9667411029367663 0.28296567579051296 0.09278319509844796
0.038253466098062086 0.9598709316163921 0.29651981072584244 0.04788332957428904
0.08665103503109489 0.8012756844078466 0.3606628917556222 0.14342279805229194
0.1286629901984463 0.8051986795685291 0.3336235523661941 0.08335160647125311
0.1378917576412508 0.8218846335456833 0.3095656825109371 0.003149964821622365
0.13717367814009507 0.8436425185033424 0.28595767288025103 0.004273217050342089
0.13376754400278595 0.8766371682500693 0.2588080524415426 0.004060218670656814
0.10282405765763031 0.9279498739124836 0.23695048040060018 0.08173364425427383
0.039105786160005644 0.8344558169990314 0.3741091366584754 0.208070223581904
0.0024486261527230176 0.9048028862005215 0.4191191641731145 0.13890692082165954
0.017725507502003558 0.9375207993480782 0.36466000674897864 0.18634025830867812
0.020729216148699943 0.9468123788825886 0.3536933028591702 0.1852761881376964
0.015096153898608106 0.9413586080428303 0.3750761758604632 0.22324803201651264
0.010586984458501153 0.93149087391169 0.3917505304780294 0.20098015634704525
0.06527953538347787 0.9510983755091 0.25208737202706494 0.15728959277994556
0.05732740039048237 0.9627799006018587 0.2553457875141319 0.1457313398834444
0.24813107871052184 1.026081978324284 0.27748240173021593 0.13194845337231156
0.254094140659755 1.0394888033567549 0.28848807836359697 0.1565176654475325
0.2421746544376695 1.0125925468794308 0.263629145273767 0.11473419844855517
0.23747580497205367 1.0016542631586234 0.25460667528137576 0.07036857853483464
0.26506030305019923 1.0668813709836948 0.2971727902086572 0.19535335013843722
0.2792279805650002 1.0161015764698138 0.48788495478701754 0.08069544278836623
0.2783242371007393 0.9344745455369388 0.43799025957153115 0.1259537459421745
0.27842621828554676 0.9220000541228643 0.4321889131529407 0.16250587853883808
0.2786872604987372 0.9522310615108996 0.44934073773364636 0.1638414785936337
0.16594756966920202 0.7925579144554606 0.36272301773088833 0.11227384189728944
0.2648495111587366 0.8613742572251598 0.401114274347273 0.13369736448715172
0.2551498803747407 0.9213512150582315 0.4384270772596421 0.1659579711743438
0.25740400565142074 0.906495203589797 0.429849193449961 0.16961063751188385
0.2622581758173806 0.9346711311185241 0.4461239441723938 0.18340367748713915
0.26941338265259207 0.9108077401224632 0.4323474801934091 0.13215651573460774
0.2539424092294668 0.96658537368299 0.4645490218039921 0.08225176086369836
0.27273639845405706 0.9392395192777833 0.44876562094730676 0.1487221930432348
0.2639878518807999 0.9847825547040646 0.47506072024447643 0.14532819455001617
0.26597987810273804 0.9645757659305441 0.4633934330947578 0.14517066173765547
0.2652058559579359 0.9474673250948171 0.4535144241167086 0.13473005223039763
0.2580199595343312 0.8897334319313133 0.42017247599778684 0.18191685496406065
0.2570564550785092 0.9956729992193335 0.4813462414917915 0.1253487841799024
0.24458722143179357 0.8454517604245433 0.3946129790681772 0.16783300239459756
0.25158836986737587 0.8624816003138387 0.4044450168932309 0.1550896972839661
0.25893591906415053 0.8717344769413248 0.40978598907814834 0.20013417034266665
0.23697072901715446 0.8549917073793599 0.40011913799914933 0.14111817931884765
0.22986710946957772 0.8368000686916435 0.38961728151165215 0.1853763449785072
0.22303031689114164 0.8267431208563305 0.3838089168268317 0.16709150648105853
0.21079714567980323 0.8154388395137258 0.37728660621101096 0.10778219099814228
0.19572280478609808 0.816825906128629 0.378088038515063 0.1676655235631199
0.18641037416631132 0.8085353584848893 0.3733038010466556 0.13737527040992828
0.17405075266301112 0.8120635128993946 0.37533881191822405 0.11563339048713915
0.20006016013974776 0.831437995581026 0.3847210249144135 0.13183841066146149
0.22040154485096253 0.845214186779057 0.3932027283860617 0.13465680608450142
0.24332219268121652 0.8742752434767922 0.4107386078089878 0.13825504039481004
0.2465061259759566 0.8845502909870759 0.4162134793643629 0.13141171888112985
0.25057873157451593 0.89797196564701 0.42460318652231555 0.18295056520939432
0.1557573535324413 0.8169607814094151 0.3761491843531741 0.11112625727834351
0.14910386672508896 0.8052682688459059 0.3714133475100424 0.15809193885480827
0.13688043919222548 0.8071130238196176 0.3724774741468495 0.13759431322985022
0.06620117921006556 0.825278691487923 0.3829698317434021 0.131966246917617
0.10618822617519347 0.8083937018659205 0.3732210299312119 0.17425000951639216
0.09429017972845812 0.8085258248725928 0.37329403131143946 0.15693302750356988
0.08235310315108108 0.811504759761432 0.3750115050076067 0.14921297511484852
0.059007503169947975 0.8345414082849585 0.3883138521921695 0.17073558576343373
0.04731470636394432 0.8381114412259718 0.3903774781138304 0.16283656687235515
0.05234576854379505 0.8195688563532695 0.37922154791879137 0.13077959171221257
0.036335922409224446 0.857493000640578 0.4015677525292805 0.14894553440524477
0.022433923701382974 0.8884882996545331 0.4194640696128864 0.18249217580401791
0.008401951968781515 0.893666655905384 0.4224497870377233 0.12736838001541873
0.024639044454775577 0.8785909115714663 0.41375013239644 0.2038335371804664
0.020279852574849724 0.8620868605217266 0.4042196560257943 0.15192299853033758
0.024375854356007337 0.9476313950940177 0.453609230131009 0.12948072639136757
0.017236452630539925 0.9393718585367438 0.4488397819462778 0.1619190590952885
0.024266467225207335 0.92777513817713 0.4421441155961663 0.16324296940380362
0.02425189741666379 0.9107619220757406 0.43232059268720574 0.16305651637842275
0.02111825554814833 0.9629032443999166 0.46242711925183044 0.18229125497436105
0.015430581714246331 0.9041600780235183 0.4285082231809081 0.1772246690069927
0.004379619213590962 1.1169258580334256 0.5513525647622706 0.14472898066050074
0.005923408940375727 0.9916925539220747 0.47904652514178875 0.12348388271271778
0.0075954677908663115 0.9700673042195104 0.46656099670394463 0.12556562823211567
0.013927397279874873 1.043794305381068 0.5091301303773897 0.07595954983928448
0.015631059214021862 1.012524677499451 0.4910762046644438 0.1256998321450481
0.00572106407268444 0.9593096473713077 0.46034947395041315 0.1501560496602113
0.019257240993345116 1.0228090616028371 0.4970147928315926 0.11153862954518898
0.01816259489120752 0.992985978071661 0.47979555105405264 0.14484175533808782
0.0059671365496978875 1.0031951348742973 0.485687812201953 0.12761855061093658
0.010599918559617304 0.9217224772142663 0.43864855078333753 0.18746159440339683
0.024933632656303568 0.983890253877545 0.47454516397790447 0.15269411943559075
0.01190835050425888 1.030462486063305 0.5014323294058025 0.059114150678156695
0.015884681369128444 0.9771687770008104 0.4706627105638058 0.18527464534004504
0.07543609529917537 0.8336968859706584 0.3861156186168022 0.12763136622327523
0.03324238919532468 0.9011169543662422 0.41890670037711225 0.1559160753862395
0.04233943328839389 0.8687608293256178 0.4058026412063753 0.12320331998682175
0.05724991531400793 0.8494798920407134 0.39458340159755795 0.1754265801539026
0.08583643601291785 0.8315727462217459 0.380190016766555 0.138848781082951
0.1145719593132684 0.8271691067765665 0.36930625995976823 0.12508233887057482
0.20872431235100922 0.8394236107641583 0.38622582950027784 0.1460052705889987
0.2168674450878214 0.853984732781035 0.3836288473210262 0.19319500835162146
0.14279891032392514 0.8183371985811221 0.373625899617193 0.1266933884775688
0.17872564874246571 0.8276537041438323 0.37430986066610633 0.13022098276045335
0.15128545861475562 0.8248543012974933 0.36816288277187 0.15108806363383334
0.24734783105031083 0.93786066544948 0.44050261297621796 0.10411294147737465
0.24491848687627493 0.9303723693144824 0.42554350285411124 0.23643877385300335
0.24754951285460175 0.9486651997936544 0.44760921569345646 0.1410312932599731
0.2445281977872551 0.9204196661121046 0.41810095473017794 0.21618253893279146
0.2443741028824733 0.9611375953744277 0.44095788501788025 0.12438831469445044
0.24632739424715716 0.9735646693024025 0.45663355612497813 0.1268939651148394
0.03542828096735518 0.9587506368716403 0.438648195587383 0.17514257856619203
0.03412544648125497 0.9465532666315242 0.4372967963796772 0.17972319653996582
0.0319761458429257 0.9218940737254571 0.4324196986869159 0.15404564716203914
0.03137985922700098 0.9572156913258525 0.45533746279874365 0.13539559558713657
0.03349720284342059 0.978049437099328 0.4581607781058541 0.16505749821517496
0.24347757804156958 0.9757114383960034 0.4449495952798384 0.1695079691347258
0.24229758809476096 0.9879690733624208 0.4461364548140835 0.19963773506972746
0.23590007891540513 1.000891840687392 0.42192219065598857 0.18881167474847826
0.23578917384022127 1.0085054595600562 0.4324247979003929 0.07677535021014464
0.22599020283308008 1.0206389259425075 0.40216243380026145 0.003562028029138337
0.214543272899226 1.033226174494779 0.3851930387446384 0.007292814353348382
0.20746977672756237 1.0372389602325778 0.37174914804657094 0.06313981886679808
0.21258827005253164 1.038976890773541 0.39488980174011257 0.0065649303347423225
0.19878891187742953 1.0473812911624147 0.3787199263205452 0.11943148537020135
0.1959122047588923 1.0529560701604197 0.3947778994500865 0.16262669364284
0.1836269071041404 1.0586645765988405 0.3896074368435216 0.15337257782663277
0.1783301401392005 1.0634373479591919 0.4047244681634461 0.12722765976622408
0.16603680357422507 1.063966940810569 0.3849187055002392 0.07446787568815404
0.16602509489651654 1.0670271114278418 0.40559612953874036 0.07144029005034501
0.15365478802470203 1.0701223421068509 0.41511865515156166 0.047181753131374085
0.15086062430164038 1.0715514310725767 0.42716760755802835 0.04359197123592631
0.14865808914148393 1.0736844787986282 0.4528667159423644 0.04605662084537176
0.1533581887886214 1.0667816581071845 0.3896866116226918 0.049736964151950995
0.14465513119719595 1.0608758024748293 0.3516894334850967 0.05216045180763047
0.14245929739425806 1.0641580946176628 0.369002966849217 0.04666299137415959
0.15688808236265378 1.0616063613803788 0.3625829788373325 0.06964250885549714
0.16138725639533644 1.058423197362174 0.3515159378848803 0.08165866255224735
0.1780025200325543 1.065104846598981 0.4185251495964353 0.1107042421092647
0.1672688942394417 1.0616354193628499 0.374024443712547 0.08954887985947697
0.17184265803570128 1.0579589775418854 0.3635242187283556 0.10592001327231337
0.17295423416418287 1.054198450925078 0.34948020118011897 0.11644087396111846
0.19346536509598067 1.0596650154110188 0.43124424587785803 0.1650915583461624
0.1906198476248407 1.059875708885126 0.42007596205149034 0.13385288596542522
0.18702119342838802 1.05441501606111 0.3761903074555021 0.1611385352572334
0.1840756787748191 1.0527003580053367 0.36398285170668165 0.16556023371725112
0.17392985274846653 1.0493217474838614 0.33558234657286123 0.1955000343613281
0.20171695817558574 1.052269647378582 0.4146592983603932 0.0987078464271454
0.18420275777374137 1.0484231713478114 0.3494573166901044 0.1856615289277895
0.19199178229555622 1.0458322639741173 0.35812236418782295 0.17992217471079808
0.2119478445288595 1.0433097692564626 0.41188454038701283 0.05149250858540289
0.20222962283030865 1.036398853442259 0.3580359936029891 0.08309275570970427
0.19260531246292922 1.0403750671327407 0.3456318343326751 0.19963885833575323
0.1915967211896392 1.0347264062051973 0.33443202114168485 0.1690791266612363
0.22060016249508255 1.028953283847517 0.39668516989607905 0.006516513334209377
0.20118782364436985 1.0308807732384135 0.3460658613047578 0.07330145917143527
0.22211436800982456 1.0210276141850627 0.38533392632774666 0.005733375501127294
0.20840209956593092 1.026919953501865 0.3561864275431552 0.010297679940367972
0.22065214579803144 1.0167942615377084 0.37521031387401105 0.005561135639667275
0.2151952929020664 1.0184701552284499 0.36150540869853826 0.004948581708597981
0.1356455311683293 1.0734518410090506 0.44596617751999973 0.04673982540819789
0.130632746883953 1.0741922462248787 0.46304495055009676 0.052308865338007215
0.12206844767165262 1.0728306202736309 0.45169563259622536 0.051331919638521004
0.11167880961007828 1.0696283798295394 0.4344733106175572 0.06684027236469485
0.12740119393504376 1.070308718491468 0.4153397668929272 0.0503063663049556
0.1296583734265717 1.0666018005466693 0.38589715011509296 0.05082526216459839
0.1299567030612539 1.0635259630324265 0.3677827650249652 0.05243706226691554
0.13369349900579788 1.0605228063607208 0.3504370306997612 0.05556178928773762
0.11806923934637678 1.0674833689319356 0.4026995376982236 0.06520834014675264
0.11750547955883411 1.0650136131854595 0.3867945220801507 0.06919400166331337
0.11842718014708348 1.0610671418838111 0.36393634447935086 0.06787070447334081
0.10634343492255388 1.0666050671891902 0.4188435940800954 0.07677132627659536
0.10889240936320327 1.0642760002651366 0.3954136586841821 0.08867020945188724
0.10834864104870837 1.060284447067426 0.3730676930935826 0.09996124488423867
0.11679443398319866 1.0553329555215922 0.3404511422916022 0.12221064699639397
0.10024771379325295 1.0634362376424473 0.4072052888957774 0.11571613793432627
0.09255019849025105 1.0616787996242725 0.421181163707969 0.12937118711259407
0.09858720562247852 1.059844492044422 0.3902972163704786 0.12346062711118422
0.10478940623046211 1.0564364130900947 0.36172982487853184 0.1254051904751934
0.10600445084788823 1.0539766057932627 0.34960830056935327 0.13311131917065722
0.0849224226302609 1.0563912453456932 0.41021884516588564 0.1452520002916476
0.09047255736533734 1.0579484989228496 0.4003853754912405 0.13786815038898695
0.09360607510049236 1.055711414646595 0.37994167190014705 0.13733304430658094
0.0943713973794521 1.0528696381536817 0.36690264821580576 0.17273432529697666
0.07186558004211605 1.049778681904671 0.4277774243458196 0.035498747026859075
0.07537923157562584 1.049442976657779 0.4067298235219494 0.10729695400601846
0.08289672275461898 1.0514303894812587 0.39027539940545847 0.1396566100011984
0.09298430871146013 1.0465289594673197 0.34872548459835706 0.18301718124373442
0.09978597006515463 1.0471963069104457 0.3390074932155389 0.2025011549990119
0.07526213747829802 1.0442700290430635 0.3849260416437973 0.09878122719223725
0.07971971743139628 1.0451492461366514 0.37353623057384433 0.11873558991715441
0.0663838040945072 1.0375187473006104 0.39240224426202996 0.006057982388507313
0.06098288982034041 1.0350737984513916 0.40829480931593726 0.005773552648001523
0.08890250758221308 1.0366215685542945 0.33570553981082485 0.16628697377014226
0.05912512460997261 1.0285243141302258 0.3942716618390842 0.0062908708108569645
0.07061028259290066 1.035433529350646 0.3716999718932882 0.04017694135889371
0.07971656213111172 1.0374498349649488 0.354844922196908 0.10629687228177694
0.05349713060372574 1.020001033003162 0.40099503551910876 0.005185469788688934
0.06387559468223146 1.0258407074770806 0.3728449211975555 0.007809242339955015
0.06808304553662789 1.0254665060210422 0.36111166074346474 0.008116510129578538
0.07600534818778634 1.0233278450138912 0.34174888224402783 0.01191441227995
0.05810195107494186 1.0186597981566017 0.3801503029578701 0.005762256076656582
0.062154387398740484 1.0157642025877147 0.36370344043776764 0.007611327481289078
0.10870637324590561 1.0698334465385653 0.4472546460005351 0.08848089327520849
0.09827945007147473 1.0659007627993562 0.43703160791380546 0.11604209515517311
0.09881112138197748 1.0672027260746368 0.4578482455168674 0.1298557407305111
0.08174925069835468 1.0590890904809644 0.45806666471427093 0.10057501218825844
0.13355260849621028 1.072474339013088 0.43424422266704155 0.044976046015341595
0.08433922020992532 1.0592723075374884 0.43904354261436274 0.12255080790996824
0.12881751168974578 1.0552481081983254 0.32938692451441265 0.10946088730697594
0.06858755595065516 1.0488433991849562 0.4475111819094736 0.04538611837636262
0.06057275162868823 1.0399916389088295 0.4398199366550932 0.004211526791217745
0.05102845114230121 1.0238667343560217 0.426360457176375 0.006242476879977484
0.04888992506021188 1.022813218054673 0.43866023256257924 0.004314819679266061
0.10067698333007849 1.0409070515581393 0.3244327868597428 0.2800856719001247
0.050008910476111494 1.0179353369251989 0.41401858674043546 0.004126813254679319
0.04519921913548899 1.007258806351522 0.4216629994468947 0.11964492676440008
0.042041081737088135 0.9956995259731658 0.4260723747855697 0.23928534515791952
0.0662742607310056 1.0121293118402424 0.35230135437383747 0.0035689302778533602
0.05355563407797244 1.0079725260456758 0.38283701084580063 0.0034419043743870634
0.08626163517781539 1.025551294360988 0.3272696317309825 0.1525322987753562
0.14146951954308873 1.068524608349232 0.3973641669473833 0.04206760986497716
0.1474181055701376 1.0658162355530947 0.37926992217555067 0.04678609388323364
0.14509559088125146 1.0729642353127302 0.4386257643141008 0.0475717292441537
0.186326613434183 1.064722534895497 0.45339605391567106 0.15807478080868645
0.173281395539245 1.0685837231916275 0.4380414809852781 0.09488762460408387
0.16962757697306974 1.0707705200355502 0.4587749034956583 0.0794283920388702
0.16110125340546966 1.0719125657984785 0.445550904839059 0.06097247300579472
0.19971161804016485 1.0577462838013423 0.454164615967848 0.12184187462919958
0.20282125578174626 1.054664221909784 0.44103791226219136 0.1083193716820778
0.14440043670290953 1.0576954971288854 0.33716369174473615 0.08156961011983418
0.15758581982691344 1.0538998139851563 0.3296403935822613 0.1384060900003979
0.21263937348834064 1.0477752760628947 0.4511540881641889 0.03472631819783852
0.21619770508055644 1.0429706898245457 0.43910229365418174 0.005063222549754216
0.2181944907475168 1.0391979114093732 0.42718041943521773 0.0051688545503453176
0.22425170138898262 1.0333519887885767 0.4396840504232012 0.0069622327570214426
0.22435776796660056 1.0304055108794978 0.4241240693129482 0.00489883461892764
0.22997109605078048 1.0234670481445733 0.4356398019859267 0.008287542522897566
0.174717979220807 1.0443826570438839 0.3249148551321055 0.23319513736847594
0.20394396637075465 1.052819746873909 0.42969568421911564 0.09165588287867563
0.2318025828076688 1.0161985150049762 0.42416558892133693 0.004258017751636429
0.22889162910419825 1.0061359976960724 0.3926279543610647 0.153793713465346
0.21111518807368285 1.0152742317387085 0.35051618207693613 0.005048729182601534
0.052465304505969215 0.996193795548961 0.37920489243723454 0.11241874722446694
0.05679404218295014 1.0042361969640434 0.37052403108397847 0.0026843318602568873
0.04710638069669751 0.9971326704277339 0.401247756514911 0.16067672724594997
0.07983304793589624 1.0061779024869026 0.32770723074022884 0.024410841283146155
0.06584814758104911 1.0004506822166142 0.34847590264322514 0.0024113256659540868
0.05582475802211826 0.9927949764210982 0.36809504353804035 0.001624281677717545
0.07236158194281628 0.9915246515630265 0.33444070241565127 0.020845005221898603
0.04664532268512235 0.9588965923610355 0.38302441609514754 0.2319397614564539
0.04799206762377589 0.9712786017685571 0.3839210859631803 0.19411739297783623
0.0502913958746141 0.9631294326575126 0.37189388921043764 0.23838157842809468
0.05137085654543358 0.9745969774203069 0.37271634952708566 0.18113102288204413
0.05497497038168794 0.9699017520862767 0.36091882944087605 0.19439768771001906
0.06368613713408161 0.980422924469575 0.3455379514943358 0.0019401541033707182
0.08090443126322423 0.9927408675492646 0.3240062845385062 0.01761748395970266
0.07766743090091736 0.9787441884833527 0.3260614957512712 0.02612057127315462
0.07031011972203294 0.9584006063383299 0.3325288812578796 0.01120768700564211
0.06967106088809054 0.947235290399697 0.33383598856715696 0.00897334041825909
0.05916279408830339 0.9420076791062695 0.3473473114300195 0.24989294223588104
0.054555290557432745 0.9243179662586711 0.35735761384223136 0.2691994708488459
0.08056937245654726 0.9684651760922014 0.323150491347704 0.021224348338871844
0.05628658449590215 0.906305582941407 0.36080587956438787 0.23398687063675944
0.06173101717523563 0.9155749680600399 0.3496002477866537 0.24205616386031575
0.062055696003202196 0.9286455404137679 0.3447677083603179 0.2665746248957453
0.07134433659008893 0.9305126657449432 0.33513763508692923 0.1013696756272778
0.07910568031045176 0.9461879287849119 0.3260560028194294 0.00541497917887486
0.08566783894295296 0.9571309392885213 0.32061498792157983 0.01642570535741485
0.06690800345102697 0.9015874534678125 0.349145454078745 0.19030250908087595
0.07635025966717045 0.8960913835285701 0.34251394499554594 0.16285947047078442
0.07740476631093897 0.916871456360129 0.33406102690538947 0.004922460467035072
0.0848744329621582 0.9352771968050806 0.3245971926402661 0.006236441695526044
0.09575254051643584 0.9409455400536701 0.3182135023406928 0.012396047444274548
0.09765989947993159 0.954902863600261 0.31526909983243273 0.11429716041584462
0.08228763298691999 0.8834350954716623 0.3451490007240705 0.0929545343324996
0.0827634548856234 0.902762975563028 0.33551693441898667 0.006433039875408861
0.09388236590727377 0.9085217710497022 0.3272375393898414 0.005474161068442162
0.08941487050730564 0.9203358833088664 0.3255311168324002 0.005465174283881675
0.09391158427555144 0.8799399841096376 0.33995671282659984 0.0032664584791702654
0.09599417248823247 0.8900498308676716 0.33388931649560855 0.0036935677304956336
0.10803700929673658 0.9089197181928386 0.3220941161036542 0.004130519714131426
0.1131263852713822 0.9236563786800381 0.3165950058174057 0.0023902080629629365
0.10128978671933789 0.9192287179489508 0.3210802655103354 0.003876111131572137
0.11702416973176694 0.9351951672198293 0.31356610860712153 0.009522760567504162
0.10966806354398051 0.8717602125179618 0.33807964976718985 0.0027449776641422503
0.11312173132240902 0.8867487782732293 0.3296040772248829 0.0024299554150909886
0.11887124468118183 0.8972589150139723 0.3238740819250648 0.0032648589000570413
0.11976369787324458 0.9130109103656128 0.3184266857320136 0.0028433289103808102
0.12642907713232965 0.9262792447073651 0.3140001315272194 0.007586937068261115
0.12905297611778227 0.9462212750628338 0.3103991311437819 0.10866897452472517
0.046796242056210344 0.9256426001524724 0.37330284888658277 0.23879551496359352
0.04499297192126195 0.9381062618781771 0.38061179409167367 0.24986100442585432
0.050981576737778644 0.9406334764768044 0.36291945326608815 0.2513749354182204
0.06194514655429711 0.9576211821918963 0.34285022371604124 0.160947563938615
0.04743211666638279 0.9129184659390063 0.37486918621469506 0.23634681602677138
0.08605224487822931 0.8726975773402826 0.3482368538377754 0.15159436466837253
0.07187618901142856 0.8711179767723198 0.3606608012867783 0.2233151658523393
0.09332607258918693 0.9679813130414585 0.3154750079908703 0.23815717378684578
0.10927643366243787 0.9526666124709544 0.31224137117844847 0.1079822554749175
0.09309238287534025 0.8626571287375182 0.35042696297129916 0.1377934977078583
0.10460125951209237 0.8598241198142511 0.3468714420730774 0.00448808512375426
0.1332578080855445 0.8854278024233981 0.3269638851582144 0.0038615699549531305
0.13194607916607565 0.8970524086631614 0.32226322656479095 0.0022686302209432964
0.1387835220159335 0.9097354035453773 0.3176302053094754 0.002781404414328901
0.13241045202503066 0.8671137810481403 0.3363323007823051 0.0033951605200720778
0.12546489367193023 0.8591830017644442 0.3416341078823799 0.003271876439921264
0.13486629945391748 0.9365613595722613 0.31150693234914306 0.01204612414280179
0.14513964078049835 0.9515285151229774 0.3095282581902821 0.14048369757143475
0.14824749931698805 0.9382998402478571 0.31141858903826114 0.012260485086396112
0.16122233181847068 0.9279811864420116 0.31475985557932595 0.009046563370164856
0.19173967090800967 0.9190304171911914 0.3267729374180534 0.005313236893425191
0.21354202882930734 0.9132478342010335 0.34510388215963633 0.21477576538253573
0.22201300184585454 0.9112035046295937 0.35693519970197085 0.26946809157936624
0.22887687823001432 0.9158780399397108 0.3672226429076984 0.2554069828389959
0.2259098101900645 0.9339276765707877 0.3574315588482107 0.24949252576628478
0.21950662791169395 0.943809895750653 0.3458641269758277 0.26814552560490634
0.20861615719576013 0.9520394900928387 0.3324628769915433 0.008100381270663017
0.19490118541139156 0.9646684604037217 0.32046584120427074 0.022488293716267618
0.22034395855620226 0.9241625605972301 0.3497565409352008 0.26006799212370807
0.21204368198219956 0.9394001524796333 0.3365234526913678 0.21232869565145332
0.20056396285945394 0.938306995337824 0.3272917350604867 0.006721336073151764
0.2157158781833072 0.9018784516617507 0.35203321124768117 0.2647442845326658
0.20329691830158064 0.9046058824183367 0.3392918677071185 0.08263197455200534
0.20171899101339158 0.921739224304168 0.3323708175344922 0.006069216161792182
0.19125108766356325 0.9455752175407222 0.32075993465991737 0.017432179455942304
0.2012120737548987 0.8920719581521931 0.343237687126944 0.12004332029583464
0.18576520498524832 0.9023482772624666 0.3292017949261897 0.0047068719531598744
0.18638849321613077 0.93008792481534 0.32151245179920535 0.003968057622754044
0.18753895950425042 0.8873914864533605 0.33666873931295105 0.004346582186578929
0.1843641918500173 0.8767542561771421 0.34109161407395294 0.0054141380784948154
0.17446157803269646 0.9037532420373209 0.324828169420493 0.003656467932446193
0.1680210941132752 0.9190524566163949 0.3181894697428579 0.0033632224343831856
0.17896605460974796 0.9156243220076185 0.32219413810413966 0.003768825344445091
0.17049165217456183 0.9391982662538894 0.3144323712208341 0.012923177325199472
0.1710309725205416 0.8759702367629447 0.3360325809215006 0.0035192682378689982
0.16172647104398002 0.8687968028766534 0.33754953125109166 0.0028272132435784914
0.17190486277805125 0.8907717767773846 0.3289413499037074 0.004142842083609572
0.15984464069257417 0.888231431711743 0.32746572116902445 0.0018930839640208834
0.15519353816207387 0.9120211908447886 0.3179299417974143 0.003207956810907428
0.23308672779504563 0.9285721520068044 0.37463011786965766 0.2536157816392865
0.23481537710767386 0.9376734467166757 0.38124945393111875 0.24174216610388674
0.23035365779552902 0.9376502023430657 0.36748736791692777 0.23631239714488972
0.22621262644955362 0.9465330147638132 0.35781427601665683 0.27674321934708856
0.21935522513174213 0.9560523454483429 0.3456931919030702 0.1678718472209313
0.22322098031337 0.9016407110356467 0.36262354056407475 0.2576281380464927
0.2241089434809579 0.8894732488671104 0.3698189736522838 0.2509058928281827
0.23297522011562344 0.908924223530151 0.37780118987467964 0.23048170079717314
0.21590237403052176 0.8857958182680556 0.3605459663682716 0.26820433433793056
0.2070351036949378 0.8835671630794709 0.3523537881796928 0.25423792082590135
0.20575172469952316 0.9727462380982272 0.3295132472309057 0.011917026120971624
0.19298101548428187 0.9876511527983582 0.31828645898154 0.21596791713806834
0.19005742305434908 0.9768704714550827 0.31662060284301013 0.22348822825291895
0.17843216206531745 0.9636674101474869 0.3130886407356467 0.18520774805023213
0.19460127220465961 0.8671344423705265 0.3524631608924675 0.1674187257659474
0.17543838552786142 0.8652123084609415 0.3435175202567486 0.0037177114923106513
0.16578759975798163 0.8537409445511166 0.3476756173906822 0.002433734642967783
0.14849472361327562 0.8686307908189413 0.3355660300385155 0.0032970941685033805
0.1418013388336706 0.858586838095205 0.3409123782415316 0.003172423788809684
0.14813083689016673 0.8809698413740943 0.32914943051632584 0.0031349428322135406
0.14256567651825916 0.9243732599630055 0.31383182079146 0.010096653845121654
0.15328071648421293 0.9003000810001344 0.32151527821693043 0.0029548911845141356
0.14399671602199393 0.8921464425781211 0.3239783751404911 0.002663715288753851
0.1696787241541259 0.9541649471126208 0.3119817843405323 0.16264088533204368
0.07180765377367715 1.0073450468577683 0.34008036415014914 0.009754444564804671
0.04868577168584626 0.9896341808923806 0.3905419618116732 0.2170411550131621
0.04308283976050039 0.9886067548074766 0.4158556570854056 0.2065408860127082
0.04351547981610674 0.976038956644163 0.4064555473491427 0.24880027850762712
0.043661908701857384 0.9644956391336699 0.3994199677905006 0.2532864723350451
0.04396309629084108 0.952828077432256 0.3921194226628608 0.23227863208056007
0.0675407463512549 0.9718474376564429 0.33690752441114213 0.010861801378107088
0.050585447312905485 0.9522390382827899 0.3661021072456673 0.19909300896541998
0.04038534414860205 0.9367521558380683 0.40044202273858537 0.22450571649487863
0.20273857911061377 0.9912948205443362 0.32862560750357217 0.02939399589543703
0.21261319154917083 0.9839330710332833 0.3411516890767597 0.005559937504520243
0.21419511553277967 0.9951776709259902 0.3473551200521182 0.003221973730705328
0.21988838275482575 0.9900256564268478 0.3567181201902619 0.0020877491543366726
0.22409026797127096 0.9925504790893848 0.36886501179917663 0.13779381076546587
0.23233870961541603 0.9742899411069321 0.3882119065583717 0.22171737212906095
0.2276031417382972 0.982372828957115 0.37404493835717145 0.21319256418259916
0.22991264860933908 0.9675170706228002 0.37580359443869105 0.21689190260176636
0.2207592565652316 0.9778675998267243 0.3548104665333166 0.1275786997418465
0.2066593684238625 0.9993538886335318 0.33547513705361276 0.020293460799463273
0.22634580065827858 1.0003266939403004 0.3788460463599234 0.0873644522236189
0.23356664728083582 0.9914489239977202 0.40281797840252664 0.22879614923110406
0.2023566933489618 1.013783104390929 0.33405656895341806 0.02034473764080203
