x y z curv
0.16815106834061727 0.016075866132814427 0.37724631549161625 0.03610347839484992
0.18331481783487202 0.01801780316652686 0.3778264736457162 0.039775502935813396
0.2071285181512459 0.02242343827573565 0.3850864983639057 0.04129092256898862
0.21922640349052977 0.027263701809971185 0.3879150523857312 0.05120810321858279
0.2298214545892659 0.03274971448379818 0.3912079073447484 0.03508847108949379
0.23842090700559682 0.03567996684889686 0.4002243680992234 0.06135220208307918
0.2509494968576951 0.04456476183822827 0.4094196221656395 0.07066927436929799
0.258468264985363 0.04890543221955832 0.42136282323177854 0.08644999534361245
0.26612563273013196 0.05952265372880705 0.4262830431877278 0.07576633669161877
0.27527662696651245 0.07205638667123908 0.43921151054913476 0.05688458102687398
0.29114201376048404 0.10915902057246124 0.4739218527870012 0.055093888778402315
0.2939828576160572 0.12219808509438332 0.4757036548780758 0.0491957452750245
0.29902293930500007 0.1395674075144525 0.5042041550592959 0.09467859561742592
0.30196913833743544 0.15692302283080004 0.5116765844461979 0.05376532862732849
0.30333169365929435 0.16493844509292532 0.5190059659185673 0.08012857293313237
0.30347975662920185 0.16342285736941412 0.5307378244637379 0.09311615653800731
0.3064989393685434 0.18663460477901228 0.5351747981081537 0.03312853840432503
0.30813831452643436 0.1990612831903012 0.5527410331709799 0.04937935995543349
0.3093077989121039 0.20978096823167336 0.5664340119458826 0.07871366876195948
0.3104896165478543 0.2221196552160875 0.5732198554218733 0.07090306468814156
0.3102513704143898 0.22096123132906845 0.5846784355135539 0.07961426715462015
0.3114227382005274 0.2326854358544814 0.5796457823148775 0.02669994224594864
0.31132889778475015 0.23336582950781837 0.5907180875530275 0.08554085983324249
0.16592804704154804 0.030371941976238347 0.34635877940253346 0.0035535439915849436
0.18421913787280322 0.02351090949369459 0.3664945933794762 0.0043720387904472155
0.18514362989085287 0.028538104852801893 0.35616877854938067 0.003374723672231962
0.19495600593613868 0.034055594651946804 0.35016325698548234 0.0027914544791108357
0.2004459243325163 0.030604958589438153 0.36183165509783854 0.002449863564906998
0.1980101473573641 0.025290791236648527 0.37114250408558097 0.016654036114775627
0.2067176088160096 0.03810062483456284 0.3510415271275553 0.0024185491525954366
0.21456861897698676 0.029374063960586793 0.3781225411490175 0.01981730019124899
0.21161912904545022 0.034400402801714705 0.36408908717438815 0.0023482697280626796
0.22770291154589356 0.037854195530897417 0.3772237047303654 0.0033438082668255644
0.2215193866539707 0.03931969369585037 0.36540497431969127 0.0036438296397060897
0.2455292636421615 0.05606675136395411 0.37202108877733636 0.0028924223626099568
0.24518127656389327 0.04525896855258122 0.394205440795865 0.017629963118042765
0.23724613446292622 0.05025091813714473 0.3670229280742349 0.0032758280619626145
0.2505809510158975 0.05459136816880972 0.38747600490545053 0.0034565703860332453
0.2595775849738924 0.06449831697853395 0.3925492454175714 0.0024521108379268273
0.26162278525926586 0.06015989150488222 0.408067928948019 0.026333766988441455
0.25493384855797196 0.06391716684211583 0.3798530336735999 0.002370325976525527
0.27286451591618077 0.07408114454195945 0.4242402145733647 0.03589216707371672
0.26783921883748485 0.06842133710303172 0.4152801732235472 0.02517649067791503
0.2662249288160761 0.07226881306955124 0.4007880579523919 0.0022632861137866227
0.2639243544594327 0.07501755826947704 0.3869170922090908 0.002094682379074221
0.2721850166651393 0.0834387327148521 0.4017263493798028 0.0015816694055512026
0.27983533439763214 0.08843555846813145 0.4310479186548981 0.016208146142506884
0.2827320626340969 0.09106589044711585 0.44343327516735837 0.04310383979875179
0.2772362197357549 0.08958662517272305 0.4142017422119465 0.0011315845466280316
0.2869635751696009 0.11086875508385367 0.4342698461003263 0.0001926038281099369
0.2866065665069211 0.10321456123391351 0.4478815234961141 0.02257029476851777
0.28054982843679993 0.10097365724932543 0.4101047837648134 0.00105113379571035
0.28194023147005565 0.09820788033239466 0.4245083501746312 0.0009763582241153664
0.28391344885041514 0.1082445749742694 0.4181312668260509 0.0007206480581896386
0.29032860849187125 0.11300152196825737 0.45801484511566143 0.02900100069561763
0.29597600549639835 0.1341897067603285 0.4725143445511139 0.003742289117275209
0.29412877865671094 0.12911954917573393 0.4618852375622281 0.00043420771447780167
0.2936835010498834 0.13459782859470193 0.444592239838506 0.00018683569094233614
0.297689576030525 0.13929770200633113 0.4835069086498843 0.029922732033003514
0.2963466548049762 0.1414654612065477 0.45970101836391053 7.633226175366073e-05
0.3008327118627523 0.15293334931035413 0.500718986741042 0.03604107158721885
0.30071973831598614 0.1573721572177214 0.4843354376214851 6.210652708197116e-05
0.2985709750884399 0.14853892597317223 0.47310712503053176 0.00010938781777364958
0.2976364567804064 0.1508081033110445 0.45345435681375024 8.569767853198454e-05
0.30449294063052995 0.18153439054539602 0.48583149942487064 2.7564823714768553e-05
0.3047909842005955 0.17943265249278043 0.5038777176322007 3.2135258467274544e-05
0.30318510254033904 0.16791288342312446 0.5026833135591727 0.019847872027321987
0.301895847715473 0.16749677182642392 0.4763591207119038 5.850615731823539e-05
0.30560924622285407 0.18103607763653856 0.5238999356067217 0.018103494283840203
0.3060873364788408 0.18682149602263015 0.5123731270813194 2.7886722811510668e-05
0.30683403933050557 0.19666033889616244 0.4936481039234153 4.9693365379986e-05
0.3090206206569795 0.20855551378096382 0.5334841738281488 1.8448317040443733e-05
0.30856294166390696 0.20574637306710675 0.5209193359762629 1.953751032936369e-05
0.3109522748683975 0.22609660706759516 0.5416090559117328 1.3423896856298428e-05
0.3115746818549669 0.23234016405084917 0.5313744520011882 2.1283610642104694e-05
0.3099462494485324 0.2158882756015898 0.5534271726019656 0.010800338984939012
0.3097830422515486 0.21617167871401494 0.5251119060131417 2.4871615715696323e-05
0.3115891721991237 0.2335136022362298 0.5674974107694312 0.007563224239507085
0.31186710314689564 0.2357310609989698 0.5544723467845284 1.5351969866855e-05
0.3125799033209632 0.2425369883524431 0.5359056001212774 2.184456019428195e-05
0.31254053915905994 0.2449045123059621 0.5704441553494326 9.574132303601899e-06
0.28769469350028914 0.11932270519790417 0.4221831916800215 0.0002483336161944769
0.2925720350624972 0.13514918014120716 0.43162458846362733 0.00023989934871507414
0.30959779947514915 0.21593677183166538 0.5091213632403144 2.3599618752569976e-05
0.31140755497160244 0.2316260091106757 0.5170554502807952 2.2530610468896523e-05
0.18005594806401176 0.03584832184625493 0.3382848453377123 0.0018978224784316831
0.2122994130068323 0.04449968407260496 0.3433161640168063 0.0032247086714272516
0.2209102040411616 0.04618382620872292 0.3500310239413973 0.0027085894802237934
0.23523197019182493 0.054948375201878674 0.3535220693788104 0.0026140622477086872
0.25388505703518427 0.06749399257664072 0.36949136145480266 0.0018248050666394506
0.261295958261173 0.07553147583427176 0.3761763435759575 0.0020236066586422807
0.27171546765326665 0.08890379440279622 0.3887498113954716 0.001308336176543397
0.28394701617291274 0.11423105117731656 0.4063298211042447 0.000452606966559158
0.29652099504274854 0.14944563953553328 0.4424398983628897 0.00016914701171326645
0.3003673029892765 0.16530861987619888 0.4557276749009573 8.267568084739629e-05
0.30543734360091696 0.1905010653715541 0.4775557262905178 3.38014039844554e-05
0.16732016546863482 0.04534367321232226 0.3144850255925312 0.0032840507295186527
0.1753973793832066 0.041046699044462856 0.325514623449327 0.003009780755065431
0.17552027437592507 0.05178809991549007 0.3025392448764266 0.0025888765223175112
0.17924394979705133 0.045868106885005006 0.3165004842727142 0.0032865373483931086
0.18841435905938705 0.04151971024599551 0.33013720547246683 0.0032704267193044644
0.1937606078414721 0.04683682548080502 0.32199077916544944 0.00373490029446223
0.19985323734722413 0.04459066870781732 0.33143982038681374 0.0022892703327622357
0.19485146890803465 0.05401681442133725 0.3073555194112727 0.003550294485853358
0.20888744038210025 0.05127431883815011 0.3251522377456969 0.003473876183677623
0.20603046924370605 0.055758466459126105 0.31271765243430766 0.003144407786263612
0.22293891597146162 0.05594611118711723 0.331941270167288 0.0030895738266242434
0.22434282667978434 0.06307599978873753 0.3186012452972616 0.002478279603173942
0.2338091283270976 0.06635549904936376 0.32686200426919865 0.002825070388733312
0.23848130741933055 0.06267232632726717 0.3435215159265575 0.003683690212437312
0.23796194711097113 0.07432476169217327 0.318139275801069 0.004354292434987628
0.24842044747770767 0.07976314913839691 0.3297289280344543 0.0027753824412570225
0.2450307227148818 0.06510892820186887 0.35206384479584074 0.004129969131235539
0.2453563750527924 0.07166876063291693 0.33928450934981147 0.0026840724010709993
0.25676152193703977 0.07973624559081613 0.3526486464421271 0.0022921923208419834
0.2553891160622766 0.08356423076118125 0.34073117431845396 0.002394286803064082
0.26552162041439614 0.09107218171319363 0.35996893375029104 0.0018202330031424695
0.2657046724818166 0.08593239117897099 0.371369743841755 0.0017313309617305046
0.2625205990306528 0.09886508978687827 0.33365801146232993 0.0016287426924781157
0.2635571542687613 0.0932769657579032 0.34806619663714594 0.0022541192985176496
0.2727072565695911 0.1023269290283288 0.366617493789536 0.0014744191540075934
0.2763472590569024 0.10538806774014667 0.37822462278048946 0.0009487884804980549
0.27536894000345813 0.11126405662330949 0.36140670237254485 0.001316429360643165
0.2723017222814203 0.11163912959026946 0.3462345951125829 0.0011458252923348235
0.28484187810780387 0.12120028601574041 0.3979329893762057 0.00040156551229314654
0.2804453656555803 0.10865051083863983 0.3945374933285429 0.001128808231638028
0.2833678416347068 0.1257967137379279 0.37858707122985047 0.0003539825204640335
0.2800470510927014 0.12379697393116801 0.36262675301897157 0.0008873580964938046
0.2792522185038915 0.1152295000407655 0.3747513942659206 0.0008741099130420189
0.28822930489056436 0.12904081941510467 0.40672144478454686 0.00029747752998256287
0.28687521066227917 0.13713272487991643 0.379693797858047 0.0003394458205108529
0.2912545932179619 0.1358920032036927 0.41794903946954226 0.00021459275219285148
0.28985125644696813 0.1438294007228813 0.38901511928258387 0.0002536229483151029
0.29119401079518054 0.1434861638745127 0.40127298358741564 0.00020020125327535607
0.29529199062046246 0.15271252296716992 0.4209923316641526 0.00012892677710612185
0.2942110455207488 0.15409547065694487 0.40624975349391185 0.0001332541586646035
0.2926417626939741 0.15639686675817405 0.38610707459645177 0.00016017954776769322
0.2975321844015635 0.1581744550022618 0.433767186712172 0.00010767211544035226
0.2970614422177855 0.1641288881669508 0.4141910175801953 0.00013129107324113013
0.30259904672965665 0.19185102125448736 0.41734074186059833 5.45033696865703e-05
0.3026646952095516 0.1824303825993772 0.44625313312304915 9.453211001143449e-05
0.3030641671555631 0.17923622977867606 0.4630253376164002 7.54333014355371e-05
0.30331782217145836 0.1903255756640861 0.4351057325998086 7.828542232400525e-05
0.30060510483150316 0.1748748568541061 0.4340241016438543 6.120921507753207e-05
0.2998041613941093 0.1786998414547645 0.41286733039875756 0.0001226317849227869
0.3070387640437924 0.20136211390617334 0.4798232742018235 5.986737169871199e-05
0.3053363252011914 0.1986744193077045 0.4468504555979721 6.309231738576402e-05
0.30442674386117824 0.18923893058515956 0.45851908481204573 5.6369538265627005e-05
0.3054357471727732 0.20335283935236098 0.43427903664229733 6.513459659452305e-05
0.3083134779948677 0.20893826577486052 0.489928183570056 3.033408958986513e-05
0.30874353313370173 0.22030224169629992 0.45678547607495956 6.632629046917264e-05
0.3085083207892949 0.21298854456386782 0.4795609513837817 4.2354935629563424e-05
0.308764881139656 0.2239498471720919 0.4420898049124528 4.624525142148401e-05
0.3093354409043477 0.22232022206243032 0.4688262580339141 5.20512745131274e-05
0.3076066776976747 0.20884942456489597 0.4673369213668156 6.518607999838426e-05
0.3073076032586859 0.21306107249515377 0.4451392649248408 4.64340216297445e-05
0.31131302588223897 0.23270097582827085 0.5033464686155142 2.8075091135149382e-05
0.3113321034380409 0.23518950014107287 0.4908488755099405 3.977590992140776e-05
0.3101303099365393 0.2237620693117573 0.49064685456090895 2.77938589435186e-05
0.310369031601035 0.23509976620685705 0.44946123828377293 5.2040215599901745e-05
0.3118845353311127 0.24247261151605334 0.47879820480137025 2.6399403957925415e-05
0.3116448346621027 0.24256186570629232 0.4663200026429123 3.521208908876409e-05
0.3128273882288872 0.24550396003281236 0.5219568469284 2.0756839577522284e-05
0.31298887942411185 0.251674568538884 0.4932178888175726 1.988025222149955e-05
0.31313448953669776 0.25626460190147154 0.47160326921117995 1.70520766932957e-05
0.1679170090713557 0.06313712585889528 0.2764702321312039 0.003580090918483974
0.19161440290196902 0.05867112106956987 0.29529386315623196 0.0025886682592338953
0.21235117774019027 0.06454540223441188 0.30044968975741015 0.003372017762620481
0.24544523756619496 0.08494140397973132 0.31202091182053465 0.0030454451869417684
0.25568533618356476 0.09135085032399648 0.3258782626949481 0.002198569424491397
0.26758174475901925 0.10976907306814526 0.3298457015695055 0.0013847182469878072
0.284849082162568 0.13766768238123278 0.36417592575011537 0.0003391888747563796
0.2880860857086607 0.14967895941540962 0.36242639174270047 0.0002777793167666088
0.29117049028309716 0.15691141665580777 0.3717758436103761 0.00020324043688303576
0.2978614468328797 0.1774533854597308 0.3914057927711686 8.55736461760004e-05
0.29456186834340764 0.16687085560279735 0.381034100528196 0.0001530753807011671
0.3006982904351288 0.1905129159156591 0.3946155493972574 9.259424448730893e-05
0.3037347709980065 0.2017952636661845 0.4087843502149219 8.113344114067614e-05
0.30622346964699204 0.2114795278659641 0.4245560488167977 5.6428154073795886e-05
0.3081418767722331 0.22490499469662248 0.4241488728059178 4.5420760604631316e-05
0.3103657424645384 0.23778853537999106 0.4390157500850747 7.153454902212027e-05
0.31275434078183584 0.2569208716308079 0.4498381759284446 2.100091787690115e-05
0.1788342901384165 0.0708404748910056 0.2628530639101253 0.0024548241727026794
0.1809628576671538 0.07736556702912781 0.24971610975741193 0.0031292335425412237
0.18409249236245956 0.06291949155268182 0.282061853169324 0.0034911214403473122
0.19240584747583517 0.07327009911207333 0.26448995576376605 0.0031416859371796147
0.19144678213806696 0.08052177306354974 0.24836979499571946 0.0019284516029809118
0.1956045963132282 0.06593032697119368 0.282491389968371 0.003121705639763615
0.20814111726219076 0.07134781239939389 0.2816188008650687 0.002706934014370791
0.20939808414942437 0.07787704439193587 0.2688985165672775 0.003587739273133403
0.20230692356338234 0.08181084536985546 0.25371967090214725 0.0028429035743976127
0.22000913007209671 0.07627986971917822 0.2847828448183445 0.003441859496124283
0.2177815961349008 0.08475254139677307 0.2638967381085545 0.0021873029519582565
0.22336228886630266 0.07304456450748152 0.2960825969351939 0.003449005237210639
0.23778477915236607 0.08176726542470361 0.30218871747368464 0.003544606255506708
0.23693024837059473 0.08591104808748702 0.29186141526858017 0.0036778071748069354
0.2287714234018952 0.09344135906366824 0.26143518287254786 0.0028940239976013656
0.23362345759354308 0.09000540039610469 0.27706797119257776 0.0039183233082793765
0.2441812936936954 0.0953473127149819 0.28756142049151073 0.0028619901190922296
0.23948226022409508 0.09776544583027688 0.272409808412462 0.0032145124079081553
0.2524146816778931 0.09340826772281216 0.31227672606560336 0.0026903946080359354
0.24669461232814638 0.09221433083372133 0.29984360484598704 0.0026202629451446582
0.26065783395856035 0.1184971557035349 0.28692154931105746 0.00191652310447842
0.257185375428856 0.1041533297092445 0.30497745591587533 0.0017871588783213085
0.25930807247363996 0.10037946186086037 0.31987554506320487 0.001972129508542363
0.25754601661722265 0.11010313906067072 0.2939984904582029 0.002206185234358136
0.2529521691328401 0.11036650652235984 0.2799839476232476 0.002165613341251748
0.26432622873549994 0.11847207699260062 0.29994532583159317 0.0013258778716853437
0.26445014091642904 0.11109860838390304 0.3150003381390124 0.0012999328138860486
0.27126925575972066 0.1207650059068174 0.3235805302809357 0.0011957070422485584
0.27058282440798864 0.12893439460413592 0.3043515455103637 0.001068816389808529
0.2753491372621797 0.12475260125622956 0.3349379226197102 0.001203284585891313
0.27660142858600223 0.13778834928685288 0.3154097460345862 0.0011037445554804245
0.2807323191340634 0.13512295721523532 0.34375313552841164 0.0004528853508988709
0.2781967125030435 0.1366757684655363 0.3265246120537148 0.0005439561033539099
0.2724175951053303 0.1382753833077998 0.2947873009437144 0.000993791573037572
0.2816125798820025 0.151818860748757 0.315182224153015 0.00041076200490677004
0.28514172534489374 0.147959339256182 0.34511146145663446 0.0003397547854507786
0.28420477517505544 0.15194611430146443 0.33105451571826106 0.0004578892868496827
0.28954423301391624 0.15921470752179134 0.35414791298074655 0.00025999162598200625
0.2865176214580447 0.16360253889318313 0.3226686264355775 0.000212105774420887
0.28939591537501297 0.16750759304574966 0.33553263484120466 0.0003183942548366789
0.29716918861959896 0.18307043612857066 0.3712077055717892 0.0001618118259667419
0.2941055882501515 0.1824002449787247 0.34231980486092917 0.00017310521192580858
0.2924526771117152 0.16989760857026737 0.355446256827094 0.00019306117528298508
0.30055349426434513 0.1985776074882154 0.3735297297920866 0.0001260535709199263
0.29854359703152755 0.1979661320488833 0.3511834255528631 0.0001736802995905583
0.29779579350136526 0.1899546720396279 0.3618761498462475 0.00013571837766555397
0.30314709906062187 0.21062216400994302 0.3776681398567671 8.756874590308244e-05
0.3045851819875705 0.20991442498347085 0.4011497480705964 8.040573951340293e-05
0.3025288544226137 0.20142092929436115 0.3915017616265845 7.316635421910409e-05
0.3004897962588185 0.2086624022091422 0.3484986568457948 0.00012436340529630094
0.3020536325933163 0.2092950201778516 0.3663059710077749 0.00013432108333579542
0.3064947856451869 0.23226789529783712 0.37458644409273295 8.92244291974823e-05
0.3065750718646986 0.22558999167374827 0.3935123004678916 9.276369914038227e-05
0.3064804562157842 0.2188293945235595 0.40944619236119384 4.122036981037512e-05
0.3046659511140165 0.2157867333933999 0.3875883551556395 0.00011825704068046376
0.3041306911934116 0.22184456068433064 0.36427533254196726 0.00010505807447046598
0.309618219990904 0.23582448308213566 0.4265661612691519 8.807427015514025e-05
0.30896632013469905 0.24109937811873386 0.3981585592652854 8.361083553690835e-05
0.30930711301837954 0.23811582699168227 0.41360598936699844 7.78610536030601e-05
0.3086002203231434 0.24302717913292965 0.3858173711265382 0.00012060400528585057
0.3080064899266143 0.2438978934594182 0.3726043458348733 0.00010883125350408849
0.31166733492605814 0.25040615715730913 0.4364468984093247 2.9260786573792635e-05
0.310175652223148 0.24760538364314671 0.40782851305118817 7.912455203313213e-05
0.31171432171166363 0.2563497916938767 0.4229753057481743 1.7511623255810946e-05
0.3112893723064328 0.26010219295425546 0.4027384983059573 4.4590928185305706e-05
0.31103331057855493 0.2628372789137785 0.38903982730669306 3.565093829808033e-05
0.1700148288289614 0.07761260601919819 0.24584051520735192 0.003964293316765922
0.1764441396869273 0.08528375434185244 0.23109035114266233 0.0025157775325496544
0.20500405436296087 0.08922697558755972 0.24048021379270978 0.0024690380486686756
0.21391418148098834 0.08892464549774587 0.2504397538810926 0.0029293048971592867
0.2398182111022789 0.10562590076882428 0.25681167103693064 0.0034965003225350204
0.24749560441914284 0.11450943554713325 0.25619546350423666 0.0016167762898850661
0.25429514896341654 0.12030791228427623 0.2639096312052506 0.0025115942582771503
0.2635647318216157 0.12996735180934132 0.274275258807322 0.0018785707514821898
0.2674832209435995 0.13137113731483807 0.28666340720692357 0.000712749361343545
0.27873306238745 0.15200540120530348 0.2984593370136225 0.0007500886537924048
0.2768149469825698 0.15389211834337785 0.2846303776301489 0.0007241697546052018
0.28464403941581723 0.1642093902014539 0.3087009370586878 0.00044403100209654684
0.2882517767252276 0.1724868524808317 0.31630897083349163 0.00024846689097676906
0.29248594865929467 0.1851851594859425 0.32255745345353637 0.0001621909787600966
0.29659114363259886 0.19855259191382585 0.329954795115908 0.0001849988869554164
0.29576626031091047 0.20062526419800394 0.3179795331513384 0.00018274145765397683
0.3002504306082883 0.2133486725139162 0.3350323551681115 0.00014466277247272312
0.3051371962843332 0.23540044239479244 0.34660386956452677 0.00013169444806872775
0.3057169282130583 0.23254993273247038 0.3614450165347211 0.00013569184550729846
0.3029444916381346 0.22631065300573586 0.33808065036192597 0.00013877382117711445
0.30726717888990973 0.2438845314158109 0.36033489240574534 0.00013574727142736366
0.31015890173917715 0.25937781011580313 0.37790314621408516 4.03368009393225e-05
0.3092715832845102 0.2591875742266879 0.36205097821507704 7.396942258896852e-05
0.168378601599203 0.09751700891463357 0.20296853213211663 0.002308242300029586
0.17648933586574128 0.09338099403681183 0.21379548371220602 0.0025258643321544945
0.18539378910008997 0.09004960799968513 0.22460646104262524 0.0038480599592571312
0.18772854996319743 0.0956629199664934 0.21384863961549044 0.003190362026713227
0.19631193493302382 0.08969768919677998 0.2322713111399896 0.0034620615861848596
0.19435623886170508 0.10183106373674836 0.20496100082492438 0.0042213063867599585
0.20601868178856797 0.09490485307329066 0.22933371301456182 0.0021343071849414382
0.20780118075792486 0.10056595662905442 0.21889755502158356 0.001976205102482476
0.21458513278114172 0.1088039986221819 0.20899598291551344 0.004372326610341881
0.21659381481233828 0.09882276306310825 0.2325905555898695 0.002805458092016159
0.22241762781817248 0.10902716311330844 0.21898620428830606 0.0038451340317129288
0.22841583795700976 0.10923095767060487 0.2278984329483682 0.0030674059977749504
0.22946529113497377 0.10322125605676152 0.2423028298386698 0.003970547235309705
0.24177860953425456 0.11799752796694471 0.23557901588440938 0.002853042151977085
0.25308717771477995 0.1303085536661301 0.23998314312905905 0.002607855893342602
0.2491902107546378 0.12186501787854315 0.2460196425501175 0.002066551534326733
0.24629891766167622 0.1270278906296894 0.22831899951507922 0.0026405000699073937
0.26037472274983303 0.13160019749541016 0.2598888875696722 0.0017086832756309613
0.2574723555506013 0.14013860198420292 0.23330897641841974 0.0011410473981091913
0.26505258228044215 0.142856481570441 0.25444192481216377 0.0014182937313585123
0.26669225116829526 0.1389286525198066 0.2685653904724896 0.000830691501883293
0.27276658671951026 0.15744064558561313 0.25817690522455694 0.0008825668130290285
0.2734738127530767 0.15159693425840734 0.27326487254502557 0.001032888163451764
0.2686043617604226 0.15651682459771687 0.2420548671770399 0.0012363343849615025
0.27802656096255673 0.16273115333907154 0.2735234565929351 0.0005575396103961625
0.2749587968936231 0.16699456041798058 0.24928707713410503 0.0008184297096232522
0.27761198920692254 0.16714450694102234 0.2625086324976612 0.0007810006441053244
0.2838331784606035 0.17363007681125672 0.28473744887056107 0.00033427617028047277
0.281225668692925 0.18070371043572397 0.2547668824474704 0.00027907038005476215
0.2876120630660529 0.17879652359807113 0.2987496031104871 0.0003972373078087819
0.2844678316411826 0.18125331892018726 0.2730850891278338 0.0003415436688236857
0.2915070794303952 0.18891838119996004 0.30687549096198385 0.00023958060219247265
0.28869635191484366 0.19566768090621142 0.2717269278853081 0.00036008395064208185
0.2874144452094557 0.18411899000623028 0.28666165417123324 0.00035199466868884605
0.2948073963255848 0.2079656794451894 0.2937897633311194 0.0002553250159231182
0.29457953877649695 0.20112797474916141 0.3062035609350179 0.0002486787869698696
0.2942676153088483 0.21275242262347133 0.2789465127188645 0.00023478604120825248
0.2911370961285566 0.19970872547934632 0.2813238030356958 0.00030116991394292335
0.29820769003651026 0.21486623934548826 0.31033642628944774 0.0001694701935127502
0.29986712220314987 0.22551189568213553 0.30542850934849125 0.0001571323962902011
0.29668480054033575 0.21901023520141327 0.28782925036123763 0.00024124144367504462
0.3023438388754842 0.23084866402928034 0.3215945677218339 0.0002056602398668711
0.30433791170289254 0.23680259033008869 0.3335691956683448 0.00016948162566142062
0.3018311112635119 0.23672008385410664 0.3037953323423963 0.00016698477412957895
0.30643416436274334 0.24631045539366864 0.34321050835789013 0.00016723288282525177
0.30394612980304686 0.24627220849464782 0.3108380201548916 0.00014045646975364664
0.3070333680698794 0.2620918373832907 0.3238653103615851 9.072265291995309e-05
0.30810128272278525 0.25857965864902754 0.3450375360913317 8.522398929044642e-05
0.3049736021548088 0.25742767919009835 0.3029957287198464 0.000131758228717836
0.308050987351649 0.2642188526019859 0.3354142974116558 9.638387743328112e-05
0.30670670737784933 0.2677166359287009 0.31005764865024266 7.806814210823853e-05
0.17708701829189571 0.10915590421595463 0.18028696092838858 0.00304031917025785
0.17836501835571358 0.10244054529498603 0.19507489131659733 0.003927921561900093
0.18841989452647603 0.11270164212972034 0.177879075818424 0.0049121735126775225
0.18974357515979218 0.10813006197522505 0.1884452258391026 0.003500489036806572
0.19968023432740756 0.11414839097257524 0.1827597128189745 0.0032483562224283388
0.20875022742345878 0.11127169890259905 0.19730204033765542 0.002630783960418403
0.22994121236726098 0.11907725887220397 0.20986648077777798 0.003831803844226491
0.22271169448945882 0.11749654740257384 0.20162516412575188 0.004165990895618063
0.2219486162101526 0.12200688844850817 0.19113455935332008 0.005724459611239388
0.23205295274271753 0.12934377528855323 0.19258901635742243 0.0032923019370124694
0.23689961708415955 0.12762571546946605 0.2054491817112942 0.0028517417225975747
0.25229705717320855 0.14279048051629367 0.21229697832615405 0.002097652161778196
0.25025484298215306 0.14534718073781405 0.2014764500086482 0.003447855002662018
0.241063334323606 0.1361756854856714 0.19699443295705843 0.0032275821848735905
0.24464836890546404 0.13299216182827028 0.2120402381780255 0.0033484665175437267
0.258725233948056 0.14869804726935484 0.22027480790542653 0.0014267200398949953
0.26473907761116866 0.15986194955651867 0.2198707096811318 0.0011376748061859795
0.2717137879283001 0.16660834322167756 0.23488904133436858 0.0008011659698454642
0.26969845715682644 0.17227098536224084 0.21501330290926574 0.0011559794105858363
0.2773046259040274 0.17597019261868202 0.24319089042032901 0.0003681426326539454
0.2751857330765075 0.17667846328724124 0.2310714295625494 0.0007017075385313141
0.28262491739034723 0.18909249362701527 0.24600549707971311 0.0004371155666921009
0.28776882500343187 0.19976019282017676 0.25710934532729673 0.0003290637527695454
0.2842369027245675 0.19916051971147253 0.2357267535474187 0.0005412466883383867
0.2921256805811367 0.219848351606953 0.2477332367501632 0.00032941741655700095
0.2959454816335129 0.23276890764163238 0.25376705205710604 0.00036218007372283234
0.2960852764368703 0.22322458793488242 0.2738498405293016 0.00014291614579556522
0.29429747597394496 0.22098425676442301 0.2629560282290575 0.0003646527312274561
0.2988124016129849 0.2314699515628425 0.2823206369452412 0.00021092349084533062
0.29727166731777155 0.2334019794964399 0.2645959695098171 0.0002519205380992289
0.3010098189546159 0.2493895658015624 0.2723446074652994 0.0003321474889961219
0.3015877502164614 0.24483631208790085 0.28567625857259205 0.0001642428575986524
0.30382323249631926 0.26167522301191626 0.2833945287481073 0.0001749162779188676
0.16694859001550116 0.11336120441903903 0.16893824277705394 0.0030402744265791877
0.1697531074289284 0.12114513573893526 0.1528047148728244 0.0031867368124834593
0.18030139944279083 0.11522046643332304 0.16856939799191628 0.0038249962050393715
0.18041029438319103 0.1202085807337118 0.1579969419394595 0.0032755250617154796
0.1929089614729237 0.12130822681783532 0.16245233824057392 0.0043456533629522
0.2030899976546264 0.1293191865524249 0.15348322679661852 0.0033018799815663982
0.21562916012324765 0.12898109356172954 0.16794914568089048 0.003281301307392192
0.22214871272189768 0.127889664568772 0.17920608100366572 0.005556737431407203
0.22299396510208105 0.1367227895447103 0.1620296908531508 0.0033111937729238495
0.23917043615604422 0.13934787369746016 0.18624915124951524 0.0022829237254590124
0.23231415199123567 0.13717891329653814 0.17684602322924395 0.002359667567422578
0.24759158619421825 0.15540493976000647 0.17397541565299332 0.002344674461292367
0.2470478086146859 0.14695932128497033 0.19008677007211683 0.002820831414502886
0.2389078260877452 0.14891054580965118 0.1666947635105188 0.002116696873126545
0.2546782217927095 0.15592413770840718 0.19306357793005774 0.0017568854805641112
0.26355353947085836 0.1644764731383526 0.20646494313550584 0.0015706455250471935
0.2586680587453437 0.16886591566459644 0.18038445857791846 0.0013119582251324027
0.2612361282744364 0.16557508269823326 0.1955235047055861 0.0014632708140142636
0.2673593406820015 0.17972136933058125 0.19045531069842409 0.0011207931458528408
0.2729643557290871 0.18267541979596438 0.20880175012886523 0.0007191171633030804
0.2757297999305724 0.18303227943840664 0.22109681896105562 0.0007135995723327102
0.2744477802917771 0.1930642590138752 0.1949323223912505 0.0006991657987854322
0.2809320488065452 0.19456270004864804 0.22530924691396081 0.0006455023702321719
0.2787064197729191 0.19449062966710035 0.21342387614216318 0.0006211452806623187
0.28469991838303804 0.20693799128015444 0.22300134057922716 0.00043395003900342593
0.2825857685898165 0.21138188336411975 0.2014451348841095 0.0004946177939016342
0.2889007468784877 0.21608398039237525 0.2323205303531849 0.00038504440277070185
0.2895295712202196 0.22327153517401405 0.22263353036701308 0.00043728539924388636
0.28568334359233233 0.2142943508831897 0.2146374494291105 0.0005641908045062813
0.29376707189960405 0.23059938586854245 0.24053344683515543 0.00037032310917223726
0.29307023305495783 0.23577632731488588 0.22546894131708786 0.0003736792358285316
0.2970722186032069 0.24294405102764094 0.24607514645225548 0.00022368600805795072
0.29651395926058755 0.2482871972936158 0.23217186318778527 0.00047634890668922107
0.2951872214525552 0.24966073429603883 0.21865484384421754 0.00033383445828647407
0.29952570292003444 0.2522055128390871 0.2531307995633883 0.00030051519950415436
0.29881448033781366 0.25614157612241256 0.24070140201725823 0.000385053921886221
0.30255342580748096 0.2628688507206533 0.26726972230064383 0.00016710636969251757
0.30042471396957515 0.26714007301135223 0.24080879675202022 0.0002880909560233609
0.3030156549286162 0.27348694003850865 0.25985738843426115 9.24073605275888e-05
0.3008573921265625 0.27790662384713194 0.23297345695676397 9.902383184501934e-05
0.19129605658169477 0.12665656676384773 0.15007747232625407 0.0036679168454503922
0.2905911254517665 0.2349436264832149 0.2086593285692995 0.00042633653137210244
0.2989502691326195 0.267782662328228 0.22567086765291022 0.00030125540535423694
0.17950970816662998 0.1263705506103072 0.14452535610284323 0.004794659313890391
0.1823484864951412 0.1336808047588421 0.130175107634618 0.003684460098996468
0.1888571768590061 0.13132093877856393 0.138635408312475 0.00265294127367085
0.19834014340565603 0.13695954941956553 0.13327651083823674 0.0037589608504331553
0.20691249322183103 0.1369527095103284 0.14118082299015725 0.0034855333571646007
0.21579970477819674 0.1360118334970463 0.1534242321397115 0.005141727084793324
0.21601795401615356 0.14448286931700552 0.1360467018721637 0.0039637217881237745
0.22681584424590479 0.1507795163300787 0.13908603999571229 0.0025612468701744365
0.2312472759240472 0.14622641445470566 0.15635517140822855 0.0020606568724185954
0.243682551863641 0.15747900412128144 0.16031519517574627 0.002989167330214193
0.23644058021757858 0.1550540457627528 0.1487896051190788 0.003091937626660114
0.25174142445740055 0.16500802388093633 0.1661337166648751 0.0017528836317148415
0.258446408883405 0.17611754479390457 0.16504436315560042 0.0016997804139454586
0.2553683652294404 0.17944783222390293 0.14865455406957367 0.0011922518342329963
0.26485630272102956 0.18302949731960239 0.1740331175822069 0.0013330939589380375
0.26965078812620163 0.19382096919848157 0.1719688264314888 0.0008006765187654946
0.2732086732422337 0.20567790299767583 0.16417567567709734 0.0010021317281622836
0.274129963388117 0.19799099479180443 0.18361972746614802 0.0008202527117335474
0.2809042795384529 0.2172024858540974 0.18070472576009128 0.0006729803177101522
0.27911201364353516 0.20837622407759893 0.1883535826569573 0.0005748740857860656
0.27564921594452674 0.20598760140181938 0.17528675761250523 0.0008003473618844735
0.28586622425670416 0.22343307772071863 0.19828665817651886 0.00039057697581177807
0.28351828524236566 0.2280729866205986 0.17518009111140592 0.0006607572992188713
0.2894834200323191 0.23731337678869183 0.19683262610395888 0.0004625582392988666
0.2864161914103279 0.23095894651601456 0.187724240188608 0.0006411298107718414
0.28720832780525923 0.2400395369573352 0.17684553996855198 0.0007858184819794662
0.2926007213739686 0.246339272687573 0.2041042229301971 0.0004449159909730256
0.29044387955046597 0.24585244658227234 0.18918463287610301 0.0006197140280454991
0.29609598055550557 0.2596556851966703 0.21193458096556936 0.0004710877564095919
0.2951076540309482 0.2671893819519525 0.19383987095687108 0.0004259125806069197
0.2970709408515682 0.27108530122116986 0.20586755207515578 0.0002911854328534636
0.2992704656515759 0.27704522481671345 0.2191835272602634 0.00014733112132594753
0.16631154978913476 0.13614777760105004 0.12040300417574487 0.003580588202462589
0.2086467937113994 0.14476306941771658 0.1266270059295871 0.004264483157785694
0.2383713090932359 0.1626496513045686 0.13774347095681258 0.0021656667114974557
0.24675436517217667 0.1723725486096617 0.13760036787244517 0.0017216727047894033
0.26389049083323035 0.19182821471073244 0.1527424003906844 0.0007600809254886019
0.27960619403588416 0.2211373491880525 0.1660303600869555 0.0007988127511878874
0.2928343988256752 0.2626963411064888 0.18193898658646374 0.00044095901355475567
0.29522327374557966 0.2779971887758931 0.18335012649215676 0.0003065913096284283
0.16702397234572083 0.14131915343719798 0.1095427595629054 0.003676077863423501
0.1785776685250712 0.14016082801452512 0.11489806613032777 0.0031127910132559065
0.19588636009108412 0.146772412380871 0.11065568769128072 0.003797421896750353
0.20623020533753672 0.14924295008085367 0.11461068847584199 0.003947447126533598
0.2195754071962234 0.15567035997389317 0.11766090488701976 0.004073997951471657
0.22667061290091464 0.15662683398174398 0.12683384010687465 0.0022874607107956153
0.2385159236252442 0.1690710970066352 0.12474090757325966 0.0035925943591209653
0.234593038449398 0.1709050857985554 0.1128621475005071 0.0021790616731799666
0.24385383492747334 0.1785505832111558 0.11772016753152185 0.002097003723539822
0.25329513171826556 0.18774035144001108 0.12542018993507426 0.001406296371573844
0.2632455002038609 0.1990073223820406 0.1360279613979729 0.0011216075892803204
0.2603211435226098 0.1996414232006231 0.12422550285048972 0.00117300783951751
0.27056438844634556 0.2056221327663371 0.15244739673381985 0.0008347538766723926
0.2687058105774934 0.21013556216037613 0.13562173129736 0.001212056624439277
0.2745764311910422 0.22041327051342116 0.14211299215010964 0.0007107885890448164
0.27937260555861554 0.23409066501077916 0.1409890346553761 0.000854117822444535
0.27792468103583495 0.224208640286554 0.15151588381465442 0.0007015761507877924
0.28676795573241676 0.24550182777971494 0.1645968698572378 0.0006860793420972668
0.28338716924370655 0.24403090140347475 0.14657805859622955 0.0009650944593838985
0.28281616123382136 0.23582621360866557 0.15709583856672682 0.0007193828648417666
0.28797822775113796 0.2558848407547911 0.1569694967212906 0.0005270588263006282
0.2890752885608248 0.2670088364867964 0.14985487866416208 0.0006225672033215334
0.2907005686275277 0.25893420823251784 0.17102056549523306 0.0007216553552096399
0.2918002909547103 0.27488661044411933 0.1603735059312947 0.0004041685900348469
0.2937232262162214 0.2802332683120211 0.170034514912595 0.00025738828778976586
0.18566320164860448 0.14837700830410916 0.10075192035084526 0.0025976097678241557
0.20902012993155605 0.15864873714521233 0.0979598617613108 0.0043938166417180615
0.2222424287716484 0.16431933133436788 0.1037368576285603 0.003123147587908132
0.23264403717267088 0.17478138907420546 0.10101896910608706 0.0021345314501556812
0.24095073638763384 0.1816306786160586 0.10447685370370813 0.003631737746738822
0.249449051711005 0.19040054926341693 0.10893482650815628 0.0028334223237173168
0.2707419278902135 0.21950734265867802 0.1263065055455192 0.0013384765077277417
0.28637391898841985 0.2578396002976391 0.14373727482224283 0.0010687266468756603
0.28359556079176873 0.25497437009137125 0.1308472468051456 0.001036327626077459
0.16528404093027965 0.15670891984356758 0.07685363225228674 0.003553085520614198
0.1704436575044819 0.15168575007176197 0.08817722590728239 0.0032563779308738385
0.19060158912417605 0.15670880358014294 0.08599128364805775 0.003568119975341529
0.21067945728370568 0.16450988818835904 0.08766186782103082 0.0038843704780752338
0.22110274947718128 0.17012939490198972 0.0900162855093278 0.003497586205245055
0.23465124264982035 0.18254023599995928 0.08869854293752405 0.0033158798890020732
0.2516687967681109 0.19783069373888937 0.10005363927983116 0.0018849114072559483
0.2444501652968997 0.19226206420211336 0.09151550037372275 0.0024388759275108863
0.2628900602623201 0.21202194403908153 0.10887879316627122 0.0014363853366852813
0.2597514695802618 0.2120791462998099 0.09741391642405067 0.002279948598561292
0.2726752276867719 0.22874678448804867 0.1172830224395155 0.0006581430143854281
0.27682114512282674 0.24145860952774628 0.11476576372666528 0.0010865249759594187
0.2809513032541991 0.2521989879788305 0.11937566073682951 0.0007739321429270005
0.2863687618829187 0.2726321885874902 0.12571387869924733 0.0006406085211444148
0.2865835152382876 0.281635766629699 0.1185328456237836 0.000318324926234009
0.2887696095338855 0.28070817155608874 0.13371631425762753 0.0003789559505827214
0.1731248262062477 0.161618317497543 0.06786912040145061 0.004517055976206926
0.18466599157414126 0.16081408251494558 0.07401561624975575 0.003274574499148062
0.20053181730586675 0.167548699142825 0.07077170174462744 0.003081026659978917
0.21424612742636273 0.17238245416831766 0.07567989291045919 0.0044423530414998535
0.22787499825722332 0.18163443473062285 0.07775058140058327 0.003174475810547328
0.23714546571930678 0.18972541635678872 0.07929539556437536 0.003133461100207869
0.2502813567198818 0.20143670401588903 0.08863481481239902 0.0015790297482365875
0.24985009811969977 0.20639896194033305 0.0773064934569878 0.002363292771459364
0.2617056460952568 0.22244137821985882 0.08395869045872922 0.0016035663914120476
0.2679522448091234 0.229712225722505 0.09498358693140907 0.0016603054569142124
0.27312182502723636 0.23798010402161257 0.10300826881552919 0.0009597002505726273
0.27565854667460343 0.2482659400822364 0.09781990366431072 0.0015080918850340242
0.28018252030798707 0.26003248831803744 0.10415120854437737 0.0012592459969932364
0.2823758028660359 0.27129129580152705 0.10281389814858086 0.0008045562051287004
0.17516225220564213 0.16898659593517107 0.05297717412341725 0.0046463879109710044
0.18635264728759737 0.17013719088149312 0.05524002027968386 0.004385758393509514
0.2086556603351832 0.17453747061511712 0.06449215413388575 0.00458377955846965
0.22476896299918706 0.18455575465147794 0.06638282670844345 0.0032558144544118316
0.23314514316107288 0.19167157225267897 0.06688369650095721 0.0022526502374855995
0.2550587398415216 0.2177020032066465 0.07038105343998113 0.0015241739577442751
0.2640899228559039 0.23283168117531222 0.07343889886240068 0.0011066429794064
0.26887604324059516 0.24061020206809175 0.07915180228131911 0.0013872271933174764
0.27568279725562483 0.2574270999138862 0.08356660631807813 0.0016335548880174438
0.2780855308139343 0.27378588763255296 0.0759345474228804 0.0013468569339006413
0.28213509553354804 0.2815071924130661 0.09126847029335128 0.00066798226855204
0.19907269445673625 0.17631716152689897 0.05120570069284524 0.004648314859981192
0.2179480996315906 0.18658479296580194 0.051306322267368386 0.0030308773323397156
0.23100830140195464 0.19581624595951386 0.05411519160069253 0.003825055846098405
0.23996359500209036 0.20238578342270205 0.059881409869081 0.003145956092609572
0.2732401077558772 0.26020694789479276 0.06757432349886004 0.001383701295257677
0.28013695999215477 0.28539668348904224 0.07673717174579647 0.0005722538317438237
0.1648175359542975 0.17118973907757157 0.04644721655166015 0.0047822486291137015
0.17932631686184464 0.1750796084369289 0.0416284024494915 0.004376898706109694
0.19876589274783169 0.18214027270991612 0.03880601624681347 0.004968744980942456
0.2086510474192465 0.18325017573046817 0.0462436118867259 0.004552040072214534
0.21783690122086807 0.19275643396654663 0.03833920194373208 0.004939958029706919
0.22906066640170902 0.20026267659747016 0.041118376116653935 0.005052121406689741
0.24688528558730244 0.2157193806610273 0.050002564691606764 0.0027646456316924423
0.25486586747822954 0.22496893275070073 0.055320518720400114 0.0030751124653959983
0.2606649039768433 0.232784025609888 0.060648822720793416 0.001967411595103696
0.2572541870693426 0.23362488415702698 0.046791266283613395 0.0021160962654067205
0.2661244760470468 0.24708017609394206 0.05624137394513186 0.0019099167368177336
0.2694900522047163 0.2594765009019902 0.05117727091839176 0.0022091734711608764
0.27710186560612293 0.27916734754342887 0.06534331424228138 0.0009750041890806598
0.2735991075958966 0.2719802015422016 0.054353100999265276 0.0016298863299103235
0.1686404034916989 0.17954463726337758 0.029450160678986512 0.010104461342824627
0.18651912165836104 0.1810305745015272 0.03259495810181678 0.0063435616432719255
0.20799503602056185 0.19039593934534488 0.030669518090463622 0.004710882931562165
0.2611129242430102 0.24349463121991427 0.0424148726914048 0.0014395417987560413
0.27199948399027135 0.2745263265677384 0.043791650463416265 0.0014915531086763733
0.2746191279865827 0.2899271174582072 0.04398681548044001 0.0007762153469527051
0.1732932361825889 0.18423494735247692 0.020636820782278985 0.020815228493520813
0.1849728337785917 0.18645664465623746 0.020453905390850683 0.0213392185757121
0.19731602449212507 0.1908748055578595 0.019377259022911344 0.01800673348956314
0.2129471020855882 0.1970837316040783 0.022554881720229507 0.01604594829613909
0.22365550913354054 0.2015113816836 0.029043395122638538 0.008476177429703993
0.23581972807298546 0.21282414003703287 0.028876864280872883 0.012630683535958897
0.24398685013088997 0.2228033123241997 0.027749265733716354 0.016453183348056497
0.2519216609931201 0.2310566454223683 0.03403375073014298 0.010433826773687128
0.25865398011888163 0.24468143543015378 0.031119267235669188 0.016894405913017062
0.26721638892484023 0.2620305852786179 0.037316425398625286 0.00206445935522627
0.26955530636535097 0.27394226716440995 0.03269304103439232 0.005802387970460321
0.2720501395857154 0.2894980343283004 0.03131429656897686 0.00579625316109757
0.22628167669938187 0.20946399884092096 0.016754942440754286 0.022422964699443236
0.24642421662758654 0.23191756274026287 0.015998255518088606 0.02408422283677814
0.252816349996553 0.24197338137398866 0.01622682994724597 0.030432102882980223
0.2620564780204402 0.26190031434024896 0.01616093303178399 0.03493392601689324
0.2696152523918911 0.29172045473591296 0.018051977403420856 0.04227206886157326
0.20308789362393223 0.1970600649186152 0.011529925403250133 0.029611852079850436
0.2570796943360194 0.25265409676428024 0.011860956874426985 0.04462961652829253
0.23685873596769708 0.2230101963402985 0.009789140041956265 0.0335377430539248
0.2665161843383535 0.28304903985407337 0.01018512055088357 0.0549373145732786
0.19213454351964754 0.19611173938270396 0.004512445872959402 0.025921348827947055
0.2487836659913936 0.24129876050705287 0.00467681945292159 0.046183787912912805
0.17755370165078616 0.012348206937640492 0.3876353461040818 0.07784420929535459
0.1896339646898828 0.013497400280364377 0.3908330570896813 0.06497722675947092
0.22321954018977708 0.022101758380615292 0.4042001189761202 0.07865885416162972
0.16259209830851343 0.021251744834982537 0.36563600876052177 0.0040942254890357814
0.2029965243975409 0.015974428980051584 0.3951454438109183 0.06747723923129159
0.16220914571800585 0.08282450908909618 0.2337965470993547 0.0036109344071238126
0.21382156227463406 0.020681949095324885 0.39584477849660693 0.06320948886282333
0.28318838608987196 0.0836145171761806 0.46155230307512973 0.09950585490432505
0.2864144948690741 0.09370779618118848 0.46577763006954326 0.07618331035043768
0.2968794785920592 0.12822468712601162 0.49931933191835143 0.10464362140066572
0.29443807764780633 0.11697214833775936 0.4930191560557521 0.09861305934582376
0.3090779247357166 0.20781087168937962 0.5771191936537773 0.10883906124171716
0.30802214375570564 0.19742428651103097 0.571864297625615 0.10027948674093112
0.3007809772121868 0.14602276495463715 0.5207589394922043 0.09304739835926516
0.3050196500160237 0.17333388328671046 0.5405461957870186 0.10306244340348011
0.3067370316292227 0.18645796694007072 0.5542170472086965 0.10961236708437086
0.2928439736730257 0.28712470518342936 0.1583140090238609 0.0001265904275560582
0.30800298322439784 0.27272060556665956 0.3222996126295954 4.733105226574638e-05
0.3097730351547886 0.2706642590795211 0.3526313332427043 4.3468387707507075e-05
0.31368795533896343 0.25504659693426734 0.5329370042780652 2.030148981715261e-05
0.3122945213158656 0.2500089084521414 0.6118006778005827 0.0892116110717397
0.3133595763689449 0.26391906798080567 0.61283904663674 0.03224263625730278
0.31384692558763877 0.2743550909512172 0.6295769570966486 0.063432208825359
0.31492779810189464 0.28282117277752444 0.6205649135697284 0.036866045852622445
0.3156616425964166 0.2924361617199033 0.625690593570196 0.0431359079516684
0.3167437119342275 0.2998552673553041 0.6120932816113956 0.009647537771488825
0.31705156753598085 0.3084672152765905 0.6239642549374644 0.07552824343128783
0.3175335629298666 0.31747342255518984 0.6298204634654772 0.06300064625726959
0.31328681505750544 0.2563504911238009 0.5848340004665842 0.005090090576681973
0.31362811559124254 0.258255244539597 0.5706993178060318 1.6392685087030605e-05
0.313411631647071 0.2601497052716895 0.5954045836352078 0.013390120339871192
0.3143004270450533 0.2638813646548373 0.5549970467315797 2.34170129486367e-05
0.31414973085436526 0.27016775487343714 0.6011525933154309 0.012784671292856554
0.3152203014862227 0.27426079486881116 0.558763939091965 2.5406203511560692e-05
0.3147329591102609 0.2727824124943693 0.5808753731613174 1.5811993325508756e-05
