x y z curv
0.09704343540273314 0.14286453868699772 0.25471299996656915 0.16143788126546388
0.0986452116041584 0.14180512181789684 0.38034672125217206 0.13044184412783988
0.10087042933929946 0.1403506789827846 0.33626095866744127 0.10609063082815914
0.08867382167741872 0.14605882806649684 0.4497692765494822 0.23572961350557503
0.0884795193627779 0.14610710579332603 0.24811609896906373 0.19349419207800483
0.08953064607194168 0.14586069273381613 0.3875575297626095 0.2279633914462194
0.09009015373341468 0.14551915413001237 0.29463149132158106 0.2370381528459916
0.08982483449436082 0.14570723335740365 0.3556664969711368 0.24337453243933785
0.08929336368030906 0.14590610761933115 0.3381798529572623 0.2277015295510698
0.09071263340524537 0.1455516855926831 0.5236737437962778 0.21040177489259015
0.08696106611182908 0.14806733647526843 0.5626369362763832 0.20122554652465177
0.08459326046986253 0.15123174784408236 0.54300240421226 0.2451238307924229
0.08632308704266986 0.15053585456153304 0.310155079569825 0.23293166686463104
0.08684688503035651 0.1494620530868537 0.32582945978970523 0.22476150158555636
0.08843969877476812 0.1462051632675933 0.4637723241783908 0.1954682664968836
0.0882047393265674 0.16250311475840862 0.5002478180254921 0.251807260474736
0.0881818247597815 0.16115472516530815 0.2733502379778256 0.2698949091411531
0.08683906764502694 0.16008535688492692 0.4875762911097087 0.21766309066422523
0.08850531597740295 0.16195107453836988 0.31942269710628945 0.23386959051418932
0.08949183573665033 0.16367512359912464 0.33218301106062936 0.24895281418348453
0.0883085914919663 0.16178567470783906 0.3492257350480614 0.22986439554632568
0.08577827229253401 0.15851401663248801 0.5250815318081589 0.23593217689825352
0.08779863995740407 0.1614548519852076 0.44423828176936053 0.244657967041146
0.10209318629812211 0.1384535793709032 0.49935920384890203 0.06488188200811512
0.10243183028332327 0.13790749992315787 0.45381470287148945 0.0647524374216384
0.1010360734353894 0.14007124098774107 0.5223394484806502 0.07153151900001134
0.10147325106639496 0.13939424767428643 0.41482419554787875 0.09291549264171134
0.10219475492752614 0.13825618350978627 0.4314902429639451 0.07490490384751985
0.0947813142604198 0.1449766620653773 0.4871089244218781 0.16706044628224873
0.09477474079287883 0.14441603339508371 0.3170471864443693 0.2068774468191547
0.09482263586287815 0.14481791225835336 0.44002926754481375 0.1899883921737826
0.09128041590966307 0.1450825002661769 0.26592896182369896 0.2290914787635732
0.09126686262746597 0.14528348614353553 0.42791857348452544 0.1578399216780306
0.0908724282489553 0.14534877990013295 0.4032030782396924 0.21465924780347892
0.08527155283819571 0.15552717482315276 0.4191313594889444 0.24130753751167605
0.08519538020350012 0.15481142093015204 0.39600918225393084 0.25098738495004275
0.08498047253726188 0.15320099231515377 0.36831288669971207 0.2338653062617748
0.08498773164271477 0.15481593111260655 0.5124974463251765 0.24282486390577795
0.08617395810009401 0.15881392936194788 0.45969334531899236 0.2546613382834844
0.08663717028661716 0.15909673077894074 0.383977397061799 0.24498862541447075
0.08685261142528809 0.15783052884888626 0.24553877058213938 0.2708147838939498
0.08722671232018982 0.15966469930691599 0.3029755631172425 0.24890602782633775
0.08649871824154418 0.15741946330152795 0.28898437741157945 0.20136569910891683
0.09207035370425 0.1660287886922009 0.2632199213666251 0.26862974319892335
0.09398259408947163 0.16950298580207188 0.4534323852665899 0.2370210763370875
0.12819325311312935 0.2073630431323233 0.38098944163332743 0.001131179164569815
0.11155021452840236 0.18890028672393394 0.38558435058382334 0.0941920693901196
0.1215797970619039 0.20004659231817282 0.3967158784186232 0.0008171061362821986
0.10442428314819356 0.18107056835116697 0.43964035463536405 0.20224468454987918
0.10126866313877407 0.17750909606557075 0.39846463911839397 0.23079422803472482
0.08903254377465478 0.16415597519552025 0.5545322017665446 0.24308203476101156
0.10250863003537461 0.1789713079959994 0.4580370248625637 0.21755966599934645
0.11188334364212925 0.18934703361098887 0.4388567685778402 0.0592705738416482
0.09310078208049843 0.16860576252045628 0.5096742836537527 0.24190656112842177
0.09620566517111113 0.17192045903776043 0.41917701290387177 0.2299040476031563
0.11093077918884177 0.18824042088033024 0.40462608016934193 0.04418429258157529
0.09177033194962445 0.16708134706458172 0.47651591610819644 0.2366208595906774
0.09315468086037344 0.16848997736899327 0.38828265557939645 0.2118125630186848
0.09087361199589924 0.16599120655241234 0.41083064879350994 0.251180227408739
0.10599439897108531 0.18278351837629228 0.41927025340649726 0.10451767084663442
0.1098185887523397 0.1871002464424047 0.4696533242172171 0.0656225231371336
0.11000595949757813 0.18728593450929854 0.454275827359609 0.10455762910362436
0.10059740450830468 0.1768806075096254 0.47895446497462096 0.22828123609181647
0.11899906410535674 0.19716549717482856 0.3848537376009596 0.00043444587328773514
0.10366442115497565 0.18030289246676184 0.49188300264676654 0.16189311907655846
0.10068793617445618 0.1768377549131656 0.37987782452203345 0.2439213805084638
0.0901035718177781 0.1651642412335895 0.4298947446905952 0.22837083847675876
0.09557558175309476 0.17133539998520275 0.4981016131430839 0.25271947015521795
0.09341214022527938 0.1689935737902331 0.5389063022813038 0.21978509385576095
0.11943269957964275 0.1977010468906917 0.4224109042865272 0.0006439723070520684
0.11285019583014663 0.19152704917484342 0.5206296691368699 0.0005593065194842706
0.11326677600887593 0.19160158383293796 0.49623950692468033 0.00013053388866730186
0.11596559412725396 0.19536953456851952 0.53090616033091 0.0005669806460746593
0.10483071684597434 0.18245888538505017 0.5424441916733055 0.12189514631546626
0.12771005459704524 0.20936803401740994 0.5410861734262812 0.0018565167761835112
0.09679637054904035 0.17323286223309636 0.5560263222459365 0.2560513968771846
0.12734065916143378 0.20791212258298458 0.48119715316139494 0.001677810356530163
0.12211710695728396 0.20233039635034092 0.5144621890421377 0.0007476757472431925
0.12296795505878977 0.2020388010390845 0.43861450309016004 0.0008273731809224657
0.10174043653178 0.17847142114376197 0.5219300923799155 0.20029919305363195
0.1294153354474236 0.20922717996892012 0.4150875239370578 0.001381270466924017
0.12247483535148805 0.2018419089275163 0.46111257063846683 0.0006258039475057099
0.10327546203942625 0.17997750763999798 0.5042837722813891 0.20885775155423938
0.12699457459707006 0.2065964337331232 0.42792311493217866 0.0009051227056351471
0.12063410852893963 0.19947371621755147 0.44930051171760865 0.0007255596982803441
0.11925069815182547 0.19968629126051923 0.5572829834177769 0.001298824568985866
0.1293786090819389 0.2089837565816429 0.40334578230945894 0.0016106375093818506
0.12348722981550979 0.2037006702926091 0.50023542483328 0.0011979904380375681
0.11920158605793352 0.19829400306053344 0.4790124100462917 0.0006468794284857652
0.11863654518601144 0.19870347152774331 0.5420407687083774 0.0009823936207090098
0.15803276509285508 0.23149183618904373 0.47515973968756836 0.00019749281871539912
0.13860317520352414 0.21800348158416194 0.5281899571222876 0.0016019190748916626
0.13357756327368348 0.2134855777280723 0.4350225322416217 0.0016231505895189168
0.13625816716935082 0.2155901653525974 0.45301535855177655 0.0017798752565670974
0.14068713379844874 0.21939816071407456 0.5170967370465301 0.0015111787716760962
0.14264692453590475 0.22111920783394487 0.5491949677906145 0.0024662025295676703
0.13068028378717397 0.21217667543017413 0.5158911429552806 0.001533086322262132
0.1525854655557598 0.22807604336679832 0.5280239151879897 6.175538451946146e-05
0.16697997040831136 0.2382894916850105 0.5116428685362078 0.0018403660300929398
0.15291092090014793 0.22844360094917468 0.5418455111775222 0.00011494324408761973
0.15220604064151047 0.22805660576206607 0.5543997254838438 0.0013695454451371058
0.13390564344843203 0.2140244906991505 0.4664460360436886 0.0017329660953284624
0.1313753470200215 0.2130550830598054 0.5551136228714743 0.0029359310868374427
0.14083200330055096 0.2192109256836372 0.48680751314666043 0.0010767152257873168
0.13990496822840526 0.2178013780405535 0.40977649907396835 0.000967432329746234
0.16131272685761638 0.2340139766855135 0.4916692219081147 0.00037800160640335596
0.13596471467067106 0.2158763448049591 0.504701142175627 0.0019781918504970125
0.16492788813395723 0.23695124601255582 0.5262122128323963 0.0011549294516637046
0.16851580133689129 0.23978560674945448 0.5521054398818538 0.004931604371012142
0.14152104240988128 0.21929269151961184 0.4437352315322415 0.0011581270977878413
0.160463786353161 0.2335142641924673 0.5032966510547776 0.0003736326555546732
0.14391064680088522 0.22118868369327888 0.46183899206159706 0.0010399495167712207
0.15105708095572948 0.22667456769916383 0.49683409244281673 0.00029653805468653427
0.1784239911293369 0.24510660341230942 0.4078879663967376 0.005116435663131174
0.16749448145269027 0.23741139910122874 0.4119987509429209 0.0020925373208809076
0.1785336485554687 0.24643248494308734 0.5065254899601405 0.003992443425049647
0.16074353728349577 0.2328388195037559 0.42880994558356766 0.0003085974334891026
0.18240490325028466 0.24749066063639164 0.37329368453787926 0.004422593408710455
0.17035911014430188 0.2400628871255066 0.4610695221321872 0.001614214336351048
0.15803880384907606 0.23067269679918065 0.40913920066614073 0.00015071727641438484
0.14992122885407905 0.22448207019317057 0.3746358392932175 0.00016364720084841394
0.14282263253935265 0.21963546203961662 0.3892658576909124 0.0008365417295082473
0.17730858259505003 0.24600720564870507 0.5415415366823526 0.00523437837163077
0.15770960704718262 0.2308829711039303 0.444197127332121 0.0003556435601576006
0.1700762577904051 0.24017652265572367 0.48589431672742345 0.0025436060835038283
0.17579419438805477 0.24464947085114283 0.5190755523258258 0.0039231754943562505
0.14687129238835553 0.2229383294657769 0.4234872015411465 0.0009552756098044965
0.15363127920408298 0.2272623968851321 0.38653033738059805 0.00017802402620736146
0.17390395132294895 0.2415725383123811 0.38180109542158575 0.002238019423902656
0.15909172849677827 0.23125176235657363 0.3959192331470489 0.00013487493283542636
0.17520567136802412 0.24333786085551218 0.448390475945172 0.003902882365251059
0.17256308232123332 0.24207574760549783 0.4966795830115403 0.001969597447871219
0.1460362963533821 0.22206833286091682 0.4015081063175782 0.0005447405720314611
0.15922200880049 0.2321867031003451 0.4625067171205285 0.00012885174885945934
0.17401937021899683 0.24281850562276885 0.47380051188414896 0.003767084687221508
0.16319254077583112 0.23400264465791787 0.3835975243434627 0.0006204806747216905
0.17224952998374882 0.24110425103415384 0.4374695573568274 0.0031874533014746935
0.22208343212098935 0.2585362900639869 0.5069400824935362 0.11426518329381505
0.18379859079011313 0.2495416356646575 0.5291890595785299 0.005301519763835616
0.21579939540484394 0.2573854885700089 0.5578546913311448 0.13739826101399708
0.18594739230250223 0.2494711831998086 0.4444262196496124 0.0040916917491543746
0.19374573837981907 0.25184609918768136 0.5186870563362582 0.0030008911217524257
0.20963751145206222 0.2556185859133272 0.5150940259951328 0.07505705395941743
0.2185442324914053 0.2578140601557734 0.5248595049331775 0.14330835525423782
0.208894439977298 0.2550950739563158 0.4648717411396881 0.001255917945512848
0.18360639277131696 0.24873455723175805 0.4186938732218762 0.004933101945358793
0.18554992317085864 0.24953378193072295 0.46730054828209155 0.004126162002871254
0.208683839529461 0.255165039971314 0.4823336565553147 0.0007256225762868512
0.19722240984976083 0.25256159228349534 0.5019585763249894 0.002325770543931263
0.18635276126666073 0.2492182140681759 0.39364218188058764 0.004402313756921322
0.23391580081035598 0.26172352053918463 0.5591949875730936 0.21882084066273186
0.19273060079039078 0.2508267145346113 0.4059170772679288 0.0030497976813891443
0.202426735771987 0.25403600508396135 0.5354738573439783 0.00048775533415436106
0.18411281167044652 0.24980578912308252 0.5566363176359851 0.010490955314512255
0.19665738501229987 0.2522819347068942 0.4809602440805791 0.0019945148786098092
0.19516479483670868 0.251770487607183 0.458487917317497 0.0028475919844442475
0.2314466218955042 0.2610121855760506 0.5415802388991994 0.18961470162057423
0.18981572442701933 0.25106652616749475 0.5418382563750417 0.003157905688206261
0.20241817329625178 0.2541959092846127 0.5589838346120067 0.006838936401249765
0.20608997565732654 0.2549988649639875 0.5481836239379273 0.003402002897319882
0.18959567389384646 0.2502439090857412 0.43005347475713873 0.004923674552172221
0.20503929535496135 0.2540373025282708 0.4450404485421715 0.0014161319235884982
0.21927234350123664 0.25811193172787167 0.542844962308486 0.11941066456848358
0.18896495342165864 0.25052403433245474 0.4925964703989305 0.003767913702382755
0.24438607206208812 0.2633185775312865 0.4220453273807237 0.214148607084307
0.23089093216655487 0.2597604003303752 0.3733331535419389 0.2194258450187109
0.19305737593468678 0.2507364485136746 0.38065312896734327 0.0026519753983182885
0.22266598630595827 0.25842758309979075 0.4700488553766166 0.23855812314891622
0.2215195491798454 0.25777482113221556 0.4129037075571119 0.12016383765517441
0.24106099949280432 0.26287233319354975 0.4751442419498477 0.266804190787958
0.24444234206600457 0.263477990075533 0.4441137801136824 0.23177668135005283
0.23135146215030633 0.2604395713084998 0.4593475876347626 0.2422451594480448
0.21126479710435359 0.2553718559765025 0.4213863088391565 0.0865329798613355
0.22928589637729374 0.25952556912491664 0.39602644039558826 0.20921295645077898
0.20004773549434443 0.2525237765395384 0.39745026633144476 0.002510850971059293
0.242742105319 0.26373369655592394 0.5444473320968849 0.24498769143849958
0.23325353068648497 0.26080336108086666 0.4453854178113632 0.19812208093956238
0.23846822011131305 0.26179766826681433 0.4066449056671743 0.23094523098941144
0.19952392600268035 0.25252517299710936 0.4166580491683373 0.0032191277059295718
0.22106151816310188 0.25792054113756047 0.451553084989579 0.1964169758266219
0.23230077295185125 0.26104302166324084 0.5161839961261705 0.2448215955405997
0.2140077368883086 0.25589193201397226 0.4005652660556267 0.06818257373773974
0.21716286958061115 0.2564742904037225 0.3742149743078076 0.07551595435718862
0.22773186101400017 0.2593531891696919 0.4263151051468319 0.17232085942644076
0.23669064682149848 0.26216619829891297 0.5268463115743397 0.19382697559892315
0.23332261005123256 0.26121080775041644 0.5045013814104905 0.23248280114345327
0.21665556488089344 0.2564346935053628 0.3866244587152046 0.1193112703624711
0.23037087193655517 0.2603575478436745 0.4825048575534027 0.20307710104926574
0.12567629701558392 0.2075148233295507 0.5689296667976842 0.002646019680722437
0.11320229501449605 0.19274490412395182 0.5673153235572094 0.0004279205081509763
0.09460737125094024 0.17095683064295383 0.5716334287364545 0.21819951024856504
0.10463761705998476 0.1838124425363352 0.5814235799837872 0.23851913077035566
0.12882433684936206 0.21328547950185478 0.5826269540993123 0.0021304202553322177
0.1346419631712352 0.21565788638320146 0.5658939727350261 0.003456902932115852
0.15988794442141172 0.2339716157682694 0.5679046868739968 0.0011079769053075463
0.15479855060963005 0.23460508903070276 0.5818295281716871 0.000963230643856927
0.16772785253350847 0.24312159241196707 0.5801662737494557 0.004260103252175437
0.1936205101527726 0.25832976164155363 0.5810588209408518 0.1180981744875971
0.2433290815632 0.2729409143674026 0.5832648916132191 0.175291036277358
0.2078431630403096 0.2632674035721985 0.5825228152702208 0.142488783992395
0.17753879999393263 0.24804555937700107 0.5743615827146683 0.008077656305048897
0.14124739453896767 0.2214455067925189 0.5739092531209868 0.0019765774264499784
0.23104753998049574 0.26265422324399357 0.5729517491736021 0.15109473636587165
0.19552942874704937 0.2532318606664257 0.570621377592732 0.0077968805509192425
0.20993339081831583 0.25662876132336787 0.5704706691742205 0.1304783495236879
0.10325448068754361 0.18292233659562307 0.6042463124986608 0.26100595287346035
0.11983823618113067 0.20273323781741565 0.5845335341489892 0.0009052150696100044
0.09994173097749097 0.17875064590150194 0.5919752313117124 0.2711056138219267
0.11187705814779625 0.19331673193135812 0.6010987878928031 0.16000619001950084
0.1262223686246789 0.21109349999592236 0.6086437311336856 0.0021620747059509556
0.10134277165906622 0.18083044223782974 0.6191787748600993 0.15913807154996382
0.13406265706342513 0.2208422782017011 0.6117415464781951 0.002765301173190682
0.12016980475502853 0.20345781790721273 0.6029285041946694 9.615165742207684e-05
0.11454447559885098 0.19696291702961138 0.6158341527778506 0.0003850215621933897
0.15849356981279858 0.24040993047106335 0.6163479153410718 0.0004026771538511863
0.13610024549310484 0.2233605658633472 0.6226543266796877 0.002498142613950767
0.13685167825047748 0.22307789629702873 0.5987463805768389 0.002186841034070757
0.1681697628169957 0.248113752573159 0.6229586973161803 1.2639107250689438e-05
0.1472528042049817 0.23186485786925132 0.6198791485144935 0.0013531585356410072
0.15174160175142387 0.23457017387409074 0.5988693208933946 0.0016266355490669707
0.18354447610961344 0.2599189545414706 0.6216744643084445 0.0665846752599388
0.18252329471719253 0.2574470602564028 0.58948443263574 0.14067299069465536
0.17011966103251983 0.24917317217386464 0.6109411274396981 0.002820530461401507
0.13787586634377236 0.22337968947321543 0.5854612824407563 0.0017469893526505676
0.17182180033250496 0.24947067001545883 0.5921074998602794 0.004534719048064856
0.16090256904494213 0.24131262927010963 0.5944168275167205 0.002097571184925182
0.09585733346423102 0.1695952200029825 0.3026398862321666 0.19012808282558158
0.09105420904544895 0.1658977068905853 0.36278940120111197 0.24463955333416898
0.09430475443887021 0.1681031818274305 0.28114133298628385 0.22184842450391637
0.09707599517718367 0.17074610930469558 0.31672141685780936 0.20808691582561822
0.10400209034943006 0.17644500895419254 0.28061698356680065 0.14567217577346575
0.11902161010870865 0.18921324530574093 0.2588636487680751 0.00031321414981235347
0.09598123909087891 0.169971105667946 0.33977609990684343 0.22310029676149737
0.11911242812710493 0.18912719339877626 0.23621502412964224 0.0004165195260882525
0.10868270958306378 0.18014523798454538 0.2353832874340137 0.10841136825614024
0.10077584380072326 0.1735793172817366 0.26832104057051953 0.2433114460756158
0.10937657920101726 0.18091554730877213 0.2592659211278423 0.03604284011812094
0.11517936047484163 0.18615234911124667 0.29276318477514685 0.00038691635951965944
0.11613099905000956 0.18682390108495295 0.2724279179334617 0.0002953189533659064
0.09828745109316872 0.1711802109971669 0.23279601803871525 0.2902911840758828
0.11073679398655084 0.18200157557291816 0.24759936345245256 0.04056775284166332
0.09832508780757375 0.17137259934383034 0.25486356193279397 0.27797599034627934
0.10606720196663934 0.17842845913103356 0.30905602455819947 0.12358750661810816
0.11552056290034128 0.1928663554083365 0.36781382577936456 0.00014250634362839856
0.12260223380015076 0.19361330370667634 0.2868064195032586 0.0004101898918311844
0.12525049797272572 0.19543116529417395 0.2740374968026681 0.0006057487783094345
0.10791938992700434 0.182031853018443 0.34048581233489045 0.08534395728487869
0.10518000834528607 0.17796842320396794 0.32882838304891854 0.18006048398667265
0.12876392179832608 0.19816647642497737 0.2607827638618158 0.0013266658695893741
0.12785425893586583 0.20172430030470206 0.3128066612707415 0.0011650508281068443
0.12047168436906627 0.19368899759836072 0.3145997148098803 0.0004243189019341679
0.12533639910331046 0.20072602616347995 0.3332627150097457 0.0008544969174557883
0.12207414463655493 0.19891541138373436 0.3538752964059033 0.0008460718224963344
0.10337969348275 0.17899978150139761 0.36333284817207784 0.20801055466700336
0.10021870293527285 0.17444009228724852 0.35135210966613994 0.21841494708035822
0.11367377690429889 0.1870704524468492 0.3251398720876463 0.00035047436466463245
0.11603188580313872 0.1908925537090812 0.33886791002295064 0.0004271072545476637
0.1325583523231696 0.2041739346904839 0.2812473310494388 0.0011878010313219728
0.12103102896758437 0.1931309180694749 0.3011725490405606 0.00048809605616331194
0.12869052286335958 0.20130651896220164 0.29747717514158956 0.0007410227250495175
0.13464868084731227 0.2033998809536006 0.24600778695782832 0.0014667330368130093
0.12735589214602255 0.20605315339031582 0.3684139895941255 0.0013390270829578786
0.22172545544009648 0.25156155982644307 0.32778688268544787 0.0015607185983152775
0.2209587310902531 0.24797236448561666 0.30233029276093537 0.001291964246742171
0.23863436961080078 0.24480849680170993 0.24699350368160108 0.004530698291764445
0.2010974658628878 0.252550913660937 0.372160477839225 0.001773095172462999
0.21799740643619592 0.24910163034730176 0.31608057939324286 0.0008451235528746482
0.22897822207455498 0.24592754958222982 0.2726685656190596 0.0031613826116868053
0.22181187552143858 0.25358115738290293 0.3427294612379682 0.0013452534108616351
0.23803762708218382 0.2584691866106867 0.35018366521818267 0.2200989378770862
0.19758649802642753 0.2500134863214485 0.35948570037250777 0.001653637624369148
0.24105994695806002 0.2577480345460526 0.3393748920655647 0.0806696857208932
0.23106097001919892 0.25170062310841823 0.3120916291468909 0.00435244451874012
0.20676102379961103 0.250994152214207 0.350370432560346 0.0004240908736393677
0.20538260336682054 0.24864808791594267 0.3353033896158476 0.0009982521370182351
0.2279498379038008 0.24834218868854882 0.2925626713772739 0.0037086036128871343
0.2190134408050115 0.2547953895487354 0.35682291709652914 0.0005644747357092548
0.23701080357142063 0.2515325863585661 0.30016981386320873 0.004505071745401326
0.23450607161547454 0.25463321420708085 0.32783852367436306 0.0045532258265729075
0.24190349108132603 0.2511049687294157 0.2882025399742576 0.003862919284626827
0.24164721639260128 0.2550793780925257 0.31837262165223956 0.005710562612294106
0.2354038636547045 0.2462102784886841 0.2632635152266167 0.004743881187716951
0.23093246735958345 0.2583290031745209 0.3618724163750171 0.18966310795257824
0.21002152657052015 0.2536848196994127 0.36463973930434657 0.0008669598187009481
0.19662052960332466 0.23994132213982752 0.2759157955870129 0.00274271376335407
0.1902892065530121 0.24322992441230715 0.3155815708645392 0.003367744156317283
0.21495790889879285 0.24255536466259522 0.26777914381692086 0.00023302703002841922
0.22262877565326913 0.24091915167347583 0.2403706528821405 0.0003325534283377695
0.1918332007034286 0.2369316683980144 0.25757485694214977 0.003509957521325487
0.21433125048713847 0.24415106787420374 0.2828751922423498 6.750582487096538e-05
0.18741721491269903 0.23739992396733461 0.26918793439561517 0.0030937217091200286
0.20678204427459965 0.24655281370643486 0.31680918781740475 0.00018316622436177722
0.2250898117541873 0.2428557209566477 0.2532234605256912 0.0015070274512174729
0.20209280660278978 0.2429487386023742 0.2930744906845373 0.0015208765092878985
0.19727396645164266 0.23596047604030407 0.23979964696806494 0.002827738906223302
0.19831446531251154 0.2459147510985286 0.3255702505042335 0.0018464683844916778
0.20506516387988039 0.23945636060018727 0.25731794294333704 0.0013764128973437221
0.18951664343997168 0.2403469022203208 0.2915399125353991 0.0026665536048762475
0.21013084407025365 0.24584014977002794 0.3048581590443879 0.00020459849212104564
0.13723884250310897 0.20258517793079606 0.21480751831015021 0.001179479205017729
0.12814464444101845 0.19481406282499342 0.21520397731618918 0.00073044470862876
0.11963757983973826 0.18847030728031997 0.22219342654470353 0.0005751789818174702
0.1097216452821927 0.18018279420182154 0.22395412919446214 0.08086819549586406
0.1003718337957532 0.17191577203568187 0.22190270283803817 0.26053994436983813
0.12231989280020755 0.18865132038876858 0.20618305597898962 0.0010113491785266786
0.10004477689563107 0.1699006718635596 0.2072330664641646 0.24341247179928058
0.19964022895436465 0.23518898571058142 0.2289768370270247 0.002997192862948638
0.24365648741873192 0.24319899300681735 0.22458689968037723 0.0032428764087016147
0.21653500619331403 0.2382432109824519 0.22710869734139422 0.00027730049262318873
0.230324505936561 0.241023240253146 0.22818008941601814 0.002954293202245506
0.21676412326382877 0.2365307011716501 0.2111802678804353 0.0007874910060308012
0.19486267147924927 0.23276528298436552 0.21527825243587345 0.0025292725696775356
0.20455662384258144 0.23383651488135798 0.20801934666926386 0.0018140697434956361
0.13199139954390393 0.19571886402889055 0.19879417120938941 0.0023497632543406743
0.11582193742994601 0.18056843793246563 0.19220602968644318 0.004113109459918424
0.1235638087348162 0.1851519435489415 0.183683308432472 0.009345001200630134
0.24256299522287747 0.2384552946496631 0.18959352572276814 0.006930644622699431
0.2281989366590599 0.2355774741793062 0.18890891617738134 0.007039763183929381
0.21762924582507992 0.2353235361869216 0.19955977520216509 0.0011947080671269891
0.19544989290571746 0.2310257731870322 0.19937557661495445 0.003098851901197621
0.20056082578408557 0.23002789939691476 0.18752110958164864 0.0072745944232364915
0.21498917648877197 0.23285167360464787 0.18780664341854783 0.00485685130433315
0.1353982248980693 0.2119826824014586 0.344029014068591 0.0009688318251940647
0.16955370082657892 0.23530370776271126 0.3323620253008294 0.0033507079133374574
0.1568073994106597 0.22552750688854845 0.32264142537598073 0.0011328264613267402
0.141088899452123 0.21387631084380246 0.31596097117876387 0.0016052845385802618
0.17511591022533257 0.24075791896867602 0.35218586232422905 0.003491252883989965
0.1511802393711672 0.22437117337474755 0.35978874588315557 0.0004918942050342047
0.1471038220113338 0.21612279769574788 0.28950635487096826 0.0017158979445246868
0.13876175953818515 0.21117645229934504 0.3021861246567188 0.0012243336687957432
0.158982526352972 0.23031393022599367 0.3651950852628561 0.0002786395992658301
0.1694516046964252 0.23772641019700352 0.36508528568246246 0.0023152389014429657
0.14441256244822737 0.21730821507422074 0.3300725491456915 0.001155713480898925
0.1397745776840446 0.2085913862226545 0.2588669245612309 0.002240206873056053
0.1371102513361196 0.21502436071791747 0.3680052749977366 0.0007479151699845452
0.14315995021080258 0.21189422887066578 0.2707121576728545 0.0020957067307691177
0.16230730284458494 0.23177123597732308 0.3533991406950244 0.00021406435103437784
0.15589770181106477 0.2237002683048328 0.3071338941684349 0.0008788510917044948
0.15370663523272163 0.22436455933186383 0.3362153967165068 0.000523344710532016
0.17293803270066926 0.22857415563888284 0.260993634750447 0.00163212932540937
0.15931245449441828 0.22130851607369342 0.26477504130852364 0.001334680256755166
0.17481189918165574 0.23219975396263542 0.28182220592944224 0.00226496316887181
0.15237436535935003 0.21874676602682097 0.2759498218214554 0.0014440626043767245
0.16209883022735536 0.22436207864219493 0.2767453831961648 0.0012577098892946374
0.17925872661305126 0.23734723866941682 0.30315512682359536 0.0031196586142946204
0.15724860301747665 0.21767607362553323 0.244767035428815 0.0008911486937123
0.14603669104885048 0.211470139925272 0.24603060866402893 0.001672372330446761
0.15312119104686323 0.2139257933776817 0.2333181839144572 0.0008073662790616557
0.18081812065626507 0.23186873910675648 0.2514312644071077 0.0023350454147721827
0.16705035357810027 0.22276812209665656 0.24095280215520964 0.0009967041292644927
0.16817291640542864 0.23183153103485268 0.30944763744808895 0.002740179921459297
0.16035999583352342 0.22586603915229 0.29698972820399167 0.0007527197969012604
0.1826330630705076 0.24187002649905248 0.3243564475334174 0.0037131358169865325
0.16722053017412675 0.23277542704115217 0.3215124467562884 0.002386091764182668
0.1837829346466654 0.24490946879729517 0.3437594581673323 0.0034563847472389906
0.16696073599628103 0.2208984805580973 0.2260517886589864 0.0008267561771977427
0.1410449625572136 0.20657279418138524 0.22922639747173834 0.0012471945007531383
0.14655341777156927 0.20838079902507378 0.21817230176423302 0.001179315906156954
0.17265932714678853 0.22280258562774954 0.21522177281130722 0.0012221195397569967
0.16592813172658386 0.21798342178122534 0.20705819480498983 0.0004198270095964401
0.18089072049243615 0.22575611456001568 0.2017959450227717 0.0031733392037455468
0.18650946173058056 0.23198401014013814 0.2261702947841666 0.00302612729281686
0.1419645798820198 0.20060106396385965 0.1848450535618318 0.0029980861721060326
0.1542197090828884 0.2100534495805953 0.19814077531251692 0.002481588332310989
0.1647962506034898 0.21502318460208988 0.19295999142921247 0.002329610618120579
0.14253676414111954 0.20407062625214198 0.20128676281562152 0.001824427686691512
0.18252594702637165 0.22417029144265518 0.1881302748879462 0.004983642818192823
0.23237287769070125 0.23177640679393235 0.17527870783998656 0.011515216609348386
0.24499225003078529 0.2334407949549681 0.17363168231816997 0.010182232756477644
0.19006955024989844 0.22502477582288447 0.1781308034334071 0.00838591570303819
0.20397559111700111 0.22526249365894035 0.1728235211858515 0.01109918208411785
0.20792385021767604 0.21979170338928056 0.16291385521780666 0.012117450107529706
0.2290318691825203 0.22242033417699553 0.161599513819727 0.01014519676187287
0.2201185150212878 0.2169996456906906 0.1578713681149483 0.015716548389582283
0.18435005415378766 0.20819322248046881 0.15872015279768661 0.013092691586747205
0.1653921423818897 0.19170593676051334 0.15352725985778518 0.009362509582060478
0.18963130441175233 0.21810928252174638 0.1651329842672054 0.01113020193446143
0.15317409720346162 0.19775965087913805 0.1654884221802299 0.011439187821402458
0.17072953723474385 0.20607421964226888 0.1639699712776302 0.008876554306727891
0.13027760183573572 0.18109266275176872 0.1658947656910011 0.01158316571456932
0.14093512499036115 0.18098422245659554 0.15806541113971276 0.010499603296676095
0.11840668788231076 0.16144536702764312 0.15881195500449982 0.026370223327299176
0.186910405117711 0.19249294049820753 0.14741247051407871 0.005532522999106173
0.1764740066121534 0.18445278016002034 0.14651125317893832 0.006345358902948802
0.15481643605936551 0.1744902641119364 0.14799372627699942 0.006999239839527223
0.17540930999516668 0.17205870682733393 0.14234222899958873 0.003985111687960686
0.13156734266438644 0.14219738846165936 0.14470757789673322 0.03806712629652744
0.14929242232250275 0.161626513554327 0.14462111472953965 0.005937139875799664
0.15506407621720758 0.1490437101296008 0.14022735890171162 0.00399340644755867
0.13950848725218787 0.13337483300727407 0.14126274014814277 0.036266899541185206
0.15151531968700535 0.12314653362345383 0.13865440364627216 0.02990145056964418
0.1623811272455813 0.13184129232366049 0.13782927701450873 0.00818673347858858
0.16337858616096484 0.10627649504596554 0.13663268136491352 0.03969446173185102
0.16968161255218803 0.09262061926275567 0.1364553458181159 0.13587628260974946
0.20386614028802208 0.05393867516752659 0.13634741445248552 0.22688257403746515
0.18519157294380084 0.09464627388993015 0.13355821890249034 0.03710140410961093
0.17377007540483091 0.07903676897385327 0.13923566066987159 0.21057491372399018
0.18280887339337915 0.06975239674974792 0.14101356083547942 0.22412501957920333
0.19147851924057704 0.06095545503193038 0.1428287470159319 0.22108709412225822
0.17447468489273474 0.07427247599705013 0.15391055653643876 0.2196403925002452
0.18936625894227296 0.060235153831541974 0.15617931647591682 0.17652331066419327
0.18085286672122486 0.06687696465614086 0.16177970848281634 0.1653817855333134
0.19396864244586834 0.17332217589007165 0.13923171066522166 0.0027630973064295457
0.17206119778937823 0.16112361316927717 0.1399434992539883 0.0031378842280882896
0.2285051494190026 0.19336412674649744 0.14286927059409102 0.006804880621381736
0.20750849736980023 0.1833967648167869 0.14094292054079685 0.003972610282266547
0.24272746761403075 0.18743636682553835 0.14028047164416577 0.0023469993921916327
0.22041300799961258 0.18294759503901575 0.14009598811059143 0.00410146886563962
0.22602761709339111 0.16375323780417628 0.1364682966970568 0.0005741825583985946
0.22992717925747486 0.14665273408730972 0.13441768397818055 0.0002709989417454077
0.23442706478084235 0.1728590701708152 0.1373497677785942 0.002472537081372382
0.22152841324826855 0.1213567784129276 0.13166025911347623 0.00039289383872986573
0.21081043204701755 0.12754287451950938 0.13258721083543704 0.0002449909810191658
0.2214697926158438 0.13411599668615887 0.13313719784719102 0.00025979823171396594
0.2083342817558366 0.14813759335501592 0.13501812767901106 0.0002777291458992723
0.20401094808950504 0.1660062413100766 0.13717017726671846 0.0016070093794405562
0.23749395601420678 0.12588464035981542 0.1318690033983629 0.00025791756445353456
0.2192287123742825 0.08918367823399273 0.13092768484905212 0.002092013530747521
0.2307067034269564 0.10543736438231917 0.13109911770444305 0.0002753085277057128
0.21922612906591366 0.10568849737873957 0.1311666079619893 0.0003761525327109418
0.22851511658752585 0.08073270467531041 0.1307100345098744 0.0025664963766856876
0.240108320415842 0.08815082390931861 0.13070612783980323 0.00024546586408567416
0.2267602338783764 0.20876426733705128 0.1504804769144627 0.011375436256918331
0.20358456074678172 0.2082704124928385 0.15245241323268746 0.00571727137041426
0.21562419417985773 0.20245932571344583 0.1482624171190827 0.0064585664369352265
0.24054626539287144 0.19872930366473876 0.14392322054598056 0.004748103695327058
0.17265499262252665 0.21731882737919161 0.18243104520244058 0.006197356141916124
0.15755838896990843 0.20781223662959092 0.1804324067920875 0.0057267222871459035
0.1792602237863506 0.214727927759557 0.16919306289537328 0.014190100152332569
0.13648376622682723 0.18943368085212303 0.1705794959004202 0.00964942947369351
0.11504278431950812 0.17657597408863338 0.18099770006509716 0.01020852192112045
0.10015591088164169 0.16484929818941502 0.1829407107132749 0.24057437225247522
0.11363333662695774 0.16884745332357645 0.16954394581149754 0.03445552406989675
0.1031388261681632 0.15797079263278116 0.1667445721491947 0.17777963325714063
0.1365794361937725 0.16604780812847053 0.15130517674904748 0.012640053651518875
0.11976224498120129 0.1522745854334868 0.15225248137534697 0.04130868357577255
0.14037561401569854 0.15346990424863893 0.1450755960370611 0.0116296206722481
0.1785330968789029 0.14092827834887783 0.1370371523996864 0.0005346167115656418
0.19202273914564208 0.14572439083065883 0.1364092359747658 0.0003667890742156475
0.17872899094791336 0.1161797586700291 0.13505762679578082 0.013387763813336322
0.18485316936640242 0.15501838057072265 0.13768323030694218 0.0019328221005552016
0.16929399505185105 0.14917659929235236 0.13838287792785928 0.001831850357092137
0.1809319135124348 0.12940041040800526 0.13594253863182412 0.0004743451446724734
0.19281498563764296 0.13261210734346568 0.13504907506219518 0.00024342886380034501
0.1967818715154181 0.0875185735201226 0.13276377278518087 0.04366647769799143
0.20315607612490916 0.06852941588338246 0.13259976648291025 0.12288249911862828
0.2072434894951196 0.10796935775770054 0.13160230758977204 0.0003596422186754332
0.19597120216787156 0.09998473034944219 0.13261087833051582 0.016848681038924763
0.10191453606274971 0.13099099357471997 0.35644182739962804 0.0576693088254067
0.10160721925528109 0.13900739164573966 0.266419266684662 0.09749237175175192
0.09068427857811574 0.1626354280111768 0.22156700570623364 0.25452491474486527
0.086584806440833 0.1514487170386587 0.20703835384362418 0.21415458408628874
0.09563442941977549 0.14340106174492653 0.2071521577256141 0.17431390185149812
0.09546167974950479 0.14382925342943895 0.22314960643167153 0.20989216837044974
0.0857664547563601 0.1541385904022812 0.2275170887777052 0.21588125318147314
0.10260846891088507 0.133306516841439 0.23031315298350213 0.06024155288893018
0.08594179957135867 0.11247757760399629 0.21733737393665764 0.08547735541695604
0.0766568000151677 0.10306636652006612 0.20623073234025802 0.038703019975019216
0.09551709893751671 0.10567840755109013 0.19493546248380647 0.20705885080102723
0.10241558587808461 0.12154278714437951 0.20519388188442417 0.21166686477202762
0.1059682865069004 0.1359344628928285 0.20404765824574295 0.06927448503789745
0.09922410773345339 0.14078049388900346 0.19571361094660558 0.11886241986222208
0.09169902961522035 0.15789592874751399 0.1913649970816779 0.22694133041781037
0.12569812762499502 0.13175113490283977 0.14510307874553216 0.11066912436158705
0.1295320286894234 0.11524940208703549 0.1618924586096916 0.22336873099865998
0.121452561010026 0.12650491376616083 0.1574203433980885 0.1977219216267596
0.11271584389418565 0.13152768605563744 0.1660966588672948 0.14072255729190136
0.13260691786906795 0.10807361452792022 0.1734332628467788 0.14805528385191272
0.12341080280874876 0.1172562449352327 0.1718108948427019 0.13343909820896915
0.09198010580084345 0.14738911540964056 0.18414027513073458 0.17203585895286014
0.10279970256147414 0.13526892851326028 0.18474057368544583 0.13365854933843935
0.10869202668264731 0.10209531794787088 0.20396848444900392 0.20309003174131193
0.1398101655123836 0.10406734268634042 0.18250164382570447 0.15174083337622082
0.1123122647920171 0.12569055332757795 0.17640075973354638 0.1845253285587977
0.10174676179800646 0.14581107507911598 0.16828794029226982 0.15204034110549247
0.10866612532756682 0.14947959178476 0.15824610650168758 0.04635222236585741
0.11566229866465433 0.137455276891157 0.15460237821350437 0.13271747728623712
0.13604217062523657 0.12032235655113403 0.14146339703531177 0.19707099714032386
0.15090104893619552 0.10399713203796171 0.13982975044392087 0.1687452478053823
0.15803431606742852 0.0945345148993108 0.14104543191082744 0.23874068161156217
0.1644246129005215 0.08429711510564426 0.15045500026461225 0.21049965912874832
0.15675809554522635 0.08886653950254289 0.161342291172987 0.19092330430329743
0.1490751321906024 0.09958913685793387 0.15154935521198945 0.22619852528648485
0.1391681672079349 0.10597474383975897 0.1600829723572087 0.19040115704206237
0.11862301060209002 0.12598805424734683 0.1907493904843029 0.09637826134854567
0.12162547536648313 0.10355822160680589 0.2019341694852946 0.16023428360983238
0.13031839133621598 0.11462311478645754 0.18567628335815647 0.15911920616924916
0.13400078475257363 0.09928118771333447 0.19936101770890516 0.1666396325965102
0.13375163430622938 0.08740993544027595 0.20291986664714665 0.1844567338625658
0.12132891584799604 0.09004200886108041 0.2018679308072986 0.158108454103828
0.19678356368799926 0.051604599992832664 0.16756881255487643 0.12996538895699178
0.16800046681721467 0.07642302634070465 0.17162492729703088 0.13919397108503306
0.14301651943910834 0.09836299310492093 0.17321952212231823 0.148954813479872
0.15671990253372992 0.08573935506362984 0.17928128130567927 0.1497517692728041
0.16624574158741612 0.08288883655553678 0.19139950503755038 0.14733992323287887
0.14768678466189522 0.07748840780314516 0.20222805098389202 0.15540902174820148
0.16986845275894566 0.06135439729118773 0.201179769295148 0.12423102763531337
0.1429356962359326 0.06833582982464369 0.1919386264158402 0.14339027713956712
0.19553894288311385 0.05218478123066337 0.18104352625780623 0.1426306073670614
0.18384055139175712 0.03304159481204416 0.19304465736913107 0.16230872430832338
0.20566529406467904 0.043581804124896845 0.16871355493781148 0.14539819965141978
0.21669333329120669 0.033636750489011505 0.17231830480267313 0.1483568598043539
0.21859110796355805 0.03659250053010174 0.15731843045332725 0.18325204501470863
0.18146135398960234 0.0699713145252267 0.18786146123919098 0.14492565450139003
0.2447633834744245 0.02133591747933905 0.1813804560379494 0.18605715545471907
0.20021806160119665 0.05061418269419013 0.19495875119326844 0.1543252816133682
0.2121618989061781 0.03611990168783473 0.19791279028098924 0.14664410827057958
0.2008383396202915 0.04014472791806692 0.19967575201977092 0.16262354558729844
0.2389712457190135 0.07488071955872846 0.13007561249774255 0.0051024379771155235
0.22364112136798672 0.03801703799799418 0.1458749082389787 0.2326180279696592
0.2395908879655556 0.032185749658984866 0.15459827125303016 0.2130789138321494
0.23821507773300463 0.02701150654899278 0.16771778842906684 0.17615330400619827
0.2368002573983271 0.03740612444064492 0.13828005571879384 0.21922116213892529
0.22685323423660167 0.030842228897825334 0.16669025783340144 0.16766907907877157
0.21199198765570199 0.06170230921122223 0.1291340132814084 0.10528197797762333
0.21988766062597742 0.06998993067886156 0.12989376622156198 0.0336212215129073
0.23046203537817322 0.024217223857843542 0.179658074270098 0.16141138687805454
0.21409074418480165 0.040472991165332914 0.1861146574621348 0.15234626404476584
0.20528881257521106 0.046118776562581926 0.1567918785209978 0.17634252094417083
0.23001496005943656 0.028332646731337105 0.1955621850475975 0.16389604601288912
0.18957413439661805 0.05948647077273131 0.1953039184897653 0.1330810632179104
0.14489687374793858 0.09110594350072729 0.19885575196557528 0.1527553050700829
0.15852648903411776 0.07688574003155144 0.19962721400650668 0.1521073122995161
0.17097969705510938 0.0497805733189526 0.20094745567722921 0.12551941673193395
0.19489126200941026 0.027184017285101097 0.19947799693293783 0.16775160363270938
0.18161496103367797 0.04281158918325295 0.20161166695446497 0.17106582527425565
0.1569483383310811 0.06457499339461598 0.2024680859675441 0.15252263931507787
0.15518592488353308 0.09159921252886724 0.19385465306223648 0.16265845408872362
0.07992129759803482 0.10549493191649553 0.19472098701324997 0.04851422650988238
0.21259821857693295 0.04258387311292078 0.13933757667057578 0.29590913455743795
0.2139552216822388 0.046341544985669544 0.12878064620903612 0.17295865715474004
0.2137472439288834 0.018526358534006818 0.2015718500250955 0.15782104329596786
0.22096456578785253 0.006172992994102133 0.19394019661546102 0.15185980563952017
0.19865409011903437 0.019599546276749844 0.19166013749632244 0.13170831807340794
0.23514418205979254 0.014817983311230076 0.20146973873445007 0.17639801229852856
0.24340531434793883 0.02399816315684708 0.19703322928027317 0.1776422880052033
0.22432147331565683 0.05814223653841186 0.12917746147423795 0.06926058535621629
0.23673656002295887 0.06325002981172152 0.13045590466757565 0.039541366218380045
0.22485390560957164 0.03812444539847729 0.12779962083189006 0.2358705331845428
0.0537979993099864 0.06643494340589606 0.08304952146610656 0.000554413396788902
0.054832229948297145 0.06733642248319827 0.1419158804162427 0.000682643364157633
0.05140916421405996 0.062152902285711215 0.05659062273942153 0.0046941542999270605
0.06267745415854409 0.08223786216210607 0.18705928988879159 0.0012452754632505795
0.054791934216436314 0.06790774765694135 0.1094329711966504 0.00029775065032402976
0.05763989707555549 0.07328367188745805 0.1274923329901679 0.0009020299290936968
0.05114037881750289 0.059426873027516064 0.16533234393960164 0.0158005869526682
0.05157865391879475 0.06104255268593216 0.12886577298284171 0.01292930273962208
0.05510905233514973 0.06725883912611583 0.17354576210676012 0.0003900318151314855
0.05747519736697338 0.07222817828630584 0.1635145612220968 0.0007978327214315022
0.05162870101335795 0.06001224594174871 0.18517519243723427 0.01992631989229017
0.06393585941741545 0.08669453328859628 0.01875987650947798 0.07289139264030138
0.06056201046894601 0.08036474452146053 0.009531379379994336 0.09353681770427572
0.05782820245201345 0.0746673416254165 0.053384711578784966 0.0007500799166961112
0.06034742650841525 0.07910817751660018 0.08606348573187114 0.0028794342827954517
0.05833161668768036 0.07539146384906147 0.07466051115984891 0.0005334723059556789
0.06434878514200107 0.08582781553278737 0.16811883352244128 0.016412631209524832
0.061063974979507205 0.08103421146814589 0.0354932693550797 0.01302437559254211
0.0638234685907686 0.08615154713387531 0.048445284043337235 0.010010519649129301
0.05200030124592654 0.06380432409549774 0.031041043419127178 0.014744309449719275
0.05400784994481628 0.0678082695663573 0.01508314747347479 0.05907654043407024
0.05781269206423715 0.07493373821487542 0.02665733932758524 0.039131936427820334
0.061242394718156 0.08046797481501572 0.1173444314724229 0.0017854914484164977
0.06218776361021531 0.08245438106631389 0.10071610838548933 0.0031241152234975735
0.060977040945650596 0.07968551732157124 0.1423212504238715 0.003324099469806824
0.06464655419361191 0.08723989414485839 0.07621465774194006 0.005226283461885209
0.07048221434922101 0.0949579510742292 0.18690436353949658 0.022577886742996763
0.0646177875229416 0.08668211208217899 0.13294308828187337 0.013132407171365372
0.06987668413018092 0.09427701827538296 0.16220356831972563 0.04819709531357598
0.06626264406075864 0.08898922736959816 0.14963141174630792 0.006035671474055842
0.06833722956885416 0.09254209978546546 0.09982113613514759 0.03390858960084279
0.06948427953815961 0.09405447456897334 0.12209353042830617 0.036651196740750826
0.07088897830322728 0.09686964958650635 0.043986474999462705 0.023265590832241348
0.06927567907845975 0.09406392853496788 0.08688474354959369 0.029434454175522422
0.07238499841285138 0.09819623773750828 0.14368637410089877 0.050656098528644715
0.070851698315705 0.09699535259193344 0.024136557982269456 0.10331481094402502
0.06953091303796602 0.09470156699688984 0.05890471188111807 0.02886909831627064
0.07498679377633694 0.10160702426876728 0.129491975624705 0.054311772395687775
0.07688859410236205 0.10395134708805195 0.1126670623545932 0.05678342742537255
0.07680070320586012 0.10345095887850003 0.1682681092704904 0.057236897899797634
0.0761020823195698 0.1032442085809713 0.08408874568251556 0.05225710280946599
0.08016933285642756 0.10555443269644747 0.17915702486068974 0.07415146767469083
0.07697151210401901 0.10447099570564344 0.05154198827807922 0.04997958411698799
0.08255488976074213 0.10727430499725302 0.1222218977625343 0.054019294851163815
0.08039101264255233 0.10655967981529899 0.03463130385928338 0.07264813222970204
0.08223750122588014 0.10740621342339549 0.07196172415767481 0.054923943030153494
0.08473125939436937 0.10743563609165808 0.1388511614385498 0.06228689697694842
0.0839246806183149 0.10762194292852267 0.09412344730074053 0.05880180375511762
0.08780718816016292 0.1083426399236266 0.060733812965652084 0.05209597898218719
0.09992980960917261 0.10530959205202114 0.08752801371986953 0.03664705524251176
0.09438668934139495 0.1065965256561156 0.12693306873476778 0.05347909443512752
0.09681186331232382 0.10518084279473484 0.1772957219202801 0.17398004729099076
0.09141288325121506 0.10818360393140129 0.03138987169409259 0.09876225795765234
0.09329741387465049 0.1076019798086201 0.04595657988165491 0.0592977450867447
0.09024371962754926 0.10753482051596916 0.15079645866075453 0.11956872795097538
0.09404992367608143 0.10762627559554017 0.01913586221410979 0.12743003474924894
0.09311151733161929 0.10712846373135021 0.11205916845828132 0.03799362900430274
0.11063944392505402 0.10052392959434928 0.022097576479993386 0.09088066496338296
0.1063173973785875 0.10041774628928318 0.16112964563733626 0.1981873045378297
0.10565948331891695 0.10120999001061237 0.148217153836147 0.20248827384882687
0.10385592515388334 0.1040422208095354 0.035680353998818776 0.03523490804553985
0.10391003073699862 0.10315551816369276 0.10483824322897393 0.03497947036023018
0.10435247622321359 0.10331709875778566 0.07266624657395138 0.0345829852135457
