x y z curv
0.053610798089417114 0.15159757161035214 0.31623719495267644 0.002301588344527506
0.06329892948720962 0.16912931359847508 0.2815236897974815 0.006578644194142111
0.0565341496072006 0.128450669169079 0.3121369956499316 0.012100304439326505
0.048900174569534216 0.1012905155165161 0.3404332973928778 0.2746665036967379
0.057201252833486926 0.13930283446155953 0.3068371171028723 0.0020560609371288664
0.050189111871708214 0.11324349619004774 0.33319914829443636 0.24441896337000965
0.15027935471014262 0.1358760698752935 0.177533438459805 0.1360739339734917
0.14930880707447045 0.11947453054964399 0.17839424429328699 0.22516129175459348
0.1498871580693147 0.15108799594425693 0.1809224019842488 0.05557477274087015
0.1477141610710191 0.11145595782542991 0.1869345701799268 0.22853134239998704
0.1476022705596341 0.1367302566707108 0.19060097652934457 0.020686208561966263
0.1500195827366942 0.16378970476879554 0.19563409565899642 0.14940593574058483
0.1461119886681732 0.12273471630600533 0.1958845802198121 0.058597520050519124
0.14370629118638262 0.10253756187178234 0.20606335383479585 0.1411563233794705
0.1462966927703973 0.1495931843644541 0.19584358467592744 0.03371083261944711
0.13726448240764771 0.07049032879148093 0.23099022172178788 0.15576079807291282
0.1402576768211478 0.08096219278906239 0.21953417468462832 0.16692830276377252
0.14251516343105808 0.09103360958894922 0.21079538141072632 0.17245756739059803
0.13382437837824257 0.15551075044580642 0.20860170950639692 0.06367868648289199
0.12369415748066716 0.16408955626427252 0.21334881980642328 0.049549920314704676
0.1405184259542408 0.11165442154872564 0.21683752724084274 0.016153172978318177
0.14316079759839695 0.1377210660546296 0.2055893981603979 0.048287592076968686
0.13940120286853486 0.12367492113430081 0.21591870745245606 0.02076020571673974
0.1379133268589094 0.09762715968733017 0.22625619906813516 0.07150829677773937
0.13518342366203595 0.061796648774475355 0.2389177015776865 0.16088858567648268
0.13347723965835745 0.11909418381693926 0.22717136137412186 0.019221534621083017
0.13294399249717204 0.1059551402980343 0.23238844460301267 0.020756879334957384
0.12525336274041549 0.07172929744288034 0.2579093416683862 0.1436663872145638
0.1317520511244588 0.0920735750992569 0.23909042589064133 0.08924035059206517
0.12376116949670227 0.04174421198376327 0.270336574787659 0.2313626066897583
0.13050583833154866 0.051439345307988854 0.25363127794549456 0.19646256536667328
0.13379155857425634 0.07971615716287946 0.23929890687918942 0.09552757209560586
0.1305086478053381 0.06375358640234077 0.25082346259313715 0.1491554900899139
0.18811992773572683 0.13350252698428894 0.1723432494684301 0.16540909556194106
0.190469450883702 0.11886218790946991 0.17758962375977544 0.21972974260750325
0.19048065247006762 0.14659625100943618 0.18177425685943682 0.050500834683173006
0.1928167290035266 0.10723774892653519 0.1899031057690974 0.24929526234306768
0.18943333532896986 0.1638873215855946 0.19331315250236208 0.15169980336699015
0.19402140550658908 0.13000050807990063 0.1967078454082757 0.013886667304107854
0.19342772012782894 0.143377672415262 0.19449826512717458 0.04049159689133949
0.19959910460728927 0.09022761585804917 0.2188923276880505 0.130877064044739
0.19666305468024464 0.10859977376013824 0.20749576479608206 0.09762066221495852
0.1993556367929371 0.10196063582231948 0.21736528149134468 0.07570129771053544
0.20185508840289074 0.07198030675187764 0.22765867768554446 0.18374558104931135
0.19922726216913922 0.16271008736402315 0.20694318039224135 0.08067917564430208
0.2017320180916211 0.11693213324206499 0.22006164458156996 0.01658409147402569
0.20627033761207947 0.09035555796027141 0.23701041763538172 0.07455702871775431
0.2071329813033324 0.07907856246327344 0.24165277139460545 0.11851174205181249
0.20598899813751634 0.06364237149948834 0.2424739226573535 0.20602865970037712
0.19872203568539898 0.12722302453627315 0.2122172290859309 0.019518770721902782
0.21243088328091536 0.07663371953130832 0.25194544812264974 0.17293252456780248
0.22014839299061467 0.043865581149232426 0.2770584076460785 0.2590790734668281
0.21348008566246432 0.054214081819105586 0.26110704097963694 0.24170580657417692
0.2146047600203311 0.04075701340887695 0.2675443094965309 0.23660730749949996
0.20569762452460227 0.1491506503525245 0.20967800800509823 0.06852152779898842
0.2126688793881544 0.16603514481289025 0.21282885239610272 0.07600879359210816
0.22176684941086322 0.15862274760799372 0.2152464268261434 0.052629987408194905
0.2302199297241852 0.15384596407436485 0.22201518897026898 0.02908167420295313
0.241941773087219 0.16654899079924007 0.22832272737919918 0.04387391344479821
0.2351437947108877 0.11244659450966307 0.2530335398248945 0.001677513001110185
0.24048763469289725 0.07124006251766547 0.2844660604753093 0.27820343332033864
0.23258173789936226 0.13326234992639924 0.23727421754485378 0.001615960079365802
0.2202433475255466 0.1166853336978531 0.24000657325567454 0.008770100036950659
0.2155340856268695 0.1434250201270351 0.2188630715231098 0.029610568819096083
0.22423872570692696 0.10877982332338879 0.24766663125206162 0.005027661635113745
0.23136300773895419 0.12263958780093073 0.24321669298915288 0.0014602003236204712
0.22140658233067873 0.13538102658806994 0.22797601846176457 0.00445046313707212
0.23125085549008723 0.08058544269424164 0.27116340118117116 0.094768513804087
0.22991284110382113 0.09892888098324362 0.2583429301984458 0.00221833942378752
0.21227935060145786 0.10384981043355976 0.2407352804598924 0.01154868111417434
0.2205737924822867 0.059290211582404814 0.27146404121327855 0.22803590678089408
0.21284622901163489 0.0916950250774204 0.24655521076534265 0.05552693382595891
0.21824179711898103 0.0740679683952318 0.26190592056636064 0.16100281877764314
0.20826795381659563 0.1286528517934787 0.22454577293230327 0.015503775287338492
0.2156112243487078 0.12427310543750811 0.23186061484015524 0.010933219682287287
0.2295471189765136 0.062173361072917654 0.2818019235563394 0.2739729527269028
0.22982522119631746 0.05268833186343127 0.2879532843691977 0.2822813946185139
0.28121523664792347 0.10995680477348069 0.3146851306504265 0.16964290546289124
0.2700922927996994 0.17335436098600554 0.2641459225654326 0.010983985594613648
0.2778081017737957 0.14587455631887902 0.2931064577921926 0.0036118660949783937
0.27198053894695245 0.1594601328657277 0.2738830347584467 0.004827049152997932
0.2756571475064678 0.12740994469904876 0.295454331887136 0.0030916431634845577
0.2816365475363045 0.09585373535287975 0.3210783330664972 0.2407618897254304
0.28007845797211955 0.07869867613920703 0.32640180183792566 0.26286316304352086
0.263739901882318 0.11528411913182324 0.28168107508232865 0.0037371972132623846
0.2641654175179573 0.1338179733451675 0.27242802805948524 0.004962237131449165
0.26465121070945985 0.1573957736667171 0.2607397244644577 0.011075398031584463
0.27168794373560506 0.1441777244627459 0.2804007000451686 0.0029530720678964998
0.2642361087655999 0.14487413504997454 0.2666155311009665 0.0028036499428752038
0.26834624278799823 0.12840657800482974 0.28151346976426284 0.00284039511469465
0.270020392894017 0.11396407194172119 0.2917393583700979 0.0025996310193116727
0.2739507616582765 0.09274295709162461 0.3089279535257826 0.24648710308682154
0.25338613866794013 0.14939492370080876 0.24860846995265345 0.010403387489837497
0.2574349432681211 0.09428338770674481 0.28611672384302067 0.16880849205451828
0.25621815425391103 0.1066195792342832 0.27733480075132166 0.0026502885411172302
0.2559236369395239 0.13636591047830138 0.25940438494944523 0.0030029568346167886
0.26563923403270173 0.0923890758120353 0.29684045024284067 0.1792750809408883
0.2675793007149067 0.06880011056198397 0.31313024349699115 0.28777097704359644
0.26289492834802314 0.07816440458847973 0.3021278766598595 0.2896341643709565
0.25791324966175627 0.11997358658118126 0.27146767904848745 0.004085780897588633
0.24547604281967764 0.15555919607107274 0.2353995001031236 0.027159736278139328
0.2439866596735817 0.14457086760399626 0.24064785049923976 0.008644782102137505
0.2440111628860631 0.13455459262880415 0.24690829132775938 0.0025336003745219152
0.24052637980042527 0.10508817799419175 0.262483343352699 0.0013657053465362596
0.25174564447768927 0.060781306885031056 0.301105456567722 0.26930121501957577
0.24120524325439638 0.09290015586737335 0.27100062048022455 0.01638337880199561
0.24838972793960848 0.08457000251872056 0.28270386208153875 0.178053500083879
0.24905917575290512 0.11121896837276274 0.2668171766804962 0.0019848775652073335
0.30150866793715597 0.1277433685422144 0.39190385862310567 0.3039683079239874
0.2968465530090586 0.14616779791251908 0.3728575818771699 0.22903994822425805
0.2994796042051968 0.1312462876373785 0.375623953000182 0.2885239674738457
0.2953340200713322 0.14557214362193122 0.35720940450901606 0.14701759508324283
0.28487973225831903 0.18081077454417438 0.31113210410908115 0.0038944251373558125
0.2948097648799071 0.13294152226650485 0.34801670992587064 0.22341123681529457
0.28768705028095554 0.16486606775562254 0.3206872731349323 0.0035152951511452195
0.2828356073397429 0.19014910237105107 0.30335273733786683 0.01828656620792427
0.29077567462067033 0.15676756847070433 0.33587814150361733 0.00149364509618314
0.28684710880277253 0.17702548221190403 0.32265776790009687 0.0027567407686256676
0.29760074006798354 0.12383908027215712 0.36067968034231584 0.2688367107684991
0.3003924696829385 0.11633982032225293 0.3724950558655799 0.2577595221211686
0.27716022182324773 0.18047341036386932 0.2802792955200154 0.017243280471162224
0.28077808315982533 0.162194420707795 0.2950706784324274 0.004228910112079206
0.2831055242405799 0.15212001393826943 0.3042629517674318 0.0023500003571228886
0.2817429416989453 0.17890729213773532 0.29681564896189266 0.0034715525813186574
0.28582938582163464 0.14581462608863044 0.31416237235932365 0.001504677878261096
0.28372241556117206 0.1685851982344656 0.30503145212377636 0.0036634214520350843
0.2888839228553329 0.13123567013557377 0.32679603636542315 0.09572042075711558
0.2913881857574613 0.14456612128019578 0.3343121291795499 0.00257687639151178
0.28880257297907397 0.1513136101655823 0.32418143930519777 0.003025538415555064
0.29905663706239616 0.10731648174719202 0.3645827117860615 0.3007948590066593
0.29510630202649313 0.12056625134585473 0.3490665475700162 0.211077954822394
0.28982946962793044 0.09944026689465091 0.337827676407142 0.2529968903658438
0.2869345362690124 0.11851131187904992 0.32417726797016766 0.2108892659467513
0.2776821651420264 0.1664751894905144 0.28487723484791083 0.005783945750637004
0.28695107613191473 0.10750460744913985 0.327886182265259 0.2533679439764372
0.2830252022815735 0.12201592445226206 0.31358558327055625 0.0889788011661863
0.28703586537142317 0.08766238705395867 0.33579864061905984 0.2798514769381205
0.29397374550317257 0.10923890289558837 0.3468541986005686 0.26438947538361596
0.29167420395256016 0.12488777887085638 0.33715909410584294 0.2217185852640097
0.05821911553445039 0.242903748019125 0.4769869385680167 0.025101304075355532
0.05977987588060183 0.2542057053702511 0.48160747805294685 0.05171401655679063
0.28226963120611637 0.2425564412045485 0.480088743583766 0.025724874529425994
0.2811026586248148 0.25339538920349847 0.4882505845736528 0.05933250978955604
0.1404778411758664 0.21018324029783375 0.5521645594817015 0.07096227178726411
0.1278458427945065 0.21106888640284138 0.5521776318423297 0.034653895755247514
0.18661294003404183 0.21464476606668342 0.5522413869089189 0.11709175651928812
0.22305224712618185 0.21290916424241763 0.552216812022065 0.018183134362617953
0.20346431545709115 0.20476435267341583 0.5516562590572242 0.05868708927482329
0.1873484187697297 0.20229018122219483 0.5511529520525819 0.0671033392839004
0.1495349265856975 0.22062468543863695 0.5522732165435296 0.09507885012245028
0.20696872212440398 0.21827480623295098 0.5522793035237479 0.05884977244571381
0.224725790166239 0.22823440038710133 0.5522754911381218 0.006143828352937731
0.21257188930597232 0.22984761493713102 0.5522736083827597 0.006750394480933536
0.12719680874534997 0.2361152082432935 0.5522797503376274 0.04394605413785725
0.11655987759988022 0.23036702225038178 0.5522778218482028 0.007258836882481362
0.18260247137747276 0.2355014304123677 0.5522753098293665 0.09379120111104423
0.13967691647697866 0.2317150935805526 0.5522767296314994 0.044631023679145225
0.158056833526944 0.23052327213406137 0.5522747880703927 0.11178298557769455
0.19638400180639293 0.2333984755692453 0.5522732807033062 0.044575161595643495
0.11778153789197737 0.20067275341038715 0.5505749102441408 0.02597238173679322
0.15760416536960015 0.19721549801311708 0.5488617690810988 0.05760938911264272
0.22831455532598918 0.19582767902251472 0.5479472601000103 0.027014276043280442
0.16892005516043218 0.1949132879244319 0.5471193693956367 0.04335240527874026
0.20834854707315767 0.19464401535836462 0.5468473958857794 0.03400873609341912
0.13869882570111602 0.19322375577433284 0.5455135111189937 0.029496105624724597
0.19063529231978593 0.1899902775425198 0.5415891173909365 0.013368649222138783
0.15195073026195677 0.1865483803513655 0.5369369389162495 0.014578562377402873
0.13447580381856342 0.18427157891675292 0.5336833579556316 0.011425160768542223
0.14683582004733442 0.17911462301525669 0.5263213192136335 0.009992256778558861
0.11966244693152091 0.1828025234212317 0.5315835583663822 0.015029407468548547
0.17678588384358349 0.18289646094600623 0.5317257485158131 0.00911027425829814
0.12667024767330562 0.17582991914118512 0.5216281429486427 0.025399152017982485
0.21187084735915632 0.18701866738090206 0.5376169247954808 0.02293216525060726
0.16197929147276469 0.18341606051268355 0.5324656136997913 0.004374884047585953
0.20057026470306752 0.18405279696544397 0.5333802708327013 0.018304216545269834
0.17431475043325362 0.17548592591815312 0.5211397188676372 0.020851565202586256
0.16045774587813744 0.17559111195125415 0.5212893393259799 0.01268035258637127
0.1145631568453179 0.17322530813266732 0.5179071407954952 0.02361104016452742
0.22634729361812475 0.18642521118540922 0.5367711185748317 0.017690033922394682
0.20734999659187847 0.17847174411975594 0.5254071191235167 0.020969878734793303
0.22560289570867306 0.17862627047429658 0.5256287579526274 0.019467809750617415
0.22039905167573268 0.17250195611878524 0.5168791835838223 0.040697970507957315
0.19165707951841718 0.1721285186860783 0.5163513780871303 0.01858819878130281
0.13249601518375817 0.16941100107575308 0.512519234406356 0.07256235604317872
0.15564386273608644 0.16886511994856795 0.5117472329422951 0.0655113193894342
0.14375672587088 0.17085941787361142 0.5145597217908354 0.06553051958539503
0.21203201614626388 0.16743549253720796 0.509717513223908 0.07528088118563027
0.1212214958912668 0.1661310172636655 0.5078482393269284 0.0946848354158582
0.17466925238134928 0.16649500288584657 0.5083502312934285 0.08477350995550931
0.14849427170590834 0.1642202625678561 0.5039776007728526 0.06882824509374459
0.18006061329314677 0.16385565267574406 0.49871701429674814 0.08368420806070671
0.1182514885066263 0.16422443256154176 0.4968029627334429 0.123352017705516
0.19913957345229064 0.16470390147818356 0.49589668740222487 0.06461583622954038
0.1355982335800438 0.1645361482227952 0.49617507082689183 0.07693676303189743
0.11076258423672694 0.17029450780014826 0.48744094612750305 0.07765753993759188
0.12771539779546948 0.16996450565145038 0.48791387808714115 0.0834391269203856
0.17786310230421826 0.1721606525871609 0.4847705192929492 0.06982581300620316
0.1649213473269966 0.17933429733196274 0.47452464291211804 0.04933590269135082
0.1443103672261446 0.18197874715525067 0.4707503411564277 0.04448340152879437
0.19845439400207596 0.17783920991461463 0.4766594747032355 0.05403618767795335
0.12262761757396257 0.17858037987131659 0.47559855637058396 0.060409539338416425
0.13439517484351382 0.17579910306603413 0.47956770919931097 0.058690977096198284
0.17830765700099785 0.17859705267815246 0.4755772143225054 0.0495282641214408
0.13451647567948663 0.18626845630372443 0.46462887594339436 0.055603789748824475
0.21612813934112007 0.18611334513760397 0.464850348368485 0.04782734776837192
0.1602591805803189 0.18791203745295068 0.46228317591330936 0.04440471556479489
0.1737389256933118 0.18864933380881863 0.4612308742606386 0.04379969929918931
0.19131852118094578 0.18583823314209263 0.4652430002583826 0.04145376248629564
0.20181146816853598 0.1882021304617368 0.4618691424650978 0.04181762758917895
0.2204135916406525 0.17651206618374354 0.47855371422739645 0.08590654379229372
0.11298679537442011 0.18835618824369743 0.46065465624184787 0.060166984773512795
0.10716963095425919 0.1800714776917008 0.4716664244662537 0.06341391246451789
0.100046311438868 0.18361188518631136 0.459228338677818 0.05591654339643861
0.09104874785746297 0.16793899787145639 0.4708551239742296 0.05579390404935619
0.0846929330607133 0.1738805292043145 0.4490936804435816 0.05534277693987634
0.07987814453192743 0.15346653963753187 0.47440783516724866 0.07831311265024114
0.0778912708109871 0.16154914591406738 0.4557117150597545 0.0517821242585382
0.21547791382282935 0.17038111865776773 0.4873178497642616 0.08108652560987234
0.1917537903895732 0.17037869390501842 0.48732132025150776 0.05973671640958972
0.2302060805305341 0.1695826584082978 0.4884606657124331 0.09114680591639988
0.15223041303742874 0.1689211966335052 0.48940739921086396 0.0779412007790691
0.16537612163282592 0.16885579137039342 0.48950101210872354 0.06530532735124799
0.07174989643168235 0.1424757500561665 0.47497940639305153 0.10964103661234151
0.07205231772822371 0.15062566391987928 0.46082339391065696 0.07716518449094724
0.07342672804536063 0.1656728760472684 0.43674395048275905 0.05131624187781332
0.22720914502425574 0.1862171462882341 0.4640235041782117 0.05864220534740225
0.2347249614705048 0.1777845565603922 0.4743536352856556 0.08025333789738251
0.24314193635790454 0.18388927491918267 0.4543799968860063 0.05728203799236959
0.24402203518741256 0.1714228026201781 0.47415261649259494 0.06863316890047652
0.25285523238524565 0.1670484008134713 0.46515374965870415 0.05633164046202499
0.2621083719671421 0.15181767636304244 0.47293858603918565 0.07258377747380748
0.25974043915614187 0.1706454635127849 0.4451034032014017 0.051125972497114265
0.2615859704566188 0.16191547790336042 0.4562806627577103 0.05057723277227306
0.2663396462388371 0.1675491859630128 0.4339342563560689 0.04719383030452886
0.06923782315653709 0.15579581408645166 0.4425185477902278 0.04126481019540563
0.06577911772117487 0.14536615462423164 0.45141782693524046 0.06923396855291064
0.06560402465666751 0.15764447956795694 0.4243679903331448 0.04042397399003259
0.05874353133001873 0.13140560556998968 0.4519108800509539 0.13612102910015583
0.06305770665268896 0.1458402370882803 0.4393031696829984 0.05718669923049052
0.058277436853444324 0.1354056323551516 0.43982875094071106 0.055952243773000114
0.0513695303553123 0.11747580655113164 0.44062191676330437 0.11714064268442567
0.06124381293012399 0.15294074837696778 0.41103460890060173 0.04173701660943483
0.058168474697974176 0.14278854781110137 0.41676766234263174 0.05125921913043779
0.05212110433377826 0.12250567189029143 0.42735701414414473 0.08222823795527201
0.05440632624640661 0.13173626513907494 0.41659960883769914 0.05435365157188257
0.05664478840454604 0.1413965259739268 0.4005494762728864 0.04686336130839707
0.05228097870766769 0.12402473107100392 0.40380510230242855 0.05390990962979066
0.05054631081664579 0.11155219950537379 0.3971290621673723 0.0674666833631158
0.04795798563339387 0.10278247404611154 0.40942200511909954 0.10760461811938561
0.0544226727838021 0.1254266818141181 0.3799319931485097 0.039790771097496916
0.05266580361850766 0.11357151529071688 0.3829376838546779 0.05080807171632322
0.04861625278076449 0.09322962436381138 0.39755715962706656 0.1405565866738872
0.0545480564245358 0.10952420556698107 0.37175992828093385 0.04448972559561841
0.05602715053121128 0.12308490512149647 0.36801931866596405 0.04572910044762185
0.05289443432978129 0.09672685543358181 0.37804645535947856 0.07648062023698925
0.05773591090415266 0.11660073423243603 0.3588579295458532 0.046367299803022156
0.09022132197057539 0.15875846014460726 0.48448649976474734 0.08243795784934432
0.22859759906726695 0.1637802464620292 0.4994560160892409 0.10027221777722767
0.10517058778696156 0.16392795018402873 0.497839365080993 0.10350978470553988
0.2481763009457514 0.15953586601366887 0.486076439206105 0.09175747879175751
0.27379776327689903 0.1423553517241329 0.45875149109575053 0.06828473345767756
0.27111747621826404 0.1509884823008367 0.4507735900563037 0.0499255971534866
0.270948952091282 0.1567238232709064 0.4400590520087495 0.039716705522831054
0.2734130717708467 0.15818423696770315 0.4275091423269193 0.03905597659120549
0.2797014842988522 0.13422302257472668 0.452814538562623 0.13316985553518196
0.2784465874790941 0.1465795665763089 0.42997387403083787 0.04923835549574583
0.2818355503412806 0.1365969847865563 0.436038126908988 0.06674678480769397
0.2797717851537278 0.14843262912105762 0.41707192915280344 0.0454140863778736
0.2869443750342594 0.12140581663068051 0.44337964337839136 0.12479300438942426
0.28149916376973705 0.14694701517099848 0.40414314117196043 0.04455978328320142
0.28673715405089795 0.1274131462931217 0.42035767416129505 0.06223593851309092
0.28974461403025364 0.11647710645020456 0.4250007916546523 0.12233838801940303
0.2841547753794084 0.1384074299137868 0.39092963261131924 0.04175336229000506
0.2887979009433339 0.11972344167366562 0.40824013445250207 0.05908403088257874
0.29123868806039643 0.10877097726772392 0.41307358037911246 0.09014354672085313
0.28716403862773354 0.1249193043418044 0.3963838501680567 0.04607374446601149
0.29064672926673213 0.10389405727486273 0.3990849383693203 0.08891167281407891
0.2849399717817939 0.13110265087083778 0.3800051847271044 0.0433009134208529
0.2884047429582705 0.11182472785076211 0.38920985298750804 0.05748944069818833
0.2922904627964452 0.0908401617591621 0.40158205425249166 0.1480771166758403
0.2898167630896054 0.09704829660137737 0.3903748757346582 0.10440271322670422
0.28393449443559704 0.12281847074669225 0.3677561958258653 0.04294761727554138
0.2854635761152885 0.10741419807110612 0.3712776351245066 0.04478175998095097
0.2870181663058753 0.09695628131083674 0.3776947165643742 0.06529396037846948
0.23996510172135105 0.1622796864965483 0.4963576039884735 0.10224272882085944
0.05211726447194981 0.07707175083415252 0.3825309700649808 0.12328383660604034
0.05466449614389872 0.08628390381954618 0.372841732019882 0.06907452250712877
0.05902066993417497 0.09824214511006116 0.3571990968717349 0.05458642952497391
0.06379236453278116 0.10420091967626127 0.34214441836640813 0.04030915550455405
0.0631768556875181 0.09132228928001396 0.34844578255517994 0.05068278701272604
0.0625857115676709 0.0731887317547217 0.356701063579925 0.1273941568832109
0.0680027499779678 0.07570559439876132 0.3448096231244103 0.07590396671468908
0.0694912138582083 0.08741432478904337 0.3366686057316748 0.042486078963450497
0.06982808187394159 0.05422674886247992 0.35226608035625906 0.12472388255588719
0.07610130779814744 0.08360780341605459 0.3270215689222536 0.04079719258619522
0.07561672805891527 0.059046582706491144 0.3409284820770321 0.12336768508417828
0.08144668725945112 0.08805523829711448 0.3166012071740598 0.05177259699764522
0.07976795154616503 0.06912598799405582 0.3294720492812606 0.061251321895533964
0.08328831556557625 0.047032180408727 0.337568401263539 0.10474295685487203
0.08661778103475962 0.07456957421169069 0.31733497875790795 0.043107570892020004
0.08863875635239533 0.06402751354981763 0.32111381142575535 0.06322604425745407
0.09302101756303605 0.044436402636509276 0.32843302004248365 0.12831428765935798
0.10005592289561252 0.07299013122652913 0.3038486431538102 0.045621674978227174
0.1037372883623443 0.04068219732690737 0.3212823380202715 0.13952633635577977
0.10042228550238845 0.05912214319756957 0.3122435549701441 0.06452341031631921
0.1094830372178351 0.06626241804708484 0.3001380417914134 0.05633276530811426
0.1131602160475699 0.05415885675570937 0.30548419967206014 0.0945922642232176
0.11425459027857712 0.040043249352499234 0.3140405803971978 0.10987192056573167
0.12132018222955647 0.06933775615290894 0.2901648105526689 0.09128176019020058
0.12688308508386437 0.03410225255481148 0.31107088334517763 0.10812422655820542
0.13048609170248832 0.05007235566245123 0.2983874945735742 0.08909401147935538
0.1381295188656993 0.06199441762372017 0.2870948056854857 0.09676445332554
0.14686987996354986 0.03514003066721074 0.3031277106283399 0.09633734089131923
0.1508845438542838 0.05436714764046934 0.2890429578671634 0.05267241507876884
0.15927515498533557 0.02496110842676094 0.308107481700708 0.0985977360058922
0.1599654273226626 0.03474237359324341 0.30127935062836886 0.05287591647254695
0.16331325119556644 0.04704738453671855 0.2924397546795486 0.0205137121186969
0.17177795590999195 0.05513252619660257 0.28638070026656315 0.002557320922967723
0.17612961574876518 0.030361544002473526 0.3039604419396619 0.12719241045115223
0.17464402676724425 0.045120608942793725 0.29365002168132337 0.046829923471209914
0.1827253763444344 0.06102408087967208 0.2834539763059504 0.05716908236235241
0.19017371580934822 0.049576047435593504 0.29253196408013105 0.10769211819360368
0.1881937124167593 0.02735877613955158 0.3074380319319134 0.0770716842917615
0.19447626677712979 0.06393334556741474 0.2835847528605278 0.1031653635967536
0.1978030119857468 0.040798937563335386 0.30045512931353935 0.105624112716071
0.20088017081379952 0.05408188296787486 0.2922513748588836 0.11128281109769658
0.21006564338797423 0.04224581395188329 0.30400990754494794 0.13025301293375668
0.21506400589024727 0.06806650360351998 0.2888908351194871 0.10739817963050032
0.21490763168975743 0.05237072644726932 0.29950761631783407 0.1235464762265563
0.2240314046833646 0.043759318160557975 0.3105146888240937 0.08999432929447224
0.22573743329260249 0.054187958491096685 0.30467947844504517 0.08677280716131602
0.22772840602139047 0.07116385570817282 0.2949327435934071 0.06385156688194792
0.23514158458275045 0.06071116031626482 0.3074416073658388 0.06457325170552684
0.23635364326928013 0.04474179668931087 0.31874329163482373 0.1343718883123149
0.23930568155685494 0.07266254446284162 0.30345530082743355 0.040992128856219605
0.24688750363565376 0.06520768085143784 0.315593066461882 0.05263353694630655
0.2461734341806455 0.043286542091060344 0.3282740919602556 0.1511073978546211
0.25429649175926744 0.05388618382161278 0.33059140686689537 0.12146761555332129
0.25422487050352527 0.0641459567286782 0.32447147542064425 0.06374317054674936
0.2563961942447626 0.04521820133536999 0.3382437590874405 0.1391333373554548
0.25550551159771495 0.08244025202563145 0.3155343934021851 0.04972712019448917
0.26766794421133 0.05736441861051154 0.34647839081580617 0.13215770124202925
0.26385885904976514 0.07405975184129471 0.33179537898181843 0.05942327137080349
0.2629829059523317 0.08936175622876147 0.32259829298482223 0.046780412405494944
0.27115279457994956 0.09707366624929864 0.33357393891652487 0.03724817435303455
0.272893970849073 0.07701193885201982 0.3459596102348783 0.06835135725317307
0.27427233209656204 0.0896778039994117 0.3432803309128888 0.04073621195329226
0.2784462550187383 0.0711967294872895 0.3597742914582652 0.11788448305884291
0.2802463282980559 0.10977073776034364 0.3522894830584665 0.043047870994573856
0.28291593917654606 0.09445662344653918 0.3637489489826782 0.057664412308186835
0.284269451679805 0.0741826273258939 0.37244379923164544 0.14417888003341847
0.27820001480917284 0.08566860418676235 0.353733262811646 0.06137741254749223
0.10661199516581207 0.22009881810480175 0.5547485992762777 0.02469557742824995
0.11906037730267277 0.24431631123178266 0.5553677818419851 0.049565292334051984
0.2187366878659598 0.24375286371523716 0.5545882618636842 0.0678158406422684
0.14948830157910514 0.2409587263024423 0.5525439615672034 0.047132896929961414
0.2074423272395043 0.24690137244844482 0.5588418774343776 0.06973481301170817
0.13054494691107635 0.2470348318220153 0.5588827590815902 0.052371246574839124
0.18516525320862587 0.24582891557661932 0.5577881114188861 0.08774715833753352
0.234528227345219 0.2231138532669398 0.5568255714244992 0.012397526605813584
0.10718130984668746 0.18543059681909294 0.5386229383559207 0.032911007169585865
0.1054622001830095 0.17521715744049104 0.5288834937182947 0.009698046311221752
0.10668453375277774 0.20092833717440375 0.5531731066999185 0.025166453614198475
0.10278287440137115 0.18969340163112436 0.5513370617501895 0.03636389740236459
0.23248033124413506 0.16790274362187396 0.5107293625172579 0.054035705508236956
0.23495269865660634 0.17707354019677815 0.5323725864359368 0.02744231592847567
0.23692998899070478 0.18207696736764178 0.5426480986422577 0.030576045486988168
0.04801107870866129 0.0810006899254905 0.39415996580081536 0.16164631397070894
0.041315380910444954 0.08391762503069572 0.4042829488969788 0.10861496809464949
0.041626093786692124 0.10278856531054606 0.4311145808288775 0.09974283034311895
0.04669444267646932 0.10066029060360587 0.42072552930636736 0.1254492932887126
0.05215710184507985 0.12289927086446195 0.4591979196978042 0.0789167599932405
0.06133326573196585 0.13372420358298304 0.47521433278291236 0.08092417510604928
0.09494249511726001 0.1557641088930434 0.49838482723792593 0.06871723032679307
0.1007386429208228 0.16179925206246049 0.5134213808442998 0.021408841906243814
0.2925224117006978 0.10842860038979427 0.43393757254809606 0.07561129158441585
0.2738434032983988 0.13579797709817598 0.47191061869061385 0.10562476120403647
0.2899250207242438 0.12007160257390001 0.455253256977446 0.10997110688820647
0.24816559787042392 0.15295329260278415 0.4975601576583541 0.09934717090965751
0.2937284762708895 0.09446307367967456 0.41243907848984246 0.11020374549272738
0.29510324908789054 0.11222673744330412 0.4445879620288773 0.07663920174850666
0.06100601018897995 0.05451254079696084 0.36027807585623484 0.09747566081599811
0.05346341768719108 0.062031118313455424 0.37168900141615746 0.12914451396456614
0.13627964225503678 0.026110530589880165 0.3126062925056936 0.08325417717199998
0.14821325852879474 0.02057046712670338 0.31018277664701516 0.09458301307053334
0.1998822700778518 0.025152877781505933 0.3118031510061614 0.09211461157790406
0.22069658827257196 0.027903711289176014 0.317916699400812 0.11969839928132307
0.2123402540437499 0.019694969373744802 0.31249744295918136 0.0931890041062142
0.23877478750409442 0.033774466264404474 0.32648504247343496 0.13068800755734886
0.27324068159979925 0.049229315460542454 0.352765270290237 0.10490313464459365
0.28920067903094915 0.07427706813392673 0.3845830394538805 0.12407816328017203
0.28130418260870504 0.06004557834030909 0.3659120173955458 0.09834546234048733
0.09663085064258783 0.2551023427467611 0.5602213312472974 0.08141998277590409
0.12135690170424143 0.2617474932056944 0.5602285832353546 0.07325084522055347
0.16099434798600895 0.25927651067268065 0.5602273687579113 0.06120140106452668
0.11146251735485109 0.2561260849861926 0.5602258203370374 0.08316343117728064
0.09320171008178411 0.26764371981817303 0.5602314812057472 0.08494497329531112
0.14405782669419864 0.263198994393283 0.560229296642037 0.10994598933267018
0.07596681814344965 0.22638086046299302 0.5600049030380375 0.045678532489390675
0.07067385207269185 0.24511518693121648 0.5547864208053177 0.06452903670442109
0.07076597917036268 0.2185868954592584 0.5522896280341886 0.0798318911730827
0.07064225900857098 0.19830641108220437 0.5448078315068411 0.09181539487909918
0.06772761291992492 0.2664564763077901 0.4950251792518262 0.07037640631721745
0.0681117844971003 0.22326016794955547 0.4937321297410344 0.013490970743614305
0.06759507718151181 0.24617512070792585 0.48734359491073975 0.05169034168712182
0.06953973766056547 0.26980285218483946 0.5367678790089382 0.07422359307144628
0.06816203930025919 0.23694472737925532 0.4980295493642898 0.020876191033331982
0.06877528248565629 0.24138908240454898 0.512920816263233 0.04205670940276782
0.069249167163377 0.25008023928070056 0.5256424181407391 0.05253352146016514
0.06895843601893106 0.2682489321747533 0.5232664771008481 0.05646170249406548
0.06652144414240514 0.2644732039138631 0.46729720199111024 0.06639686444546311
0.06816232985535063 0.25060201853988373 0.5011910464621033 0.060071305936218726
0.06866390026334662 0.2271371769704937 0.5071103284062236 0.0065832108467616095
0.06913823473564451 0.21961404083174757 0.51609648649261 0.001581026598574397
0.07004320360958013 0.24263977585356977 0.541875698918868 0.06930657523856644
0.06970013934596049 0.22905706174123902 0.5309817845135406 0.01679678589267273
0.06584094929818733 0.26579676833185356 0.45221789599220447 0.05965502844698828
0.07032114800379013 0.26171615806613324 0.5525664171259708 0.07197141897953588
0.0699279339968791 0.21124512238941753 0.5320172299614492 0.02975695512882684
0.06677457045585702 0.2516381732178381 0.4700550617873159 0.07248604224773487
0.07018093851735002 0.22199357801555825 0.5402202834756817 0.07544514237021625
0.06937672345266044 0.20678150812063747 0.5185239872886992 0.010810184332780607
0.0700907425392722 0.19629808097631424 0.5322452394025542 0.0809975559746914
0.06856576165378249 0.260648401938974 0.5126328716525661 0.07303257825925553
0.0686745923146413 0.21240999154039086 0.5039515208665604 0.006256580279280709
0.06742508617893585 0.23133202100023445 0.4820333554360101 0.013327418384477527
0.05858981745545918 0.25624666601579554 0.4363183532073317 0.04722827186273242
0.06094324263502601 0.2308683797387756 0.46169716870124894 0.017036395831347573
0.06219427775734225 0.19850049834194905 0.49028622721883086 0.15491331358236654
0.06628225285735126 0.2111470276829448 0.49057712423187066 0.10207463775265273
0.05804656190724559 0.20298091265025184 0.47941549826661745 0.2121847696098481
0.05472079536762617 0.24473647794821995 0.439602423468699 0.024360960429656464
0.05336309871018825 0.2678345791472168 0.41830600276783186 0.03959784457420045
0.04856663200097441 0.2550985885001986 0.421491877428886 0.03847213156377034
0.04334460858252962 0.24233322631275317 0.4232443398507581 0.005214972357393722
0.03690988195337706 0.24780125725480573 0.40738995379986065 0.020965197120123735
0.03580580370074733 0.2590233024485374 0.395999652538062 0.045548103458382554
0.029389976731541336 0.2570953028042951 0.3853219470735332 0.03982588787969443
0.02613692710934449 0.2620579054279611 0.3745467404923604 0.05241137969631718
0.01886497030147513 0.26106396345570376 0.35820651127659375 0.06931408404128993
0.017218273263171397 0.26899537609858193 0.3477576478504104 0.06502546819420225
0.014463904509126697 0.2540366840378522 0.34996709607479465 0.056859122269580266
0.012531587567561786 0.26155224780792513 0.3380171270760133 0.07141628265220543
0.008676058723459782 0.2504480539175641 0.3292990301887076 0.03237902142396587
0.005585513860869994 0.26808277875042574 0.3031921327652062 0.04465381614184493
0.007172430464880692 0.2584601763854655 0.3174027114366441 0.04191529188138669
0.002698619000803063 0.25902300683282303 0.28778226397322176 0.06836259888813383
0.003185289587781349 0.24756378411308072 0.2965455158531315 0.04071420919823278
0.0013575035245905753 0.2656353755235004 0.2718932743798515 0.08019121270282221
0.0010500717242492026 0.2524064124432829 0.2678805738762211 0.07237842127697826
0.00019762196004303385 0.2695141370004025 0.24969143340181627 0.07914796376338151
0.0005651408194318585 0.25634532715973257 0.24879325251458373 0.08691692035688608
0.00040803880392145897 0.2627250513467537 0.23814283696859137 0.0873481907118612
0.0012181752232025957 0.24815681190563743 0.23894736663973126 0.05926721154342301
0.0025828233352257635 0.25331180553048177 0.21436055874163862 0.08406915219731517
0.0040293734514271085 0.25572840991946266 0.20061331726036158 0.0860337514617645
0.005274307379709102 0.25951655188983036 0.18913782727257672 0.1001975669375745
0.008218670653079902 0.2668843281596138 0.16902903011690407 0.08776207524201314
0.010130089134954319 0.25419156508093904 0.16986882769997763 0.09707589692386692
0.013129596525159024 0.26153534732416883 0.15374513935662087 0.11792413417637693
0.009919691297364098 0.23457731208387575 0.18872356440872834 0.006229206729307947
0.005979474374743766 0.24222308543399448 0.20104446457885397 0.05168013531003193
0.01373535500946278 0.24464359334622343 0.16420475946364485 0.07182050698201338
0.016508529496854277 0.25036133259734195 0.15007664525235237 0.06746804754587507
0.01859518189040861 0.26168804836556897 0.13646596702048716 0.07073429967975661
0.02367409291145806 0.25495046833936597 0.1274548469421961 0.09715134196083372
0.022702705515244344 0.26923115313685825 0.12095018682495524 0.1087432793546002
0.02880115481715899 0.25817518757355196 0.11374572325580713 0.10420363611344913
0.0343683849418855 0.2518405741222513 0.10633200812189625 0.0748182141776514
0.04298542805063959 0.24987028026888491 0.09222609557454947 0.09390288489670266
0.0377664870857851 0.25973100285664696 0.0952645990035375 0.08563071185123738
0.05088029929787545 0.24745028609643235 0.08164951926117757 0.08114220776878894
0.04489241991981376 0.26313793237052735 0.08144872709100004 0.07649170865734366
0.058850552779395354 0.2504422311308479 0.06939032093573816 0.119878198051604
0.06614707896731845 0.2515252087950541 0.06029163836423238 0.09582687901513677
0.06162605411739092 0.2684619393980225 0.05588700615682295 0.11803144315103714
0.0688359296606019 0.26028960179361194 0.05246714180380817 0.11898349638467416
0.029892208371093652 0.24209114867261697 0.12235230730588091 0.029786529643238246
0.03635483757070582 0.23367440795857683 0.11624419058494505 0.020051989799268984
0.042703115812159145 0.23478006310998706 0.104012494188023 0.025666152607816697
0.04832045525119764 0.23764049349327795 0.09277417459891682 0.03088539189926126
0.04356503228700054 0.21643909520450316 0.11937068256891822 0.0012354005698538562
0.055707623280872996 0.23015626685569351 0.08815116359459138 0.0019096509523028875
0.041525786805892695 0.20696370938681413 0.13332165727435863 0.001521538145020883
0.06671016381209921 0.24058737453961526 0.0665037717130344 0.0918898211482577
0.05887718583352099 0.23798429926267983 0.07783997657277339 0.06569779537589504
0.07363428472723423 0.21993752772951713 0.07507388392522 0.0019826346167890084
0.06677579997298799 0.23087052891360235 0.07399107119154202 0.010185430662083259
0.011886913013916447 0.23841564206629676 0.17655420703481445 0.060280440513609625
0.012680063532787552 0.22081892809757797 0.1927396024101871 0.001384501789249961
0.019404502164855637 0.2379142176047735 0.1520233073071209 0.04120553323916927
0.016958079556404177 0.233249947075515 0.16358517580123882 0.03697304825794392
0.020801997089869954 0.24806747571463394 0.13925196314737956 0.06027651017556384
0.028727410667412002 0.2331027273962532 0.13254592216858418 0.007017122471537542
0.020759987446076725 0.2139522241902786 0.17319778433138508 0.0013342642529020569
0.014261847898093254 0.22773779905518185 0.17853779923941426 0.0016752342055050221
0.02567786984901465 0.21451960541423523 0.15896257463998897 0.0014514669220638946
0.02319411390388641 0.22557071693716746 0.1529615339122389 0.001172642090547477
0.01830805240406942 0.20718075219394433 0.18851158546294478 0.0011687219499793688
0.030490810307784603 0.22154165588213703 0.13948436201131403 0.0014050947473140723
0.03185422037437048 0.21272647388027235 0.14623552086878983 0.0015987959542239866
0.0029157214828204464 0.22988606816429333 0.2413579383915992 0.0014152320891870792
0.002994081000742329 0.23772781418571584 0.2300133296918946 0.03730881697577485
0.0050293300434014745 0.2383531709726303 0.21160853143441694 0.03824572202267394
0.002861759341566934 0.22482383033563533 0.25212002932373756 0.001423441475117104
0.00166562922690428 0.2345995747245893 0.2593626814559312 0.0070224995843909755
0.002373605417993245 0.22347300516149393 0.2663903325802914 0.001207703920404012
0.005123645033730155 0.2176939217919571 0.23851314716482624 0.0011179654097294945
0.009424824797640181 0.22212603482324278 0.20569275418777302 0.001107967026626658
0.004988976655352917 0.2249654751986822 0.22942177413922665 0.0014512627020203661
0.00915960174522961 0.21145667715442582 0.2209646219715256 0.0011260608836691052
0.08388094209809922 0.244903354595025 0.04678209858818067 0.08284558615779863
0.09335086992093196 0.2575070013595925 0.032584760674556276 0.12693291267038562
0.0938991295760554 0.2448337460008149 0.0390317873747871 0.08969230002232115
0.07785123939675671 0.2358394688520272 0.058725932103167955 0.050784715076634776
0.09124693042763077 0.21825454955383364 0.060728699444604226 0.0019764931842420294
0.10102273479771917 0.2315201086370622 0.04380456414677007 0.031892993963380765
0.10723717891246909 0.2453783050118274 0.030253594553741145 0.10208120602819175
0.11306640357734547 0.22268780778661715 0.04341955213339048 0.0019691583832466865
0.11945992806455626 0.25019644198519464 0.021459921119565458 0.11670169539694857
0.13389495160864207 0.2568364819505834 0.012588596895618281 0.13325067708032354
0.13074362801843675 0.26938396631898404 0.006879907467260548 0.10073133398158975
0.1419551029559193 0.26605596596207215 0.0054886954485513385 0.12966201469832359
0.14717846645320726 0.25471942708284456 0.010600674161588084 0.11062132265795499
0.14663766115161617 0.24230830715509227 0.01719403667161376 0.08884246910156181
0.16354280770569066 0.2509798573528577 0.010524911052348544 0.10816598727963439
0.1671600950528885 0.2411562870157419 0.015374441789102756 0.0913845690821243
0.16345404727283444 0.2315535616013435 0.022850300407450605 0.043677748918640215
0.1732388175175135 0.2679318896146825 0.0013705936091252646 0.120712726818648
0.17979379947820312 0.2590493462380038 0.006601160200577568 0.1489589375987089
0.19616892244540357 0.2526076965564021 0.012228714715039024 0.12804206753216285
0.17046016044253393 0.22181471114772333 0.02954946782991012 0.0016393719617988482
0.20561514470139794 0.24556217050789841 0.018384859250264403 0.1030419971516432
0.20828498831977751 0.25607758625406707 0.013604627003602217 0.11625831935565022
0.21936486406724676 0.2571632146592816 0.01727102709493104 0.12382674860081756
0.22583481530624147 0.2691121496652066 0.013860352118055799 0.13980123833189417
0.23215938595357052 0.25635084509308903 0.024069504863498247 0.14315440782507727
0.232653039856174 0.24336138418177442 0.03126297748505659 0.1295016577785871
0.23931304872463102 0.26956690241018 0.021242666272121208 0.11990837476860859
0.18705589357368357 0.23957557300709906 0.018037408180475188 0.06877164741543838
0.22738498154331796 0.226810600762787 0.0405564408634251 0.0020611782306975846
0.24402599665937388 0.24935450251452507 0.03520170609363418 0.112113052662027
0.23801917212812596 0.23244372839973573 0.042447187738941336 0.03761936462383507
0.2498182280846147 0.2381196677959122 0.04640866569929801 0.09217336024652055
0.2502315380748231 0.2233696028343018 0.058016487913698636 0.002404702942407128
0.2492948022429773 0.2687619487430122 0.028403505713008512 0.12149102347061891
0.25434215513136305 0.25341848343606393 0.04071569389995678 0.1399213557084302
0.12849550867305995 0.23161972589554752 0.02967773623376269 0.013374327653108975
0.11717844799949488 0.2359665297792873 0.031272555899071054 0.06623001789842287
0.13408082775718946 0.22008507060529967 0.03662070045585907 0.0016700213351194197
0.21835469803531088 0.2296006371854451 0.03412444394686759 0.0018956926847745904
0.21932807640945703 0.24061580403441668 0.026282026751139272 0.0925004150486963
0.15521813978446464 0.22515850399361542 0.02841223859772526 0.002679211764655628
0.14416480436772677 0.230758063171488 0.025989816884980036 0.002326890402495481
0.18070874204203513 0.22954669359614172 0.024716349819556387 0.002928538796054419
0.19624886835949912 0.23041823959351004 0.026306597922185614 0.0224743750334025
0.18638381811395768 0.21998009099951368 0.03251889219658336 0.0016890270304966168
0.2666220588491549 0.25044430100185644 0.05330646585131369 0.15074760386490757
0.2764407359155324 0.26609447431122435 0.0550659435803756 0.11302003027218008
0.27538166071355186 0.25000241854324 0.06283726868334667 0.09752789690535535
0.28421648007191314 0.2648238393735576 0.06521163616220349 0.10663356997591761
0.29556765482201547 0.25846711903769887 0.08481077258447124 0.10273183315002331
0.2970398447308478 0.24972951265982785 0.09233576985800673 0.08191058602609279
0.30462855254632226 0.26113179253117097 0.09885009291541137 0.12088609123616288
0.30425391396971996 0.24886918120841128 0.10544309044777556 0.10023729017607769
0.31418599358330246 0.2588241152872467 0.11994391566818478 0.08655103470654261
0.29038945851822684 0.24176746440230074 0.08753693823566451 0.07282393979303664
0.2844430322284092 0.22895099611940828 0.08929142638335431 0.002106814592591961
0.2916363606012182 0.22344021255215904 0.10404813402760846 0.001249884349283988
0.29639925545307094 0.23622784716651085 0.10128296707766177 0.06363282592763872
0.3030639430939298 0.23707883146242642 0.112284787268192 0.04176307108440082
0.3033626715461975 0.2274700484592458 0.1207958686594828 0.0012377959812765206
0.30926356527926113 0.2439817966991161 0.11885678632522519 0.044633017845275486
0.2591388980773002 0.23764481739052276 0.05441462879493379 0.057998144755875086
0.2613533489405375 0.22496678476266063 0.06632960723856529 0.0018924647859361382
0.26952582961422245 0.2384237493412415 0.06392939263589725 0.07717884779197316
0.27639378784831503 0.22946124513327743 0.07867059709094813 0.0020123743752420557
0.2808595581866044 0.24410316956525122 0.07266949350237971 0.06438632353306512
0.2944018562903296 0.21441113443379023 0.11797456603194009 0.0022577657303042018
0.29849166849137776 0.20717096223446224 0.13311087160026733 0.0014204400987985603
0.30483700016667814 0.21796812934458604 0.13347668888593908 0.0012383705091834056
0.3198295994499487 0.2536591142529422 0.13720687546769625 0.06716054897922563
0.32590102433013235 0.26226430837490644 0.14982236322492987 0.08580730307817486
0.3309826275866601 0.2531469660911436 0.17534966326333676 0.06347749481529191
0.3312188178035312 0.26496344167060043 0.1676078116886414 0.07182248708177576
0.3349036941250367 0.2555473702152858 0.19336287968889454 0.061995195790289975
0.32703455378167806 0.24417992432164487 0.1673543292440621 0.043368309665076626
0.3247196840825163 0.2472257526760749 0.1563050787460219 0.06772461990527591
0.331724404177213 0.2416731547104234 0.18920224256904344 0.05940840525427609
0.31129081968462213 0.22709022993480968 0.13764291527452815 0.0017581924645987718
0.31530164727140714 0.2405898734403623 0.13554451553085373 0.036101150963539455
0.3204578910367442 0.23146457968194767 0.15730280405673286 0.0084226058650879
0.3201842196359965 0.24169660941238674 0.14742543345860692 0.06048856268470171
0.32649960398760136 0.2190453800464472 0.19166434725982553 0.0013466478817451594
0.30360908691391464 0.20531213403958998 0.14497864827531431 0.0019604337769540533
0.30908892405626764 0.21550693968141163 0.14528125765256267 0.001285979579010044
0.3152100552793323 0.2168778477221906 0.1586267554136429 0.0012974510547307434
0.3225789672513016 0.2257181023887012 0.16985276633712168 0.001658972635126838
0.32068144818450006 0.21394396923841122 0.17762587050167236 0.0009607743877641858
0.3265917636995965 0.2273256649166438 0.18217211524257027 0.0014069327848831002
0.33801040283439937 0.2686230181501573 0.2043108198277714 0.08435666713413714
0.33879223566872013 0.26645159054180145 0.21688167148586232 0.08456325311523998
0.33659365070952757 0.25017591024882135 0.21000099874302086 0.09523044792494403
0.3343711561583246 0.237244354244009 0.20852934155088038 0.029844915236858487
0.3372499174380549 0.24132123915845655 0.22772966495198016 0.04174429485218898
