x y z curv
0.3530555160387989 0.15629526789254705 0.337669914708019 0.18795874992574177
0.3524507299819441 0.15175836290645608 0.34585560520223474 0.1755617384399573
0.35238076087237497 0.1578433662457238 0.3274634607531062 0.1953626273567177
0.35982100250887983 0.18232271827900898 0.337239472426918 0.18218542880755695
0.36129656936541227 0.19459141804805338 0.3358591625090163 0.19203365411722312
0.3632250163066784 0.20090771027398288 0.3475685998833192 0.21521695416090691
0.3614124478457376 0.2033483506590649 0.32885612324185504 0.21296589585020834
0.36601044997854887 0.2308196505040593 0.3506467468644912 0.22661309774204066
0.32727473798522216 0.11341316565197741 0.3057345509156709 0.23759788581239158
0.3258074551845588 0.10729934221164347 0.3181722985916348 0.2227650451967111
0.34443133163092254 0.14275980003899538 0.3133831736994688 0.2127481755403931
0.3462769838239257 0.15019953594904462 0.3059700287066146 0.2215563437681278
0.3458986951939193 0.14239777698378375 0.32299095290660895 0.20832942015630856
0.35002598954550457 0.16049430950201352 0.30697929160823395 0.20274711115004115
0.3517497460221066 0.16062870256639689 0.3173798939755453 0.1985020946468991
0.35792125064082053 0.19084108761898114 0.3132535738721586 0.22737120470594693
0.3556423464761579 0.18003485660434626 0.30723989795519435 0.21694437536729994
0.3600787591001305 0.19426816374627956 0.32525305293536205 0.19852067989450073
0.3587857966625395 0.18375905471163687 0.32592664466024623 0.19144515846671764
0.3603283879602857 0.2294907304599054 0.3067271310545766 0.2060879588633961
0.3604928110844927 0.22948344334353563 0.30809023213300146 0.20424118341944025
0.35837674148424925 0.2078384553234177 0.3042083397665603 0.24309522356504956
0.36215346001975024 0.22291975238289022 0.32505836884062456 0.24581383241620142
0.36083060226856195 0.20852442025291434 0.3222415460152878 0.24332890770214102
0.20194128670281297 0.06861697689033432 0.22230279478956422 0.0022965901734716674
0.19987154796686923 0.07463488284859002 0.21226195635687364 0.0026023026915698005
0.20184069857695422 0.08639081473608835 0.19341531734681708 0.003478705633832384
0.21475102663930717 0.06896804084659414 0.22353799322862275 0.0031785592100384103
0.21220670256942528 0.07393645424428155 0.21502068898952337 0.0031742241214252507
0.21561815682496527 0.08361987139556754 0.1998718144619867 0.00370640761461642
0.22928493979347905 0.06835082929724817 0.22844057489187686 0.004396057796032997
0.22384506160662024 0.07815980141269681 0.21083079079078765 0.003141287665904827
0.2271781198072744 0.0847389106235717 0.20119284815556643 0.003134795866679795
0.23778479868173227 0.07659133307500167 0.21924467251766183 0.0034764900731127342
0.23639736055930524 0.07598786828320217 0.21952070365725282 0.003258906025479681
0.24111241277812404 0.07152960480103616 0.2290376843401601 0.003744472049218035
0.24516270963913414 0.09246086824844447 0.19829318393624096 0.0034030665617931937
0.2516188718251449 0.0891383845416174 0.20796120476440952 0.0031688093381795754
0.25912601178411176 0.08651594814847241 0.218635993361212 0.0025529843335878417
0.26639699579197706 0.0847213308964115 0.22815444197528134 0.00273571774361835
0.2703330897627388 0.0928170566320487 0.21903945427978874 0.003096788462475524
0.26223342799770333 0.09637257298515552 0.205990080036621 0.0029805747353455537
0.27713283704714214 0.09200291257654723 0.22771158305547348 0.003111260869660504
0.27913079439598665 0.09839851313635686 0.22071760383671485 0.003570480331816429
0.28574878905462475 0.09852566395746261 0.2292289202745929 0.04479192792770014
0.2724393711236422 0.1097034706542037 0.19486908946119688 0.002811187144290779
0.2790501715786734 0.1111034633130859 0.20134545973511025 0.002350681164350427
0.2858684187437669 0.10676153881823117 0.21698502674217943 0.0023867663134737134
0.30469012180782973 0.12051499282577241 0.22592222666630055 0.1886202206187828
0.2973444783052618 0.11507951216317153 0.22152859187753143 0.09617749762723006
0.29946897150480395 0.1337847435671091 0.19767318665800315 0.002615335078912541
0.3095642773692103 0.14086041468234878 0.2052126920123893 0.0747409504166676
0.315809802287235 0.1390031080382746 0.22050484779554233 0.20250351015651805
0.31138544273081226 0.12863810345285515 0.22528623736681422 0.24058826468581412
0.32386970124248643 0.14962742062278453 0.22276816571569436 0.2469306475305606
0.3316250920081523 0.16067079957211752 0.2289986138155659 0.25990848058540633
0.325339767411242 0.16555717633596692 0.20723841243857705 0.19847520080630468
0.3322201598872474 0.16979082285724478 0.22026521958172562 0.2069340934840194
0.3391421333506679 0.18086106377001146 0.2284829921174083 0.2604997886808718
0.3356215260040178 0.18791432283211562 0.2112646482997426 0.26533460054030267
0.32693177825070485 0.18116004781557696 0.19340885324838494 0.1709744197870969
0.344961641244824 0.2070215404071702 0.2297277513171351 0.22353876147143406
0.33909222497874353 0.19580808513338888 0.21412544980951784 0.2711678981626467
0.3445887642491351 0.2180209903659457 0.2241860200291788 0.1879332577606804
0.20156116581848382 0.10116339714854408 0.17539622294114518 0.0035726319023443903
0.20899663115885903 0.0964570554446143 0.18176927073451765 0.0035484082558315997
0.20963153250887945 0.10588343771435167 0.17042940785169458 0.0023598453691903846
0.2080902558119685 0.11523353689317437 0.1589852693838009 0.00256581802811999
0.21096041562203927 0.08886822502212344 0.19112656267750416 0.003387151143396765
0.22522684253109873 0.09056023064449042 0.19157419893276234 0.0027008770942456586
0.23152806258719072 0.09585471008721964 0.18711681799285523 0.002953664172916621
0.2355137776728258 0.1188836403468316 0.16099587852288622 0.002532848219866076
0.24409426863687714 0.1073253174118106 0.17881483317782088 0.002150242664874278
0.2645203033191406 0.10994014150364205 0.18819638457733096 0.0035251104421750064
0.25527048050224455 0.10676843970948369 0.185777158300236 0.003705402767590902
0.26194640978995687 0.13373974015408796 0.1586565577673051 0.003506809623069312
0.2667340144229968 0.11721371299979537 0.18114325118391736 0.004536366052461214
0.26312575490436024 0.12521111608908697 0.1694329267448478 0.004043880215827087
0.27181127627474155 0.13090356668187225 0.17043312297188173 0.0029064991525552613
0.27971568494869675 0.12556901401541035 0.18363337767767288 0.004151675118824202
0.27275232206524425 0.14109613467338278 0.15982682430013423 0.003248786375298808
0.28042393146346833 0.1387671380033572 0.16946559838271266 0.0036433097508040903
0.2896370046699676 0.12832901802939917 0.19050610852360134 0.003098808531161002
0.2862841447391878 0.1355306878069043 0.1791240579537215 0.00388333759786403
0.29514068326525544 0.13705348953312538 0.1878324243370384 0.002703118754603256
0.28819986855180457 0.1484355100677864 0.16788232545687334 0.003448850196501557
0.29501900486111915 0.1463124165097731 0.1780372733588636 0.0024681019361714115
0.2906079935139798 0.1602031207493084 0.15799068461496069 0.002837295867198401
0.30320677201153484 0.14841237731689233 0.18532353831694204 0.0027529305298146407
0.3123448743586523 0.1543435440563684 0.1925972347975507 0.09576888359332049
0.3172869201730859 0.16377572496073345 0.19059710193248164 0.08291984030184145
0.29780012917591847 0.1656500242540542 0.1612393915060264 0.0031162696695585315
0.31447558262901915 0.1724910664856196 0.1781276623607671 0.003317620607951613
0.31279880326789644 0.18001211723111807 0.16930401766726588 0.03511124449686204
0.3124296091612818 0.18817522157257577 0.1621146917051911 0.07124184990883028
0.31248347552410694 0.19161067249050934 0.1594173551360162 0.07696439372579068
0.31937685082696393 0.1951628528276293 0.16937089585255444 0.0903786093682058
0.3355580423012292 0.21548769846681484 0.19245909014762125 0.16035004810960535
0.329763284309216 0.2073146137290713 0.18208847082291615 0.13880247501313928
0.1989000796126385 0.1769186164037301 0.10994856954076208 0.0567941619854915
0.2048919826349443 0.18670562498601395 0.10446182024330118 0.087800751056253
0.2075703574954442 0.19735349189153825 0.09833174718518309 0.13926246050507723
0.20554653060752115 0.15446581203663168 0.12338210870869619 0.0024908270491165014
0.2059783388876687 0.171027016400145 0.11369488382906134 0.03481621242422272
0.21737396092974876 0.15616483421110253 0.123158768833969 0.0027151561454445455
0.22181844570637654 0.174140447656508 0.11320157913254411 0.05980694362444716
0.22695706181439998 0.16325824664988614 0.12029125943461837 0.002882319008905576
0.23751081836617785 0.20378098807866268 0.09965900389223059 0.12754939220855038
0.22948990006405262 0.19516992012263584 0.10258857900936207 0.10769246554782126
0.23940417788324064 0.19007011362740506 0.10790296754586713 0.13401474894442933
0.24120373198660622 0.18115373074925087 0.11325485971143744 0.08477324711838745
0.23717199205676287 0.1707442374892684 0.11821154324776174 0.033082679477211434
0.24679448449439878 0.17633836541678208 0.1175352369752883 0.052125768005107743
0.24985347199397678 0.19587333127119974 0.10766075915588776 0.11415285482883757
0.24861627737792913 0.20571957978802174 0.10189392898291777 0.11911415480835226
0.26622017432756895 0.1801104396260298 0.1227092738995737 0.07206394195738865
0.2562931426218329 0.1771295950830638 0.12027232447561487 0.046597675794520343
0.27231489215547294 0.19809712212318262 0.11669599425934515 0.10528604432342856
0.2653408267560354 0.19141456162450143 0.11643110219704514 0.12005775573247308
0.28376123443955475 0.19657317030544452 0.12362711299896642 0.11676819711863386
0.28983886816046434 0.20736245330140138 0.12299439436703069 0.10350847504898862
0.20171923147080453 0.14692306148253986 0.12962856252667712 0.002847897132865515
0.2033479815083159 0.12277030457773104 0.1512537119852848 0.0025640726488981476
0.213113013142462 0.12880976334957528 0.14660254190032865 0.002445762131593389
0.22340741241537282 0.13642341509215522 0.14127900134535573 0.003520863373600719
0.22004205819697625 0.1365445580052196 0.14065787438173033 0.0035866200511535406
0.2294247127961341 0.1554227968074244 0.12593957930684088 0.003897080216139471
0.22537362042619785 0.14468273215787592 0.13448009773209268 0.00335844659046705
0.2365055843364709 0.15047527744285516 0.13255513162744811 0.0036396344431593674
0.2422578515068059 0.13413044004084174 0.1488506270555164 0.0030340707208971183
0.24682534950247992 0.15911533665487854 0.12913912411231476 0.003347842736408966
0.24686397441675337 0.1499736748513818 0.137088137155281 0.002350097156161428
0.24668973092015994 0.1423938891136621 0.14349513017187637 0.002200397713614951
0.27523231938684145 0.1572705679284055 0.1471440607649834 0.0037205493727102573
0.271046049730966 0.1701890334631004 0.1334970186083656 0.006953973042299171
0.26205573641431396 0.1717630431561643 0.1263973866984493 0.036441291578741174
0.2575057314553177 0.1619789626082211 0.13165003623785262 0.0033469493447884197
0.2736612176965612 0.1479808019487846 0.15386517047505086 0.003537513300269049
0.2812572475584431 0.17853127311962708 0.1352277014847728 0.05727953860365535
0.273719214240883 0.17952921789066725 0.128246661428646 0.059471199964625444
0.28020754172841467 0.18756741075863936 0.12697186053952367 0.09290576677301947
0.28258026733565206 0.15871104259684238 0.15202620643548578 0.00341852548181286
0.2773938718885932 0.1671526938500425 0.14109557556170726 0.004218389466868088
0.29543141792845073 0.20070422657177503 0.1327096270047885 0.09497696189633366
0.2892237171455353 0.19213516069206482 0.13210404635305395 0.11069767901490668
0.29722258258093437 0.1904299165918121 0.14160260278097075 0.1014592249661032
0.29400484704067564 0.1716671696678471 0.15171725936006347 0.0030141008304265336
0.31127241112314086 0.20166234922753626 0.15143632610423144 0.10318892555536678
0.30273645478785266 0.20024225331608747 0.1416638726714045 0.10829859223649178
0.3129053524827424 0.21254473560152004 0.1487623850688658 0.0954456447977826
0.3294117689905695 0.1914852448880601 0.19096282448400564 0.19457943376800044
0.3565843539718696 0.16196344880953967 0.3713734425500783 0.16463435157767828
0.36134952724868796 0.18291470775161656 0.36056782645434005 0.17826485389188895
0.3602643667995684 0.1747396994533388 0.3646239780694326 0.17036521738712937
0.3610746973743871 0.18078546953913183 0.3742731939108745 0.16629359145639258
0.3649556820802816 0.21479987975798878 0.3630099093318787 0.241598960510964
0.3653713169803107 0.21902637947845027 0.3740074972921796 0.2494853372210223
0.3660671830500039 0.22809878214239604 0.3616526410001722 0.2555441750709035
0.3602153245461578 0.17427375615885016 0.380476546128799 0.16332239849980312
0.363813426949236 0.20318407199618144 0.3882216973453595 0.18746999384099633
0.36676909165693755 0.24177012438999848 0.40181818698174465 0.2142580606216966
0.36632027455906224 0.23599404263632884 0.38353645756693183 0.24573449199246708
0.3627346690193535 0.1932995078453942 0.3934149900931187 0.1685298643478142
0.36605658180217604 0.2264073947221612 0.4048940223675753 0.2455378866225143
0.36649460353352287 0.24199735702154085 0.4166836953565729 0.23305558946038668
0.36584856636497687 0.23611509243101186 0.4240700912442108 0.23446614676404037
0.20148284836534447 0.21420827047291086 0.16637594138898515 0.00042360317429310386
0.19930758983267238 0.26927713253030006 0.6024919747785897 0.001022388217331417
0.20700959768555172 0.2254259745422676 0.2551659884263268 0.0005318459439849796
0.2004897131462082 0.22208190987387771 0.2287364746444414 0.00047884155244983656
0.19855558542396118 0.24495182798747256 0.40986235582433483 0.0006663184692850721
0.20136794900979443 0.24787652623140238 0.43300077250357266 0.0008455332029024468
0.20305065845213274 0.22351560552495164 0.2400694504628636 0.000514459542272829
0.19909768471040376 0.20538741051978304 0.0965414984833482 0.12816179189973023
0.20379637490610106 0.23524210336374268 0.3329273039990491 0.0006450400398621834
0.1997079303422863 0.2664374443497886 0.580000831903983 0.0009828843252267438
0.20668564341069448 0.21077247844322036 0.13912539764414217 0.0004288952456187942
0.2029416350075846 0.22893171155316083 0.2829612762820536 0.0005727528675394781
0.20623993280533082 0.21301006993880445 0.1568488139350486 0.0004372059866194289
0.212407001965966 0.22655889150225866 0.26400201568816417 0.0005485297872107915
0.20172659155204145 0.26315955547955316 0.5540083316500899 0.000923099925659003
0.22224947731162925 0.20811677329431347 0.11776567242810487 0.09075090883362188
0.2186683952597348 0.21539184268724562 0.1754457452055006 0.00042891384025275003
0.21303050588157926 0.22388164612887396 0.2427926725628042 0.0005763212767149165
0.21323368991217606 0.20513392589992788 0.09437420500581077 0.13959425854286248
0.20276975005492162 0.2596271549878514 0.5260189598499253 0.0009190245648559572
0.2155774276958034 0.2277870261125192 0.27364636332321757 0.0005583518402437386
0.20636286803434634 0.23034188949353296 0.29409822887927917 0.000573887771385462
0.2107614644530646 0.21805802520779363 0.19674668396119616 0.0004647694958750622
0.20687599146657112 0.2403422524278468 0.37325195466376876 0.0006237029963396276
0.20622521564377985 0.23519804830248128 0.3325446560590677 0.0006603979205108491
0.20768198051995412 0.23768201143034237 0.35217273493549595 0.0006202183027381931
0.20381811365271 0.25764510621017045 0.5103025830057173 0.0008328060135405496
0.2110872914180837 0.21414749963196866 0.16578158900200493 0.0004362452747479733
0.21046337497937195 0.2165497911280066 0.1848143118206028 0.00044933911702506703
0.21405692438986568 0.2289083295907247 0.28256039590310905 0.0005942888259642103
0.20264097909578818 0.2612499738370908 0.5388689256587551 0.001002683579387387
0.21175241852929924 0.2226974540892886 0.23344963787937711 0.0004954432273209583
0.21415169764154796 0.20662022300643743 0.10611766639151742 0.12441471921067482
0.20710910642560004 0.24210421767516965 0.3871945492917511 0.0006187147965475575
0.2237187351854527 0.2245055149880446 0.2473097744904284 0.0005452880902124016
0.22546169224676268 0.22140462571027725 0.22270325004400449 0.0004919951606706746
0.2177865178566631 0.23550713129412426 0.33459909057772125 0.0005937061403726345
0.23802581268468107 0.21286063737138602 0.15453558416433327 0.00042153274301466777
0.22244972771080673 0.2375740061567777 0.35072387394580273 0.0004829832975815935
0.20438935839495384 0.26298583648444024 0.5525539676896438 0.0008924862392495605
0.23920330269432113 0.21392637413111548 0.16290820567208766 0.00038009145713584685
0.2410824067190692 0.21088129881927084 0.13873663025934552 0.03373725055046713
0.21628505370439294 0.24378405688144877 0.40012950638572353 0.00064565497459088
0.21658679521711405 0.23117752764312455 0.3004148094140618 0.0005134900154918645
0.21516387690315636 0.25095418969955713 0.4568886554622015 0.0008456166727184517
0.21348576151004744 0.2393762138358442 0.3654023911503505 0.0006138289962873349
0.2237885951406563 0.20996357855438558 0.13229966597457724 0.05115959587425243
0.22305793297593124 0.21806091204965508 0.19637316406449026 0.00044960453544585073
0.2187657530105192 0.24024969448326267 0.37205978250956534 0.0006491124589071692
0.2270094981323347 0.22841257426006595 0.2780530458832381 0.0006010839967004954
0.22519476322303744 0.21962150495493302 0.2086138793015838 0.00044316854787089126
0.2174598693449624 0.22536101758838334 0.25437273925279974 0.0005690361491681197
0.19922836789212506 0.27859815134416904 0.6762709813749831 0.12271037534541188
0.23086662985638334 0.21098507044348286 0.14004226947602566 0.006968117541769352
0.22346770700349494 0.22329203903361566 0.23772475879102878 0.0005370680671145836
0.22898251775818332 0.2156957587605542 0.17738679931877965 0.00044444535048847534
0.23208123276759562 0.21737763537351165 0.19054104137049682 0.00045461355405779143
0.22403559156014918 0.23447357885342263 0.326128460374525 0.0006248376823580522
0.22731972680572934 0.21429304375509034 0.16637217907535257 0.00042322343780624706
0.22850776742771067 0.22885702868416877 0.28149694783271567 0.0006149327967247875
0.2338807885097005 0.22250122853697074 0.23097621730853757 0.0005285556804430602
0.21438586617771277 0.24132499468008878 0.38077184905992517 0.0006437751651667096
0.25257492608994625 0.20889156688085148 0.1221161610041705 0.1169824278889384
0.22277190471519676 0.24990224002244837 0.4480173629474889 0.0006508457271829024
0.21687456694301202 0.2525217663041327 0.46916083145784065 0.0008608433052005412
0.2391206882583788 0.22983413034397282 0.28839687434023714 0.0006065395415621787
0.24195713299148158 0.21764850475006087 0.19205334980390892 0.0004504049072061903
0.2221265084635016 0.24654080861168884 0.42155761965628524 0.0007000198681549126
0.21433998785314423 0.2602470413801383 0.5302996232427728 0.0009644283256579657
0.22469896795044636 0.2390935030560543 0.36260815187181555 0.0005613934560935059
0.22587521136317923 0.24341049561776884 0.3965612386341116 0.0007167215139411055
0.2285758215544696 0.24032097358942262 0.37197234428372283 0.0005847853005815717
0.21351724503737327 0.26184790167060573 0.5429933749877159 0.0008811728401403206
0.21635185818478045 0.2545533042496976 0.4852269091214375 0.0008533183103119584
0.24323939173125445 0.223393514391823 0.23726093278359345 0.0005564541090569576
0.2274194980399367 0.23637389425655495 0.340935236858671 0.000569286718807401
0.23974166058927507 0.2162046370859455 0.18084643531102174 0.00048824161177493815
0.22533261175005073 0.24182576432859748 0.38410641570769016 0.0005822446425397069
0.2460353717122986 0.22000922064102388 0.2103392879806254 0.0004773249627676974
0.24182816040480842 0.22491621376402052 0.24938635870878478 0.0005081150833396427
0.21071941204790276 0.26628312496978046 0.5781913730108584 0.0009780695293672306
0.21210542149332615 0.26774696426102595 0.5895765761494574 0.0009593603851558011
0.27032369736370276 0.20813757007333877 0.114481740064653 0.1407558568350065
0.23991156700970612 0.22965859104987482 0.28694723138906014 0.0005760786120247852
0.264526720681051 0.21178192945509056 0.14375171507278833 0.07468477063057294
0.26256109089535 0.2085196668794097 0.11826663035739884 0.12792070548633103
0.2466045466072748 0.2223580990747494 0.22880508344679376 0.0005081844906677194
0.24062028674552272 0.2381171393958348 0.3534652948100042 0.0005472900881823332
0.23929772712145714 0.23371682374322836 0.31895665449203076 0.0005629323325773082
0.25604101926593553 0.22127529186605596 0.21933640844077396 0.0005195466212757078
0.225350681869405 0.25264962406852004 0.46939885136268555 0.0007772749018209085
0.24014572472903922 0.23821945576417397 0.3543182629388431 0.0005599504442806618
0.2651173850884009 0.21047590319574694 0.13341105379126633 0.111793683918287
0.24526001524772845 0.23226299729996103 0.30691486487489184 0.0005588735176093804
0.22483539984365675 0.24836780647987997 0.43574228234765583 0.0007123653371649437
0.26140991580760686 0.2180905064403827 0.1937272207589248 0.00043540183863949013
0.2233328172794503 0.2563612187907046 0.49881991879109533 0.000892753955557321
0.23679075673944563 0.24208723970793278 0.38510272903358833 0.0005658403115782844
0.25007736199109654 0.22632711489287677 0.2597031674441544 0.0005530272366039937
0.25206908602040895 0.21533404633941358 0.172962114288648 0.0004154013513643568
0.22886606400382967 0.25111571507584707 0.4569715050046554 0.0006981389109045407
0.2572892017490257 0.22789785655941122 0.27133987686872685 0.0005397553806987541
0.2846550849022348 0.2133148766753537 0.1537708607686532 0.08878804976559351
0.22800402915136544 0.25460467495804145 0.4845197130857747 0.0008879784514095572
0.2691196308731887 0.22390824235063642 0.23873069140979203 0.0004997152203550461
0.25048156388119724 0.2366360296943432 0.34080597043820904 0.0006102499484535963
0.24348797947449585 0.24064044162077208 0.37303649677498407 0.0005584369564707193
0.26975830278692425 0.21757207991517363 0.1887998492260003 0.0004918353138570296
0.2759724854981036 0.21644080844648456 0.17926066037459712 0.0004890085590072942
0.247972961465938 0.23943245986890116 0.36307060681940206 0.0006304189228950717
0.23639206022056142 0.2475855964710112 0.42842108358504516 0.0007326216982327887
0.2592559551425192 0.23257041712119403 0.3079115064909652 0.0005636079959048621
0.2663884451990547 0.22658045244744968 0.2600405028096538 0.0004932567909260037
0.23605814205630873 0.249042988244051 0.43992490732704753 0.000740260743947388
0.25225812553901866 0.23831476647197652 0.3538357384048282 0.0005893637075126868
0.2597661259507038 0.22300956125070676 0.23261554846798707 0.0004780505379857462
0.2583786638697313 0.22555060534143942 0.2527555377643812 0.0005184440031551917
0.2242219656428292 0.2589459027370914 0.5190722302674499 0.0008382645879806317
0.28494590013082727 0.21328459207304912 0.15350275268949048 0.08875047230714175
0.25890343708366637 0.24003487446267716 0.3660316090216691 0.0005870467641511291
0.24477636637405692 0.24652222241467792 0.4191221013513264 0.0007626089283665109
0.2763285390795404 0.226832053690176 0.2603524834281263 0.0004758473128273286
0.3021112023725456 0.21177979570813288 0.1386324810262548 0.10287898869433507
0.2845675087641544 0.22048230737419222 0.2095568919937863 0.000540759734601494
0.29092133147600957 0.21831943408891846 0.1915127792470874 0.0031136308968158087
0.2689542328907291 0.2280500718584926 0.2713079502491578 0.0005472969314322572
0.25259528494648686 0.2414452648114902 0.37825079298132247 0.0005942771114668265
0.27646887848583246 0.22294664808586087 0.23029574257977573 0.0004793663839244925
0.2661469482070476 0.2349652306037082 0.3253371680650923 0.0006220309456528404
0.23191825964716928 0.25769340228117465 0.5081450212342641 0.0009305710746979302
0.2499918183569962 0.24425787477628344 0.4005318566084045 0.000664345287531604
0.2473905747636877 0.24828423773483596 0.432192642927462 0.0008098908446819393
0.24836628103989183 0.24405611581021802 0.3993125895833123 0.000658407245234971
0.27284003379835153 0.22539782231434224 0.24999799531242245 0.0005068404715718413
0.2676200585409436 0.235168184589286 0.3265975502057223 0.000644425421349656
0.2806985616947176 0.2215732785907791 0.2187973714063973 0.000551464654239526
0.213353575960184 0.2713317145091224 0.617428074576536 0.0010460778209369422
0.22573688028385497 0.2612547887971817 0.5369611289928546 0.00095097981075187
0.2969812065210563 0.213306758500731 0.15150615776922702 0.09513733892301844
0.24137440664348933 0.2510020096470505 0.45445453189376234 0.0007939010752850528
0.22000250029508744 0.265915526718356 0.5741798114507629 0.0009437815780770001
0.2878276310480944 0.22295944318246966 0.2280189728999398 0.00041618497659776256
0.2310316962075577 0.26060644924238513 0.5308293953209164 0.0009755610535412097
0.2666473856610657 0.24322952471826342 0.38897273776147634 0.0007119352647928451
0.3074821814657072 0.21915671598096859 0.19434382559908653 0.06929609087633623
0.31238276841911394 0.21728142274711842 0.17880000475882685 0.09694636617751916
0.226597723366433 0.26349303343687763 0.5540646860854997 0.0009838299390465862
0.294504501006469 0.2269365127004251 0.25719485659914987 0.00036980290412199463
0.30209182200592694 0.21991968559667802 0.20142255081298432 0.026750975711991455
0.20925347711160697 0.27468326585099145 0.6441739377362743 0.0010492577980961892
0.24777417670161 0.25225911395366063 0.4627672222713067 0.0007123864367486863
0.27098967789147593 0.24067341124874567 0.3683051231390566 0.0006502275637686868
0.25728097640108405 0.24672203562955883 0.41797450460908 0.0008246435025930513
0.23695100117887927 0.2588520633836452 0.515991196181378 0.0009318601271017286
0.30464127671370433 0.215254224655885 0.16489419179009102 0.10928307376611573
0.2696540391994897 0.23734962721499342 0.3429817800503697 0.0006130990700955253
0.2242627436161857 0.26483929205596435 0.5649606030009705 0.0009274618551252027
0.31490968970991484 0.21484053144263265 0.15942388781654857 0.10994990034862653
0.28579787190966416 0.22738535215064842 0.26258906340401017 0.00044941269660393794
0.29144006178547455 0.22567093252411616 0.24812049994281166 0.00045548478451776784
0.2840682083195488 0.2308357896748719 0.2895697368440764 0.0005371671665684095
0.27933084085703624 0.23520223026774542 0.32427933921786906 0.0005965914278045408
0.24048457300183962 0.25547118974282845 0.48914592377873833 0.0008529025348698824
0.2747796719411791 0.2364681083245167 0.3350480824427541 0.0005656367221185606
0.3031776025544288 0.2178601117504825 0.1853058751458599 0.0737487536017113
0.26204974009747367 0.24530191290362358 0.40596847918372175 0.0008747796353916502
0.2929223885055722 0.23531726244411438 0.32418696115445295 0.0005609958492770201
0.2900275582207268 0.23241550481204448 0.3009830857768136 0.0005275653123660833
0.2695448925571633 0.2472206743563699 0.4208171688687439 0.000846360147780908
0.2845499610950397 0.23656394845458067 0.3345501556581919 0.0006480877262568719
0.30858697486847403 0.2287685073637414 0.2709102152534342 0.0004262657396966561
0.29084460860755323 0.23849494550411543 0.34981233660979616 0.0006804813419280148
0.21320406855184343 0.2735740679783657 0.634938157116326 0.001045025918479654
0.3139810421821052 0.22281022151203334 0.22280019097541712 0.03675949207602237
0.32366343605547304 0.22260561926271097 0.22075892851105466 0.09043277017845483
0.3098100190606469 0.2216754530700621 0.21385056758155369 0.031112316198102296
0.2568049837057981 0.24974269999124404 0.4416097294846992 0.0008646067304578821
0.25163221457192525 0.2533920125482461 0.4711526042049568 0.0006301253628239899
0.3217774060730285 0.22110933243224928 0.208810004695019 0.08621763906501305
0.32377501142926635 0.21692034449063125 0.17505967998521665 0.11371354745713663
0.3245456479726048 0.2242363375103057 0.23382946566093402 0.0690363417103368
0.279516591006531 0.2396338987987812 0.3594307671975281 0.0005187741269146385
0.2525584621341356 0.25487327680007427 0.48302011914908477 0.0007640838713164309
0.24852358482926967 0.258266289786903 0.5104563861615377 0.0009602720182014519
0.27947133464592316 0.24211398633211062 0.37936601134334125 0.0006102877930033666
0.3069618947498267 0.22736724853520635 0.25971437288508736 0.0004361178860803911
0.25974014370205667 0.24828388183108022 0.42976437637603193 0.0008494683282695739
0.29440538080513784 0.23492313100759574 0.3209584045843918 0.0005327099847488653
0.26610430730601253 0.24929205909439495 0.4376066612942457 0.0007427005763297901
0.2684900854884603 0.24438341437684682 0.39805627852774883 0.0008071343468608953
0.3275448027617789 0.22911591067004256 0.276049255871424 0.041796688767899874
0.3086030496243952 0.23519176758736965 0.3243668175903215 0.0008361747038304173
0.33908208272920726 0.2204837445663675 0.20435900683972363 0.1460483777199187
0.2833898961173226 0.24519229541813187 0.4050756993984175 0.0006726852078017871
0.2208508856684218 0.2723806363691628 0.6256876734955721 0.001057349284853914
0.33247630582795823 0.22778506763603895 0.26562081592240805 0.06256086066686516
0.2237237956261554 0.269888101233257 0.6048963623044603 0.001010376405426232
0.27438755489210903 0.2509629881372846 0.45274605314845784 0.0007951778203436087
0.33318300769989334 0.2232526715143563 0.22691973522421 0.09473389528859746
0.27060340530731414 0.25247713728286203 0.4649725290610777 0.0010136081593862163
0.3168356679468389 0.23417576165741877 0.3172900177776508 0.0005401943261103155
0.22297978923689396 0.271067232661356 0.614853785697995 0.0010263156456310682
0.23350803044943602 0.2660300338719819 0.5737713292091581 0.0009175760450278118
0.28338398444467816 0.24311335435605796 0.3872587524406843 0.0007674231988596059
0.3175758984973113 0.232781407905083 0.30548746895359535 0.0006768661309591231
0.3204935608390457 0.2282575583821074 0.26729738541989745 0.01808448135064739
0.3309246638355869 0.22189374958713654 0.21482712602245005 0.10420967514909911
0.2094323228149728 0.2765892684530113 0.659493333667975 0.0436885206025299
0.30021787329182326 0.2388264629669087 0.35385463775922016 0.0007470738236117523
0.33022748931583423 0.23383990343338132 0.3227737204061258 0.019561872582594144
0.24152599057496116 0.26465056125172964 0.5639237136283813 0.0008642809270515963
0.24751159788191687 0.26217837416926687 0.5437579373216467 0.0009647366147194518
0.32231276861234187 0.236115158039462 0.3395974430007548 0.0008606158506369488
0.31898621375265446 0.23807235348569417 0.35658115683085145 0.000886157806410066
0.33056255988187233 0.23141772717805578 0.2990268663744577 0.03675034978803117
0.31060473067309713 0.238061542750375 0.3504275782451669 0.0005862198384100122
0.3043048953455627 0.24329896953395552 0.3977528522246803 0.0009211677888894993
0.32765800684860835 0.23294640308957998 0.3120710763248566 0.011139285446955765
0.3526751860670192 0.22595275206433568 0.2608555703261437 0.1536178460429374
0.28130359197641275 0.24987017288363808 0.4462388300502676 0.0009181502463431702
0.34181333869758457 0.22732491213010242 0.2666091930273821 0.0900174781007322
0.3013826993832878 0.24502899263929287 0.4127784224695754 0.0008778551853301078
0.3409948534666887 0.2284726643509471 0.27738575451403735 0.07055756531357053
0.31443271549475726 0.2393128867543089 0.36558210925511175 0.0009827695369314497
0.35013769993337107 0.23192499127420754 0.3185791886573152 0.10531490563113123
0.34925116316243415 0.23052425464155468 0.3038922795201776 0.09680926415652001
0.27486729523652725 0.25457398197592546 0.4881967205629446 0.000978972061694254
0.2836398258225023 0.2532787586671598 0.4818806047478569 0.0009306127811762473
0.357426206635133 0.22855913799679323 0.29042084259898854 0.17441366219190854
0.2519120357215433 0.2634518340180898 0.5596423006321452 0.0009283174665258908
0.2338828210559022 0.26952471107175224 0.6067524299545985 0.0010029161747648495
0.3569341838575037 0.2282419136958618 0.28687413374338816 0.1742994854404577
0.2728495629046543 0.25566780087952123 0.4976131937559378 0.0011318527476021551
0.3095926669048051 0.24381283566599013 0.4068210360995629 0.0011721524674775698
0.3308133170369158 0.23485999790679957 0.33331150089619394 0.01940921444128252
0.30006672209810115 0.24630398490366284 0.4245327880610441 0.001049674472384553
0.29752941291484836 0.24761398409340687 0.4357188332910324 0.0010528124460092117
0.3155812671827289 0.24029271071477282 0.3761346253086481 0.0011356531457798506
0.2965677882130842 0.24896778408786438 0.4485364454649472 0.0010684502074372638
0.2168493502892778 0.27534235624897846 0.6520628570796693 0.004300240152413122
0.30695092797068885 0.2486136423359586 0.4442529477195182 0.0009618394084494552
0.35275709867593824 0.23548414201500378 0.3411231629271701 0.09890809468951006
0.2415346421511016 0.2683927163108973 0.5975799046394968 0.0008904679732573326
0.23022626365131074 0.2715970044721387 0.6228222530806564 0.001051936454397077
0.22552058580739387 0.27323768667005444 0.635132372933863 0.0009485800934259057
0.3466141376105857 0.23622808670841644 0.34897723223923094 0.07915469191783615
0.31968545863105535 0.24431200173443945 0.41175258525043795 0.001156548045930776
0.3146063181004883 0.25115456361103716 0.4567722790005248 0.0007487348727776898
0.356991598865251 0.23769703360902086 0.3529381587083078 0.1268148584286613
0.25085773476522927 0.2676672133061133 0.5888621831271544 0.0009005671806616125
0.3148958598696746 0.24799012892666616 0.4362165983634655 0.0009615192809255063
0.34389770843259815 0.24273591299323766 0.39070911341078285 0.08148257677711755
0.27416919687320596 0.2611751480873369 0.5376288629056697 0.0008456641199877024
0.2764121890857731 0.25973836540746836 0.5274534667505318 0.0008714400251114695
0.3037015173081147 0.25164303988195685 0.46427738187785367 0.000961648478185848
0.3524770741738523 0.23948724434951585 0.3663025713622433 0.10682937108701103
0.32192938811350735 0.24748437297743325 0.4301441092637599 0.003072774829433813
0.3612731086653545 0.2346695438235008 0.3316746788043893 0.15806798572000832
0.2625878378651518 0.26461693701043354 0.5644803145206763 0.0008718654895551266
0.2921636248724692 0.2545449904837508 0.4876244914769148 0.0007750031842530686
0.3414724191633954 0.2442803830897236 0.40165281732561725 0.08801885180717943
0.305871592330466 0.25353475968664935 0.47563102698647386 0.0007702195565596716
0.2935710891066439 0.2562518324549832 0.4980881475994492 0.0007415263822885523
0.25658683766233265 0.2652424004498519 0.5709141661962421 0.0009323290341875466
0.3623711062066626 0.23932946500396207 0.36314240088291827 0.16636903410719545
0.33863158922238756 0.24592377110084443 0.4170139749460402 0.07757515420258981
0.3575563188640574 0.24189852903325393 0.3870860961508713 0.1541164710286241
0.2920106496531173 0.257478058138466 0.5080552613897005 0.0006912401302105408
0.31660715917256715 0.2510920517506182 0.4569566440120209 0.0007907326301416921
0.32724189441761387 0.2487440852882509 0.43922988137057045 0.018024130211710114
0.3150743171133661 0.2522963333687379 0.46866333534702065 0.0007705110086949055
0.2846649474551074 0.2603415557274057 0.5334470055189079 0.0007955516849657562
0.31290389171328536 0.25497121723887595 0.49647630719284086 0.0005910221219121288
0.32433281515781415 0.2524756050165486 0.47790708424476525 0.024638210272438288
0.28673622895694867 0.2609821911421914 0.5423177781601859 0.000857132298177098
0.3135679138427535 0.253876598882855 0.48476564589261517 0.0007686807911483675
0.32818166905035706 0.2507466334822358 0.4617057361717164 0.03740298777880131
0.2508955440910768 0.2687442879646554 0.5998330716414553 0.0008967995878411452
0.23371592750026032 0.27319731709086 0.6356018574453749 0.0010008533745708176
0.3127873129293817 0.25395391766264663 0.4849912374714236 0.0007727664374860258
0.2665311869577862 0.26535613449957357 0.5747204374216183 0.0008775708438847962
0.3061544895898494 0.25797331391778877 0.5212706719508646 0.0006982898030749163
0.35838532196910144 0.2452230253851386 0.42332907749902343 0.15456599223870177
0.30103025362047947 0.25899057363028105 0.5288678649464393 0.0007480208079208143
0.28976538339357244 0.26192932141498265 0.5516172244849412 0.0008075327470901101
0.3372342137636626 0.24963773899719266 0.45654582223741424 0.0741348039608209
0.35596586050269885 0.24798398210798467 0.44655233066418953 0.1667853835861037
0.32402165054622495 0.25382297229897544 0.48958589603383923 0.03249547278328737
0.33358144905842857 0.25123100719250635 0.46943587840469847 0.0587391964167742
0.2098278673417784 0.27895437411185703 0.680084904577811 0.1346248908028919
0.2657744759339318 0.26658696837895646 0.5862820117524563 0.0009320257524124277
0.34889671655570803 0.25769256281455855 0.5159595368794485 0.1609866675413625
0.3395240402729125 0.2531628763567699 0.48489501807205504 0.11109968045481662
0.22433778607328925 0.2794047063223235 0.6819103266440566 0.15846775273818028
0.2981815913039141 0.2764701339611288 0.6537459760317967 0.06853354662556459
0.2712244712600359 0.27776456867180166 0.6656043582743488 0.13132493218642044
0.3343600218760667 0.26816691032215106 0.5914349599734259 0.1934974793256608
0.2617062915012336 0.27001237743003703 0.6117838352021694 0.0008432323263613036
0.2285808487078143 0.27560715312984413 0.6546494895259367 0.014848999487165487
0.3226365568906413 0.2551146593690628 0.5003853598926962 0.0273667953504075
0.36167803042851976 0.26069991555154254 0.5359241560570283 0.24733603688395442
0.332443976636132 0.26518211852939555 0.5705367735498125 0.16550237834362974
0.3351658368420386 0.2736277380848269 0.6299408240568918 0.222831632836206
0.3361559755043823 0.26406803776264676 0.5622911263302799 0.1485703681696939
0.343810825727508 0.2634151773953959 0.5569078938916738 0.19667811374019376
0.2933765146356574 0.2661914787078171 0.58159901510246 0.0007250227333826422
0.25620542515636235 0.2784013420267708 0.6716147150864056 0.1387711349252715
0.3222376080906906 0.2626364430474225 0.5535754011227128 0.05955080316485774
0.3583670164778795 0.27271129214256407 0.6211311867852396 0.2798409828741067
0.3471954685076754 0.2548547666942443 0.49607843373328603 0.14709404015557986
0.3408229050698016 0.2517754206746048 0.4749604157944086 0.1181425556426364
0.3099798619232604 0.26421568416025776 0.5659675871440523 0.0005376413013619156
0.3338160511455801 0.2817080786044857 0.6871733500501123 0.20312750249522188
0.36284704505058246 0.24947631016006871 0.4564990931276619 0.1948137696810766
0.3139259849623807 0.27872967493960105 0.6681283899120499 0.20921970689509764
0.365258800685128 0.24823976827779357 0.447518916883858 0.19021033481958186
0.3504888041603051 0.2513700144307291 0.47112342624457326 0.14420594154216587
0.29419889633294993 0.28054490723451536 0.682939495026315 0.17681444310348837
0.2502076132888523 0.27522556235756157 0.6497775864101883 0.006505830196623747
0.2839263643995927 0.26958708006863163 0.6065434120699964 0.0007406731439436028
0.2402518246219354 0.27439489479941165 0.6449094777746209 0.0010116696127882897
0.2490492390470242 0.2796821399168152 0.6813848735040107 0.16507077348490048
0.35812376577398586 0.25934292078435794 0.5266929925346034 0.21795053465612718
0.3004880432166071 0.2721301635231427 0.6228471598843303 0.000739055178331062
0.29917590370154856 0.26788404195278065 0.5929755023861141 0.0006338212848674413
0.3109419033129942 0.2756235605865052 0.6464803609241443 0.0777024119132398
0.26009917245178 0.2817185775588022 0.6946630466670634 0.16743368774461093
0.33964412408072914 0.26658148697963546 0.5797005994580039 0.2006627450224015
0.3220706669220531 0.2763516243282111 0.6505054627653352 0.17895693072986749
0.27160244597818733 0.26742795951372744 0.5925265012020685 0.0008304618742460467
0.35495231557796264 0.2758490372097526 0.6436464046214427 0.26005958879216184
0.21078107760353684 0.28060311370500396 0.6917421600321803 0.18433814972903237
0.2845299779048331 0.2740559335484397 0.6380601962206636 0.0008661809384660652
0.30411257401687164 0.2656182119705996 0.5764682491118653 0.0005922299188681391
0.2806798608739919 0.2764015106369564 0.6550216517577505 0.03796162357159786
0.266505336369113 0.2735379039838855 0.6362129105184963 0.0008834208598286574
0.3013256359276062 0.2819018965159049 0.6918112485967266 0.15414033382
0.33548209194988116 0.26254434210941674 0.5515922821188137 0.1538240973665034
0.34224218902758724 0.2651362408145011 0.5692269497163778 0.17602404000413155
0.3075713742733071 0.2599177824998171 0.5358403312926008 0.0006524845069801912
0.2723065292222235 0.2689729200919289 0.6033725682386516 0.00084205478010276
0.35329991996437965 0.2710999512183975 0.6102549624902948 0.276976856911852
0.31518013154142444 0.259119304618771 0.5294327831144752 0.002782002738278538
0.2453301346067998 0.28165468566439394 0.6956972615599308 0.1619041184020997
0.28442973987649944 0.26641123782451964 0.5840518577988604 0.0007672044312396936
0.3343183493388214 0.2594185388698219 0.5296220128555144 0.13331954244473976
0.3626829782024859 0.25113385503684554 0.46822802666200597 0.2066845023317269
0.3142071692392556 0.2656582591880336 0.5757357676396785 0.0190817459000084
0.31573242751285086 0.27418839842786064 0.6358574168385054 0.0947026192718348
0.32446751572195287 0.26002754542865536 0.5349162723012622 0.07333639897821864
0.23428223182219546 0.27889009270613396 0.6772736432391937 0.163693476077375
0.22110411045985706 0.27797722955217585 0.6721488785705446 0.11007741879829937
0.27047794530795743 0.27073037976564185 0.6159749540178362 0.0008314307930566325
0.27616563586916865 0.2724603877963847 0.6276272673156938 0.0008471555024091025
0.2923296312377361 0.2648435796339342 0.5721798942765165 0.0007109903197697193
0.2655491075559708 0.2751878784476465 0.6479680376277507 0.009480630695294359
0.35935408356663884 0.2653378480457528 0.5689301710362678 0.271312333654448
0.34530574389039537 0.25991389280285976 0.5320169776364 0.17294996341186905
0.28931366307562917 0.27560753461917303 0.6485428004934948 0.019535280506012772
0.3237723954288494 0.25816513742933767 0.5218261785628083 0.062073973239777425
0.285643205362876 0.2681327538118771 0.5960942474621119 0.0007870053122387193
0.3157031363352585 0.26084598479791804 0.5415811201544223 0.017728346329942
0.3207647899893672 0.2564629972842666 0.5101011816806803 0.0293167916532476
0.30647035065402706 0.27109271777955923 0.6149146453160867 0.0017888156527959722
0.3392133866159104 0.26959629929563866 0.6010469881727456 0.2053610492051562
0.35004658544023065 0.25327216522087825 0.4846087577555309 0.13346106830512552
0.030126083135281118 0.24155870061644513 0.41039053591238595 0.21199201171136572
0.030625329651015894 0.23201192651729086 0.3630147231584101 0.22661132719471375
0.031243785037462137 0.22304259581150473 0.36025488649080767 0.2561320057590709
0.03216474932320209 0.21367549835496125 0.362807461528039 0.23369154309369658
0.03365926152621295 0.1984748710646751 0.3753509887841904 0.1726954033704246
0.03249162251155885 0.21035088580443143 0.37304777206369055 0.21230472105884796
0.05616564913358524 0.12482370693211388 0.34566111094243407 0.1749613617127619
0.06335896398568115 0.11481338996908455 0.3396355758346516 0.16032132380357358
0.040281161971271545 0.1681709561698148 0.3351268707061244 0.19001401074444854
0.03933755315009903 0.1666231555127652 0.34757097884720173 0.19109257723356318
0.037504794275173545 0.17839503848377286 0.33930143857089556 0.185408907793759
0.03495642951672582 0.19665733668385724 0.3405911239934835 0.19261100131284567
0.033738511479928575 0.21094532132814378 0.3405341232603906 0.2614484537193267
0.033024645745879676 0.22825111179222102 0.3327223920375192 0.175322714104633
0.032292145291015935 0.2228537504325272 0.3428750736588261 0.2535532002634347
0.030921912218770504 0.22838976154502608 0.3502702841274412 0.24330584859421142
0.08604430369275416 0.08905944631321996 0.31923260700131606 0.18897999292507103
0.07774338609983222 0.11134889918276113 0.2815576015388691 0.22368371147491267
0.08884185484316384 0.09319130532783941 0.29451661287618824 0.23343911576439175
0.09467591434268816 0.09060118208171779 0.28321616372384883 0.2211050855261287
0.0848618687027056 0.11574807682335138 0.2525608579555244 0.20127526264013987
0.0832431330773848 0.12203081344759187 0.24400391318260836 0.19821938371539619
0.08777142115622434 0.10831845671645256 0.2603713911428606 0.19899233691896087
0.09138068638566882 0.11916219212728338 0.23111974842803154 0.13235454668985436
0.1056669093940635 0.0921825181066682 0.25403281679561845 0.1366845461266927
0.10181784796610954 0.10015864420938143 0.24481995421932898 0.1084881699619081
0.10030776418860148 0.09108320171678189 0.2660292160910568 0.23371937032641396
0.12910535876622536 0.07518853498538172 0.25216572635159507 0.006038677531390834
0.12105264556527862 0.07401402104683504 0.2648418636801353 0.1610571552314854
0.12012792280719539 0.07903361559979297 0.25545876022087594 0.07406933090885687
0.13983544906790227 0.07840478318163338 0.2323373334840597 0.002124987748478319
0.13806748002628016 0.07370211362157983 0.24424295177717792 0.006018318007508603
0.14096257138215118 0.06826109950756898 0.2524960850598338 0.006321423466471556
0.14810743308198868 0.06115024036421446 0.2608675960383917 0.011099990109398694
0.1524003620810506 0.06451382910080374 0.24985626290166726 0.008432425291492839
0.1495715924451771 0.07127545941808887 0.23820363015918505 0.004249837063624701
0.15903540150610823 0.056817004836958576 0.2616538336727335 0.014249174957307681
0.18205092426503097 0.052395665276874864 0.26152778191386794 0.010940225835535852
0.18184091900601934 0.06262317806078828 0.23966770990779587 0.00482517777687554
0.18658958315015783 0.05591476222574113 0.25313193759750846 0.00702061577181648
0.1968591779029652 0.055321902530316824 0.25259747182010206 0.007848422050860726
0.0836028717028155 0.12751142290449838 0.23272079113825916 0.1488365900698718
0.07545338458726139 0.13116793293838847 0.2485613916979285 0.18938922311191836
0.07330188482484791 0.14304644619658358 0.233186131890666 0.1554415048886785
0.07777891166418349 0.13228710163249546 0.2401656204419775 0.1752155316646099
0.07644351376039549 0.12318227445214694 0.2602382231095518 0.22686157639006302
0.07273736279786222 0.13859183219473153 0.24273948867725048 0.21405267603417352
0.06905459528511751 0.13322925723800585 0.26308577581600057 0.22604065856847594
0.0772531178747939 0.12231927469493667 0.2594921095260975 0.21176781970540398
0.0688927039391629 0.1381437240513355 0.2545803399851486 0.22547250818743753
0.0675585820931406 0.1462196594515027 0.24370274888545057 0.20748285893280333
0.06590867834720343 0.15886344886629597 0.23047028451730361 0.21753445579517036
0.06074795684346815 0.1640671740995707 0.24088003635112193 0.2333685420340248
0.05950276161289472 0.1512270579929964 0.26478676295780335 0.21831010388892264
0.056208257531842665 0.17532327500450295 0.24261404048981025 0.22818197213744237
0.0555994324531241 0.16282523549767497 0.2620276968419964 0.2367111139241584
0.05167904537813604 0.18020747433473544 0.2537435474091165 0.23047112122481905
0.050423848330708246 0.17527386166688214 0.2654791868489231 0.2472271505281243
0.052675682480174256 0.1959562055550063 0.23421661246955638 0.22025056881606847
0.04525072124026988 0.20459129763465567 0.2652623577024442 0.22777079007906986
0.04811520936056978 0.1858610311858472 0.26333558237237964 0.251925995454195
0.047238060869968665 0.19615836611595672 0.2609262447653134 0.2326044163204293
0.04342933771419451 0.21839852587514455 0.2669773834148567 0.2007060200806377
0.1517091427497259 0.05470487240354343 0.270925317646179 0.08211785059067483
0.12542327940637665 0.06842795357863912 0.2709513478350484 0.22006298051117543
0.11199204870008017 0.0803729990413311 0.26653965040633004 0.21593417921875047
0.10980234671808468 0.07832356777108475 0.27772492678832617 0.2422894714547669
0.10142524913868806 0.08609642887754468 0.2770004158886679 0.247403789605096
0.06721583177228876 0.12790712208152133 0.2814400386655077 0.24290802139186748
0.06104146496110146 0.13223963993289886 0.29432556647618974 0.23445912961680546
0.0685227054579447 0.12159512189231506 0.29150089057436845 0.24802427587777331
0.05921884888309327 0.14661105377498404 0.27434055744406965 0.2321999786314691
