x y z curv
0.04373226717922166 -1.6359556317329407 -0.1991179042766749 0.06637262978357053
0.19893057501776876 -1.6359556317329405 -0.17989362182609558 -1.1408695116856937e-12
0.060842251297972307 -1.6359556317329407 -0.1899527387555325 -9.877051121274257e-13
0.12041428603311888 -1.6359556317329407 -0.18828444786082812 -1.0567805532138024e-12
0.14814897788096396 -1.6359556317329407 -0.20574650465986874 -1.6046696353752219e-12
0.2774495763710232 -1.6359556317329405 -0.20759056601012127 0.08654119672556237
0.29380652766852927 -1.6359556317329407 -0.2062807740633424 0.11020423590836885
0.25075358053260816 -1.6359556317329407 -0.20895946638776033 -1.5065253093355709e-12
0.11984747441914817 -1.6359556317329407 -0.20559258075263834 -1.7669557337829883e-12
0.2649108735813378 -1.6359556317329407 -0.21067063370913103 0.08049161001956329
0.2116624495943931 -1.6359556317329407 -0.20728848001535777 -1.7376046095613508e-12
0.03659792923430278 -1.6359556317329407 -0.20888016542606141 0.0922376749624712
0.1290749136602972 -1.6359556317329407 -0.21666154812259888 -1.840398232702888e-12
0.2195868354541903 -1.6359556317329407 -0.21654704429319857 -1.745613164041203e-12
0.08838676038090015 -1.6359556317329407 -0.2092736564683655 -1.4781952238292623e-12
0.1695844528293601 -1.6359556317329407 -0.21273106084103283 -1.123004128172725e-12
0.20039764909873797 -1.6359556317329407 -0.22218154951545863 -1.6235179056955492e-12
0.2872019939672144 -1.6359556317329407 -0.2165819733897784 0.07866042682200922
0.2518752708156245 -1.6359556317329407 -0.22658899575928357 0.0180976363940335
0.18323771434550637 -1.6359556317329407 -0.2192957944823455 -1.4766831855304661e-12
0.23585553665552203 -1.6359556317329407 -0.2131181482660497 -1.6171372284372825e-12
0.14340391919168993 -1.6359556317329407 -0.2187393583150299 -1.7187971104756126e-12
0.27204330202659244 -1.6359556317329407 -0.22534940186630442 0.09445825566696578
0.12097793279884103 -1.6359556317329407 -0.23052269157042474 -1.0811566150031294e-12
0.2116377430996468 -1.6359556317329405 -0.22756147211091712 -1.6033417109448363e-12
0.053111586284195454 -1.6359556317329407 -0.21641819271306909 0.049386631723410145
0.09988711832525034 -1.6359556317329407 -0.23640254180295853 -1.0394121383778738e-12
0.132332803391889 -1.6359556317329407 -0.23137502630754642 -1.7183006279210912e-12
0.053002590751821135 -1.6359556317329407 -0.23807412656319452 0.048040039644862566
0.026203569405028177 -1.6359556317329407 -0.21672567782623617 0.11281328783489351
0.22917914300413772 -1.6359556317329407 -0.23264466559318403 -1.6598004590998142e-12
0.06601242072711634 -1.6359556317329407 -0.23470737909120898 1.8194915607169793e-05
0.07725542657472746 -1.6359556317329407 -0.21417328000414815 -1.0211040839935397e-12
0.1675770228725819 -1.6359556317329405 -0.23433294082824804 -1.0947219313411455e-12
0.034183576227235744 -1.6359556317329407 -0.22637922641940503 0.10323625610102512
0.14429661396771504 -1.6359556317329407 -0.22997382917118814 -1.5721980866495327e-12
0.09623223061504917 -1.6359556317329407 -0.22316154410947195 -1.5804427118278984e-12
0.11621432366992666 -1.6359556317329405 -0.21901418918807444 -1.687221729597466e-12
0.23491044859462296 -1.6359556317329407 -0.2421701106581482 -1.6970145640727232e-12
0.1555831239245281 -1.6359556317329407 -0.24147955922305697 -1.507500556999002e-12
0.26912953521118455 -1.6359556317329407 -0.24287864347573282 0.079884409087306
0.07667449476427342 -1.6359556317329407 -0.24227924236250029 -1.0856102721262104e-12
0.1130515437387072 -1.6359556317329405 -0.23959094810598583 -1.0307683465865426e-12
0.17959855240099848 -1.6359556317329407 -0.24085313173694078 -5.428895072666601e-13
0.19171392547716887 -1.6359556317329407 -0.23610662238936708 -1.4463463354306099e-12
0.21296160361305902 -1.6359556317329407 -0.2397796605678453 -1.6698239371264921e-12
0.2539726809928159 -1.6359556317329407 -0.23766210963342205 0.0369629481254616
0.050382181747400966 -1.6359556317329407 -0.25202448812949274 0.08539526363701473
0.07069806418704143 -1.6359556317329407 -0.2535362022394468 0.008700648468088735
0.19554560887367697 -1.6359556317329407 -0.25335998963053413 -1.3220764859154537e-17
0.08313551357337814 -1.6359556317329407 -0.25612826434568847 -6.059776217182824e-13
0.05398196689436063 -1.6359556317329407 -0.26731599856966903 0.0757541145698236
0.09677291032332015 -1.6359556317329407 -0.25347246887510627 -5.65910362225104e-13
0.12509107629328783 -1.6359556317329405 -0.2499545259946462 -1.0319512664664916e-25
0.0373830969474934 -1.6359556317329405 -0.24351343328580308 0.10324543802129894
0.11052848813183883 -1.6359556317329407 -0.26187047324722834 -1.4778207123952785e-12
0.07831517043032969 -1.6359556317329407 -0.26637348204734496 -1.789250545118485e-12
0.2186122253939666 -1.6359556317329407 -0.251919823190618 -5.67288350691279e-13
0.14878215447909102 -1.6359556317329407 -0.25938016550685417 -1.0622157940441704e-12
0.2573113662309109 -1.6359556317329407 -0.25402083105472595 0.05917822433810111
0.08973226115372698 -1.635955631732941 -0.2439916690728487 -1.6151862831505979e-12
0.16637046574921677 -1.6359556317329407 -0.26177614765883056 1.0838711474883288e-12
0.17290479017841445 -1.6359556317329407 -0.2528107977539353 6.423787894535731e-13
0.24182006164813893 -1.6359556317329407 -0.25523916714805206 0.010390525243456425
0.06514053248612406 -1.6359556317329407 -0.27034978656009356 0.0503217878089062
0.27635870466710966 -1.6359556317329407 -0.2723310473724537 0.1082758055165135
0.17994542405144415 -1.6359556317329407 -0.2656167739737064 5.181061402873293e-13
0.12325300291335738 -1.6359556317329407 -0.2709723883608195 -5.659116827557525e-13
0.21941722800516344 -1.6359556317329407 -0.2641077811083625 -1.0685424439175301e-12
0.13404917544532763 -1.6359556317329407 -0.26775460763489817 -9.156014985726955e-13
0.20697475644774782 -1.6359556317329407 -0.2615651937204894 -4.98631178564317e-13
0.09150724428755509 -1.6359556317329407 -0.2723236851452113 -1.1482809144091807e-12
0.2326012139513408 -1.6359556317329407 -0.2619148611088257 -6.455338736354995e-13
0.25238967491307013 -1.6359556317329407 -0.2670817779496107 0.029713295974587727
0.1396746631308023 -1.6359556317329407 -0.2789363591064701 5.374064042062005e-13
0.24487420685385175 -1.6359556317329407 -0.28342390732225653 0.03891214230556784
0.2303262106637099 -1.6359556317329405 -0.27363297095340927 -5.798847402625045e-13
0.21466233533189236 -1.6359556317329405 -0.2760706070957622 -5.0071955855128e-13
0.16162642544265948 -1.6359556317329407 -0.2783676718656924 1.0512740206243453e-12
0.19258920180259384 -1.635955631732941 -0.2749879406918895 -5.064216871008346e-13
0.25674289062162853 -1.635955631732941 -0.2783323253677317 0.08813200016310234
0.19933444397373187 -1.6359556317329407 -0.2875881144182806 -5.540425662641081e-13
0.13091509943291166 -1.6359556317329407 -0.2917421048144203 -2.8896404147483338e-18
0.10015640520854249 -1.6359556317329405 -0.2813518930435291 -5.290106651012034e-13
0.11563471913990771 -1.6359556317329407 -0.2959029511432251 1.1603617111361318e-17
0.14709232288898438 -1.6359556317329407 -0.29157056037147805 -1.3803249046389888e-17
0.09583157359103378 -1.6359556317329407 -0.2938717157572293 -9.879699571270896e-13
0.17852765912198892 -1.635955631732941 -0.28686251003735347 -5.156764362685643e-13
0.23172157363437934 -1.6359556317329405 -0.29005312168648717 0.00040116770401962815
0.07642478016227942 -1.6359556317329407 -0.2794568188256978 0.009014736427255698
0.05847742089361444 -1.6359556317329407 -0.3020320123003091 0.07545940329501309
0.213634671478038 -1.6359556317329407 -0.28958382880009165 -1.620553330324662e-12
0.08072440589623195 -1.6359556317329407 -0.2906932832653997 -5.399677501465053e-13
0.0814534864086836 -1.6359556317329407 -0.3027240160886171 0.00909260110943476
0.049606977157838045 -1.6359556317329407 -0.2883321156495782 0.08107537773173898
0.037473065746888946 -1.6359556317329407 -0.27673005937068457 0.09020705653234004
0.1605479764021675 -1.6359556317329407 -0.29122317474963927 0.0
0.2415999953707509 -1.6359556317329407 -0.3254190841398229 0.04802593391252991
0.19874919496408205 -1.6359556317329407 -0.3003112342289787 -4.791905879673662e-13
0.24431525199593837 -1.6359556317329407 -0.3106025070460477 0.05149771658638708
0.1853503077662867 -1.6359556317329407 -0.2991127603989055 0.0
0.20261207295220776 -1.6359556317329407 -0.31103919593663626 -9.976258065181354e-13
0.2573343673072332 -1.6359556317329407 -0.2984643552786928 0.09556771051859214
0.26385866119350554 -1.6359556317329407 -0.3157144566292464 0.10170345067242893
0.17841054731607447 -1.6359556317329407 -0.30924232153701847 -5.021993315323292e-13
0.12447468920181788 -1.6359556317329407 -0.3144460929217271 -1.6439621323036274e-12
0.16911369896507886 -1.635955631732941 -0.30126596424330016 -1.00727202835947e-12
0.2310100852334723 -1.6359556317329407 -0.3140400366010491 0.0169980296602753
0.19323606058476822 -1.6359556317329407 -0.32231062246385006 -5.206113484072325e-13
0.16769173216297983 -1.6359556317329407 -0.3179203620308564 -1.107693968086878e-12
0.2386517849878132 -1.6359556317329407 -0.2999824555916211 0.03322434985596588
0.2173237648721429 -1.6359556317329407 -0.31194922433914446 -5.576041792497762e-13
0.1064281246442589 -1.635955631732941 -0.3043451489598381 -1.5938116196356457e-12
0.14845160911801014 -1.6359556317329407 -0.31514231167127515 -1.7373924499726696e-12
0.22550173823869657 -1.6359556317329407 -0.3256398192194355 0.010028017821523164
0.15307805192530863 -1.635955631732941 -0.30280449808847215 -1.7327332809793852e-12
0.13844825955035023 -1.6359556317329407 -0.3088878326694041 -5.730488596785574e-13
0.14910139489455146 -1.6359556317329407 -0.32983181082457347 -1.5861995557797634e-12
0.10798599723844314 -1.6359556317329407 -0.3300222838664268 -1.7031642156699366e-12
0.20471634514895637 -1.635955631732941 -0.32942162500426875 -5.657002250586565e-13
0.10522786366419375 -1.6359556317329405 -0.315906228246148 -1.5887616946644287e-12
0.12212670257790553 -1.6359556317329407 -0.3297867290662194 -1.6883173224085713e-12
0.05050010133383714 -1.6359556317329407 -0.3295958072899788 0.08058715176953819
0.08971630281004093 -1.6359556317329407 -0.31445286039038567 -1.6065351836537832e-12
0.079644009486038 -1.6359556317329407 -0.32624832404480314 0.024744577675651896
0.05281495256555624 -1.6359556317329407 -0.31624662126509046 0.11320088686430539
0.13457902155412554 -1.6359556317329407 -0.3246601029815797 -1.6214890005210897e-12
0.06499147921429238 -1.6359556317329407 -0.3125482093586717 0.09702226860964279
0.0657320721009433 -1.6359556317329407 -0.32786087267485037 0.12192460446428349
0.09186062537851651 -1.6359556317329407 -0.3352008105144699 -1.6385308357306198e-12
0.0742811395892618 -1.6359556317329407 -0.33760145870682085 0.07936307252871212
0.2175538437414447 -1.6359556317329407 -0.3347923516098387 -1.2912927053291818e-17
0.17070010205089908 -1.6359556317329407 -0.3379179022446221 -9.87351316984354e-13
0.18685258038534397 -1.6359556317329407 -0.34617253496404377 -5.462907708046812e-13
0.21588367868707684 -1.6359556317329407 -0.3462408462654317 -1.4114779580811547e-17
0.19859161943413622 -1.6359556317329407 -0.3459267467924621 -5.433373111777152e-13
0.18372362993922012 -1.6359556317329407 -0.3348237109914508 -5.296168074085275e-13
0.25970039145602 -1.6359556317329407 -0.33196463534034926 0.06950091172916412
0.14361980932340357 -1.6359556317329407 -0.3395713269943058 -1.657764178848415e-12
0.12288583460042433 -1.6359556317329407 -0.3511036028534494 -2.0361601090442225e-12
0.09340731477973004 -1.6359556317329407 -0.350101070284701 -1.5448306980143673e-12
0.14400752680718373 -1.6359556317329407 -0.3566700997229985 -1.7336740011200834e-12
0.05605488197627813 -1.6359556317329407 -0.36006590483581585 0.09712956795499841
0.15704768197822822 -1.6359556317329407 -0.35865803827619525 -1.6969999850269432e-12
0.16097566499059968 -1.6359556317329407 -0.3449563458803337 -9.957541032937611e-13
0.11367602487648652 -1.6359556317329405 -0.34271300483892403 -1.561538911055554e-12
0.08829119500431916 -1.6359556317329407 -0.36506452065741724 0.04231432975563191
0.2307008525546653 -1.6359556317329405 -0.3512011887734352 0.03760793011554036
0.06398285143113845 -1.6359556317329407 -0.3506882985751631 0.07177008671649329
0.1349348618947648 -1.6359556317329407 -0.34887628336268983 -1.7301701193069722e-12
0.07392908774898597 -1.6359556317329407 -0.3574582803907887 0.07252509456464751
0.10982527445198742 -1.6359556317329407 -0.354793934242892 -1.5339584836949744e-12
0.19197570360946398 -1.635955631732941 -0.3600551812800938 -1.961578809300697e-12
0.24719053383971434 -1.6359556317329407 -0.36238867965115973 0.09267387457378462
0.11520048094387837 -1.6359556317329407 -0.370431556902645 -1.7124060962195479e-12
0.22007246631410593 -1.635955631732941 -0.3569592687197717 0.013274114025820936
0.06995463952889881 -1.6359556317329407 -0.3700752708337863 0.0850240632094187
0.16306702001200785 -1.6359556317329407 -0.37042824175611805 -1.7095122129325037e-12
0.23334400342292425 -1.6359556317329405 -0.3633147239375583 0.045966971471827565
0.16935011886100726 -1.6359556317329407 -0.3603353693412599 -2.1973006180849715e-12
0.13464008170231234 -1.6359556317329407 -0.36657836686228357 -2.0509747557809383e-12
0.06397165189198771 -1.6359556317329407 -0.39212044289675446 0.07579612309850849
0.1620832986339593 -1.6359556317329407 -0.3826537097750141 -1.8324337345550834e-12
0.10996526031793616 -1.6359556317329407 -0.3845095294779886 -1.1118022021290464e-12
0.08502325753633812 -1.6359556317329407 -0.39006191405984386 0.0546172661686072
0.17298410270938314 -1.6359556317329407 -0.37781311884370455 -1.749820107708916e-12
0.1839084627848369 -1.6359556317329407 -0.3727753837721904 -1.7149913114850152e-12
0.10164162104503549 -1.6359556317329407 -0.3737495869177441 -1.6829667736739002e-12
0.1494139212597863 -1.6359556317329407 -0.37643506887687544 -2.114311460668315e-12
0.12808563102248705 -1.6359556317329407 -0.3842025604289551 -1.9310569269008937e-12
0.0977315506038674 -1.6359556317329407 -0.38917321061939797 0.0051758355118064914
0.08805428460798899 -1.6359556317329405 -0.37743053215980027 0.05568970559572003
0.2024297738559722 -1.6359556317329407 -0.372152983475853 -9.662580417650814e-13
0.14661734192348388 -1.6359556317329405 -0.3931426998648488 -2.0690526236668327e-12
0.19493969050467772 -1.6359556317329407 -0.4062787440975711 -1.091005508080111e-12
0.2137361746344636 -1.6359556317329407 -0.4016386153574712 0.01935877513097977
0.19115455121167402 -1.6359556317329407 -0.38987236970412514 -5.209815004234718e-13
0.23282342612530454 -1.6359556317329407 -0.3925228963478585 0.08450515896736988
0.22466453059667585 -1.6359556317329407 -0.4100098001672509 0.06052566044152093
0.08059913567662425 -1.6359556317329405 -0.4017949869483033 0.051734415248385936
0.09265266506486633 -1.6359556317329407 -0.3999062046363741 0.04419079714162849
0.11316039497646768 -1.6359556317329407 -0.4053110536398263 -1.0963814680978932e-12
0.14193789113395444 -1.6359556317329407 -0.4052261263496508 -1.1195881459285092e-12
0.214547701648819 -1.6359556317329407 -0.3781065088814379 -5.39443657745431e-13
0.22860727447204332 -1.6359556317329407 -0.3755200461320559 0.04800549407077136
0.23849470290903466 -1.6359556317329407 -0.38266187983688355 0.11477815273391664
0.16532850924805126 -1.6359556317329407 -0.3969224273034259 -1.7357460728594237e-12
0.17659767787283487 -1.6359556317329407 -0.39127041554009917 -1.0540935579734611e-12
0.15496534323219746 -1.6359556317329407 -0.40153003462460235 -1.2514297161029442e-12
0.12685594709570033 -1.6359556317329407 -0.3966912364450328 -1.5759967157181313e-12
0.24994606450504356 -1.635955631732941 -0.37411111776641004 0.11082469278020723
0.1674899508185146 -1.6359556317329407 -0.41151031785634884 -5.240399164385334e-13
0.08424897996966772 -1.6359556317329407 -0.4277770100700243 0.0771873374358719
0.10452891128267662 -1.6359556317329407 -0.42425843423468684 -1.0419765627293974e-12
0.14256005232705132 -1.6359556317329407 -0.42101940158877776 1.571063460163082e-18
0.10223836005171515 -1.6359556317329407 -0.4090995923139295 -1.0690526317084397e-12
0.12901095760279968 -1.6359556317329407 -0.40835679767910643 -1.0735262342840224e-12
0.09543544376626976 -1.6359556317329407 -0.433187291750073 0.03733478285953185
0.20657611142206697 -1.635955631732941 -0.4116219033123626 -1.0887107257772466e-12
0.18106556922882555 -1.6359556317329407 -0.41974699282822386 -5.30334252714644e-13
0.0839971141174184 -1.635955631732941 -0.4126759523174621 0.06613129295755737
0.1530882305884604 -1.6359556317329407 -0.41573265772667684 -5.800321479200446e-13
0.07237751509269243 -1.6359556317329407 -0.42988638999541035 0.07616376616766254
0.20956055432941406 -1.6359556317329407 -0.42469558555921855 0.005619529089879317
0.13127928722314794 -1.6359556317329407 -0.4295797048542243 0.0
0.16108794736943277 -1.6359556317329407 -0.4300953609727189 -1.3183557243359655e-25
0.19112418272461223 -1.6359556317329407 -0.4282116381702576 -1.5350157638313785e-12
0.1188519671820032 -1.6359556317329407 -0.43437372385802436 -5.04945463772077e-13
0.23998191494171964 -1.6359556317329407 -0.4260892088881872 0.08349315338313379
0.166142519005269 -1.6359556317329407 -0.4401966763676933 -6.163718177259426e-13
0.22286921341400123 -1.6359556317329405 -0.43482468977139216 0.055358970598032096
0.1948968658735834 -1.6359556317329407 -0.4400739249131537 -5.140486366325996e-13
0.2463189744081288 -1.6359556317329407 -0.43865649092067965 0.08857375537705302
0.17848837335575352 -1.6359556317329407 -0.44358786790906274 -1.6692605274974592e-12
0.14687306075243364 -1.635955631732941 -0.4361847252286217 -1.0850686992856233e-12
0.23019900417373984 -1.6359556317329407 -0.44592237796201656 0.10277408519455956
0.07997386676447701 -1.6359556317329407 -0.4401018188078327 0.05302976787999449
0.15086496763207008 -1.6359556317329407 -0.45125232541074917 0.0008937990785116164
0.13810609973399823 -1.6359556317329407 -0.4624574417567265 0.002950733405005118
0.10131282257043442 -1.6359556317329405 -0.4443774434722912 0.013780139618914892
0.13249914334118443 -1.635955631732941 -0.4502569461226668 -1.6234549232206783e-12
0.08218469362025045 -1.6359556317329407 -0.4521143157417135 0.06551189884973532
0.11803906293668023 -1.6359556317329407 -0.4543027412430206 4.918300158457996e-18
0.06734859461824057 -1.6359556317329407 -0.45932544845673223 0.061733299800006934
0.162497647168146 -1.6359556317329407 -0.4582442045689272 0.0034420558422350697
0.1088267654169356 -1.6359556317329407 -0.46539948855979046 -1.0434998671035209e-12
0.17488589419863138 -1.6359556317329407 -0.45736367929984884 0.0008572671357188098
0.2094985780794001 -1.6359556317329407 -0.4532907163190614 0.013104587215571941
0.19143825489586355 -1.6359556317329407 -0.4539340966307633 -5.037195430411512e-13
0.12177669489143443 -1.6359556317329407 -0.4829583964493452 0.0052406487679574325
0.17778100987587406 -1.6359556317329407 -0.4834243306649938 0.005903453481142538
0.2141052028314963 -1.635955631732941 -0.47312181935293257 0.044994081301809596
0.2201868331396524 -1.6359556317329405 -0.4604914502424145 0.051184665171010786
0.23766483742859448 -1.6359556317329407 -0.4663995332067577 0.11015498408139282
0.21891785571949285 -1.6359556317329407 -0.4882641129884229 0.05759302406134356
0.19754578574599732 -1.6359556317329407 -0.4996979110901229 0.013201301591605125
0.1383966638536338 -1.6359556317329407 -0.4856389811210256 0.007555341464692664
0.14351443325195798 -1.6359556317329407 -0.47447081125312957 0.005763072814792362
0.15607963407809294 -1.6359556317329407 -0.47108925866484946 0.005560641110822678
0.09095362436746743 -1.635955631732941 -0.4698905611444761 0.04502952230360788
0.22317889928653428 -1.6359556317329407 -0.5053855885698822 0.0670439605450506
0.13221275669573918 -1.6359556317329407 -0.4750422898407412 0.006841070398243441
0.2368324741857102 -1.6359556317329407 -0.48203919637225273 0.06434503762454884
0.18199127608848267 -1.6359556317329407 -0.46639417170504344 0.0028349243649797716
0.208876903897198 -1.6359556317329407 -0.4968851970056234 0.043667313178787324
0.1872826804114242 -1.6359556317329407 -0.49125480328290944 0.004447420578984697
0.10908740086914974 -1.6359556317329407 -0.480392035501821 0.003928178904309525
0.2256331721688571 -1.6359556317329407 -0.47574847308669815 0.0669994763343711
0.20110592258062676 -1.6359556317329407 -0.47397764566180817 0.002619517869241838
0.10704248573931195 -1.6359556317329407 -0.5140089311284984 0.07690547676762079
0.1698468180343421 -1.6359556317329407 -0.5023322961665058 0.009221993797790392
0.14670531451923696 -1.6359556317329407 -0.5203359906853043 0.046244910745692216
0.1867610148293189 -1.6359556317329407 -0.5158566862207484 0.05360646494173392
0.14990520126757778 -1.635955631732941 -0.5331845700814062 0.08447170686567212
0.12700652886162828 -1.6359556317329407 -0.5081848052903883 0.013987745330224616
0.1717673604968518 -1.6359556317329407 -0.5214530083988087 0.04982288676659749
0.08116370738984909 -1.6359556317329407 -0.4794274880602581 0.08646917151595827
0.12335735643482613 -1.6359556317329407 -0.49709369834562905 0.007012585752495816
0.19947783981461747 -1.6359556317329407 -0.5145866434746217 0.061251195595018335
0.127564527774657 -1.6359556317329407 -0.5238677819572591 0.06982843238617133
0.12799888721980116 -1.6359556317329407 -0.5352929948492108 0.11190800111828476
0.09897471849699899 -1.6359556317329407 -0.49898255160676047 0.03990852628373479
0.08805458746030657 -1.6359556317329407 -0.5024097290478432 0.08022580443174444
0.06912227612980415 -1.6359556317329407 -0.47619145235343247 0.05735985022701766
0.076477049810084 -1.6359556317329407 -0.49306677039908203 0.10033880528090443
0.21159737416608002 -1.6359556317329407 -0.5335000821124959 0.06384194441231343
0.1773775737990368 -1.6359556317329407 -0.5459656744867178 0.06345139336869794
0.1955526392821514 -1.6359556317329405 -0.5255108866318462 0.08341721394431344
0.16818788092107112 -1.6359556317329407 -0.5342822722842709 0.09266114272343842
0.18274673511026798 -1.6359556317329407 -0.5289600528638551 0.0843438837032281
0.21475613416226566 -1.6359556317329407 -0.516740485894201 0.08847816125437208
0.10047635089852164 -1.6359556317329407 -0.5284357794405034 0.0992290313270837
0.10852084959964055 -1.6359556317329407 -0.5372822898688622 0.083757546714892
0.29708762444548054 -1.6497469305835155 -0.04584213078811119 0.054709857376934956
0.30642601464705244 -1.6472632062580117 -0.06854510691277937 0.06678164788004261
0.3079671651447239 -1.6645365858787513 -0.08196820966552505 0.04050116342702134
0.2931942082066728 -1.6614809949434013 -0.0404010437024719 0.04448862997823233
0.311538177688943 -1.6360922859325706 -0.11472112058851534 0.06620319657518035
0.30745448059850267 -1.6451973976354246 -0.14211653317528627 0.08451426481780296
0.30885736297415617 -1.6451161985328633 -0.1253936364081342 0.1066997718380183
0.30525023412854263 -1.6735936446992121 -0.07128770465567522 0.008682969203710693
0.30617050907901555 -1.6923596699320818 -0.08439940495141202 0.0032505397427697205
0.28475520580488867 -1.6696725965861718 -0.030862843812871903 0.029184040967511312
0.2853221462114709 -1.6536326761531073 -0.029660395623475173 0.06078381222437847
0.28958799520565714 -1.7040165139284151 -0.042010306619807675 0.006565880100893724
0.30773023292748014 -1.6788650716564542 -0.09618677148939601 0.00219248666360212
0.29815328493270554 -1.666792490377811 -0.05088547197289417 0.0378599739678021
0.3013151297795198 -1.7103611323292451 -0.06487223944868853 0.006902754252889534
0.29955384654864387 -1.687479589016941 -0.05695834683368111 0.0035485835949133947
0.2943998235899529 -1.6838670220695666 -0.04571144447078763 0.0032060498096392175
0.2952253950645568 -1.7069569178966693 -0.051723597347834514 0.005952301537376952
0.2980133125754314 -1.7353963990166088 -0.06280856210736992 0.012388647411811018
0.29627487476115516 -1.7552792629965133 -0.06307660657903184 0.08451540392261966
0.30001498341387917 -1.7477918942239363 -0.07075331226738714 0.017632871410423568
0.2984048164369803 -1.7703855450753294 -0.07346721832007717 0.06094452641706249
0.2919713989483407 -1.795906389884622 -0.08955808193735626 0.14513759307679125
0.30100542473982417 -1.7667582900718806 -0.08578357100411298 0.09441163522410768
0.2997871685621087 -1.7823041548856648 -0.0862662261175782 0.13194386046497314
0.29962770393035876 -1.7950967139410725 -0.09890827901759387 0.12581221455481395
0.2890128406968536 -1.8521034457704957 -0.1467232009906774 0.12651875237980326
0.2957040644240462 -1.8103929090016053 -0.12969985430902323 0.18326631969333262
0.29375077265970057 -1.8200075552632806 -0.1364632127019918 0.18836097852776698
0.29893170604992986 -1.8008703650596338 -0.11054111463347323 0.14163858814821856
0.29413555477313524 -1.8030947801650246 -0.14088783703054988 0.16711621560745377
0.2935038902738808 -1.7927400253783614 -0.14745643364107863 0.1096247838521278
0.295945917958117 -1.7853401495162977 -0.13793371807625127 0.23165539324646428
0.29640657183107444 -1.770580792708107 -0.14029704640415608 0.1569885699143258
0.29926175716096853 -1.7667917733723861 -0.12755279244341786 0.21605384078807247
0.29397144531695457 -1.7801409542454003 -0.1487636684801992 0.16118432469103983
0.2956461328820203 -1.7610268706006482 -0.1463045126540431 0.13523318565616585
0.30259679196629263 -1.7364042856959758 -0.1113659804450803 0.0008682481918897525
0.2996821476521984 -1.7553246965640958 -0.12975415106923296 0.11839998507433692
0.3011790774974138 -1.7484017980673394 -0.11950399337838088 0.0010689588267783498
0.3043062755791252 -1.723436214085747 -0.10112080934552671 0.002203143943941171
0.3010987599703885 -1.7356048038266647 -0.12962820178435483 0.000677739223283509
0.2984164585728524 -1.740714700515126 -0.1400228005061549 0.0004053802792238424
0.30100780300686997 -1.7238773464186252 -0.13347584104306764 0.0006124572376403007
0.3026343631903335 -1.7069978659272138 -0.13123291462127087 0.0007534997140586216
0.3001842104210118 -1.7049644432154805 -0.14391433537684964 0.00036460260438396844
0.30266003823025645 -1.6934850266959502 -0.13662884163334005 0.00030775332735626267
0.30572926694038943 -1.6803421333114046 -0.12434996652956881 0.0006917478445145668
0.3096363162401931 -1.6533358020511284 -0.10018273142140255 0.06426360608043657
0.308162985277362 -1.6669181226213527 -0.105401984576947 0.03276927223490614
0.30456942526322794 -1.7161704823828026 -0.11301951420376631 0.0014869598363616153
0.30274644000755246 -1.7273829988751999 -0.12127637163476775 0.0008431109122388283
0.2928398640059772 -1.734013783561648 -0.05204467731663749 0.026880357380637477
0.2897141244906424 -1.7565428979390956 -0.05145315180365109 0.06724935764696055
0.28778135994768866 -1.7453884710783296 -0.0463711694497722 0.04452958124573876
0.2830113690380029 -1.714997186372645 -0.03614772977143012 0.024357857183309375
0.28934534363620656 -1.7191897792436035 -0.044246351806835185 0.008016583808349957
0.30241843326504425 -1.7570803811450255 -0.10238348901772136 0.11353873999652099
0.29980079516120844 -1.7799645022016288 -0.11963543420244668 0.17119107432812747
0.3001032130145247 -1.7869880927215733 -0.11050244373553465 0.12483426691811927
0.2110135226058456 -1.7018026978606235 -0.0014301784703147778 0.01394073073110274
0.3086489425896186 -1.6560680007675503 -0.11124315275823421 0.04869831516264702
0.30585380094955056 -1.6933167471252888 -0.11573567694069452 0.0010252814624881416
0.3069397436929807 -1.6840414944102107 -0.10855002597971103 0.0016968365508121636
0.3023979002177656 -1.7521572972933128 -0.08387279622505048 0.015490552054062419
0.24904601029897186 -1.7095236590336367 -0.011812788312772984 0.015224273248630682
0.24047145109269935 -1.6929784998494657 -0.006662843392609935 0.005232626977046393
0.23857133443804895 -1.6780737215786017 -0.003857471909102826 0.005158651535025643
0.2273530172630494 -1.6992709936632902 -0.0042660455091835655 0.012130930637829116
0.3100194906038929 -1.6468304279620993 -0.0892994900618087 0.06485368054732531
0.282184942377731 -1.731589832555954 -0.03800911384378939 0.03508286921510122
0.272853010142032 -1.7272243495825566 -0.028260427905285813 0.028322776317136488
0.2674056699485553 -1.65035971622708 -0.012566637109858106 0.07708773125330148
0.2721397725166774 -1.6715563331159755 -0.019197992119654644 0.02810784177217893
0.2755374594144169 -1.6927996885418526 -0.024896387393953275 0.005412080557670962
0.29519839178596236 -1.8236073213877155 -0.12475001178415418 0.1395452658042805
0.30727240689189955 -1.6767480452255321 -0.08311332747058536 0.002975680911018038
0.30634012581699 -1.6994220598255565 -0.09669308206669802 0.0017751286341136361
0.3080053912483226 -1.6571234731474007 -0.12365981924297276 0.043834539279829436
0.30374615532592053 -1.679173562268804 -0.13728031513249442 0.0007181406137473791
0.3046496831907939 -1.667413871612487 -0.13658662304348876 0.023461497227437754
0.23870219356179312 -1.657987164576801 -0.0009104442223671975 0.06325329346501135
0.25107581371442905 -1.6809133085890582 -0.008238723099467826 0.004821285233247719
0.2486465913774825 -1.6658719514503562 -0.005709391297086918 0.06395705826932675
0.26118209992646696 -1.6410392385068753 -0.007517748692518406 0.06427599390764377
0.2599023938763596 -1.6683578417237817 -0.010762615609274282 0.026610849894046593
0.3058199138611225 -1.7098195497206736 -0.09167553445502816 0.002567287660106192
0.3033619917030345 -1.708558640841186 -0.07618782975806919 0.006347692210519512
0.3031127881469112 -1.6457947276932636 -0.056264974574099416 0.05435126661477987
0.3036699872504658 -1.6621222930834636 -0.062215444224647934 0.04884188500190172
0.28487559680025054 -1.6888136524977817 -0.033966895962892256 0.00506162464092356
0.2779192127657542 -1.6600154778375462 -0.022963871171295815 0.06421305031741893
0.28037274292599 -1.640058856052351 -0.021780778242061986 0.051029496508442525
0.23581142882337486 -1.7063265113667354 -0.007646852265777318 0.015572280635841542
0.3026024106840709 -1.7327082912040837 -0.07703701256046443 0.0061981717341809146
0.30202901459023546 -1.7203229097335409 -0.07096585301037227 0.004875633610957895
0.3021937889027773 -1.6963456556217498 -0.06556305003464039 0.005956082258028395
0.3008825740037249 -1.775156804714696 -0.10480262616451641 0.16788732394399608
0.30418722618099725 -1.7368921208975325 -0.08939194046052089 0.004447686986497118
0.2648517248364023 -1.7196036472462255 -0.022018763162372033 0.023509938463256743
0.26673222029034505 -1.706641850033498 -0.020812542696720483 0.013637687101739848
0.2512198638209133 -1.650476229389317 -0.004061766934570561 0.07695342671680064
0.26185270534400507 -1.6860407476752344 -0.014288755859365869 0.0038822994098628087
0.048366592085912305 -1.818247227555534 -0.13161072268163915 0.14514787677951804
0.05270765158573969 -1.8166689772975966 -0.1602059334975202 0.3071949558340631
0.05008193930189202 -1.8294418878575731 -0.1356969399479358 0.15178327819550919
0.0508193687764667 -1.821222172438011 -0.14540618427501995 0.13610800342995888
0.04992313685174535 -1.8092241282737918 -0.14700792519253408 0.2624277609998185
0.05249741302783019 -1.834179664659719 -0.14815831093206347 0.13577316600081465
0.054205995149527245 -1.8287020606687532 -0.16095519203450995 0.21103107063978674
0.056512082446096026 -1.8413998452891078 -0.16041198051096328 0.16426941964213954
0.051405907713455046 -1.8416621953038708 -0.13645113355480798 0.14792503338669932
0.05851436969979575 -1.8358234078056095 -0.1747404766807713 0.2257207016132001
0.05873267531539141 -1.8528530266318046 -0.1605790603196466 0.15654245709388315
0.055438717463946866 -1.8225653286742853 -0.17213933798002765 0.19976120418117513
0.064704403278141 -1.8627969261201816 -0.17453468593474603 0.15873297118267143
0.06275694085126382 -1.8467668430194775 -0.1843086658717329 0.26710455038593944
0.06695235248494834 -1.8589746156877585 -0.18665531600047866 0.2344614630017507
0.06755620036014134 -1.8741534840800609 -0.1728866564103398 0.1335241832266579
0.07610993833553358 -1.8809681518202053 -0.19205862569910442 0.16492126922719755
0.0729184552539781 -1.8850087555795492 -0.1792760591387464 0.1287304445536098
0.16423425063746916 -1.9409557454313082 -0.24240538823711952 0.14639783974965553
0.18925820300513668 -1.9311331881805684 -0.24684566072828548 0.1640869953448046
0.18306352808803808 -1.9240353871727776 -0.2555390981791167 0.14630106027914835
0.1653487209095931 -1.9287579121991978 -0.2555064568424366 0.14257334907958882
0.17645005483197634 -1.9343382742222044 -0.24703038953045228 0.15704089643932306
0.24034910525725403 -1.9088149263450878 -0.2302728208015813 0.10631853040001392
0.2429397856072391 -1.9157925366112065 -0.22038374905000224 0.14356919168581883
0.19390997214116285 -1.920049640788511 -0.2572286847838291 0.14239996691566706
0.18525036557543467 -1.915582282097678 -0.2676171771790588 0.0851289256345904
0.1977806927984018 -1.9399488608457789 -0.23489176573188864 0.13877824617595305
0.21045213111329036 -1.9305198316426102 -0.23784842217569532 0.1464168004425526
0.21100090605056832 -1.9226482332713313 -0.2456879401085568 0.14437047291206667
0.21694343089097343 -1.9069928240033405 -0.2583361671484501 0.05076995480968793
0.27590501510050297 -1.8764839440540593 -0.18490474889945765 0.13110357628304947
0.26800550826916125 -1.8859370652300793 -0.1996924837547699 0.1414309708630343
0.2800204144367645 -1.86779818382723 -0.17580181425839475 0.17583335996014093
0.27667856499899435 -1.8650203547625264 -0.1867738108332065 0.2241822671047439
0.22945389541820063 -1.9058008362882533 -0.24625909996037598 0.13115066620661725
0.22433556935456667 -1.916322946741058 -0.24105849774170843 0.11812818884936288
0.26466579938966495 -1.879766839165144 -0.21097325965347438 0.12298747145592337
0.2659422146584353 -1.8684149666617775 -0.21463950232456133 0.09491960281131141
0.2281573373097851 -1.8976374549961272 -0.25650718770487363 0.062327726904123935
0.2362831941840791 -1.8846725479211792 -0.2583036960967655 0.005545180500961181
0.2449638346991707 -1.8853614443447597 -0.24502650373566237 0.04221899451676515
0.24857788523517968 -1.9004846095505756 -0.2255230292700561 0.12987014004667494
0.2450047871715614 -1.8948066135711708 -0.23567437281673584 0.0796728749242566
0.2739322928813932 -1.8537776935643082 -0.19973033975286253 0.12146287003364505
0.2716243385710897 -1.8480731282245693 -0.20940409396518384 0.11766424264081699
0.2747457947991041 -1.8167684992756064 -0.21061786971911084 0.0002657866622542669
0.27285146586287357 -1.8328626227479312 -0.2120979664212231 0.03467813234945894
0.2823684702012619 -1.835951075384825 -0.17905624903072093 0.19483751016013076
0.278245432905351 -1.8374131888739016 -0.1927259619818193 0.1598389485376098
0.2801245107003029 -1.8468996511572477 -0.18341463417389375 0.1618421949308493
0.28200550110806605 -1.824922238842749 -0.18352128465448245 0.15546888031300382
0.28203576228375316 -1.810422397887165 -0.1872033786949518 0.1215205503463205
0.2850701422414603 -1.8049073142135041 -0.17746492086230117 0.12793770783078048
0.27007159391462415 -1.8088224285158776 -0.2290523849703332 0.00048825106611995634
0.27065494491732 -1.8230099059080562 -0.2223274987142279 0.0006271788884124729
0.27104149170278524 -1.7968073218899008 -0.2287363566307456 6.308873651576746e-05
0.27473432446556206 -1.7973801454938427 -0.21558379711064118 6.109741081862748e-05
0.2778949649209279 -1.794372451993286 -0.2048298254428605 4.3872109242483755e-05
0.2595147740049833 -1.8793126770107194 -0.22237669425884007 0.10741239953760749
0.2577401616381507 -1.8707274378039522 -0.23179817052648408 0.0817240194055075
0.26628543439040386 -1.8468391293442443 -0.22442447533491042 0.06536750362358804
0.2626633181377175 -1.8569632215046874 -0.22879435854809735 0.07336239319334373
0.26440262892087185 -1.8376834333361414 -0.23488787319294221 0.0007840979493910088
0.2542197493860796 -1.8885552765523905 -0.2256372783594383 0.12839655173347883
0.25935618621971507 -1.890900061089215 -0.21425911187668764 0.13316655273614236
0.24894598049262598 -1.872592631797727 -0.24816540453245373 0.005062614083354869
0.25871989261550066 -1.856331954912449 -0.24021749388474417 0.0026064222437418715
0.259576238387743 -1.8332951595940732 -0.25197631266988196 0.0016546446174622144
0.26018145669523474 -1.8446573768949102 -0.2432883565830777 0.0017410835181869832
0.25236294364119355 -1.8514708419698636 -0.26161035850026976 0.0035249295969573676
0.25178323310238293 -1.8408899641380354 -0.2731988252874818 0.0036820794839585577
0.2546665739451016 -1.8212774750329572 -0.27979751261212954 0.0011915573796814265
0.2593252659476448 -1.8165079984430297 -0.2669965871649756 0.0013958278413584155
0.2552322437868353 -1.8288214405541279 -0.27121538037522464 0.0022616521562638676
0.2625800662433529 -1.814214753641052 -0.2540063164664865 0.001187060533597624
0.25800903470443715 -1.8088368156511838 -0.2762592708603005 0.0008958950881249229
0.24823947831162174 -1.8516301459611433 -0.27331862058306927 0.003433929790224318
0.28116877796247325 -1.7964127553662066 -0.19295350456708196 1.552428793192842e-05
0.28489095095029854 -1.7933610390323 -0.18038641754243664 0.03612562870550166
0.2866176517682866 -1.7762356784038553 -0.17741807686996802 4.040817756285895e-05
0.2833095752495952 -1.7719606868278062 -0.18991538538025882 9.707706862488339e-06
0.2809923540797231 -1.7810319632726135 -0.1964750182171149 9.292652183725338e-06
0.28615758119884993 -1.7569250681799877 -0.18274185322646666 3.0073080632063995e-05
0.28630027480568165 -1.742862979673629 -0.18568054984771462 2.5311796187906805e-05
0.2908006071954138 -1.7224295535935952 -0.17535366069240027 6.535548319264188e-05
0.28737489408990113 -1.72737571076172 -0.18617270388476312 2.268645284991647e-05
0.2829749045550074 -1.7413582566964878 -0.1980944220563204 2.8448298138590163e-05
0.27928636464820433 -1.7524790303028457 -0.2082844214374759 2.9433833124926033e-05
0.28125042875759626 -1.734229410180328 -0.20651781645943654 1.3213937424014409e-05
0.2781313111227499 -1.7423461428335227 -0.21594468457978935 2.5496974236567522e-05
0.2890973029981529 -1.7109619948166412 -0.18529855956322336 3.1346764140401726e-05
0.28971427627423546 -1.697494589158029 -0.1877172837153925 5.511466997388482e-05
0.28208626424743943 -1.7175583811472908 -0.20884048168679645 1.3543802565206164e-05
0.2765921528142271 -1.7289675230761714 -0.22614334683164208 8.089434883338953e-06
0.2788226472567905 -1.7172158437908172 -0.22152859089966548 1.5304723611102425e-05
0.2791121942425564 -1.704275456770851 -0.22477179754199014 2.091017823790788e-05
0.27514252753422463 -1.707059291298669 -0.23887794282744815 2.265165832362301e-05
0.2927765107637096 -1.6876096066257857 -0.18028343579649236 0.00015486174415933602
0.29237237885827666 -1.6763033983592117 -0.18724593729133304 0.00022891086927645442
0.28918107493371 -1.6744996746641923 -0.19957671228243337 0.00016558205950909167
0.28434198685233025 -1.6898880363757534 -0.21095477397939785 5.7584258771141684e-05
0.2861132988478817 -1.6984837218673965 -0.20081019806167041 6.703596362135416e-05
0.280414604996875 -1.6924158627169374 -0.22451511842967087 6.798107408668526e-05
0.28351515951612655 -1.6800294072976003 -0.2182609418231572 0.0001274671809597257
0.280244955409874 -1.674738984111054 -0.2328027327623566 0.00013406898812730257
0.28710108957060987 -1.6651474329501963 -0.21278305009811083 0.04525100319314277
0.28228870196203953 -1.704440740691491 -0.21271597925267766 4.110390650881592e-05
0.2857086011406641 -1.709625247618841 -0.19816865751922144 2.5375349429357177e-05
0.2744474356973686 -1.7239673074163573 -0.23598499864608494 1.364351766105274e-05
0.2682730326574332 -1.7241772899742094 -0.25930648932183964 1.592106576355796e-05
0.2718396211463223 -1.7193129358343906 -0.24738338676578295 1.8669400677952782e-05
0.27249024944776845 -1.7369707415351798 -0.2395503698509114 1.084872757021991e-05
0.2730436015584521 -1.7481820791845522 -0.23380499348500164 1.3019899171365068e-05
0.27024157531349063 -1.7490538430334883 -0.2446783510292083 1.4457181474601074e-05
0.2712483583531163 -1.7680052055791489 -0.23493869946730211 2.7834914432545925e-05
0.2666190144507825 -1.7627878928122898 -0.25520572853856477 2.5930729026859372e-05
0.27002547461689874 -1.7806840092913028 -0.23628411601815713 6.262553141760755e-05
0.2639636650669053 -1.7367481520458448 -0.2733580594943624 2.189910198470408e-05
0.2658591618660136 -1.7464810015472618 -0.2629075224123062 1.629877382628534e-05
0.262949950856789 -1.7746322306625557 -0.2669111688365802 5.6383816302235536e-05
0.26084638084249623 -1.752037022995176 -0.282103762018043 2.906163967212664e-05
0.26045983314418336 -1.7657107135224763 -0.28033905984786295 4.193445888204982e-05
0.25644491592478635 -1.7558337604529615 -0.3010352050298298 3.3080041320114026e-05
0.2551948479417619 -1.7739628230375462 -0.30262283564092163 7.951309140160708e-05
0.251423788733427 -1.7642727753493737 -0.3229361307050739 0.00010766401967347156
0.2538982709104629 -1.7640681062675592 -0.31083538977687064 5.934114717140813e-05
0.26281660305103705 -1.7251112370469668 -0.2813648805836446 4.559126638257528e-05
0.2646830428295791 -1.7046637907999402 -0.28051241106989133 5.275872763907249e-05
0.2614482104654221 -1.7075184712708218 -0.293476256486392 6.365115114853754e-05
0.26031084872773136 -1.6917602351726584 -0.3061163833800019 4.304163718266534e-05
0.26273817415777273 -1.6962132203925855 -0.29306831891339663 4.2480294861676864e-05
0.2562738662478431 -1.795240443958852 -0.2893169145562299 0.0005676106970823698
0.2594483545288693 -1.7924388886200875 -0.2760398097222133 0.00044612838639861266
0.2595705494505482 -1.7811767449516547 -0.2801824249326082 8.663762750501897e-05
0.25486511414819796 -1.786385955677992 -0.30010479644472254 0.00016562519385494628
0.2551900678843329 -1.810190642519829 -0.2879001117725758 0.0015651977600424063
0.2526380239631245 -1.8054256388688688 -0.3030383113289846 0.0013772320594636577
0.2594273333624789 -1.7279278574826602 -0.29491042334653483 4.893461233867594e-05
0.2569296234977213 -1.7388151332533783 -0.3030963034879133 3.845148311546636e-05
0.2554358062116888 -1.7137719421392794 -0.3184531386904104 6.870970931962881e-05
0.25472138885804474 -1.728395978635838 -0.3166903221802047 7.429062136889824e-05
0.2571460019150671 -1.721227369368042 -0.3075503175193518 6.099634513151872e-05
0.2490098554740357 -1.7749818850715138 -0.3327850106750381 0.00022737457504776545
0.24943457446442027 -1.7592615083465697 -0.3347707871599689 0.00010077308105979824
0.24807185060167491 -1.7477744034179934 -0.34562003473613756 7.447992570512944e-05
0.2506432675776049 -1.7475954989116536 -0.33134386084140205 7.449357478603937e-05
0.24501946821535 -1.771716494398115 -0.35884998099206983 0.00020767601245675116
0.24713389334057856 -1.7681936169017298 -0.34615082912915074 0.00013199156361555693
0.24648574697723102 -1.7885193172794382 -0.34310035689685325 0.0004137760733324662
0.2459052806697887 -1.8142299255727934 -0.3324540097259858 0.002391550776905388
0.2435116238122011 -1.8085078849836471 -0.3490242463175345 0.002937052038794845
0.2474498713619086 -1.8011221766700158 -0.3300394781270444 0.0014055286402614195
0.24761442958853871 -1.7379041700083526 -0.35278600675432625 7.289036355436733e-05
0.24519283503010364 -1.7370325806467248 -0.3702400561151795 6.605029169038932e-05
0.24691232190719853 -1.7273078467960654 -0.3624555264022851 8.795243151031451e-05
0.24916953719179935 -1.7209501666823297 -0.3500380822181002 7.598471379011707e-05
0.24792105552017207 -1.7084659143530507 -0.36439013236972906 7.612583125665081e-05
0.24612934713074547 -1.7128828510012142 -0.3764635045544461 8.207054781747767e-05
0.24442103197350606 -1.7294486170942633 -0.38106752905426255 5.069650975545453e-05
0.24690918410699705 -1.6998698677785014 -0.37849666923594416 9.426345838997687e-05
0.24433446620137367 -1.7070623630867887 -0.39691978988635157 2.3264210297926476e-05
0.24298725995145945 -1.7213399321560514 -0.40063740877633125 3.040090888393078e-05
0.24241054957411393 -1.7153793148636551 -0.41199632834225763 1.6911146787466643e-05
0.24205905831641714 -1.732570220587137 -0.40207151780006584 1.6422281328154145e-05
0.24109153142278206 -1.7095760846619656 -0.4328205807959713 8.422227720281425e-06
0.242690030019311 -1.6957062385012829 -0.4263587421041833 1.2469520903237769e-05
0.24346993937369363 -1.677358488381158 -0.4341469059442433 1.547367509341832e-05
0.24259323666625807 -1.6779952677579872 -0.4468856445325496 8.237267792450313e-05
0.24525749988187112 -1.6784702382085264 -0.41205784303319853 3.1961279362301556e-05
0.24572102756576317 -1.6958162797930065 -0.3912464827848086 8.292232376658557e-05
0.24672080643461275 -1.6814474727959419 -0.3930096093630881 8.12599056383337e-05
0.24482764840654664 -1.6934048005482747 -0.40342393587771586 1.9699785785073598e-05
0.25028606561575706 -1.7012783870516013 -0.3534614960701284 8.60419262659981e-05
0.25026299023317167 -1.6884304580379843 -0.3611268364954604 7.979208606270041e-05
0.25239674043988164 -1.6828383762626764 -0.3513890107795466 0.00011963924543867178
0.2514812309369907 -1.718023660149637 -0.3374981632041552 5.959976075080589e-05
0.2535858945480099 -1.6947850370581543 -0.33750248206004385 5.1022042445177026e-05
0.2564447853998132 -1.687878500205223 -0.32681103193916655 6.102076997068306e-05
0.25668150332723655 -1.6985947597232043 -0.31998140310338685 6.277956538509558e-05
0.25194868986427454 -1.729243707643418 -0.3306737730454681 6.592486200176057e-05
0.2531739678785205 -1.7437141774764129 -0.3187199835095708 5.1910089975009596e-05
0.27042472087315605 -1.7061412503533377 -0.25710283917613463 3.5804110750301675e-05
0.26719723570981035 -1.7080026082889221 -0.2691370562302526 6.360419875656277e-05
0.2706698809718117 -1.675222831693789 -0.2700934657286942 5.894661501564155e-05
0.26847393048280044 -1.6946998520998555 -0.26919585328787515 7.665232906673371e-05
0.2716874513361816 -1.6900456255997787 -0.25857721554643454 6.472383799032681e-05
0.274794763072883 -1.6810808342708534 -0.2507047196630783 9.364076894975965e-05
0.2669142198730491 -1.6734598540444425 -0.2871085983248606 0.012977022227375663
0.2663952952672164 -1.6863027390097716 -0.28228458525096667 8.444911449582057e-05
0.2764464058825683 -1.6946179283335143 -0.23820639805060598 5.0395590321012736e-05
0.24327683801209635 -1.7632926282613655 -0.3744706063134277 4.2053559804623466e-05
0.2411837896514608 -1.7569835277005306 -0.39624758010871264 3.086847708004507e-05
0.2402146230411411 -1.7716933996444313 -0.3976053662828157 0.00032266395250452355
0.23863231353334502 -1.7670106371386403 -0.4154647371170777 0.000302472181106998
0.24083457733622127 -1.7454129044882236 -0.4059384481288238 2.2485687067984137e-05
0.23787688297767157 -1.7584830701274292 -0.42742201003835034 0.00029162535842773525
0.23784755956555775 -1.77919295226524 -0.41380624708792124 0.0010992663072713984
0.23650959216743256 -1.7737944574431832 -0.42919461014888244 0.0009431845100631897
0.23412411093146782 -1.769231383603423 -0.4510964985774912 0.0026707718123607166
0.2378890003733856 -1.7916338019284375 -0.40359048739287406 0.0013023539290706611
0.23635611719562274 -1.7492819641273383 -0.44967884245087386 0.0004931826964049645
0.23454005932730418 -1.8023303428924415 -0.4146585771449949 0.004733827522786266
0.2361244310557304 -1.7865481719867549 -0.42294579518308456 0.002467015673261847
0.22930259596223357 -1.809240297775458 -0.43144888438524365 0.008594292236107656
0.2223315761458884 -1.8224115229402704 -0.4310265607890388 0.008060967306653713
0.21170832626607494 -1.8340756733494756 -0.43039912011459636 0.00739839225186873
0.21961003291478934 -1.830802827769625 -0.4206604622107001 0.010175284288233116
0.2000204946980506 -1.842382003506349 -0.4338080883766963 0.00737897901033776
0.20744131636629212 -1.830216450966088 -0.4454182228145848 0.007897894071137921
0.16767236861439708 -1.8450157212405296 -0.445467523582663 0.0035396759772196953
0.18743567775891234 -1.8440823115630347 -0.4390698337353126 0.006713100640118944
