x y z curv
1.6251591340537612 7.555066798119827 0.2733841484206578 0.0325830954246848
1.6116500201390673 7.594963369786888 0.33004825036025826 0.01795123380909793
1.6135963748551105 7.233745688149354 0.3260060195528606 0.015028003403501314
1.6207365818852921 6.8442072579050075 0.2798119257115038 0.008906592608273069
1.6133923361714193 7.4972480159014285 0.3427101837867979 0.016124576577586074
1.6173896065402684 7.54972134035006 0.285345335411588 0.019703399359616323
1.629922793002938 6.989784877986129 0.27527833725406653 0.01457310629075826
1.616052455609945 7.163179908883893 0.3208455083805074 0.031620879181303393
1.624773178508744 7.259101285215481 0.34944161511585664 0.019766568496784796
1.619757709183436 7.308707832055124 0.2588745464550842 0.011225903600216866
1.623235654699582 7.565700123600131 0.3121256785654226 0.014830974516858659
1.6179184973796936 7.097723518608563 0.29262926121458827 0.010073440446742639
1.6197503490550127 7.389458359789116 0.35222632850023866 0.015827575279060174
1.6213387622409412 7.085639878227327 0.2820153525109277 0.013675296218741643
1.625559868066849 6.7564608907219155 0.2671405550747196 0.036409422706443956
1.6178660797507027 7.039782372413075 0.28526016411236366 0.00917974782442059
1.6184283597146443 7.596030263169246 0.3893771419823027 0.08250876981870015
1.6197241366291413 7.0825063080362645 0.2794413756414439 0.01262107105024592
1.61233955913997 6.944390606517757 0.2930585090990857 0.009789139055538321
1.6193889421167547 7.219114389197378 0.31718679443962117 0.0248463467237821
1.6167794360078807 7.574713180315984 0.36722995669702546 0.01974113069064262
1.61662723859617 7.544268383738928 0.31640305677823577 0.015321040514327987
1.615675904565525 7.195061791038469 0.34163587526561956 0.026316755026066382
1.6139224767768956 7.238323210653705 0.3059391819378779 0.00405319812812042
1.6251738213594844 6.705499234488187 0.2704623638542275 0.011361605679560814
1.6198671254389605 7.13986350030917 0.27565737815755204 0.0186345261442691
1.6195078630640596 7.066552187594929 0.29774973057471277 0.012311962978180276
1.6137239202421994 7.127364006031132 0.2964741277164251 0.014393424818121899
1.6100354338440481 7.554161544003386 0.32431828009298597 0.010965601688499423
1.6216395361803413 6.9452632530170595 0.2781969699140239 0.01887492612179891
1.6110490401155784 6.894779279954116 0.3023135486898159 0.023858556041928915
1.618921913107385 7.188171559373683 0.30578473317752075 0.021162775223282505
1.6198040633101631 7.473500639108632 0.3426447190426139 0.013088152396378
1.6154086652162356 7.066152179059155 0.3243751449695229 0.012409346272899403
1.6210214608531994 6.965263531654474 0.2661928056747211 0.0444585694912784
1.6169569130832637 6.97870444034348 0.2921187214815439 0.02532272321692455
1.6216456273093844 7.566286440606998 0.2800741683103431 0.024602532338685937
1.6163231296082115 7.535359723184317 0.32446052379556306 0.01668186802710304
1.6263456283983295 7.2718931521959 0.2824304267633704 0.016193544832792603
1.6226399409051984 7.247597653960768 0.27416083207146497 0.008422814787198802
1.6160490984773566 7.334781644274206 0.3217623743147751 0.021337895717795066
1.6200432476534432 6.909477826784683 0.2972188551023948 0.04022159095744862
1.6231860911620442 7.581048435362922 0.2790812467053637 0.024581438295873753
1.6194949546986699 7.108234568613145 0.30766978994263355 0.012877816610455005
1.6229622914836686 7.4008142869750815 0.3340098082302094 0.015648388295957008
1.619960142705052 7.263208026034883 0.29789457904087263 0.015532779737791937
1.6204229807315764 7.576884790372457 0.2737069779023883 0.035562488472300195
1.6225132394696402 7.23490425270451 0.2714977220316403 0.008874818727872717
1.6201456854398202 7.485261372050479 0.33329284941458803 0.024644698601479886
1.614376449340578 6.874104727376702 0.26300005740807864 0.029661402038131057
1.6199098709023885 7.0347121467907385 0.30045435105463975 0.014423554778159977
1.6133711761858252 7.099150731755955 0.303307939521234 0.0088187371825477
1.6161060111371754 7.262322282098045 0.3328589738155843 0.01614027759209492
1.6154262450671975 7.294123415661083 0.2827909769282303 0.021661933460994834
1.619024225459513 7.249901109952791 0.3404695299528925 0.01138901379677247
1.622286110507909 7.417215790275437 0.26792129249246266 0.010386214794123317
1.6223018888889724 7.153275054752333 0.3405080371585736 0.030642101451833787
1.617630791214857 7.404489993781232 0.36403049063859416 0.049306985241532875
1.6171477851793183 7.3086402692492145 0.3590002616361178 0.029025031813122836
1.6164349316669122 7.530063454968575 0.2996750325591972 0.023532419043257275
1.6161937690464605 7.507835115613646 0.3640908561036153 0.012477850419572839
1.6173458762173958 7.559237230549555 0.3448801953433464 0.014034007738264452
1.6174413903848945 7.10311620907635 0.3217947113983251 0.012068325302122688
1.6168069921965182 7.542305683503413 0.3850252365262996 0.04183340929932457
1.6205273357457775 6.767449964130745 0.3009714404608391 0.012021381461401784
1.6172581334329663 6.570592387025797 0.2850639207541658 0.06018801544779046
1.6273070185445788 7.189602205316885 0.36346359016994767 0.021615409417557217
1.6199009785801541 6.634147590483234 0.34595864178715624 0.0065521669151632645
1.6237820362304132 6.805902814959585 0.3045812969102614 0.010275117554069246
1.6180962299923585 6.703063225444329 0.3509103322363464 0.008338126908037586
1.6158487358423792 7.0600435784133975 0.35907178818589014 0.02442934047420024
1.6262320594764417 6.642686771456992 0.3141688229199507 0.009272329545229187
1.6183506843015378 6.920104965549158 0.3752943751917745 0.023646889550820224
1.6224674988120589 7.037555711062851 0.3932055939286476 0.0894346150084412
1.616849245716609 6.730200147982534 0.34498906404003227 0.01082921143956609
1.6164454983160181 7.222157999450236 0.38670285549606986 0.05020150395805108
1.6183451376701121 7.31041371956723 0.38473717697375853 0.06229158145056568
1.6236567167512732 6.657848936743176 0.31959319606812975 0.020489137588928518
1.6229997366340698 6.612540633532717 0.27913531738656805 0.003993628923734886
1.6151581187079396 6.61410735441005 0.39605117845322535 0.11351333307221122
1.6188752234487784 7.397430028643396 0.38987936169715776 0.06950352733553851
1.6226802895581776 6.8364246701018425 0.3245214737132333 0.010718235479990939
1.6338842683107404 7.005099737887528 0.3446213662007897 0.01965869211626211
1.6297154726424752 7.1208406527001165 0.35552465117770615 0.027472866583370233
1.6193212700187083 6.956399306425314 0.33056741198376766 0.026015841507725176
1.6164881544053336 6.569985593859322 0.31812939527377454 0.028037817343568125
1.6235915822401052 6.919181524883438 0.3394024945193752 0.022410074229584895
1.6212853901705406 6.558375705451107 0.3599245685021732 0.13069367988927372
1.6165995821412176 6.985343789818221 0.3678888893887907 0.04141418181949294
1.6147141109427479 7.024747996996353 0.4025906553671432 0.09603984929771774
1.6191011816171244 7.4296504624927735 0.39802174207683133 0.1143631830951461
1.621017844997832 6.964259330682206 0.3509914913688371 0.02228217033134855
1.6221967128039017 6.7484844305842335 0.40443499483401385 0.08494850600516048
1.6155411433607394 6.963552157384721 0.3899891012000468 0.08084667949051147
1.612684865946112 7.451968918498682 0.3838309188405206 0.14413319427487442
1.6227238031123727 7.2181762227219 0.3485393304972004 0.02055663541694055
1.6132066099043567 6.873550978661094 0.3527719449444074 0.024756215839643124
1.6245098594225764 6.982362287227858 0.3331836396953858 0.03117644507395297
1.6245456342393183 6.9630636660210214 0.32308048328074207 0.02415026186050278
1.6226723291482499 6.854126225584328 0.34603205912745694 0.00783601215765499
1.617815706104414 6.980585972596871 0.32080771313940365 0.029266142447611526
1.6162934299752756 6.864091392720716 0.3359847601114654 0.016481571892707565
1.620775221361689 6.555052331765621 0.2857994404525913 0.1359137951733138
1.6196230823546864 6.681076581832904 0.38006153504775775 0.08914339455871105
1.6148299725679953 6.9947488107123075 0.38297103296106555 0.05513473579262214
1.6096060682609061 7.1306382334581775 0.3763185056101151 0.04091461945025753
1.6198167123298406 6.848942530664716 0.31218983488090374 0.009578200695536299
1.625475104710258 7.289773043324306 0.35614573688611656 0.021866935373712856
1.6280060796920137 6.629770773840089 0.3255203610772405 0.0084168741564495
1.624347610620768 6.697720971593773 0.2915747211793227 0.017254539112582314
1.6207419089343995 7.155732504166797 0.34639991241824986 0.030763989236604332
1.6260132813975463 6.767555139924416 0.34903657956066153 0.007764624002486461
1.6198710763065036 6.6701774648081225 0.3050589556218812 0.023432526399763103
1.6236034938494686 6.769510512298031 0.38952619204257366 0.07583651839097388
1.6169175778430698 6.752581733992839 0.38557617332044897 0.09369646173947493
1.616338309727989 6.695675065408672 0.3008330128302459 0.016008197011274698
1.6175838652502368 7.017430841514169 0.3597007523162628 0.02533172266258369
1.626328397990022 7.183700154324056 0.3390614047233883 0.028626556185878525
1.6169717527885479 6.711508550898204 0.29675009867199265 0.016435249242034145
1.6167101328717055 7.447619307057846 0.39423750894385157 0.1462353196076248
1.6158757882662553 6.713913852320595 0.3310042524711859 0.00849977681284143
1.6215682126860276 6.755484875078393 0.32829262545388516 0.006594933433320347
1.6220300706679616 6.782356510391947 0.336740292966949 0.009252769828073258
1.6177904672949648 6.864985410812834 0.38391949803124925 0.04904659402012216
1.6302492883939292 7.47231883526672 0.3924175839578034 0.05132199477649401
1.6210363468614295 7.2663912080517665 0.36386779850071355 0.039656932979634504
1.62145209440922 6.639713211374981 0.3324472783739319 0.01873130753486183
1.6270396631161639 6.904480028028077 0.36126415293782016 0.018071915327094856
1.6199277738027913 6.742257246185602 0.36742296694808546 0.048563939046113926
1.6246060866868144 7.138613773600251 0.35802906333183665 0.034448338221781546
1.6155142431448897 6.7042150055554135 0.37534989478403885 0.048137663558326584
1.6200709236806439 6.738753771016987 0.3377156021082358 0.009328085528703504
1.6203468734742346 6.617261392401948 0.31611476177586295 0.00547675313641706
1.6130054660085236 7.514377008358705 0.39543242425882774 0.05264205448268084
1.6101048645996268 6.603270226904755 0.3835848576041009 0.08385445030118409
1.6222243403543848 6.648932040882692 0.33937313279493075 0.012303133308741252
1.6286006354556408 7.049605249879545 0.33971593727809574 0.012858007688901638
1.6196772639984833 7.321480732066033 0.3833471876495134 0.08459952413661653
1.6141584190212266 6.887875967628129 0.37509514432851004 0.053622594255831164
1.6202437848169537 7.193189594745955 0.3878783104743423 0.05089906554686189
1.6156279763988741 6.786788931555386 0.3590712683411857 0.01693781569887005
1.6135092115045748 6.8785940959831295 0.3475009271005635 0.020975629391577363
1.6205781310546004 6.6953531150597385 0.35613224757535517 0.008805149739085784
1.6225746984979237 7.044667644315211 0.34828648649887034 0.019089585663746255
1.61391371516295 6.963311236217076 0.39354635648657965 0.09630281992086995
1.6222622593932028 7.509039045729096 0.3970895917627521 0.05652510615752596
1.621066429329649 7.430196170568983 0.3863985471709806 0.08190330452372374
1.6243166351963827 6.7073699414817 0.3984430694497875 0.10338214182046411
1.6255490823759913 6.657328283673785 0.32339997520976704 0.01931788395893021
1.6142072226671118 6.7452107748433 0.38061371216081846 0.08353616288969493
1.6114970104189696 7.144572298320193 0.3970647621850715 0.05897657605732534
1.6160330975136676 6.762301814873745 0.3683419615010935 0.044044118457499934
1.6115626862838646 6.619699962453244 0.36997126543646414 0.04716148329098836
1.6135847128019458 6.720243328318554 0.3067637264215258 0.014960657729002265
1.6149885876847891 6.999103375894424 0.40154290804549087 0.07401396830273797
1.6224926538244882 7.0995641015171875 0.37535003364917574 0.06217371465441942
1.615196598213822 7.291491631089533 0.3882717301682431 0.04669964585327095
1.6164953627699499 7.2333126029024095 0.36511048766216875 0.01420781082365792
1.6167969537181517 6.87705617341259 0.36524838714452423 0.03077715603971549
1.6136397913501084 7.215503669292777 0.3687947776810788 0.05328542833816757
1.6207076513028464 7.08693206964344 0.3422578169374566 0.02362563370484316
1.61761777803766 6.737723601031043 0.3108174045247492 0.011569562073263527
1.6201269390970074 7.014964346403623 0.38886761008907916 0.05303774757856618
1.6174461388079064 6.994434652150423 0.3651245529734586 0.039968106385347715
1.6181924481983148 6.701626495218552 0.35066410294125144 0.008354392926937437
1.6132176371842317 6.648165811377056 0.35650035796028196 0.012739493791051512
1.6223781810635096 6.643887216548322 0.3903061460055633 0.05757199269283894
1.6201834899542569 6.5775083884913155 0.38746159791582574 0.027640312650966142
1.6179487436144349 6.731347033598236 0.320273961016889 0.013722461386127786
1.6220522136583846 7.2937633796631225 0.3819029482845361 0.0410386599360383
1.6189177733702487 7.105910405658891 0.3521159507583653 0.03673925127624181
1.61571851841363 7.325674268848266 0.3684819324689706 0.011393671208025794
1.6215270169120068 6.793380338071852 0.3941890663221383 0.08396666987524769
1.6179244151978236 7.135041694419033 0.36952362058068017 0.041055352807607554
1.6261193180470253 6.929855865851183 0.34720185943888277 0.010390483962637621
1.6126095547760981 6.975423505112586 0.3629206809223131 0.023764639458373354
1.6130388812255463 6.864767475546847 0.36793492533195565 0.03164594969839055
1.6236183600637104 6.901876201752313 0.3271053421365801 0.016725187546265695
1.6194029052236347 6.9227597275973904 0.3480756464516682 0.022295719366711823
1.6243917853075787 7.280289995887617 0.37789833162354236 0.04320765267411271
1.6113666539669005 6.978262476077866 0.35671004466446493 0.023741501698360395
1.6120947692585792 6.8970029702704405 0.37679222367334864 0.05289943286166855
1.61677047459107 7.248259286245636 0.3925272736485898 0.059966586792843606
1.6126180511180388 7.031873005360871 0.3694979624470789 0.01683612960050819
1.6250832739969927 7.090555566331057 0.3791027976680552 0.057707160556601876
1.6252824233939762 6.781980361566846 0.2996584192740744 0.010449784354313202
1.6230520104433321 6.715322632705545 0.39727072224067544 0.11308735565550185
1.6182447643397244 7.371693728732815 0.3670263242032078 0.026109475479374887
1.6185167285644624 7.055078996012182 0.3702698186720685 0.06699436931979168
1.625330285767783 6.664757741558713 0.3358625697759327 0.02034060359179729
1.613274316658976 7.4094168664340385 0.38618978108036367 0.11087136142003706
1.6195458775227514 7.3464089934860075 0.39518200120369057 0.0569322726747858
1.621821817789966 7.197088891768016 0.37981875431682677 0.015616837945596472
1.6227047737629428 6.676604967866825 0.29063689131822323 0.018759562310459558
1.6211079610099746 7.027214771802239 0.3312450431234818 0.030570525438983757
1.6201457034254163 6.57636331130835 0.3777526825403449 0.052849167509546775
1.6169159677566032 7.070535799681456 0.3568194707843126 0.015501589697339302
1.6265874791516706 7.379895531876754 0.3775063346487467 0.02222088192717875
1.6156254022539378 6.890475006362131 0.3235970116229974 0.012407951068304257
1.616214693316462 6.61945237040141 0.34872447911864035 0.014638846646447417
1.620846243129487 6.8316186415513895 0.3724479556082884 0.040166270722222126
1.6197415405803999 7.08267175789547 0.3498630112259164 0.01998700615182389
1.6169959162551162 7.014692523434748 0.3655499911409945 0.024362682499647008
1.6158357383338628 7.214492736637567 0.3595904281126375 0.017984562042024747
1.6128191210953922 7.2615807372989405 0.3863534512400314 0.054276304259340595
1.6246244116049269 7.053872274748973 0.3464714643572138 0.01814972120094163
1.622801664020616 7.15502587437311 0.3766583512249224 0.02168656311572479
1.6208072787413368 6.60589712495908 0.297500923710327 0.004288839714965845
1.6255894716793289 6.901048707198175 0.34561821733542564 0.015215249127564265
1.6230425823296655 7.397311104828529 0.38237885293363566 0.06287752565528576
1.6147485551475826 6.755300937184768 0.3756174059085328 0.06573944765986008
1.6178571484059996 6.9370779758602765 0.33364707389900045 0.014400071642369606
1.6163891393736418 7.042904504617526 0.39087424140854177 0.09833367374104655
1.6163023836875101 6.802321537828742 0.3516709355997598 0.013559895295144755
1.6225609880853549 7.0562274548487895 0.3788158633400126 0.07923429678109098
1.6223109347359155 7.226337478410405 0.3484189383717617 0.013600991151769501
1.628022530433725 6.9244212945061125 0.32076952819953375 0.022577423646079224
1.6180025849979498 6.654137881075584 0.37197351969713044 0.03954875672988793
1.6215821871715923 6.798969584575431 0.3754790572570605 0.06436124962499633
1.6205333493860097 6.8135224546253035 0.3554837416808497 0.017807348127567124
1.6159540950753302 6.795694323532579 0.36146659886641563 0.016918480459236742
1.6217193929769846 6.85690331685218 0.393020040464691 0.06600726259952354
1.6158414051618588 6.720176452046571 0.3332142814795421 0.009303369438484295
1.6229802750934619 7.200843164408662 0.37106732873686327 0.014450494715399947
1.6137768615675598 7.095610098809829 0.3575433783229557 0.0405066480441085
1.6158380263113599 6.6513352965328885 0.37699413535348053 0.09785924316996217
1.6097776172625708 7.569052734835031 0.394166262997791 0.0955686622226235
1.62238937929666 7.097534814392465 0.3818484927852527 0.06619872788937653
1.613758590622983 7.251418736763387 0.38469050084800377 0.055497918917189366
1.6222010748780868 7.313610799682126 0.37173100383376123 0.019278082680547794
1.6134175818704182 6.599932574745244 0.36360529628444815 0.02252442645487154
1.620189008562918 6.718262800615724 0.2844055849582678 0.012674937343780454
1.623419886803972 6.686324606638513 0.3383936752453966 0.012128214593272207
1.6111177434636106 6.94102367998374 0.3869781312899571 0.0702498100066373
1.6191979293874021 6.806126911960912 0.3661962152665318 0.046777936013124494
1.6245731783082789 7.067711942152631 0.38130865872026787 0.04337500071072753
1.6167656040896976 6.608910360579937 0.4031897952579258 0.08181280532015868
1.627819758480192 7.137609048438546 0.34760131881631084 0.03469161695998382
1.6203598788046498 6.609085877653467 0.29382694482060473 0.004135998102663281
1.624396148158052 6.7085079255810385 0.3225302865489103 0.009735778802876651
1.6131182416035406 6.939163700769666 0.35044699661870254 0.008351635329521061
1.6127993004670775 6.681620523616255 0.3142869231026227 0.013663951681915025
1.619440212665222 6.770948251557658 0.3350931067019462 0.009106188773947104
1.6071751097794293 7.115249968700935 0.3790645858909743 0.06035444282394491
1.6213726682982375 6.618443094715134 0.3390874812219248 0.0155758911144229
1.6197469733679117 7.0205883506440845 0.34773770364199696 0.027326391376356625
1.6182317553870915 6.631966724050055 0.3734809176673121 0.04265520504931065
1.6153752224574942 7.138262251166581 0.39042862393782374 0.04472033413695372
1.6232069744328206 7.174969986991452 0.37512572754485607 0.06566333645107632
1.6205630671247828 6.838071555828228 0.3052974849723379 0.010159467256590586
1.6191789651722919 6.7561166421117775 0.3104240621639767 0.006668824117271723
1.6223611626624117 7.344149735141313 0.36173651989789585 0.006841745236689387
1.6116872873292392 6.855943569600467 0.3605506290868021 0.010920325527660034
1.6161878138669898 6.669004671841222 0.321769025410496 0.015317923914133594
1.621966839146789 6.673559165703845 0.3680968820772383 0.025460531926378684
1.6185544510661596 7.106105890062977 0.396384917323302 0.05427690587620522
1.6157948617854534 6.876332338022676 0.409549894527195 0.07248881742809953
1.6188982999789394 7.341131219770757 0.3844915341190745 0.06229867884724383
1.6171539789789136 6.585459066378284 0.3386312646597893 0.014128033231851357
1.617547908892938 6.866047275516466 0.3203941883568411 0.013355614965388929
1.6213062773291729 6.796779500087647 0.3335960850742508 0.015275451085085547
1.6249226542839925 7.276061612734042 0.36889560411784367 0.030094288561103386
1.6204266905121034 7.253893724165772 0.3684064648060337 0.0350654743988162
1.6196766802040252 7.405318182012757 0.38239749700107106 0.05950395841840569
1.6229410632618275 6.656367574621371 0.29096472341820884 0.01497001725042694
1.616257230242558 6.876478308636261 0.3053002207290358 0.03504487524964129
1.6280952030916533 7.000053181865322 0.3479802299745106 0.026635292641228304
1.6266017006089417 6.825421565944695 0.3421550865997605 0.008907875035958676
1.612057875504366 6.624791929465007 0.3812240630062831 0.08309158315526631
1.6206041097476707 6.725060404050485 0.3562108256461477 0.008913086167276473
1.6169566600137313 7.386520736595207 0.3645683817866263 0.016783985023211965
1.6185127025863977 6.667094582573548 0.39406238549547656 0.05672048122891083
1.6273018571444757 6.822537384132808 0.3862785775739637 0.06479771354662235
1.6183400388278877 6.674898574476362 0.32974526317488384 0.01576395697481118
1.6155661040720057 7.07725794541317 0.33622182711043636 0.01645447593982815
1.6177575495892416 6.924268054343175 0.375398158436615 0.023419618247340172
1.6178640667193929 6.795928425706297 0.3184152821922987 0.008797040227849882
1.6214373364630257 6.619104245029853 0.29784693849086175 0.0040635602917317255
1.6082796811609397 7.6001568112008435 0.39649887258791366 0.07230494824464853
1.616042650797591 6.9479650927127485 0.37978280998925257 0.073870472586043
1.6202404651382685 6.7187914785907275 0.368539367183608 0.01770198073849158
1.6179479740387865 6.955691739492574 0.37283122700742966 0.03422988578790351
1.6236008607163135 6.668408404261258 0.28993258978342834 0.018261591269556336
1.622212128695367 6.827486776415771 0.3286431067357827 0.01090089085695449
1.6121149251411078 6.962667554313924 0.3633984756624109 0.027148541086599882
1.614465920932292 6.825059647219464 0.38913043664305996 0.11576526298486463
1.6157740557399594 7.3507520417380094 0.38107470260164694 0.06090841747120003
1.616859189356045 6.8335822131838215 0.35851498085783273 0.018006819021338154
1.6178339157627908 7.025839167183961 0.38359655082986444 0.023042131124588593
1.6233034219467977 6.630778002761838 0.2836972402514133 0.003971380212096991
1.623260850374085 6.786637044414812 0.37470544436613334 0.05662016539855343
1.6212880978165403 6.610797078336655 0.3419308958185652 0.015490680625235072
1.6137717210059737 7.202237491102161 0.34936655565456437 0.018754183740390274
1.6170091425522468 6.811475753889062 0.32260475887432793 0.009243739058214817
1.626844939983991 7.128213378057116 0.34013937316574466 0.024184117079605244
1.623525414539063 6.9154088724813 0.33680915779868237 0.03182549935117508
1.6012102582697558 7.159100815784033 0.39699462016145126 0.05961439129991507
1.5959149993317787 6.835773541348454 0.3981229334576406 0.055179682039369474
1.595437738675528 6.912338295588269 0.40257457556044496 0.05936076798451609
1.6113388941876654 6.813292094802964 0.4000040288249935 0.06547483499356449
1.606158405599779 7.241546028191966 0.4058531944081015 0.031517909267499
1.6098971411904905 7.1625237593919655 0.3982892423795494 0.07139933663201835
1.598647487992923 6.993309131592267 0.39963070650645616 0.07899424531798295
1.6210513691277386 6.70559374198425 0.38748887813207905 0.0913551894634066
1.610383726916485 6.729770680900476 0.385403495772341 0.10204937886337001
1.605578214510065 7.040314597345212 0.39662791943852205 0.08031662006699122
1.597485925951473 6.757012718670645 0.3948224606957843 0.10502716555284132
1.6140299965084903 7.230808133389365 0.3968910122728327 0.05768260334666213
1.6083416703564593 6.931833215080908 0.39752889045319095 0.04592067443322709
1.6163085685159644 6.893631982275635 0.39976319301469376 0.0509834817647645
1.6130077601204904 7.22064915322437 0.398274676887217 0.0821307795570277
1.6130095132601043 6.878939562548324 0.3992770047697127 0.07556235358433946
1.5855697590263704 6.714689160784409 0.4010835712390882 0.04110598045468545
1.5970530989255545 6.803260780583784 0.3980152651929108 0.05440677939168397
1.6136614338673023 7.3890714129881445 0.4004646504250159 0.0917645013464666
1.6062287374347533 7.2960163211574685 0.39495378574845247 0.04837147994094691
1.6166994047316736 7.098227681386942 0.4001126590180216 0.05456148526354671
1.6168279337056681 6.844703451428339 0.3965625218125746 0.12983038960170462
1.6131335339337682 6.618625553899713 0.3929751537947706 0.13468829693644135
1.608134023182638 6.906618389878291 0.3982577613099054 0.10137098523542326
1.5993629476465936 6.621578380003027 0.39279294114622515 0.12822732544219065
1.6146928220338221 7.2047183165877815 0.405067827418484 0.0814815120139582
1.6039272407471483 6.951862888978595 0.39499122137611126 0.10441562922363277
1.5951137275173026 6.628318605055561 0.3936988502352598 0.061732709208201876
1.600838332986111 6.788767556972109 0.399429514087532 0.03028952015345204
1.6120096874832475 7.4602453470074295 0.39747264654247805 0.11837886505831208
1.6178337774186835 7.170570677257907 0.39655392693747826 0.04598452518387254
1.6208297177361652 6.639007722414694 0.38828242024809 0.08033763906779585
1.6008663745040563 6.681014637446647 0.39081469367164556 0.04817490041720116
1.6059207553847685 6.724175527328732 0.40167231375173185 0.15479599659877852
1.5983776290583231 6.765700329933463 0.39464609589364996 0.0785835851192971
1.5999542018884998 7.116926041611877 0.3928932020730282 0.07494140777190403
1.6067789164590025 6.921289987762526 0.3939001063734301 0.05105172606527552
1.5992028852884348 6.850446445133558 0.4018458224093849 0.09918176911824492
1.5811800682399135 6.65762512716425 0.39577497380197085 0.034946301083804754
1.626156357990528 6.978115848035965 0.39074329980391576 0.06094350340557527
1.6144134659195204 7.313707336929571 0.3982513971301494 0.07487331600623716
1.5862267184291348 6.686303628293433 0.399546040904184 0.05574298513478009
1.6044703191921406 7.481607699957037 0.3977088042189445 0.05512879195258372
1.6000014238719547 7.078759986915289 0.39579980117865676 0.03546016514522682
1.619866555218269 7.068732465240821 0.39602633701596207 0.07414363889697856
1.611373746404663 7.280980901876058 0.39393253463954453 0.03418724991903833
1.5988135754273431 7.260212493590549 0.3984006608706082 0.041848233687856146
1.6162788612865757 7.329500976970212 0.3987474983610517 0.04290690088768316
1.5849990466362212 6.628002641731328 0.4044010591914244 0.02802295672966563
1.5795235964925862 6.831378759119499 0.4001375816558146 0.05179608575383656
1.6131177731262483 7.536394903208347 0.3865156164854227 0.04220355955192542
1.617544044128403 7.174228887887225 0.3989030974416134 0.04445078585276637
1.6135825669160628 6.80293687577776 0.39300879488793194 0.0873601232562526
1.5916329129543236 7.178653902963184 0.399250544565959 0.040078776241916525
1.6106816586087749 7.537438810616382 0.40844261008270083 0.05464333992900921
1.5863342397330713 7.269928399111466 0.4009231467559588 0.02947684686014217
1.5963987877503374 7.12132076681719 0.4090327511062759 0.04791208256369478
1.6193317437760673 7.584183947517201 0.3898536789682853 0.08878964814505347
1.60834296300702 7.432216549043018 0.3991435070595727 0.1174630766372474
1.5817918460253226 7.446950998766965 0.3968821281258969 0.052033092176030964
1.5835968290770084 7.56390231600009 0.40046730925831736 0.03679597661579573
1.5950299785702204 7.283033952445108 0.39551858888462266 0.016643677148281046
1.5918684748349354 7.43999263696218 0.39610777682854037 0.08146791111636457
1.5906533648269714 7.052232367907294 0.398143125282776 0.045223654437086855
1.5909578998510718 6.89355353857703 0.4002562266044478 0.09836909946990227
1.616628494268469 7.44512673341754 0.3963256893739813 0.15819714702993912
1.6106272172899256 7.606114522409436 0.3947649398872221 0.08190292034338613
1.5739576042971997 6.66467435012472 0.40197539948052763 0.04905502308765111
1.5876408814766207 7.572636627203871 0.40296807535401613 0.057721876306211096
1.6020728557740656 7.3606411855774585 0.39479467112139854 0.07869880163965878
1.5899812396830184 7.528290335014562 0.40539480884555096 0.0413673580774262
1.5941303267615574 7.354160810601579 0.3983887691307365 0.0330007229487371
1.5880629110892748 7.2154318456722315 0.3990216614837545 0.06255946840177853
1.6129426899105952 7.553379780377189 0.40335985204790686 0.08215597623884151
1.5959994185955872 7.484061544146353 0.40803419985668765 0.013708468851404167
1.5917645831763185 7.334033456630725 0.3996836235537667 0.022795299231525793
1.601008902773623 7.258791545937557 0.3933512617673522 0.061001180545125155
1.5846034441094823 6.942770172474175 0.39785886618503186 0.023799013599877916
1.5915576010927583 7.413333122397455 0.3910920518351455 0.07726640288985938
1.610057014677289 7.376152888390995 0.40068959153591416 0.06274704027237407
1.592345719577861 6.970321118370724 0.4000684924837791 0.025194856590094437
1.5910345500376812 7.312004301567332 0.40137370233889463 0.015739571484377428
1.5860455683154038 7.367450734477296 0.403518361523079 0.017500759983042555
1.597535091375899 7.5114129658978905 0.4015366981777077 0.03448677765980201
1.6122543434875234 7.560653354916191 0.3974422143839507 0.08139302535427388
1.5799319808091463 7.417704991365237 0.3979204295320385 0.03399960464080137
1.575526633638414 7.352074668860538 0.40660709756195196 0.049541258862897286
1.5803361856069906 7.588991880592332 0.39561186541246735 0.044277602087716424
0.004357821399716266 7.8113849775857345 0.35811735072164813 0.007657460076880716
0.006838950610625627 8.338514283293147 0.3684677632252485 0.07304526679820779
0.013633291757526164 7.980104626450069 0.3720806906439904 0.055454579083150705
0.0012772956918269233 8.38252107095507 0.375967524962695 0.022704182645774586
0.0021426967897010193 7.966447375428523 0.3739115900603824 0.027491510972728114
0.007809736401836383 8.058662523081747 0.319348386834287 0.006734580880776407
0.004676657877778093 7.671737028257099 0.3789351113311304 0.019743959143270262
0.004172395500509376 8.014014569512529 0.3686249781324082 0.030595440553697888
0.00837782908141614 8.004201755067005 0.39689149638715265 0.04854938245581571
0.0029848283721106658 7.933482700575672 0.38736797712535154 0.0421745912730399
0.008933740014640345 8.236051996549863 0.3596315345631751 0.018738505224313997
0.00827272259379577 7.652806651108593 0.3645210874330381 0.018825097304651442
0.004523883933523946 8.433715297653313 0.40073562996052936 0.04099051115002329
0.007908224334534591 7.774018298537359 0.3459069205017328 0.0070438235480373475
0.0027311202744212688 8.02089588686439 0.3412659781599001 0.008697611919507336
0.005262610190665275 8.400520582239787 0.37417109040764185 0.017873410135102408
0.010861345909423017 7.598242213755236 0.3289669563062131 0.011400879793558407
0.006199737115429256 7.832356687095862 0.39013847982204575 0.03340817027227783
0.002898819997076944 7.72685334566798 0.37597406228284413 0.04901169368297792
0.008007380126677968 8.487164725253596 0.38545162567388624 0.05418317652810231
0.006989764487589791 7.615516036956096 0.3357483123352208 0.021099493873546808
0.004332408348717403 7.79811686912171 0.3168167887824884 0.015185396434529336
0.008545546603706962 7.860150189061879 0.38870192809001625 0.09024311167411014
0.003855900490308998 7.850920100127668 0.31831671941012085 0.013498692800387544
0.013673022348750516 8.49508269798828 0.3930842902928371 0.05180762793994255
0.010895939464198492 7.638278402689387 0.3130841942383376 0.03689055208853893
0.0016887070490051986 7.832578626289131 0.29570511776521774 0.008918521388428515
0.005221748801720197 8.301013518963135 0.35927974426787174 0.014320134305480514
0.0004538672198920717 7.632535992062737 0.34678741895276527 0.021288929635067563
0.0007585831711131533 7.687051128709163 0.29185833561599245 0.03347486152697235
0.006389518539718182 7.801692269844576 0.38626715791812605 0.04060130817113468
0.0012910088051613098 7.6176865668364115 0.39949862054666013 0.05154427825417663
0.003122994920691039 7.665339779341348 0.323928192311311 0.022672172099225212
0.010161968447539178 8.225399579556939 0.3899387660997785 0.0841900696791637
0.00041312974666059786 8.427581728399279 0.37773448311235974 0.025335669755896163
0.0022804396664195268 7.620700029884062 0.3480284853709368 0.01781251943385007
0.007130391608696169 8.285885373968803 0.377386117007508 0.035283751704507677
0.003760572232317704 7.766696186654783 0.38321796686442333 0.05798093539804283
0.012393462748406948 8.186734426030178 0.3849514170069148 0.09310860691799289
0.010819930342376398 7.896555477788462 0.33999094975270855 0.013103059780528956
0.0023740377920190413 7.785777532220102 0.33355526331571067 0.013409651177815275
0.010179207886656102 7.880150181684216 0.333638983913805 0.02472999789814926
0.003195573940495568 7.696606080217353 0.3037446669420398 0.00880639458749666
0.0028087416071159487 7.7531678376457025 0.3574490377442509 0.014887330186852326
0.010197400884828657 7.698221338989052 0.3293331492559418 0.011889212466528425
0.003147712437484945 7.705768757443666 0.332168727783517 0.016436112729974837
0.008409142669659597 8.019288887388766 0.3513759229989783 0.006851958352428607
0.0082621801368645 7.640802566794251 0.38121004297247757 0.04416557825956059
0.006660020154325186 7.634516519745379 0.30210010723311587 0.03147022357199216
0.005169110035818284 7.829230897836717 0.384000205106115 0.031848375797423084
0.001740689022417005 7.735097908532957 0.338986811772216 0.010837531444466126
0.010990351856315663 7.765232281911218 0.3920835000018397 0.04448952033690769
0.0006678261470703765 8.002315543484706 0.3262992148484272 0.008790565021754836
0.0029099212139775234 7.8080473829853 0.3712661872906236 0.023939459776441647
0.017550597633744593 8.094373555191817 0.378878963562211 0.031081926425085376
0.0015358016633287529 7.70907756027575 0.3165101083516539 0.01884613336675089
0.005333907489934293 8.233076789801201 0.36756111422568966 0.02547858609143069
-0.011007765184029537 7.65441754208073 0.28941481632055815 0.008756033819493294
0.00432162718065597 8.298762214061705 0.35324353264887753 0.008534397521862988
0.006127142941578649 7.782940684309834 0.37962546134084246 0.04941379073028896
0.00046122944691437667 7.717683411167337 0.30149426429584125 0.022672133733545836
0.0017943624777534166 7.725913194602368 0.34769249463685986 0.013616876397834878
0.010996264156892376 7.978567376517732 0.3117860814400657 0.01323332494595612
-0.0006289909631730425 7.847718114964079 0.36132414136241175 0.008120978192887969
0.0047496549924153485 7.7667455009621555 0.35637081023021033 0.01243721672755777
0.008361154704748814 7.978438643703591 0.35265669770270525 0.016922404010999176
0.004580379113883316 7.7016686431890085 0.35848062355161564 0.019360402275989785
0.00545938943592428 8.053141801945893 0.375276428713588 0.007549427545125427
0.00809135364222101 7.753493475761511 0.38075066702956445 0.0542686237948914
0.0024854880979532992 7.91820921607252 0.3488875012332079 0.020757203326522183
0.0060474156131704844 8.020438529199613 0.32742171429257266 0.011527467547818526
0.00607784514077706 8.034444285699438 0.35094101378602255 0.008390481137553127
0.0019017982646137212 8.538355724927204 0.3942612558586078 0.029341991270425766
0.0020436567531298203 7.839299785863588 0.35418074275770484 0.008211816714096088
0.0012721601795284906 8.107559085859089 0.3426414365542595 0.022138721427914412
0.000842995289623073 7.702600648508524 0.35588738926595587 0.019516306970373282
0.009284939055200444 8.055032785344471 0.3893224493218783 0.07427428979727863
-9.706408448032205e-05 8.099654011042224 0.346092960759042 0.013762411588964454
-0.0021150951530136443 8.128584888655825 0.3497151344393233 0.021882907720186
0.005594347326632868 8.210345871865679 0.38732491753178133 0.06210468795320141
0.009911203486504183 8.354183121672824 0.3632782035653156 0.009287313052445201
0.005252881498107765 7.767265142339377 0.31856338689598585 0.015808559210199705
0.0017361780137055633 8.081607469888866 0.33151259906474184 0.013188643084725228
0.008647752572769788 7.853694906238942 0.3064805779889855 0.012805677586579151
0.008596726631938799 8.072479544883187 0.38619659103473425 0.017410730099483743
0.001875629164285457 8.31139800985846 0.3862035834422148 0.06968636469143971
0.008392819069456802 7.727129872563838 0.3870084149896716 0.08308402708746017
-0.0034015363686709325 8.180256865744452 0.35044986796373745 0.018845385138785344
0.00703932831004505 7.864386422128348 0.3331764274930934 0.01752133718823525
0.006820793558190215 7.696747238346886 0.34295550114366585 0.012590293535477736
0.0032514139633197416 7.713822337660898 0.3088197968732337 0.013310157724716925
0.010325980004184903 7.693591350717853 0.3362536479085296 0.010500702145371594
0.004906426357319776 8.023091659775655 0.3865187465205097 0.04655188294327678
0.008874753118036604 7.745926325925397 0.3318876370868869 0.011017327184027174
0.008613958339453567 8.071033262762809 0.39571321887154154 0.013333262953416015
0.0025894613744055564 7.820668710757539 0.33074907184564345 0.01200164078702409
0.007847691371767369 7.658414399150022 0.35918338378354225 0.013374013342189663
0.0018560910827618658 7.675711040896433 0.2944268280397691 0.0364880473179809
0.006709196436141049 7.617564089618185 0.28384339137171716 0.030904996531172978
-0.0008695930102608487 8.357799758057158 0.38191575106693454 0.06071118299194124
-0.00026391883300363496 7.831563149817919 0.3373382363330145 0.009336476837644938
0.004579226364131673 7.912518770324559 0.36954274668036097 0.015355208865897321
0.006006901787689548 7.723940327837905 0.36016020477216676 0.017587425157002443
0.0007742301194101839 7.734023105428602 0.3020198836828595 0.020233764138832953
0.008935288850929594 7.763965090124122 0.3653816039108803 0.04347637479438784
0.007462425403296218 7.958490960601463 0.35803453277196245 0.017090469444423963
0.0031799401318953033 7.8644535474863595 0.3571537378380527 0.009766283716115116
0.011576176041738481 7.648765534081398 0.32753792951911304 0.013150522574699088
0.010076690379873184 7.663523172108374 0.35173345378391857 0.011972658013884968
0.005118953138242129 7.873321014378472 0.34612723812504925 0.014885891736986727
0.005548157046435088 7.671082700361798 0.3021203704681327 0.029701272213242032
0.008014906536944309 7.819727015896019 0.37604871768252 0.04431099007642979
-0.005558076168103989 7.950834693339478 0.3515436873556154 0.009174599522835877
0.009965012398642356 7.7370635599449065 0.3545616185566307 0.011244665730682708
0.006473215994385113 7.6258849638949835 0.2707514010029275 0.034806902842378834
0.007772753875569107 7.654684462322851 0.31517347695767184 0.03878829990629125
0.00890211098040293 7.903946789535271 0.3831003888430613 0.04032368670798399
0.008926097831770726 7.995308989020512 0.3822722119057709 0.06383264055051917
0.00030007657714107953 8.51157907047835 0.3832531233685504 0.045307698565499294
-0.003606237548229462 7.914899607334618 0.3093643820703494 0.022970640680644396
0.006893916662066111 8.437885645276053 0.3860144171715507 0.04743071399420876
-0.0036544488020651272 8.144716025839863 0.3905153629263236 0.015008149895590708
0.0051230392955935915 8.186031828460031 0.3670012249413766 0.04719984869479889
0.005912519502149362 7.740147295761887 0.37962988937170916 0.06512512800427944
0.006998511577842711 7.681337875218714 0.31063157250758244 0.022090711305027582
0.005881907625343878 7.803348334424665 0.2872555127918236 0.01960566620524154
0.011860954920635644 8.092135938646084 0.3670761647109751 0.025488923749860535
0.011635412585467547 7.652929336169319 0.38084366285386423 0.07640051554121038
0.0026106485389728873 7.652322392705634 0.35101300654314493 0.014254883546900446
0.00833440477658169 8.195563092765383 0.37423570288746877 0.04405034220198501
0.005012188287326717 7.979054696315163 0.3453206116239672 0.023589977266159416
0.01186438667596897 7.687968834403615 0.3778463926881976 0.03765744980480104
0.011260115489429078 7.76874969258067 0.32773577162647993 0.01293512927906835
0.0064607131182223415 7.80288632608732 0.33706361033754145 0.011742169810901733
0.007320795510570976 7.850568936227715 0.37086219963286443 0.057989112446648186
0.001409705255124319 7.782391787898797 0.3543449975253219 0.007530108372119756
0.005165865634393542 8.059715620598407 0.3418685307180878 0.007148692411481618
0.007373797148140229 7.886072651266725 0.37445553871532533 0.0380359035530241
0.0010815452498308684 7.901116223914365 0.31750254741878225 0.02342221839845421
0.006896637532194655 8.066125257637294 0.3564232145311909 0.013697696476959408
0.007313635635259535 7.736727756499665 0.3261273878805507 0.01422926457666543
0.004325985855036709 8.323649227702285 0.3634203524148111 0.027212755443307455
0.007961771795132576 8.165406628645801 0.38266825122250386 0.07134663604177988
0.005281425765311688 7.760697636827011 0.3013315863092429 0.01846596576845564
0.002004772365077117 7.868204797067657 0.32745398661763825 0.022333436259932508
0.006892383139413188 8.034318706916366 0.40067148599845415 0.06811164315281346
0.0033914788210289205 7.784860031551581 0.37886693837400914 0.047719582343010276
0.0007886822180524344 8.473455131644242 0.391454118008983 0.05260495452344122
0.00923523803218817 7.626053353764897 0.2744488599194235 0.032236754895332176
0.011320408898424054 7.632025121990496 0.2833324053964045 0.04125483830431282
0.000243277237592026 8.051207708965043 0.3447772325517252 0.006759312509622243
0.0049784644425417265 7.667171029473284 0.2736838131842865 0.05448932879461229
0.008679988965283714 8.118340656935363 0.36435656482242973 0.028192340410298427
0.006241949316926827 8.077377927405903 0.36858563002707007 0.011644297511487338
0.007244065347694302 7.9244459291493445 0.3710413114685568 0.01780224104949913
0.005978637861069666 7.99832154982035 0.36183256815884907 0.008298622217563405
-0.0016768306979566844 7.930937259475932 0.36531734717913983 0.01904616264857821
0.007856976122236639 8.458036301525919 0.3768725445845509 0.07420164010170023
-0.008017492116237462 7.910790002479876 0.33545731251810623 0.007023942928911208
0.0025673549921497443 7.79460691953107 0.3693920486109003 0.01985809075667941
0.010540120648504648 8.192243498501126 0.3519198413093884 0.0282819420565528
0.006988436800200876 7.662214834219034 0.3137295682428019 0.026797451536237544
0.004486307213251496 7.731611714615901 0.32247155415183276 0.012761197077400782
0.0028297258888946623 8.161534773570216 0.36022535244349824 0.021258053914632563
0.00031789423101540124 7.622047343518548 0.31003287766568416 0.015027737079997223
0.005532080547178121 8.166936865196124 0.349955488186118 0.01621729664049032
0.0055031867879613595 8.023475599239035 0.38761832940851043 0.046994447776603984
0.0073671783395418255 7.780529027784785 0.31297329467359464 0.013401889801627292
0.0038771204268071243 8.258453847941562 0.37670468026189186 0.05655379728356417
0.005554277441842634 7.70217120745588 0.38922079144651306 0.04933467330863989
0.00724228680899744 7.873846422128161 0.36326713488511303 0.01119562274059408
-0.001384787762982725 7.867293596093169 0.3137886567114966 0.01038101922148148
0.013048684324659499 7.718846210036238 0.38185825304858806 0.07871124304842855
-0.00013874643834775689 7.7900321711946345 0.3026079366239294 0.01459836540332011
0.01367381122682335 7.661693832180297 0.38060968281621094 0.07255033975511602
0.006147508502121972 7.632366357361412 0.36478638716995243 0.020253804020657594
0.008047285378651821 7.762410868864954 0.3388901076264873 0.014292163062736602
0.007917488185004061 7.785735912532997 0.3201142901474632 0.014256345010705879
0.011284380703530623 8.218958086518738 0.366407326122154 0.03985567933248596
0.004086236340395412 8.327343270196573 0.39034061388226693 0.09228838537365254
0.009427543233535493 7.9563612417653475 0.38205518184421355 0.03448084891981454
0.008362752379575615 8.181794379035772 0.3754793908295674 0.06073839819798111
0.008349077814029144 7.730980007459789 0.3905217938707529 0.08169142960725156
0.0023928287027856323 7.745256060997126 0.30400260781689037 0.019491735040427925
-0.0018172690450248283 8.260188426165943 0.36134414515109425 0.011618611094946347
0.005504008322330089 8.422245346281247 0.39250266571420167 0.06088128701709895
-0.00011696423181002235 7.906118168903477 0.3093752297018523 0.02638965855346711
0.00881324614651491 8.217012444956216 0.3452675257932999 0.014111619452832447
0.003536557921904567 7.634658586797757 0.3316726078467054 0.015179513662689954
0.00510133045823386 8.403189886933456 0.3780966496154897 0.01864558034263383
0.006917892229460298 8.075533815852676 0.3472323574627572 0.01788539338609982
-0.0015652358408493657 7.77595244303065 0.30063758874741164 0.02011478859428688
0.012881909409955589 7.977290427869848 0.38989186878870424 0.09497050926006496
0.006170960487790401 7.686980261608268 0.34411751135038965 0.013390993414375486
0.005613049367217623 7.986234784377152 0.3265874327521359 0.010376149378919043
0.008999541789520928 8.21503540928356 0.3591793207848963 0.018550558434274493
0.010074024058534081 7.795808015569591 0.34545725788536746 0.00664199257554879
0.0029311602326113177 8.445554711427874 0.39350090595752996 0.09987924734772842
-0.0054572617141038365 7.707430592427659 0.2943470208606633 0.012019888356764104
0.00995841368437722 7.735924144785864 0.3516924350186498 0.012802605941979715
0.0008492268367853136 7.7388296647133945 0.2828785628086779 0.030714602593793057
0.005950763737414712 7.991123502160919 0.34616441678927184 0.010868296980726814
0.010169242974285515 7.641660748567751 0.3831557137579279 0.10129926112017404
0.014053694662400883 8.109854084816433 0.3830837107927139 0.05324140665598397
0.011425397061038563 8.40022798470582 0.38082202597477427 0.021685906078254973
0.003011537293094683 7.95313490654887 0.32340662198071835 0.01116330122407069
0.007799628013237728 7.892708270686106 0.3834868066777427 0.040369724498963665
-0.0011825506577782287 8.137913859880943 0.3635402047355479 0.02652720607105074
0.00732288141907339 7.96454318906361 0.3528612957374096 0.015873028443864262
0.004591180529530306 7.866430416177195 0.3837409818608972 0.063337513078958
0.011191807637187077 7.858000220708386 0.33920836664054027 0.01200608233680879
0.006995442371725463 8.017369154575436 0.36888250808616996 0.03446017835657367
0.010059492730373026 7.889507406684765 0.36122321666792157 0.020846383057323035
0.00426664363206436 8.268732440266335 0.36631803061833573 0.025468293225013934
0.0037672063197401813 7.826165043833058 0.3793284975832361 0.013305265508955763
0.00333673665069189 7.619586186338887 0.294835050070486 0.037822233397477825
0.013954056892511144 8.118441082862535 0.3742288197566065 0.04280130195953049
0.006499293079081965 8.043995456047867 0.3511795468875054 0.00740762439347644
0.008661010208565304 8.312776377138617 0.36315167531329606 0.029893038064677364
0.005618134450796421 8.300464695285468 0.3650551866995375 0.023743679554114962
0.0064257913901150385 7.814598537872197 0.30756874275404933 0.009897051516553153
0.003791329230487969 8.273284496926252 0.3972160196795949 0.02825913498295529
0.005764409388417947 8.07383548570299 0.38075702445582377 0.015796436682917858
0.0002835573741160344 7.67063706345644 0.33847531655810564 0.011581088560067999
0.003650187083168015 8.034840298939137 0.3675082245920945 0.007638500360163907
0.009610090945439029 7.999216523883533 0.3411067559993304 0.009920419563967485
0.006496017676164525 8.008793266616442 0.35695921476081993 0.007479603935955362
0.00044642927541365535 8.137533949590157 0.3271546282609727 0.009426346380790958
-0.003069026048285817 7.622009992123619 0.3783964039396522 0.03153952479552929
1.480506359456072e-05 7.92673719137068 0.32184778844373335 0.024131065774940102
0.005016761668680876 8.128555709678073 0.3676079398144841 0.029864373497008538
-0.0008462078520779931 7.914225771668368 0.3549044482657934 0.014909520955976197
0.011823756624955268 7.7432325296916265 0.3150427982291114 0.010196783706097778
0.006153514363052061 8.039981484896932 0.39664250860946987 0.06018843056558402
