x y z curv
0.1821986400393848 7.046305936070608 0.5679678113319901 0.0008487153004074474
0.12956034319717394 7.048241110431071 0.6316794195673416 0.0162206215943053
0.06570801198920369 7.0495848646250945 0.5749165160035554 0.004073556116940653
0.06130402012250407 7.0493255519303615 0.5812817757068862 0.004967368283309718
0.10519764340843075 7.048333617065901 0.6015046446730699 0.004449009251167494
0.09433423661181971 7.044413584924706 0.5814446413249065 0.002441637817725895
0.14271878514834854 7.0429040114367885 0.5881561023166664 0.0009427931164451623
0.05570894419091985 7.0460120065016545 0.5944067420119897 0.006160531445194842
0.027880329931618625 7.04557438109726 0.5664611712093197 0.027588316466096278
-0.00013315184218364116 7.045683217878411 0.5987555902023368 0.026530928332693094
0.010332526804012889 7.041067119482164 0.5161635416607686 0.03984740683675396
0.1427590136425713 7.047088740585767 0.5348275602934309 0.006385272699286027
0.1605040498567522 7.048931482059546 0.6216379080674116 0.03017101590882292
0.12192799866688413 7.046095195494124 0.6001706781705831 0.002795449869435349
0.07984926990068157 7.044868857146206 0.5852860284891653 0.0035200611184857773
0.010845292249772227 7.0461458674337525 0.6176834900928012 0.05144121714280857
0.02803687344285248 7.052062933803786 0.6275845427427498 0.07631690949554633
0.20999924496035088 7.048503667744666 0.5974208828301394 0.024049316155986093
0.11977961442321085 7.048778918723391 0.5369410835918856 0.004809616226526777
0.013471512944086815 7.041793752725125 0.5420254079511522 0.05136545733402087
0.12242671688014331 7.047743973509977 0.6219014788866717 0.007231309332215817
0.2213557114011286 7.045298370118082 0.5096954573329459 3.7475228380919045e-11
0.01215517970998673 7.044402666993384 0.47700439774118664 0.07283812422783326
0.24107917732584533 7.041978807509474 0.5675575049088446 0.0011509026931989974
1.617948139518646 7.046933638214262 0.6309511507218676 0.0033766867183840786
1.6842718704653137 7.043670202689126 0.6362119319300706 0.08423807155454814
0.17548112180088463 7.046287601849979 0.6264926521123549 0.004811307162832399
0.14779976116439025 7.047371313187562 0.5200262482844336 0.01317187357604999
1.52858017679441 7.047045199477591 0.6234649070101409 0.017669265827943703
0.22171046914977607 7.036225962296248 0.5634597731805737 0.0014163631617777922
0.05540673212391884 7.050075063635484 0.6150869732767356 0.04282084381046356
0.04477819829589329 7.042851481964335 0.5580280571561003 0.005050171545714924
0.14158817827928585 7.049074609190936 0.6074141983102146 0.0017246229030178021
0.03317209377113794 7.047128386026459 0.5727649670096158 0.01215620779006272
0.1397861447714895 7.045994014641552 0.5609942986821083 0.004900602533614734
-0.0015873335962321641 7.05186014998297 0.5439192442357078 0.09427768668821088
0.10423514110367996 7.043960664156055 0.5038329088205216 -8.642511524547734e-12
0.20453401080593803 7.048288679824072 0.581132208777203 0.012213238561163055
0.10173572239591894 7.0470505505396135 0.5598649979460157 0.0014616547959067881
1.6580347904299224 7.0454324272611455 0.613503018017425 0.009211074585042481
0.15736284346002652 7.046166122949633 0.5065545710277535 0.002188143257750753
0.04967620356780614 7.044792126645806 0.5049236988987119 8.751002923680251e-12
0.17290045041672208 7.0454608457316406 0.5035268540489157 0.00554076166797838
0.0933046637418715 7.0461081543491435 0.5863632122354924 0.0037319105095728468
0.22130957808126409 7.0484658199337415 0.5873768783433913 0.02869824683801684
0.2523864569493346 7.044301930953544 0.5808424560119841 0.06829456619401315
0.18927207529712406 7.045592578393931 0.6276722039732532 0.006507244648398142
0.08680226463069877 7.045208520136827 0.6239156908985097 0.02875783061933192
0.14056270424684864 7.0415301199768505 0.5479727980570829 7.819861086776023e-06
0.20149673769020784 7.049292631577905 0.5918786248825454 0.0202574725942404
0.2706876516291651 7.040027848947033 0.5089319169811198 6.680089239741223e-05
1.5719967663312944 7.047770170174029 0.6308650614529845 -1.5344470742085985e-11
0.15554485294144013 7.045163858375747 0.5536399014441713 0.0038186646633343656
0.07617570832669818 7.0461806019642435 0.6225600131516775 0.03283476053563483
0.07729836502360013 7.0361368855015245 0.5275193674830098 -1.5040575906779172e-11
0.1340059069603211 7.045747255621409 0.5811096861787876 0.00326082103018497
0.20888302959537927 7.042142783766527 0.4938385336777492 0.0004765656596936861
1.5563249173930436 7.0506898327092955 0.6418105134565794 8.553454774502217e-06
0.1828811947107547 7.0481598776766345 0.5538069884698122 0.00014169954188478413
0.13900180708161816 7.0380668663201895 0.4929219900543928 5.7364750886815164e-05
0.2344120635142254 7.041817233436039 0.5211367888345143 0.00536523884807824
0.17613129137414965 7.04530043561575 0.5782301325413954 0.0006312527811422765
0.8181046204135188 7.113226244941165 0.4786442205484512 0.042056972931410565
0.19828016607446552 7.111513435459117 0.4740018831548783 0.016979249571625336
1.1547387033020113 7.105644991130665 0.4670692370738949 0.024853482332565832
0.17859847642617052 7.108264075174342 0.4814162868536625 0.014357473879288495
0.9481817235462128 7.101072459579695 0.46940956504808823 0.03954165221664982
0.6755506476650296 7.093535886619073 0.4646878305314164 0.006321270511908623
1.2842128920087463 7.111066859114384 0.4774259163341038 0.017323122429113703
0.020855495471197645 7.103352915386731 0.47595294810852545 0.08615500270724052
1.3320020157786097 7.109305465120525 0.4695609008693443 0.011994100551975088
0.13776175999152065 7.11303852871526 0.4758395662504031 0.04639735183185527
0.7108139552545294 7.108422621188503 0.4684684500832019 0.04680881823383375
0.44979843181628715 7.100420913398853 0.4726613245989569 0.017376157164333293
0.35902826110583624 7.106741194337814 0.4655748858752277 0.00456076448898284
0.32785318073782427 7.111066857319605 0.4701775587168229 0.004361774526375087
0.003337065503907746 7.062449267470822 0.47645369848916896 0.02229547391823322
1.230817802466584 7.105795827382288 0.46515389850315897 0.008570098513346011
0.8574142667884361 7.104371596291105 0.4659154372545155 0.02576619339000419
0.010661700756843792 7.1009661849183745 0.46517197071082955 0.03227491376982607
1.5741546144613707 7.109028142929566 0.4704017337577385 0.05913033356781237
0.49287995684190344 7.106404338012114 0.46787571156888874 0.016487989941073866
0.3475699209313063 7.107309621513902 0.4585709121857736 0.0021072912358695594
0.2343214550850063 7.098187211222987 0.4744206482804465 0.016143024975932126
0.26046253886854565 7.101798014328596 0.47439797763541847 0.02246366460072585
0.08627866384114209 7.097883396708221 0.4677460030433957 0.002894258266238445
1.0708994663340525 7.10745397462718 0.47078258781804827 0.0033410592980052884
0.7242213657252471 7.102412014836879 0.4774354936026702 0.030397504457378096
0.9667041366441578 7.1021492699593685 0.4692595016727379 0.0270519732422708
4.693342804369758e-05 7.085792941038959 0.4765007448506364 0.020410998587412917
0.21051226157503766 7.098202219774184 0.4692699154069144 0.021122327763771907
1.4299265486259636 7.099220804110044 0.4712076349234336 0.015551832616636773
1.453389169222797 7.105649830596087 0.4690148683452525 0.02675547539439218
0.43927331140831766 7.105847750823516 0.4673916030444725 0.016600173604707294
1.0036181369001418 7.098209619278783 0.466691127015152 0.01693126179069876
0.5677781044164182 7.109133051583622 0.46905802305390387 0.028783198044842508
0.14606984329883793 7.104271446723529 0.4687393155206553 0.041214720163135356
1.2962448918868659 7.10069511103825 0.46658360358838596 0.020103397262721825
0.07566175313603238 7.107448667126125 0.4734800769965052 0.022050671099380366
0.2705342688388961 7.099086144677775 0.46731278554123196 0.023055605376612644
1.370356238742614 7.110058845895894 0.47147756864777857 0.026900916172337516
0.8369412765847459 7.102058600916081 0.4688741830080554 0.017892636226059997
1.6592945477920213 7.1101518974729565 0.48255176563010405 0.024553364612845137
1.1734440293495056 7.095756967977077 0.4757956591658337 0.009019922138646786
0.9733721557884107 7.106943259758733 0.4725567290820084 0.025812860251904973
1.4982655539510998 7.108352727884698 0.4772957897748727 0.012195795947031745
0.07322750798166772 7.105012068386609 0.46747505285273344 0.023865518278372553
0.4444445548435521 7.102999311340593 0.473900960525412 0.01810915505913475
0.2855524982634501 7.103461173853461 0.47614514835863114 0.02636034257795005
0.5907721237253913 7.111474607872183 0.46559008186869405 0.01442351364337647
0.3125377413140714 7.108681544226938 0.47250509285377473 0.018925825157929278
1.730328438503746 7.103301078792376 0.46964576744653747 0.08424054721576164
0.481887170531215 7.106884554807701 0.47651207422633957 0.013093642947267345
0.41241333473714037 7.099478377688929 0.47007835118395996 0.00784084611080713
1.2039881518250555 7.105194167884524 0.47224956999587286 0.027084475125958424
0.6787682449462834 7.108657149628217 0.47850964061634466 0.017068575050469926
0.937851239112667 7.1094039532682825 0.4813711127584853 0.03453505389516815
1.4636205801608524 7.043354693903786 0.475194829764248 
0.06885538892000898 7.03526019333477 0.4763849184827105 
1.7368275856389592 7.048226386134346 0.4743978847414654 0.057932367738232744
1.527772262390485 7.045101039524283 0.4731230255791608 -9.690787230118095e-11
1.6006433380299012 7.047992441977674 0.4730687070686655 1.0441940132111042e-11
1.5907985209324071 7.094842144270319 0.46820487512321207 0.04058717326886895
0.2653048917320894 7.04536677479169 0.47122073088876965 5.404568532993308e-05
1.5667308181785138 7.102072097185838 0.4738414835569706 0.043715872792843335
1.7386008494991574 7.094021079774995 0.4672560558224535 0.06974333646894751
1.6697377716506068 7.0962100860242465 0.4627226782109375 0.024419683965649357
1.7077897780595577 7.097243105848056 0.46609222524096683 0.028215585278647683
0.4965954077496643 7.1096834840771725 0.48389287172403833 0.009749441887794892
0.7588925047108454 7.107472160827637 0.5055963584250921 0.018957726562496457
0.7002496524442957 7.10732407177658 0.5267383548409948 0.013980418677568168
1.2284737582089729 7.108141299474736 0.4805216462402141 0.014223389110220804
0.7639261571107706 7.110094994519856 0.5264126085540431 0.00720424115330727
1.1963669503907624 7.108668873114422 0.5584203183785407 0.027585255681285965
0.5405494614472298 7.1070175587777475 0.46809585206944654 0.026018241498862792
1.2967715774262367 7.104193435774135 0.4875503116740015 0.018841170341793122
1.1579426341216434 7.106402562262473 0.506126269246869 0.021370095295419816
1.3770261072100798 7.1076216242596955 0.501173365270941 0.018197572998360285
0.6159253137474914 7.101467644382474 0.5067812320075511 0.012995845348152572
0.8426276494745671 7.104833583936028 0.5270189962068397 0.01772488237156864
1.5268928466540892 7.1072474590491685 0.5943685517872185 0.015585352398256822
0.9503842151275014 7.1028187534390606 0.4791615322723848 0.024506078877207696
1.6980516432711457 7.106873274098698 0.5285459072571563 0.020210384309217847
0.864673514406552 7.105896156958092 0.47921243719346795 0.024270075590888666
1.3305265105604949 7.111513717888476 0.48793171663722956 0.017073327503217214
1.2965727214935807 7.107682463841455 0.5857421177265268 0.007940350816765638
1.684925292566981 7.111787741994437 0.5512524062819858 0.01879470927728508
1.6423563479799008 7.105329601302301 0.5175760220308693 0.014174211472338534
1.644705076719903 7.103185907114881 0.5979673651097204 0.05253681706395822
1.5115725262395419 7.105762731611319 0.5912040131451967 0.011842993701247657
0.9334478967089318 7.104048607497439 0.5236692271187919 0.011452877599992244
1.5798837464398408 7.109654174998817 0.5067961567221152 0.009671022908423439
0.5629979468054144 7.1086720086615385 0.4997561986672361 0.017987383556851977
1.2706933376481926 7.112713449251074 0.5384989290465421 0.022617027217122727
0.8285602787462135 7.102133021176699 0.5495229540115493 0.02072117698812466
1.4935200498295915 7.104960212670878 0.6032069629232878 0.02205335212659481
0.2701708102291481 7.10307487995855 0.4863830786512338 0.018939905621488666
1.6423814307317262 7.104696880800457 0.5873769777838339 0.014156028231870718
0.21771830840140988 7.110631834542581 0.49919482160162876 0.016927291587264477
1.1423764438514459 7.106124170515903 0.4884537197766136 0.016779510170994973
0.8823817844309825 7.110410194472893 0.49534909470604244 0.0319577749804068
0.8110809105631477 7.108173010646084 0.5264810001496251 0.02083229550073959
1.2185721632819353 7.117835277228079 0.514492622176072 0.017313974155250413
0.9744552407460328 7.107142149988228 0.5534783518122471 0.02189248378654832
0.9692011233327086 7.102515554802675 0.523664760319311 0.01250807241491443
1.1346502131147052 7.111162268553576 0.4716341829856659 0.017208187665161898
1.6696866684444733 7.109419030161443 0.6107206578809845 0.05011022570570054
1.4304471445730387 7.117970004755663 0.558979011322302 0.021870446688547117
0.8904856095380923 7.113533347699137 0.4835079788966316 0.03627752245823074
1.1252313261412146 7.10688338348778 0.5307058839371432 0.016176918709799266
1.5936619001180783 7.104753685422506 0.4919232290713351 0.029109799142488287
1.2571786506174365 7.1163556135123525 0.5111584520856324 0.028431983832300334
1.2372775827223952 7.105541678563446 0.5754217274547945 0.02210640601173603
0.8106172417199689 7.111468295278576 0.4860489759458799 0.03970634651434421
0.9540116628402204 7.10004956160427 0.4915151410206517 0.01700850261550595
1.4990709028196902 7.1095985632471645 0.5429364323815524 0.013396713040670175
1.676351265633737 7.11005598009791 0.4718877313807309 0.03780857369808487
1.6856212979765364 7.107963097837626 0.6004011431107183 0.020417836899516314
0.5685966452204595 7.103849357249377 0.514044748661477 0.014766291817855756
1.4232694935560228 7.104076013271998 0.4922393083885665 0.023478242985864404
1.0474898380609943 7.107440257836376 0.5570441017507161 0.01640194947395022
1.1186331948603627 7.106576571726899 0.490835933270221 0.013930529223193237
0.5055648816951974 7.107365024282547 0.5055745164048422 0.01019232732170177
1.653132865094632 7.101558872346087 0.5248380411879437 0.013465959562929085
1.7185986182061173 7.113264177320302 0.5620508688613396 0.02321155368427168
1.3611866192159572 7.102782679073903 0.4989555627051129 0.021894284998645458
0.7986206473032423 7.114595545476787 0.5320100457972022 0.00870432276865499
1.0698028809369733 7.11014836862504 0.5431505004010933 0.01799920127746914
0.948086444518109 7.109713509263803 0.517379212757194 0.013454925485263903
1.2271351952934508 7.119107585815049 0.5497749279336818 0.018300389683296628
1.6704253365922517 7.1115725277773425 0.48287921131618955 0.03747939026964086
0.28599901456038024 7.107419527942047 0.48281819114582036 0.021441352352820926
1.5031285729849437 7.113920212404157 0.4727352880128339 0.01433582296378734
1.7340612047230959 7.100769154137276 0.5999083650460152 0.06896827809502028
0.8549748995041605 7.100833161086451 0.5133124120866269 0.01622433129377553
1.2618578561200375 7.107677574472825 0.4810291242114742 0.01218467503927019
1.4065037998047896 7.1056315002293005 0.5603957959794107 0.012678337382219709
1.0248889995049841 7.109734731175156 0.5263931825734538 0.012329169643326372
1.300302879681929 7.114298034022637 0.5403111461024093 0.01943010684257352
0.9619473914573085 7.1053808580341915 0.5415434250511547 0.017006888086411938
1.4631361667836598 7.113357182368765 0.5176353227578467 0.01462085182541495
0.9339435812008732 7.108277859683319 0.48958332307729635 0.026263942650591426
1.4301500848031132 7.1041589839049974 0.5272626046944403 0.014934931138303402
1.6817797707748627 7.100817585939908 0.5236866695094448 0.01765241551054034
1.0840549463593132 7.10931113740735 0.5178015611893801 0.017678544398025107
1.1654513337387054 7.113460514354696 0.5610425054700066 0.035048391615802865
0.6526860172842682 7.113459254373777 0.5046477733138258 0.023058825328431294
1.5525809090003395 7.106274485386349 0.569318562514886 0.013909897463517371
0.6543781512098388 7.102767871661626 0.4887433345824311 0.039002472172066906
1.6956122513018455 7.1085440392975885 0.5511433977040755 0.020215600468352052
1.0626355583282225 7.099750491170652 0.5149351687292261 0.008804611818141102
0.16351769797820256 7.106426973895506 0.48598789666356046 0.011937108007725471
0.8332103796357483 7.11410622949558 0.5036763171304867 0.0253816883934273
1.2007796118917429 7.106591881474346 0.5295321652694434 0.02596986100748743
1.485374986064174 7.104893290900909 0.5135592396251969 0.014022249098043222
1.6114020482836335 7.108665904082213 0.5539837613691535 0.005071591179496187
1.2257442971970305 7.104779684957947 0.5254550788631797 0.018174038197533597
1.3794060826209962 7.108205252784214 0.5479133037239545 0.008087273133498505
0.3764245867876823 7.106476762272404 0.49195770591686905 0.01877193012890708
1.2085675032439642 7.110626187064707 0.48885237584487623 0.01877411939423231
1.5821896766027908 7.114129807309492 0.6144303781162094 0.040934780004080976
1.275035556275174 7.100666184105173 0.47312517632511863 0.022868375765538282
0.807822798928521 7.10278950372948 0.500318941630242 0.01982104184608954
0.1947240745952819 7.108659062415783 0.477635951066203 0.016397384292188812
1.5632631698127555 7.110922512448554 0.5481501498153808 0.00489316830797618
1.1518060207811054 7.09729646607039 0.5421389942051599 0.017232859160102094
1.0342019049011448 7.106235049633303 0.5069373194188852 0.017011320638044516
0.7219750433359312 7.110112104397208 0.5116516600118903 0.020120508357747584
1.6133984459285917 7.111064437875335 0.5024756507875195 0.0161975291008509
1.462651662944278 7.10450036673852 0.5412577246729487 0.018935518700500326
0.6427147787498849 7.108562058809837 0.49487668841225213 0.02128814785925846
1.3503406711980686 7.107145666186657 0.5953836288822832 0.019091415010457587
1.6209907004013981 7.10663534500123 0.4748399364273709 0.012076976062050498
1.6144162460227354 7.111761656687217 0.4893319927444456 0.01513466228767106
1.1697795706570502 7.114928449219458 0.5643023951193052 0.038303864252832165
0.29456178504683245 7.109219244487186 0.4945839755392995 0.015827527340136496
1.6672927570887315 7.107495522258008 0.5272837943238412 0.03828634792412303
1.5276765962242287 7.108734218666188 0.47616596984907383 0.024944616555315706
0.916127507915166 7.103597342905024 0.5049907606154832 0.008398726570720614
1.544970696467199 7.108114505928782 0.4783229426775746 0.02623117563545565
1.53572199447377 7.103395893544598 0.4869696632200313 0.018103301726771645
1.5531853407223855 7.113082866746471 0.5929533781524001 0.013331495977326503
1.711836391574247 7.111549163035878 0.6138711918277947 0.04650149806570382
1.2099384192860028 7.1094982878325395 0.5678249197357458 0.02504364803372296
1.7302731847530806 7.107513499440895 0.4982776880127386 0.06561872127901695
1.0459588720425 7.109368582369766 0.5188328812983846 0.013725469051121266
1.5760744911173636 7.108950016715345 0.514999010227805 0.0066948945275830014
1.2374022998666994 7.112263395064488 0.5099308299267462 0.021602837390050648
0.9834225558678605 7.1103390058982585 0.5301631561589843 0.02201564713737971
1.583813767613096 7.109624250011714 0.5442943642278938 0.008943563191459723
1.1461966679436975 7.1034421659458475 0.468676864676204 0.022433431825864155
1.5316690227733296 7.110168965301021 0.5059992059974837 0.012033203087812345
0.7285037051881212 7.104056795420123 0.5173803323428244 0.006795465544019142
0.9539767779465753 7.105434434692761 0.4723683268366932 0.031781733639382775
1.671780499663414 7.109659471038047 0.5770661311616649 0.015776023980775995
1.4031495716243585 7.108502244855958 0.5218689846488151 0.01054168171496328
0.7459710272947737 7.107306795007849 0.5274611766660611 0.00667239989154794
1.5191930813519934 7.114296768980536 0.5249926084904326 0.009733429318627784
1.1553632389684585 7.105908830297311 0.5278827261136173 0.023815443431569463
1.007179489193614 7.099601473720501 0.5537008402776213 0.02010390316555523
1.4497830677502317 7.116272732684711 0.5954707622787562 0.022307210936042175
1.33180322977084 7.107225605852436 0.56901984568594 0.013029311624532726
1.4697012468723545 7.103174184332132 0.5622582859472706 0.01978427931005176
1.34246394987503 7.112895584131659 0.4840454500363461 0.010938150195598453
1.2245324089646223 7.105349882740566 0.5769696198728059 0.019188370137506308
1.6078016332365566 7.112899677741677 0.5497968694017139 0.004374719343915332
0.5474651493878766 7.10869645372527 0.4969512459311535 0.01743997345600495
1.3709242587382526 7.10726826067827 0.5043715208872438 0.01793495131801588
1.7007075058306294 7.111632004588464 0.5882289440898223 0.022258809703775296
1.2623635848664512 7.106416662964709 0.5463177277481647 0.018374790692497863
1.7201759504981047 7.108770748076248 0.6265828008759683 0.08366092131995731
1.5860234322258921 7.102380905771343 0.48569849789692876 0.03756166428994721
1.512339956528553 7.103343688520382 0.5550325555527552 0.013386170070165857
1.6049757486605072 7.103270919223915 0.5897572027785476 0.019389109301819307
1.5250109564331973 7.104652619379258 0.49868124034956457 0.0137993423794493
0.6039719248750088 7.106651898184767 0.5131863692995097 0.02231733693940663
0.21874193594181401 7.105788163832463 0.46111369053804047 0.04679564426591156
1.5068155740264166 7.108319317173929 0.5387971601534299 0.01606754819908479
1.6572611402419757 7.105641697778029 0.47962161374444945 0.029496094183859976
0.048852650403920846 7.107684676809678 0.47187720682172607 0.012715558616924576
0.5752915459633665 7.1121113284506645 0.5035291960249824 0.020634382323151124
1.0378551202756978 7.1096321566080105 0.5218019509298011 0.019590396496599907
0.90430301555933 7.12376458221151 0.46970709022822177 0.01702754624867932
0.7950878428964229 7.109175898507155 0.4870325253473976 0.014221994178028715
0.7390232662831333 7.108511014191183 0.4865985131802583 0.01891685707840665
0.86094513576906 7.110447332512333 0.5295874749911251 0.027471198092649043
1.6927581068682584 7.105225572206117 0.4965179917082461 0.020940515880493966
0.5804395890048721 7.114835512159925 0.48206473643879383 0.02227483603815146
1.665209511351757 7.109756496728922 0.5697105667104699 0.020044319550840926
1.055434631349292 7.107390043108519 0.5459038308781071 0.01953821305000695
1.1312468844543901 7.120543344934851 0.570569165934809 0.01810169139285881
1.4525837398229284 7.1035770403643745 0.5796696520610154 0.022791906635420175
1.5849152689933157 7.108587997062031 0.5880129576067243 0.017408714440857127
0.44269613984165485 7.1090600649648215 0.4890760995143619 0.015467974619241624
0.615639718851945 7.1072671935158445 0.47315972601666506 0.015170418859917156
1.353486494929565 7.107683471861562 0.5700166464686516 0.015015428915548957
1.5621791037702277 7.107729637119574 0.5228279130276163 0.017706729771958838
1.517597154654518 7.107516088432533 0.5593038259199452 0.012057029957000052
1.420511598817422 7.106088714227526 0.5048524105507449 0.015731192810076525
1.3461250412648909 7.115862337050966 0.570778659102221 0.008093044305451732
1.2731994848093737 7.120836084803916 0.5288869171522331 0.020681170056107603
1.7045020819164498 7.1094363242169765 0.5680454706019471 0.023707153609107957
1.7151075140455116 7.110950436632711 0.618384398513989 0.05159650335983301
1.6209031755825771 7.111583094339766 0.491535296307397 0.014392158380927644
0.42587860610605227 7.108910994973672 0.48098114156422017 0.025177954455888836
0.2352076835784603 7.107900763601199 0.4646244174971031 0.020082087234391928
1.0164922575602207 7.115783202017549 0.5182734635070899 0.011386798645178263
1.594056153320415 7.113257153685202 0.520587276953743 0.006241498024148824
1.6183476233774567 7.109310849575454 0.514446407342187 0.0189086546646627
1.4798798489897234 7.113676615177445 0.49353543683529233 0.015126250497834969
1.3904425311405273 7.100180058504553 0.49877871453193684 0.01279289425721598
1.556528389207914 7.108061394354295 0.5412295374157601 0.00582060143136183
0.7076089678981425 7.10808141590852 0.49099283576525027 0.029853721247673284
1.4667153847429961 7.108319457230121 0.4789910768001731 0.019190156391692643
1.2514280158304703 7.111020335677453 0.49984731936789456 0.02137583308774404
1.390179115923362 7.108466115132787 0.5789499596814845 0.009349487021685497
0.8202050692824128 7.110647283088682 0.4903608206717543 0.032411959634772544
0.9821270635000906 7.108817751202371 0.4954133397808965 0.022577615575965417
1.5015877096801806 7.1074083343830505 0.5123376799414635 0.01686226573669628
1.6772954829309294 7.102657962087413 0.5029543133234243 0.022724611439007034
0.09738178236105871 7.109580126925106 0.47999981631641886 0.02709693073809223
0.9904475800930999 7.108350067952748 0.48392584050845816 0.04030655799330144
1.685902473472055 7.1100810417837526 0.6054438088352395 0.05330959530927025
0.7273359862306923 7.105175520364092 0.5324721564731845 0.008705765466211192
0.6250955912505333 7.108027812612913 0.4887431394403421 0.0199985692233758
1.5661653488712173 7.1095230454767115 0.5524607180934252 0.007581637118746578
1.3156648642770572 7.106373975858975 0.5179064330086206 0.017925101814518615
0.2901402278606373 7.1148706402424855 0.5040484981968244 0.011937221827176414
0.3217378860750627 7.112905421322294 0.49624464271146057 0.016400992986459712
1.2844920523212782 7.1106509225710335 0.5504208842249563 0.022301659919079866
1.709561698273245 7.107376251439012 0.4814792773275147 0.036255963215157214
1.084293190590555 7.108218778357265 0.490122207421512 0.017160388083443515
1.5704050289941551 7.1007792144664394 0.4946332266648214 0.03499784243288715
1.5719451886751938 7.098473761104258 0.4837289768116088 0.039707329893757685
1.175488731360267 7.106006721242483 0.5126317231212797 0.023356151098287977
1.6464187383713191 7.102563454695377 0.5608759781013927 0.01918712919946509
0.8429687019447766 7.111656066802796 0.5391366121968004 0.021905558345704235
0.4933725145604977 7.113300727142033 0.49862192610295425 0.007326608666640002
1.7284589897534133 7.103797562818949 0.51107657467356 0.09805920488303521
0.5524023510169933 7.103801929002528 0.4813274378237306 0.01775751888009218
0.8334126439640452 7.105880860834894 0.5221913977830921 0.025321392533337275
0.29881921879325524 7.103956802600569 0.4733958861510862 0.02065309050975103
0.8720953774813969 7.112033750427256 0.5237844131828928 0.015459694382151857
0.19592988557712024 7.105712497975112 0.4844592384596386 0.015204382875708222
1.2030449987694811 7.1155203770564075 0.4972563701398562 0.017121053868434297
0.04656951838677302 7.103861997604369 0.48489287185490454 0.015360531136919951
1.6332311618062183 7.105269095467706 0.5848683744424483 0.01796557451763547
1.5528642680361973 7.1008970960383015 0.542984374673922 0.0036164838797933477
1.4191153498391669 7.11166616524055 0.5207900815923284 0.014805513779028872
1.65594472079423 7.098795528893396 0.5412245057648538 0.023938805018051384
1.283215057384124 7.108655771464219 0.50116296546111 0.019160501848020414
1.3590148433190192 7.105726304341974 0.5097104294409293 0.017206083017283724
1.7303329035608808 7.10530241150898 0.5191701715329535 0.08890072961538098
1.4686744087309669 7.103546826705903 0.6059023684504861 0.05252201874427809
0.993343975360422 7.103532482815771 0.5145964008976063 0.01064093840263069
1.0203151616441997 7.10557470423091 0.551515841070615 0.02257205383017146
0.35547514851661954 7.112595721209146 0.4930909156164519 0.007341856914096686
1.0787386309111993 7.10731612590912 0.4695927798098194 0.004318333842247898
1.7040297482177558 7.110402890841072 0.5067145829998636 0.01544643507508358
1.0940656283929673 7.103141905015718 0.497692609128358 0.01342818162029616
0.6571067955030934 7.1017509864064845 0.5298372854003387 0.019866769288109837
1.492232040288836 7.103992043180187 0.5412594556399972 0.015218335783093832
1.4026249486248228 7.106696128128716 0.49827158391255105 0.01720769967131396
1.4953866928673043 7.113584074312076 0.5749850563414769 0.007044779689103094
0.4357243277126179 7.107720785458827 0.48320773523318633 0.02191345047409083
1.457993949751595 7.106444074575381 0.5258234709872682 0.01683220106715937
0.45309090148148956 7.103066065993993 0.48513949608043744 0.013837551030497712
1.0480491822242126 7.112026893007741 0.541054731403472 0.019200641486791438
1.0633928604682403 7.098500972147552 0.5622391539426407 0.008572820548116969
1.1309490632107455 7.109852852203979 0.5158630091358379 0.013410931637827347
1.4122157327625664 7.10786176696738 0.4937142112220327 0.02628173828940346
1.0330460192591338 7.11287237703326 0.5386101339740995 0.02026430220675584
1.4457358499364474 7.107511688978234 0.5843902855360985 0.0340168569444568
1.661985903132581 7.101537296446613 0.5123622837284473 0.014146890380315228
1.1097084118968061 7.109062304063009 0.5045898406987964 0.014264334881357916
1.1976820103861752 7.108284326982086 0.5458633886882583 0.03442315113967725
0.787457065903447 7.10567402372375 0.5511151355036383 0.019585865671664735
1.312206123759785 7.107316529542542 0.565347364578144 0.019711562434338192
1.1728019321611383 7.111523882278591 0.5088780717935616 0.016613692517601582
0.4650191067869737 7.106452120542864 0.4714140854765788 0.00935013800550269
1.4823694918041364 7.104008639679079 0.5387922825557492 0.016752163884153674
1.6704297123879364 7.104432461649385 0.5867975902421921 0.019120214592784807
1.434061956033102 7.110119233184428 0.5034891001479246 0.015356027331264649
1.2502707367980848 7.110654160015268 0.48205124425825474 0.01656119989331492
1.2675263334934286 7.111709383407105 0.5767574296483617 0.010952459980448406
0.48355752526725393 7.110950475999017 0.48349386100082176 0.009964449239781025
0.8169543656868297 7.104363558726455 0.5165432728378404 0.018907153507172772
1.5240274789871642 7.10481840458608 0.5347044902521215 0.0113871563362123
1.364701325466859 7.101449725567684 0.5585604623214975 0.011445894419627178
1.1351050021508762 7.112996882453274 0.554280595322087 0.04225846176043808
0.5664692834231225 7.118939792355284 0.48455051031102325 0.009326285937539525
1.0788531447006455 7.105552481815926 0.5385075334407919 0.019117289377635707
0.9199513108201217 7.109016706595182 0.49835159625146336 0.02002071970113326
0.8142780977844266 7.098881129210052 0.5354118105320705 0.018646947739246793
0.7735505902934589 7.1034947213873005 0.47744302596327737 0.018638310893817775
1.6343739886442756 7.1048103571211465 0.4820034072177349 0.018776950092446183
0.8664063436628788 7.108960439786271 0.5429621968173332 0.02343073048337678
1.6922794530231335 7.111944241600845 0.5726097716898929 0.02991586628097228
1.135376184826665 7.1018686661235835 0.532634417026562 0.018766822924055994
1.3717493637026443 7.10618026345553 0.5777698908077064 0.014366803662611205
0.38795193596750277 7.106718458014308 0.46797075704777996 0.0275209588661799
0.9940734150311903 7.1098715814452715 0.5721197161264716 0.021181747865773076
1.3110358362544117 7.106149092687486 0.5411227300928966 0.015754794624752398
0.9067522740610786 7.110758289954942 0.4865217233551198 0.03039151953571513
1.309502635279021 7.104328715890179 0.5141866417785643 0.01761942038920005
1.4124649058477816 7.103368856901277 0.46616462696251215 0.05384314418222819
1.440926931062133 7.104545549811808 0.5926151136597715 0.027208009560879647
0.9201981751220434 7.1148854492759686 0.47726331707661906 0.019417609226912498
1.6351391810434033 7.103406558663769 0.5626524368317319 0.01674444813257677
1.0195705786366107 7.117094527804655 0.4852232461809396 0.01805903008472036
0.8744049862479364 7.103491134302724 0.4778724332038527 0.021951024979164218
0.5262569778966903 7.110239109171763 0.5097043501860218 0.00809055129068757
1.6287880657093157 7.108083810204743 0.49607948951988645 0.020307600114269308
0.660545171896567 7.104191957452512 0.4917447932360757 0.04573418223231507
1.3884560097426422 7.105644907813088 0.5726757431456989 0.00932925575499033
1.2419988263019628 7.113312905526405 0.5382141166454208 0.02334939229644545
1.608851512798194 7.107131971036602 0.5708940019843254 0.01118272668126688
0.30697849661393783 7.108734497390875 0.4901157535907342 0.01904198381801075
1.4364222803082882 7.108622036914004 0.5829045841366786 0.029329216957412724
1.093222490400843 7.1132784495682415 0.5340385737331874 0.017076350691225366
1.288404261823162 7.105995120275349 0.5276003990679962 0.01922965230116362
1.7273458244647668 7.113291791965557 0.47940734402894764 0.03486050990035334
1.6515637254759754 7.101639045198326 0.5682583679215046 0.03007772471328168
1.5474690217737697 7.1044308559894755 0.5159270664956003 0.017566701035737185
1.6996923038419498 7.115078333195376 0.4974681134538428 0.020472040200129552
0.881576792605445 7.1038367864050995 0.5412618640085192 0.01810143053216745
1.3195795287927818 7.11017522454099 0.4933757791220027 0.02146625661841371
0.7424031933773304 7.105840430823316 0.5150174139741311 0.00805798454650486
1.203986232484983 7.118022795195956 0.5486321003911471 0.02453769929813954
0.9149165777884504 7.116647175574805 0.5545052301315458 0.015823652851256458
1.3227474599055362 7.104653120680635 0.5914337930885811 0.010174135127580993
0.5881986481245864 7.109628458654604 0.4854397014371759 0.026966415433618093
1.6955612904400654 7.105148262176346 0.6233324859528666 0.09414449710363686
0.4697582991493473 7.108923274044933 0.4804696768808355 0.008725910437182731
0.7063262343818519 7.111829582311408 0.49864958122652187 0.01766123727523399
1.083843128757156 7.11057174296021 0.5586705250045991 0.01559402828197967
0.9539063455743629 7.1020224621182555 0.5360705130820144 0.01306416599510372
0.8971451536257232 7.113607155158462 0.4918909223435124 0.029349928216443354
1.3726450121291234 7.104464162167987 0.4753693724122337 0.017124772664816486
1.3720513938530905 7.1031662356277145 0.5326263322131188 0.011412282428178155
1.6825629605405859 7.106252434230245 0.5175016973105109 0.017858256040852706
1.3358124765091488 7.11171449283151 0.5520799299688165 0.017810186824245983
1.1741560347132916 7.114319592658565 0.5361809847292094 0.023693435204479373
1.60016724757236 7.105833396127251 0.5023346311302953 0.01081689397783498
0.45408416510556565 7.105901692668679 0.5082262130460085 0.01678477418279128
1.3535999544130395 7.104345705349084 0.5363306985906956 0.017868460617639595
1.3068967718755846 7.112173823296099 0.480331942088755 0.018198669632299182
1.4073787125431945 7.102061918790853 0.5788859923534505 0.013368988426473721
0.9438138882525758 7.113436411026125 0.5629519927963118 0.01596698791140293
1.6741866878135396 7.1002750696384584 0.5473093300937425 0.01747641297219215
0.9880795909382153 7.102118962574737 0.545868828849241 0.020103157181667136
0.7350978466600985 7.104891588699076 0.5227858406587741 0.007075422401023092
1.3494310856108152 7.1064670330642565 0.5421050126429068 0.020490505962267924
1.099406380490375 7.111827971900958 0.5577902839477759 0.017689116988131172
0.15222351755496802 7.102810292127294 0.47865867626577635 0.0243885660354498
1.126477871999007 7.1128916466937975 0.47082353912553104 0.012416647666991968
0.6389749017301316 7.112733700805523 0.4647091986291137 0.006403677524860294
1.7299809529229937 7.108053151350727 0.6268876189182344 0.08984979948061796
1.710767687448675 7.101723476516993 0.5459346744157161 0.03135936386608007
1.719110714934102 7.105859108685981 0.5759139129157974 0.033931219518764225
0.3812534558523511 7.105647721379684 0.499510370390634 0.015385249974644076
1.5945185196769214 7.10674904203398 0.6100220107489029 0.049569831173698606
1.2515876461171624 7.115614354570505 0.5649693706387537 0.016172916200607155
1.6429400860166241 7.117742996980537 0.5001028342479572 0.010048442062935524
1.4177506941664952 7.1088507922575035 0.590571437617192 0.021114828174665853
0.3553135174167537 7.1076198084656435 0.5020713542714094 0.014272821479419544
1.109942337093249 7.103957886060061 0.4742169795714253 0.009409033275566185
0.31176943888390163 7.105313224179007 0.4800540046595954 0.021817286053271125
0.6979764715404208 7.109845036803831 0.5052017525352799 0.01756731656838064
0.8461920933395474 7.0987104600176805 0.4861786895384541 0.02074832997097313
1.691188267254269 7.1025937283684275 0.5847243019582778 0.0194433838717529
0.7495249788405702 7.10805301902453 0.4926730512659506 0.022965542514489495
1.4557133519150478 7.104459196293451 0.48567293956111957 0.01481481868970358
0.9877587364024999 7.106146162054788 0.4942543210760723 0.024780276361521286
1.6268011170921435 7.109686289164174 0.5268073469256369 0.010867674307587843
0.7991401027045033 7.104952096941715 0.49516162957094795 0.01682741267982946
0.4324100885199453 7.115068820038057 0.5000767084720458 0.017346392051922857
1.3027852756218812 7.10693767495976 0.5036564535260043 0.02085247531104985
1.3038817783929288 7.1034172097313295 0.5652209889841957 0.01059551499767038
0.77076956620577 7.101924108174388 0.4947040891396619 0.012695011154046887
1.734501290642304 7.1066960590570565 0.5645472508673378 0.07248224601664358
1.5372738683102207 7.102479248280894 0.5295128628949709 0.012322973843287476
1.5001295946751945 7.108401365073131 0.5663013236615126 0.00890391603546343
1.015283545149404 7.102418214564049 0.5485076311833255 0.02244467758603007
1.2343936051988167 7.108287501017036 0.5658198399882961 0.0209085968916848
1.043759553790978 7.11183252020003 0.4858174948805936 0.01849887062626159
1.183259859512968 7.105011251604133 0.5291544617020248 0.020328711032988403
1.147040296079736 7.108788886218342 0.5131715169422112 0.01877395445260733
1.4452700157604947 7.109550305136245 0.5088746159128106 0.020931622294542863
0.7800625349384364 7.106618895755705 0.5183265121784845 0.009692707668102972
1.0876404202782406 7.106955670832521 0.4906566529327255 0.01749267379120694
0.8706975115017558 7.114985850407659 0.5114950154447907 0.020699974020996114
0.3443543748677024 7.1104463048107 0.48725623937257934 0.008072480946812205
1.719743249594138 7.105923612998533 0.5905443070198882 0.05667065515302946
1.115906345780376 7.107141812351542 0.5474608189091436 0.030441618912691395
0.7949263839504764 7.116388777725561 0.47565658212811684 0.005107686491191905
1.3917893233841603 7.1075624263557255 0.5437938571771533 0.0077876392026048555
0.3406576738260924 7.116229251893563 0.5039348795547749 0.011091034798179137
1.3384610054273278 7.101408612831477 0.5941449183926792 0.014580262246270062
0.9768997498288697 7.108584162124333 0.49020006073025757 0.02367368837153546
1.5254336873974732 7.105555274280005 0.5800281891350499 0.016578053746448638
1.4479400779099634 7.115284058141948 0.4791472718299265 0.006729250693432462
0.7210363382235423 7.108078071812889 0.5015393517403829 0.020587722846877
0.6995064972025042 7.106819338389786 0.5178995170268166 0.015272390694328742
1.0424091919362528 7.107228134548033 0.5620793047096587 0.02388108509614528
1.347056013016244 7.101099318848325 0.5144262962807085 0.011614791972750647
1.4695974279062765 7.110641084126698 0.5180519888202981 0.015955840946946995
1.207030398890564 7.108357652121299 0.5273105241283945 0.021480651763085404
0.4054833639578758 7.112552813481147 0.4909800618236615 0.021981249957815578
1.3236336828893165 7.102664070677356 0.5339722766385993 0.015320825472100648
1.4900444986374717 7.107434744900456 0.5583804419394202 0.011964772203377359
0.6679730621875055 7.106532954769327 0.49531521860646516 0.03155141206518117
0.9700768483399351 7.113116928627438 0.48588654300612555 0.01616322020948202
1.4053846582839356 7.108235542315756 0.5959793292501547 0.011377901918606192
1.1814388756639627 7.106204140239973 0.4898724952032349 0.021205779859672088
1.5431658381475648 7.105029563755401 0.5760898150423387 0.011243443187230953
1.4378299835196184 7.11583306201427 0.5559067470701186 0.023088358743939604
1.5121936303769032 7.103019006481357 0.5661220284626696 0.008817200931627104
1.7517086390678607 7.10823139281967 0.5647134787314774 0.06292603117793594
0.8248316141859102 7.10964783450163 0.503079549703473 0.02720157168163236
0.8783306028547159 7.107960283236489 0.5289834485428042 0.01757901348165727
0.8925315539025515 7.112264702619639 0.5514765224394466 0.014276013165533757
1.5655960076454465 7.104310734589762 0.509813182812342 0.014912078131394202
1.246062597111787 7.10877144083759 0.57311789649162 0.018400702930725713
1.6711579443185507 7.106116901230283 0.5191988947196667 0.024400808703157535
1.6778520416672336 7.117038910793877 0.5644928375021779 0.01483108898935811
1.4411005913832824 7.116605722615715 0.5443399688201938 0.018263422529448008
1.4890957998922911 7.104637896721954 0.5243270926138286 0.014663624732493635
1.0717714886899594 7.103589324417621 0.5539174779972953 0.011667548153889658
0.8874827685174135 7.10521005526943 0.5247309906424955 0.017638005973250756
0.9969114696260083 7.108466995027402 0.5322777371603589 0.017047058864517007
1.5795344600168246 7.114597235624273 0.5707173751558873 0.008228141089304124
0.7766454567244918 7.107300558376399 0.5270346989198423 0.011112833430703042
1.0768764460082354 7.11031942681417 0.5293001806356419 0.020901085688672195
1.100401694104337 7.113368179671854 0.5189270595189223 0.007780270366609624
1.6951875812334654 7.116791274947984 0.6103702829482539 0.016657716988385834
0.47439061414400485 7.10792403893506 0.5035024974510859 0.014881278758921753
1.6330959749220406 7.1075274116326845 0.5602698793770732 0.011781580902791631
1.1942597972315707 7.1104521638527185 0.47921063671748204 0.017628201699752342
0.5396604963770961 7.108916287052627 0.5165632087239731 0.013004415396061963
1.1999256798205875 7.10124212314217 0.5729783901910994 0.014310626374807327
1.4109339874310882 7.103022532052954 0.5694779771417865 0.014802093151527859
0.6010463869016148 7.114460600024427 0.5218932628650048 0.024011274992479677
1.2539024138308321 7.118199930128537 0.5065599185389512 0.01925271735444972
0.9051130391860956 7.112972179852434 0.5411193894683421 0.01411017314936437
0.7021201654454836 7.110815912326889 0.517464043035948 0.01683022169897127
1.3057590913584987 7.103975547125777 0.5577043466119468 0.014311357784430878
1.3469323463855927 7.108751963800088 0.4958735162401791 0.013161982472987005
0.6717111854014921 7.115770157641748 0.5213072901614383 0.01923843870313466
0.7059276380077096 7.114727864336217 0.4822502849359025 0.0370341958768213
1.5410238267513416 7.111168733410548 0.49262237710312556 0.023489804763368025
1.721450386919012 7.104757777044316 0.5392041240887204 0.025768770075194833
1.1526221062171924 7.107038916888397 0.496604986243779 0.016885461988399002
1.1411224059550487 7.101865454840062 0.49682917964067114 0.01382819399045983
1.5642747211684502 7.117463024788573 0.46977818704515917 0.024403875360537765
1.1208472727527237 7.10308746748009 0.5654175336726126 0.028397768471965016
1.317232590739159 7.103474928131952 0.5835057084340591 0.010285178806765612
0.9873228252126577 7.111778770076298 0.47870818402645166 0.03281650413490005
1.7214968464234912 7.108821957827012 0.47605033026303467 0.04607454105105766
0.596433241366422 7.114349573090695 0.4984779724574475 0.018409884462428593
0.917534648428546 7.1090406619391615 0.5255156739019865 0.015823205868072433
1.5505566593587985 7.1094110831111745 0.5759992739153724 0.015410113441517199
0.7706028913870007 7.105962313506282 0.5105628991040938 0.007295472793787606
1.0442213932432591 7.114421016899485 0.49764850108070185 0.017326117007468413
1.0480609054082004 7.1144079127474305 0.4756965188426661 0.01443334216685483
0.739708142053492 7.1209637789630085 0.47760077555907926 0.010385861767702842
1.5774072165913389 7.106482928945826 0.5894832021377562 0.017046063891447766
0.5832723018918347 7.113141864697015 0.5148767038149047 0.024868664630098045
1.2623972154611016 7.105411354185008 0.5494496391752769 0.01881904421885703
1.593069865640411 7.110643636236519 0.5498400989991276 0.007257501071522979
1.5218762826332137 7.112995219439782 0.4683804619756399 0.02111757193462536
1.4142116975464232 7.107202811658899 0.5432155413344559 0.018882932448229195
1.248213781027708 7.11550692567151 0.529971817046972 0.03285177975747641
1.487271998601857 7.104453597157702 0.5769967317360772 0.009724039152527154
1.4369688891476615 7.112427585577929 0.51555098790195 0.015184152482512165
0.5615381910371147 7.107974626046795 0.5270320806556946 0.014232168504647364
1.390167214699828 7.1148430966623515 0.47843340186316147 0.01257250057137729
0.9041317635395333 7.112265752504605 0.5190790098228764 0.014977472075368363
1.2029907985155377 7.107921902712359 0.5077454139214265 0.017501730643495132
0.9402208595664552 7.108791710587562 0.5029159410715955 0.016418897629667046
0.8759797347323977 7.11014078162099 0.48831130641428155 0.029810777570882796
1.2919501966833744 7.112225559981192 0.48329177914746513 0.022804000093026734
1.310466261604428 7.109535790407025 0.5039408039740026 0.01595317968648023
0.5072377621209672 7.106351961683383 0.47528746110551773 0.008884323264884357
1.101432972035139 7.110689110773375 0.5130780645663097 0.010298200527685292
0.6497789545905166 7.104590062008884 0.49217383059411357 0.030467192642297924
1.7402600159545183 7.109202170971052 0.6233120190811127 0.06850097905443744
0.6865521053047626 7.118571921617223 0.5014210292936322 0.016860561971006036
1.0304614940656345 7.106729383278824 0.4711364924698562 0.04956311525692387
0.6676773060129046 7.099810145341806 0.475955176265593 0.056252679821940724
1.6339379667349219 7.111472911847332 0.6005995522052769 0.008817608087678975
1.1753117460916405 7.112973432636429 0.5410721851021029 0.02312755785953471
1.7312005623202156 7.102794864119086 0.5348127249594867 0.07862874874887898
1.0662497978327474 7.111400319746043 0.5056986106678267 0.012353926278781348
1.425608191771289 7.1051469932383 0.48176506971369515 0.027342585287442277
1.3743074106118283 7.107612672740112 0.5483589724461517 0.01548739137166957
1.1504119125717254 7.1016951657456096 0.5734091118967888 0.043781921020137886
1.4692546908702069 7.105687968479654 0.5480773455373319 0.022590382913122414
0.2662964398617744 7.103154944878246 0.47567196000425727 0.024193337619891515
1.2775452727128696 7.109119255572349 0.5685524598693085 0.011781305808775372
0.6408857774894349 7.11077221757053 0.5114356110841567 0.01732071573439475
1.4987861021774564 7.112395833822214 0.4989818212761177 0.01553696496651392
0.6102240252042049 7.105793030476461 0.4829340836172819 0.013855956982904942
1.4722995304162638 7.100625934970719 0.5721683963411452 0.012682162945162336
1.5103072178378674 7.105946909106318 0.49767921882315275 0.014931461563306308
1.403300719863824 7.102692702445593 0.5823200693307693 0.018192976520757007
0.9400822221119332 7.108889528492019 0.5379307801560705 0.015417473504008834
1.667906168836865 7.101341656074142 0.5865067617360112 0.019239493963399672
1.3553386687381463 7.104369580184154 0.5837636586185793 0.014468592871380992
0.5548887346497194 7.105921003509998 0.5095947356913912 0.021697868823632987
1.6110233878562776 7.1035665315343905 0.5768456451016823 0.008715484171832804
0.2505517568654572 7.110955331890621 0.4888056346674586 0.013608325625509525
1.481245856048016 7.101742204412364 0.5238876851950688 0.012767827254967291
1.6070720548109856 7.111256538442599 0.5181088991383589 0.008411696459783617
1.7180916167084062 7.113936653581205 0.49790502506558676 0.036063274812390564
1.1926125819497257 7.110794767951348 0.5048681844056234 0.026072499935374437
1.3325226729456172 7.114376207617859 0.5172797889848332 0.014343598344393738
1.390191944159661 7.103924195620754 0.5301108445293037 0.008818670269193881
1.7361867520928114 7.107980950094637 0.5686234982215076 0.0714692884648552
0.6291282485556801 7.106805579380496 0.47639782682476317 0.02897254173459955
0.3859205856144494 7.1133691437494635 0.4956790290833347 0.016293027969216417
0.7730109071518785 7.109579656646709 0.46997647848307017 0.029658307743114856
1.5945464942408607 7.11176260266799 0.5676502139287017 0.007441749172671159
1.3128834037352886 7.108515827547063 0.5526905087064454 0.015684670717346985
1.403895531406075 7.110857634884245 0.5140944193511378 0.01547935712469315
