x y z curv
1.634789526462555 0.19123283163924426 -0.209714425355088 0.005489606207514919
1.634789526462555 0.19466346977389432 -0.2544917908401462 0.0033151414829954338
1.634789526462555 0.14255573569976093 -0.24439882463871093 0.0015458423049111193
1.634789526462555 0.12305442322792544 -0.23155372523831932 0.0036582780956919228
1.634789526462555 0.28245173839119436 -0.1693536840784317 0.05408314346068323
1.634789526462555 0.20209643648905462 -0.2139869301353475 0.005836455853699571
1.634789526462555 0.30228779005814777 -0.23477818287360455 0.08449136978969347
1.634789526462555 0.20026530448156865 -0.2020852367797354 0.0057106730286341865
1.634789526462555 0.16884610645555054 -0.23747688344300946 0.00099964883288542
1.634789526462555 0.2801351752804812 -0.15370612892688174 0.0287596399181896
1.634789526462555 0.2657006869689842 -0.2628089342998728 -1.6541671706826464e-26
1.634789526462555 0.16366292565632928 -0.25211206083458737 0.0016325693894320855
1.6347895264625552 0.0658172132702684 -0.26236107785533347 0.07855324718569377
1.634789526462555 0.27491840786765825 -0.19329045898013694 -1.061106653591949e-12
1.634789526462555 0.2575958922931362 -0.18630453228443497 0.0005400541890375038
1.634789526462555 0.2086554791115211 -0.23235267582677493 0.0054400686837671065
1.6347895264625552 0.239988334987707 -0.1658185902545647 0.0005707958884163329
1.634789526462555 0.19017481075323692 -0.24379471540458156 0.0028810456944712492
1.634789526462555 0.2509910165703263 -0.20136825933079402 0.005195820718172089
1.634789526462555 0.2697651443607835 -0.15948707373744866 -1.116472824698489e-12
1.6347895264625552 0.30434664372973586 -0.1683489226222318 0.08637761004636323
1.634789526462555 0.17684998320288098 -0.2200846659206772 0.0034102792527262093
1.634789526462555 0.2519047651124994 -0.1593851817396802 -1.0259498647301181e-12
1.634789526462555 0.13841709523782406 -0.2576378530765272 -1.8318289923730285e-12
1.634789526462555 0.2331741486868143 -0.2578718111932871 -1.3913202721465627e-12
1.634789526462555 0.22736764225897516 -0.24182286890075702 0.0030247636618776826
1.634789526462555 0.12285984947981438 -0.25682590744695355 -1.7251875872388158e-12
1.6347895264625547 0.3058194365868205 -0.26223004611701994 0.07138672385293289
1.634789526462555 0.17187726156607666 -0.20374689518025615 0.003090139144324268
1.634789526462555 0.28769791542495027 -0.14222400171652955 0.06330162052715843
1.634789526462555 0.268681867442506 -0.20443837799839937 -1.2545750939107932e-12
1.6347895264625552 0.1289509612163664 -0.24349535171972062 0.001130289425472964
1.6347895264625547 0.24065144880820524 -0.18472053073931347 0.0035853167495646424
1.634789526462555 0.23485961598430516 -0.22603970181972796 0.007302212575927561
1.634789526462555 0.2784656076667667 -0.2139149112123683 0.023173269761266272
1.634789526462555 0.24697071372738902 -0.22216786154170998 0.004912536090325634
1.634789526462555 0.15931258974683796 -0.2187741068563212 0.0035560246865453077
1.6347895264625552 0.28812575584565503 -0.26700150071592704 0.05184027020299042
1.634789526462555 0.30201988642237315 -0.19801382038144313 0.08672488477537629
1.634789526462555 0.20472235114896647 -0.275263900595006 0.00995504052473153
1.6347895264625547 0.13254330258482358 -0.2696477464021868 0.0002812933312800164
1.6347895264625547 0.10793432121671193 -0.27777378387045987 -1.8543776418066e-12
1.634789526462555 0.08441539841390087 -0.3159810289653852 0.07403264479675942
1.634789526462555 0.21793812965628984 -0.2676470630765322 0.003243559620352099
1.6347895264625547 0.1671327361727333 -0.27706951483926684 0.009180969739127291
1.634789526462555 0.13173889880011616 -0.30153704014876925 0.03923646819775102
1.634789526462555 0.2483913111506595 -0.2737776229238031 -1.6441199570118806e-12
1.634789526462555 0.0719033267782148 -0.29613391975157116 0.05269803354488254
1.634789526462555 0.08619847967044945 -0.29105835661857726 0.010756789302087762
1.634789526462555 0.13160457290101812 -0.2894244894646588 0.0020891268323953507
1.634789526462555 0.10901380392288595 -0.30912878912629566 0.04300181004412599
1.634789526462555 0.07516149445809446 -0.3073883907949532 0.07876045456480689
1.634789526462555 0.12145525723968312 -0.30641305850245465 0.05151010999079879
1.634789526462555 0.236491518175355 -0.27178676858687123 -1.1243018726533226e-12
1.6347895264625547 0.06317936462670905 -0.28553817300407036 0.08033362510606253
1.634789526462555 0.05350519294202414 -0.3267066701346666 0.120659125728822
1.634789526462555 0.12392396965620796 -0.2789536238444531 0.00029307228949920175
1.634789526462555 0.14331156298643374 -0.29075732250796266 0.006445170071006031
1.634789526462555 0.07121114274337302 -0.31911632878386886 0.1286612529168701
1.634789526462555 0.07043008089467813 -0.2744520426368335 0.060413237257161904
1.634789526462555 0.11044256623396614 -0.28969186476598124 -1.6638072708219852e-12
1.6347895264625552 0.19071942410011655 -0.2751882574624435 0.012011339197757613
1.634789526462555 0.09899036455003027 -0.28771640005076515 -1.7075982537772018e-12
1.634789526462555 0.09449749098851999 -0.2734724632547324 -1.5705628768058061e-12
1.634789526462555 0.09254111347778916 -0.3056338208601526 0.03200769490113062
1.634789526462555 0.149011322364155 -0.27585869232283533 0.005663468881957031
1.634789526462555 0.2929666455692092 -0.04103649910313161 0.07145835776457811
1.6347895264625547 0.2909932094823282 -0.05406283403010191 0.08189644195558388
1.634789526462555 0.29906314180775223 -0.06726189371959451 0.07504404150473845
1.6347895264625547 0.2519350127345291 -0.02143899967066093 0.058537540305547704
1.634789526462555 0.2778882731315866 -0.049551757474800805 0.06578347746759654
1.634789526462555 0.28697607063112124 -0.06491048980908026 0.06392145082444668
1.634789526462555 0.23546188095748108 -0.024635559111643685 0.057319791203561093
1.634789526462555 0.2907855292945114 -0.08413944429607395 0.07160039533743501
1.634789526462555 0.255866140316357 -0.03514704027047557 0.05872922314264354
1.634789526462555 0.26485902273072 -0.04355650731767631 0.06764148813686226
1.634789526462555 0.2947365301316353 -0.09777784804482448 0.06475898054473062
1.634789526462555 0.2784874078486069 -0.08519888955449464 0.027999781751028106
1.634789526462555 0.24985537089354773 -0.06244329503846098 -1.7325560591392435e-12
1.634789526462555 0.24514272913543136 -0.05221089369835943 0.009640567239801596
1.634789526462555 0.2718155076351406 -0.06943675985510785 0.021483201247187063
1.634789526462555 0.21585437652882955 -0.023152333028615402 0.05670634091344301
1.6347895264625552 0.24271586694723318 -0.03863663910253376 0.054558047199137025
1.634789526462555 0.26342657423485527 -0.05942652695158288 0.014593340986035387
1.6347895264625547 0.1939948151401621 -0.013627710971368537 0.04140937432321022
1.634789526462555 0.22901825857455274 -0.05266570929718634 -9.992924063129928e-13
1.634789526462555 0.20437506400994154 -0.022799119670772295 0.05951372045657088
1.634789526462555 0.22315016390006887 -0.0401921749375136 0.040954990873096286
1.634789526462555 0.2579983884895103 -0.12982304239668796 -1.1619186339703817e-12
1.634789526462555 0.2116372739123476 -0.1772853800412523 0.004164498597636499
1.634789526462555 0.07382770142134205 -0.20693027856316215 0.07630164378888393
1.634789526462555 0.14561107472451762 -0.1778991297774003 0.0034555580688767026
1.6347895264625552 0.09091220309553989 -0.13964518614717236 -1.1004819281878199e-12
1.634789526462555 0.08233568843239261 -0.1631186039343198 0.006266045725103849
1.634789526462555 0.16633477730752425 -0.18387597299989264 0.002205284516664982
1.634789526462555 0.06156300822782358 -0.2197921461931066 0.1032368158650111
1.634789526462555 0.07442762024501276 -0.23808253239414548 0.05803973067613672
1.634789526462555 0.10142058026869162 -0.19308081433075377 0.0007749344279680449
1.634789526462555 0.10830144813902982 -0.17633817459241094 0.0005981423745979874
1.634789526462555 0.08108776313977412 -0.19550865290900107 0.022098842693950904
1.634789526462555 0.14708160972898493 -0.13803029630618308 -1.495760293310546e-12
1.634789526462555 0.06273426268715405 -0.1440166466869541 0.07579812093895189
1.634789526462555 0.05092634670132791 -0.24862201180608254 0.041875618889918205
1.634789526462555 0.19941809327649204 -0.14874255830560199 -7.773781648777143e-27
1.634789526462555 0.07482363882269662 -0.13782904005972402 0.05005768967324914
1.634789526462555 0.11524672907431072 -0.13158650945261796 -1.1229885813097677e-12
1.634789526462555 0.22011215535530382 -0.1463142042339446 -1.38438873726012e-26
1.634789526462555 0.08244203540202841 -0.21781719485458886 0.031962262275171405
1.634789526462555 0.09378540615546621 -0.16978623683303837 -1.2041674896506351e-12
1.634789526462555 0.22678451972340663 -0.16482411566696017 0.0024068978376372073
1.634789526462555 0.27471340411016937 -0.14246982904646413 0.007714068753586182
1.634789526462555 0.15831091004942646 -0.20299735728354903 0.00419751024441768
1.634789526462555 0.11330313072469267 -0.1480869406213537 -1.6545869536535893e-12
1.634789526462555 0.09612232148513988 -0.150324949750736 -1.0913036260772748e-12
1.634789526462555 0.17387208490535722 -0.136312784581106 -1.5113960930987659e-12
1.634789526462555 0.12349142909981213 -0.15635822018839107 -1.1902502664850509e-12
1.634789526462555 0.18585194378328246 -0.16166466893329 6.066883843572127e-13
1.634789526462555 0.0518197728326997 -0.2301696009628216 0.0578174281019575
1.6347895264625547 0.06516736235742587 -0.1298399658527677 0.059413172397215205
1.634789526462555 0.25974268914100634 -0.14208294593226034 -5.408977394588563e-13
1.634789526462555 0.056074150566377684 -0.19206915280535683 0.06608304300649949
1.634789526462555 0.09588475345172276 -0.2237823032814815 0.0005588953280642717
1.634789526462555 0.0997562231497416 -0.23758751689571386 -1.11605376363777e-12
1.634789526462555 0.18795763857050013 -0.17864238596654133 0.001984036869781351
1.634789526462555 0.07208745365456248 -0.2507682095649624 0.06825810668000583
1.6347895264625552 0.2114953643005092 -0.12826558895532691 -1.5277029779530836e-12
1.634789526462555 0.10371458799067992 -0.14041720819127648 -1.1381544811413133e-12
1.634789526462555 0.2016206598932367 -0.1626277810437331 0.0
1.634789526462555 0.18480121965464535 -0.19429072284311247 0.004778725551230269
1.6347895264625547 0.13490250948562124 -0.14080725683119297 -1.336312367644126e-12
1.634789526462555 0.17567447505478312 -0.16698812601975296 5.575472331382715e-13
1.634789526462555 0.059089263056090795 -0.1764499927208457 0.06730367216410975
1.634789526462555 0.11169361246204974 -0.16503286268735232 -1.681744362946322e-12
1.634789526462555 0.23220272317285387 -0.1331029783885371 -1.6272241305328984e-12
1.634789526462555 0.12900609236309268 -0.176587184263104 0.0033325585782492386
1.634789526462555 0.16494887015461823 -0.16280666945885594 -4.958100287523205e-13
1.634789526462555 0.06624117142547249 -0.1623085020683977 0.06153380777819775
1.634789526462555 0.1373405976332694 -0.18761008909498586 0.004142308936446485
1.634789526462555 0.20973112305216451 -0.1405834352076241 -1.011355080571151e-12
1.634789526462555 0.05676720285678518 -0.207936455668452 0.07206140588301552
1.634789526462555 0.11288529565132019 -0.1956180101795182 0.003856669426684321
1.634789526462555 0.09094317195851033 -0.1884718168764705 -1.5385425779867786e-12
1.634789526462555 0.10280511949425003 -0.21025051023318334 0.002073813403921994
1.634789526462555 0.06385340332156483 -0.2311076970372617 0.07477230307186869
1.6347895264625552 0.17570026102013922 -0.14918591780600268 -1.1679057978282749e-12
1.634789526462555 0.11457067350296118 -0.21305453928336085 0.003839439720068549
1.634789526462555 0.08045333790673867 -0.17646106234741757 0.018149924077984478
1.634789526462555 0.27852074542359617 -0.12852734280658004 0.008966946605446993
1.634789526462555 0.23617570369340338 -0.14699778431453778 -1.8966413901583514e-26
1.634789526462555 0.1647970217291016 -0.1444304953712501 -1.2108556507449717e-12
1.6347895264625552 0.2478580166057697 -0.13568770628530435 -1.5075297229429276e-12
1.6347895264625552 0.21276856899929175 -0.1644209897539515 0.0024744379651458165
1.634789526462555 0.14485626181985078 -0.1610591857454571 0.0010274872364424144
1.634789526462555 0.21781478222551318 -0.11803426386120311 -1.5564709211967743e-12
1.634789526462555 0.18647700380459176 -0.09273840836149726 -1.614044462891414e-12
1.634789526462555 0.1689757180911882 -0.037314135800813455 0.05250701544756718
1.634789526462555 0.1759110318423533 -0.05100664755238419 0.0017220058593270433
1.634789526462555 0.15472103328120956 -0.055154497690572644 -4.823728162218236e-13
1.634789526462555 0.18873636347328931 -0.10894511917283001 -1.7490982173699924e-12
1.634789526462555 0.22778068564610418 -0.08342016883790279 -1.5145173083299813e-12
1.6347895264625552 0.09889963348780305 -0.09049245573507962 -2.1316190138741833e-12
1.634789526462555 0.07730103702480078 -0.12506853485514707 0.040436834847239006
1.634789526462555 0.09332115297301077 -0.10705197328806719 -3.0543455940225707e-27
1.634789526462555 0.11202135889969722 -0.09756377623235464 -2.276774600493921e-26
1.634789526462555 0.22099396923982972 -0.07283492347534885 -1.654323756909155e-12
1.634789526462555 0.24111561597031808 -0.07318031713489183 -1.9708946698328876e-12
1.634789526462555 0.21613882133437606 -0.0491493995526223 0.0043761024321220515
1.634789526462555 0.25006249184421514 -0.11531215208053514 -5.352787555694527e-13
1.634789526462555 0.15754468053140863 -0.10286302291967524 -1.1911538389275114e-12
1.634789526462555 0.20498682803988558 -0.06355458656155388 -5.605682619917744e-13
1.634789526462555 0.2585467286257609 -0.10251181385064236 -5.183810106077716e-13
1.634789526462555 0.1898586429057409 -0.07408832124820595 -1.4686042339854633e-12
1.634789526462555 0.19246811919416645 -0.059146550408231795 -5.137736474823682e-13
1.634789526462555 0.19053612391998107 -0.042341757971019786 0.028077638825346973
1.634789526462555 0.13495526523164936 -0.10535794923611433 -1.4951269395761514e-12
1.634789526462555 0.17865264321396804 -0.12605471090380657 -1.5567852691653486e-12
1.634789526462555 0.20001256317241947 -0.10996861300801596 -1.4277877801046964e-12
1.634789526462555 0.15735949395002619 -0.0432417240645345 0.017453202864935895
1.634789526462555 0.2439008653910361 -0.10359802298303401 -1.1696460733575207e-12
1.634789526462555 0.23466873400761096 -0.11750259332625292 -1.2384220061234372e-12
1.634789526462555 0.2787298300020405 -0.11592000034469227 0.007149777191288317
1.634789526462555 0.143639542121071 -0.04849703976800897 0.010419489329605198
1.634789526462555 0.18198798973000604 -0.01900723012211018 0.055823215795529985
1.634789526462555 0.207842338584942 -0.08588219549462599 -1.5682572523708255e-12
1.634789526462555 0.3017410196363221 -0.12487591132890083 0.06265602806589873
1.634789526462555 0.11546262264110045 -0.114344801192817 -4.822530492117404e-13
1.634789526462555 0.23285122562401306 -0.10207092127708403 -1.6506600196102787e-12
1.634789526462555 0.19804517060147764 -0.09505319335472082 -1.5653186157863894e-12
1.634789526462555 0.16649982639234748 -0.12556498289752202 -1.71627115502429e-12
1.634789526462555 0.17129447263707293 -0.10399546103620508 -1.841189964977799e-12
1.6347895264625552 0.20497697419356625 -0.03610709119261417 0.05385012734501997
1.634789526462555 0.15950259698545224 -0.07718520812420189 -1.0864364530989018e-12
1.634789526462555 0.1616124737018118 -0.11456633547239006 -1.6731929715946434e-12
1.634789526462555 0.2720612542906232 -0.09693537882345574 0.0006873888142210736
1.634789526462555 0.143602289249049 -0.07076079271333816 -1.0397023367647962e-12
1.634789526462555 0.1396073725188548 -0.08324077045771892 -1.3687567369397698e-12
1.6347895264625547 0.15713886960231044 -0.0899885705135752 -1.104725375773679e-12
1.634789526462555 0.09025062064942248 -0.12623098434112257 8.41422294471483e-05
1.634789526462555 0.19259040140280445 -0.12649125080126639 -1.7368470615775427e-12
1.634789526462555 0.14625982881255828 -0.09912973988797809 -1.2365351452883028e-12
1.634789526462555 0.16851674624319374 -0.09175948869908833 -1.5820991594974838e-12
1.634789526462555 0.11346119102644937 -0.08418580237210477 -1.680492916815835e-12
1.634789526462555 0.18177909262160302 -0.03162836510408791 0.04565291921440198
1.634789526462555 0.14919435269375939 -0.12172433202094851 -1.0468048318851157e-12
1.634789526462555 0.21901266400551034 -0.09605878488751254 -1.625991237689239e-12
1.634789526462555 0.12918370945567617 -0.06843929954951056 -5.035146979578994e-13
1.634789526462555 0.2016014353943632 -0.04754898399364 0.010731331762735418
1.634789526462555 0.17553701046705916 -0.06975934715140024 -1.4895320080596696e-12
1.634789526462555 0.21664502965253046 -0.06115662008381568 -1.141553737038743e-12
1.634789526462555 0.2410742919553107 -0.08916935781194674 -1.590821542731677e-12
1.6347895264625552 0.2889905313730554 -0.11036953975530597 0.05536428175002713
1.634789526462555 0.10307973534679549 -0.1175262435602504 -5.131793702966154e-13
1.634789526462555 0.13402007491642326 -0.11858844738108704 -1.0567428141645025e-12
1.6347895264625552 0.08088824742785262 -0.11440767008572704 0.02046381110208541
1.6347895264625552 0.16616505783109062 -0.05718645372119802 -1.670224902163163e-12
1.6347895264625552 0.12380038463617546 -0.09139680011794703 -1.614099524855896e-12
1.6347895264625552 0.08366111082917944 -0.10138630982436485 0.01930467178920896
1.634789526462555 0.2566309133148123 -0.08213586073711754 -1.653066873473795e-12
1.634789526462555 0.06961642037859696 -0.10991694002399627 0.054759628619056804
1.634789526462555 0.10100569026939665 -0.07932528344448322 -2.0618041001227296e-12
1.634789526462555 0.12560097083512523 -0.04595704746007023 0.016097086770384652
1.634789526462555 0.10725317731266357 -0.06764853940615391 -1.6944309988060844e-12
1.634789526462555 0.11743016833018412 -0.061169744642374686 -1.1028474659883093e-12
1.634789526462555 0.16018911551693743 -0.025571126785301716 0.06328686771054567
1.634789526462555 0.06799895431222731 -0.09817476940793685 0.05372554768542807
1.634789526462555 0.08086055171882409 -0.08872000006626558 0.038970000007030645
1.634789526462555 0.08846825435195102 -0.07891225403425958 0.01832241437369165
1.634789526462555 0.0560000321530913 -0.09819402591420065 0.07827963876856622
1.634789526462555 0.10485175304157397 -0.05288650124085781 0.010013160176650248
1.634789526462555 0.11292414305533843 -0.04510110408204219 0.01544709151118677
1.634789526462555 0.13531853300156105 -0.024094319786416213 0.058989416765738954
1.634789526462555 0.07451846871060602 -0.07017322239937879 0.06321607018465433
1.634789526462555 0.14340334285986733 -0.014634306173401022 0.05450999257882653
1.634789526462555 0.08881588323613801 -0.05817073705136526 0.018074895007108082
1.6347895264625552 0.12437306530905638 -0.029704647678639062 0.06903746033543608
1.634789526462555 0.11125049555187773 -0.031148804848102847 0.06711239533151499
1.634789526462555 0.062376085463953665 -0.07614167329067192 0.07098387756708531
1.634789526462555 0.09326276027541033 -0.042651528647583085 0.06644897757483605
1.634789526462555 0.06556872210075071 -0.06339389694430354 0.07407229219809734
1.634789526462555 0.0809304284181518 -0.04339818819655026 0.09182895604053026
1.634789526462555 0.09401615495685824 -0.030229057558367647 0.08345760393370279
1.6385564273463413 0.30819210593648105 -0.09513431076527087 0.05832305179124861
1.6471343657152437 0.30911173051462637 -0.12177745873545015 0.06540439411676491
1.657249824713465 0.3085511526239663 -0.10052000402279691 0.0309911083984285
1.6520428700629042 0.3048053470616091 -0.07017338615987885 0.05931923406580386
1.6479489665713256 0.30104153077057366 -0.05780445162778346 0.08722261050389968
1.6355136309526945 0.27430897225154227 -0.02479389700096161 0.057494271490970375
1.6371955636023294 0.2848459925721691 -0.031241513552817724 0.059175153845220915
1.6747795143550162 0.29045695587165393 -0.03714575450495888 0.062241035102338124
1.6599672148885651 0.2933693516965929 -0.04170841009285371 0.04466552971644905
1.6618498994660906 0.30911646762924055 -0.12341267822507801 0.02309349420431578
1.6559894905852957 0.3067217113780406 -0.08401904259912747 0.04096850570825428
1.6922204378161674 0.30883021750189965 -0.10689652881369119 0.018438404527222504
1.640915373760337 0.30564989364578676 -0.07433921893723051 0.06788551253297703
1.6620575778417561 0.301313038192028 -0.059612088966761456 0.033531870099250724
1.6769461302170932 0.3091651429126091 -0.12278717352832773 0.004354092630354001
1.6722734910834434 0.308538329556762 -0.10154646129574801 0.005336003242813419
1.6832360707887908 0.30775249122595655 -0.09138302105740193 0.0202421781690783
1.6896997781843386 0.30496012454670796 -0.07116944491341756 0.029358437627998852
1.6963401598636252 0.3097401517663973 -0.08459901730340828 0.01845036318099542
1.6684740595208039 0.30678333610945085 -0.08490468539755339 0.016130412018902612
1.6919498527970722 0.30925895451968133 -0.12187816881323676 0.017004225626802462
1.685537540575711 0.3017963307692657 -0.05868034091038029 0.034473606920113524
1.675121014945482 0.3039122366770424 -0.06615397563905875 0.029842942411749646
1.670773731457821 0.29728043513130925 -0.04782501300334725 0.04353351642634719
1.648677847579421 0.2963538423675997 -0.04612749252491449 0.07221870006847063
1.6576001029744871 0.2713537972416158 -0.023161195177018923 0.059740990407919324
1.665999665505029 0.2855996195594454 -0.03185716393576035 0.06283391842554174
1.9381548013354193 0.3569376934190103 -0.06354603012375726 6.18155821077626e-05
1.6731299306961103 0.23632609020115777 -0.0008825375800082606 0.020197409903366378
1.6736334776564923 0.2637484338778081 -0.0021653693574046375 0.051171715209409
1.6945000696127563 0.30811121003729147 -0.0012181957967428469 0.08245234717228649
1.7143679074945277 0.3303706503374867 -0.003848340755244232 0.07106113467471925
1.727088913465709 0.33206004257091426 -0.0011815127324971242 0.07350650660659079
1.7536394741901435 0.34847886845818443 -0.0034241071543813315 0.05832182203247173
1.6858398381102255 0.28192961875582867 -0.00024099045830184153 0.06339548115506556
1.6914803565243064 0.2950611445447421 -0.00013111585833272793 0.06747421936297443
1.7139963691079687 0.319265771578199 -0.0013952141040858247 0.07234679586742179
1.6841793570926917 0.2440842268292645 -0.0030227664821758137 0.029082726112762754
1.6944069108064879 0.2686606198686131 -0.00335670315051595 0.03290212197285967
1.7151209099704476 0.30093360663984203 -0.0033967491070169423 0.05051848765693181
1.6766942364072355 0.22262315512643924 -0.002351908395733395 0.0215470100329427
1.7282744748583454 0.310163533759107 -0.0034332193537508927 0.06021256945692356
1.7282122632282018 0.297646822071694 -0.0034642219543460206 0.013050744241619637
1.7527252854017275 0.315658649194702 -0.003464221954346025 0.02194628893478054
1.7399821424998052 0.3096264929494168 -0.0034642219543460227 0.022451664595538146
1.7105695486541266 0.27582907803733814 -0.0034642219543460175 0.01010957333833111
1.7000945221878232 0.24886855684114506 -0.0034642219543460154 0.015454146357101803
1.7305300361069644 0.2827354184109553 -0.003464221954346021 1.6953254578157358e-05
1.7840458443036986 0.31429988161036415 -0.003464221954346031 0.00032657364440888035
1.7472094546401944 0.2887956123988323 -0.0034642219543460236 1.970499598535561e-06
1.754811925118757 0.30439114923761107 -0.0034642219543460253 0.0002937012759573822
1.6982579043457422 0.236059078994252 -0.003464221954346015 0.015432376931861228
1.7247451351532233 0.2485145707923898 -0.00346422195434602 5.738647297469618e-07
1.7403729662422995 0.27061255927311484 -0.0034642219543460227 1.7697751305453486e-07
1.7634434340051435 0.2881050184861727 -0.003464221954346027 1.9832907005802932e-06
1.7668868035114322 0.29905176285230384 -0.003464221954346028 4.481249830165774e-05
1.7131179658473508 0.2537471984947509 -0.003464221954346018 0.0005119407038522368
1.7785219240883423 0.30377945437900505 -0.0034642219543460293 5.2325740954614624e-05
1.7225228879263714 0.26228562970137725 -0.0034642219543460197 6.631394690660386e-07
1.8038587801547243 0.32612514328481673 -0.0034642219543460345 0.03094546875523351
1.7523796534614382 0.2712116143536893 -0.003464221954346025 2.1635656078122014e-18
1.7188466121001227 0.23755786844292137 -0.003464221954346019 9.642864044506957e-06
1.79510802731088 0.31084647087376266 -0.0034642219543460327 1.7603551885384076e-05
1.7545616168213192 0.2589988665912455 -0.0034642219543460253 -2.478409127875418e-30
1.729598771420351 0.22591322808711511 -0.003464221954346021 9.567477299232906e-10
1.6983284236749858 0.20273525302579792 -0.003464221954346015 0.0005464168243832305
1.7161563483308027 0.21961073255916824 -0.003464221954346019 5.3930990446934226e-05
1.7836304392746176 0.2855538724994649 -0.003464221954346031 -4.064839049468589e-18
1.7388260568139546 0.24816314295552896 -0.0034642219543460227 3.919412842737741e-18
1.6975738521539068 0.1898172184534791 -0.003464221954346015 0.002333411191959928
1.7141969107080302 0.2080696517732907 -0.003464221954346018 2.0687184612445137e-05
1.703467420452148 0.2144952179270426 -0.003464221954346016 0.0005725948635614276
1.7661495095673079 0.2716642219720277 -0.0034642219543460275 3.9353801781947996e-18
1.7498998170364968 0.24450211910372854 -0.0034642219543460245 2.058016495741405e-18
1.7979062687673735 0.2937001316005123 -0.003464221954346034 3.464180420008286e-10
1.8239788064036888 0.2904063709207519 -0.0034642219543460384 -2.231585334453744e-18
1.8256276754370127 0.14327947126191426 -0.0034642219543460384 -2.203534740742468e-29
1.7757157707702687 0.14041090342926135 -0.0034642219543460293 -1.969169947354004e-18
1.8123322768566545 0.061010559628747636 -0.003464221954346036 1.353611146182775e-07
1.78722060674064 0.16139522194555822 -0.0034642219543460314 -1.0633890287338005e-29
1.7106569380103975 0.19524428005752162 -0.0034642219543460175 1.9471825072877983e-05
1.7312258038856063 0.15654653925596518 -0.003464221954346021 1.8406694613774745e-18
1.754161931945914 0.21599797344297633 -0.0034642219543460253 -3.877141337868425e-18
1.7699401807092052 0.1921494892396994 -0.0034642219543460284 -2.309054525928206e-30
1.7322455416098803 0.1908251129320004 -0.0034642219543460214 6.0132537896320214e-18
1.8103265707324452 0.20446342046871815 -0.0034642219543460353 -3.193118491865204e-32
1.7779293433520804 0.09336586605798229 -0.0034642219543460297 4.163783349549764e-18
1.7599869987121692 0.1809320619386038 -0.003464221954346026 -3.3749505129298073e-32
1.7608177104465779 0.12065257423304582 -0.0034642219543460267 1.9139207741638597e-18
1.7479154104148187 0.17731216036708658 -0.003464221954346024 -5.376631748519778e-32
1.8209756892624354 0.3131121121534907 -0.0034642219543460375 5.644083358895052e-05
1.7984481277001136 0.10880720308963969 -0.0034642219543460336 -4.511572106064723e-18
1.8106651688781712 0.17845996210509013 -0.0034642219543460358 4.001056760997399e-18
1.7879203766789606 0.2633580015577943 -0.0034642219543460314 1.993534260314415e-18
1.7204240867073815 0.18752835018713873 -0.0034642219543460193 2.582202969756208e-08
1.732768062592076 0.17247281481476753 -0.0034642219543460214 4.412907343566576e-18
1.7063275326054859 0.17900707627275803 -0.0034642219543460162 0.00011357028596434057
1.8231138069606174 0.08855898760250412 -0.003464221954346038 -1.940423974691885e-18
1.8222618459007953 0.22172942779705837 -0.003464221954346038 -6.1533405340747556e-18
1.8057284301565548 0.23718445349799494 -0.003464221954346035 1.7008609077299637e-18
1.7867816371644965 0.23512354478616432 -0.0034642219543460314 -1.9360750006213342e-18
1.7849518885674245 0.20516954935078258 -0.003464221954346031 -3.893146765967445e-18
1.772126238106829 0.26071121461340807 -0.003464221954346029 6.35978167283817e-18
1.8102195562955248 0.16457821031911352 -0.0034642219543460358 7.766595979491108e-18
1.7900020187476122 0.22015624328259467 -0.003464221954346032 -4.022983078784345e-18
1.8198992655950903 0.18785814137971873 -0.0034642219543460375 2.208440396123048e-18
1.7526026442569442 0.16430193605949542 -0.003464221954346025 2.0663575374877688e-18
1.7944687398509114 0.19951268598293173 -0.0034642219543460327 -5.89318155799429e-18
1.8106264252128677 0.2640843199668141 -0.0034642219543460353 -3.9658396868090725e-18
1.773507209822937 0.21450090812007622 -0.003464221954346029 1.805536147548067e-18
1.7961081597422346 0.1403152401216736 -0.003464221954346033 4.166496135388612e-18
1.7122924570866704 0.16616833775700757 -0.0034642219543460175 0.00010720059108133964
1.7739886511332728 0.1687155254871947 -0.0034642219543460293 -3.8588791717216575e-18
1.812736884753022 0.2754738019548704 -0.0034642219543460366 -5.958035232069944e-18
1.742147910251954 0.2190943305380604 -0.0034642219543460227 -6.1811602176106066e-18
1.785360354358842 0.15034691851215032 -0.003464221954346031 4.139122051698555e-18
1.7971282206357202 0.15463655656591946 -0.003464221954346033 2.199125229857279e-18
1.756523157365069 0.13508936448397432 -0.003464221954346026 0.0
1.8184819752829926 0.10259651768002781 -0.003464221954346037 -6.773122508680714e-18
1.7752746004086077 0.18079074381178611 -0.0034642219543460293 -6.929442465106293e-18
1.8266166777291988 0.16237458134377772 -0.003464221954346039 -1.0142659784364126e-17
1.789542679876749 0.12287725402327469 -0.003464221954346032 -2.6943770101296068e-30
1.8026443012827686 0.07995700254439622 -0.0034642219543460345 -5.509756394919743e-18
1.7880757967476517 0.24852634933040293 -0.003464221954346031 -2.1175808316729828e-18
1.765772935701295 0.15812723760477443 -0.0034642219543460275 1.9705896856387055e-18
1.728390954110012 0.21361220223855432 -0.0034642219543460206 1.1938858128834987e-09
1.8048664064119706 0.11925170825239431 -0.0034642219543460345 3.925097140624465e-18
1.827426189479739 0.13187840174977883 -0.003464221954346039 -4.218325177094012e-18
1.769517629994938 0.2323267628599911 -0.0034642219543460284 6.444144965505016e-18
1.8108327720159862 0.1504852910396387 -0.0034642219543460358 8.35287842246918e-18
1.80120297486534 0.27486778548721946 -0.003464221954346034 2.0916796099140855e-18
1.8182174343782689 0.11566018586607378 -0.003464221954346037 -6.259184812414081e-18
1.810514543618215 0.29582253871725644 -0.0034642219543460353 -1.9861531054102476e-30
1.7975283258019779 0.1706023858175845 -0.003464221954346033 -4.017623217092199e-18
1.787325097014959 0.1039390546149517 -0.0034642219543460314 2.107931219165169e-18
1.7736285819717614 0.24414605504367629 -0.0034642219543460284 2.4320075285357186e-18
1.8041764980769455 0.09853061544852852 -0.0034642219543460345 -8.217135775778524e-18
1.760882196421323 0.23977741875337513 -0.0034642219543460267 4.2408138653165465e-18
1.7402504408373405 0.1295684416487346 -0.003464221954346023 1.9490170982840808e-18
1.8054031469554033 0.19330110088365507 -0.003464221954346035 1.9304395681448454e-18
1.82735909383639 0.2637493355611496 -0.0034642219543460392 -1.1787630271614915e-17
1.8245446429996761 0.24314724311575905 -0.003464221954346039 -1.9210455567445038e-18
1.8247283242275028 0.20979149470660588 -0.0034642219543460384 -5.937448372030951e-18
1.7895831939489812 0.182141196550868 -0.003464221954346032 -9.139370863423527e-18
1.748750645741484 0.19111061301281734 -0.003464221954346024 1.8981081677446612e-18
1.7422424449622207 0.23190591130660365 -0.003464221954346023 -2.2151824095607226e-18
1.8301319155424807 0.11556269956945192 -0.0034642219543460392 -2.1322098425056026e-18
1.7418903879534062 0.14749394460667634 -0.0034642219543460236 -3.908328459630059e-18
1.7760691898851244 0.11856930519029316 -0.0034642219543460293 -1.7431234136155344e-30
1.828359105793315 0.0469925604335603 -0.003464221954346039 0.0001942441419426173
1.8081702299854356 0.1358041043121329 -0.0034642219543460353 -9.906390823386309e-30
1.754017859528502 0.2026250625808416 -0.0034642219543460253 -3.930975091283891e-18
1.802068338672236 0.2527424965406753 -0.0034642219543460336 -2.157882837474405e-18
1.7950751486959708 0.08915781224100901 -0.0034642219543460327 -4.4265599160321256e-18
1.8423459004615759 0.2592107787092463 -0.0034642219543460414 6.974191442508245e-18
1.8538046940310833 0.2601066090487757 -0.0034642219543460436 6.458375212000698e-18
1.8606271167181097 0.32270698429740474 -0.003464221954346045 0.011811785578929541
1.8343565097100087 0.06797255414542767 -0.00346422195434604 -1.830301930793934e-18
1.8346075015268988 0.19061606735192227 -0.00346422195434604 2.202120180465728e-18
1.8548004397390017 0.2814663268721964 -0.003464221954346044 4.9112513815639366e-18
1.8350526401838898 0.09787980449232558 -0.00346422195434604 -2.1684361543053767e-18
1.8463866810438319 0.27042499671260123 -0.0034642219543460423 6.851182097302093e-18
1.843098370604257 0.15391311914733286 -0.003464221954346042 -2.0898035651374037e-30
1.8376010250943846 0.24075122803758503 -0.0034642219543460405 -3.9779736193252165e-18
1.843315308375065 0.32641504554647593 -0.003464221954346042 0.013937234559573389
1.8321166810066472 0.17251819959867798 -0.0034642219543460397 -3.8512158146516305e-18
1.837466808252084 0.21490130981785105 -0.0034642219543460405 -2.031408480016908e-18
1.8364063735149596 0.30110460208374895 -0.0034642219543460405 1.6278457411163496e-06
1.8492995579521532 0.29886864479865394 -0.0034642219543460427 1.3030587712039786e-08
1.832340062457634 0.27912224108896555 -0.0034642219543460397 -4.2198384267501744e-18
1.8416509744357197 0.28838238072616734 -0.0034642219543460414 -4.110869118729587e-18
1.8458604059281203 0.22939986043173632 -0.003464221954346042 4.200692764939321e-18
1.8457770137468552 0.20390900874303913 -0.003464221954346042 4.0758845725737495e-18
1.832268355408436 0.32558098735327523 -0.0034642219543460397 0.016648136920884755
1.836955485788966 0.13981121290795473 -0.0034642219543460405 4.3386625716295706e-18
1.8503944344671854 0.3118938270546841 -0.003464221954346043 0.0003732146566112963
1.8424785479993135 0.05474903891801643 -0.0034642219543460414 4.299555037327072e-06
1.8599579117249994 0.19298789178216585 -0.003464221954346045 -3.338021864293379e-32
1.8483498737714834 0.09040456936679152 -0.0034642219543460427 -6.7720727995331226e-18
1.8500945754705103 0.07417396721227293 -0.003464221954346043 -1.979863225857483e-18
1.8585977282837827 0.2415426362848872 -0.003464221954346045 1.934090548780935e-18
1.8344680614170163 0.03415491649242777 -0.0034642219543460405 0.016611715961894837
1.8592985465133407 0.15914455985384296 -0.003464221954346045 -3.790354548699045e-18
1.8534363820078799 0.03500436321325072 -0.0034642219543460436 0.008980155691254915
1.8488117337439696 0.17140622589359045 -0.003464221954346043 -1.9347918684050498e-30
1.8478928105675845 0.11361079137790236 -0.0034642219543460427 2.0601060637686826e-18
1.8488861770320693 0.18415758286670109 -0.003464221954346043 0.0
1.852968793303992 0.10083574367354631 -0.0034642219543460436 -2.02597713019612e-18
1.8561029770479522 0.21628920689649028 -0.003464221954346044 4.219540262053857e-18
1.8603330526058859 0.06343347180003892 -0.003464221954346045 5.773342773004895e-10
1.8522468445202385 0.13925779645604966 -0.0034642219543460436 -7.75693771341764e-18
1.8453770865351067 0.043128369168871875 -0.0034642219543460423 0.00041220361058687315
1.8615143087887183 0.08047383686055237 -0.003464221954346045 -9.803920456083084e-30
1.8399122028733101 0.0818698955043792 -0.003464221954346041 1.8887111636505066e-18
1.8749766603116527 0.2845462483887697 -0.003464221954346047 0.0
1.8670009379072983 0.2305864880399418 -0.003464221954346046 -7.665778382011193e-30
1.8739664241195841 0.3005875770081693 -0.0034642219543460475 1.5020035775045046e-08
1.8629382261531586 0.11337067994204356 -0.0034642219543460453 -1.9201152626695173e-18
1.8767538681698304 0.3160952410873285 -0.003464221954346048 0.00030212501832504584
1.865956671346231 0.20530314608757122 -0.0034642219543460457 2.2618236788800515e-18
1.8676157882004376 0.25123528528533146 -0.003464221954346046 -4.168629073166751e-18
1.864526469725942 0.272534556850894 -0.0034642219543460457 -4.1088700901204186e-32
1.8629530668544163 0.2990016402014641 -0.0034642219543460457 1.1832041270197061e-08
1.863561324554928 0.12935498194917544 -0.0034642219543460457 1.8430904000901842e-18
1.8630616063768977 0.17267565835579096 -0.003464221954346045 2.054743775864997e-18
1.8777190183379708 0.2682013940208974 -0.003464221954346048 5.8328743416636826e-18
1.8765299017267094 0.1923798388864027 -0.003464221954346048 1.833467991012471e-18
1.8776824524125906 0.1409821816078074 -0.003464221954346048 2.1955987274847303e-18
1.8677100384012428 0.04626374260503695 -0.003464221954346046 0.00020908377945945715
1.8709291233079464 0.09007134439106235 -0.0034642219543460466 -4.061316081134522e-18
1.87329611343039 0.06511143944360778 -0.003464221954346047 6.107824121760286e-10
1.8756720810314678 0.21454259469512707 -0.0034642219543460475 -2.044196390363254e-18
1.8760976605300994 0.03247324566137137 -0.003464221954346048 0.0341294332734861
1.8728654951682997 0.07652491331900807 -0.003464221954346047 -4.370800037918949e-18
1.875141459254257 0.15267424486653539 -0.0034642219543460475 4.4067693128536554e-18
1.8772192740697085 0.10729722033610398 -0.003464221954346048 6.708183668053345e-18
1.8871709390172575 0.3051629647729348 -0.0034642219543460496 9.875280034210042e-06
1.8848994682936309 0.1594833089737221 -0.003464221954346049 5.964691599027481e-18
1.8800565916145449 0.32929291125909144 -0.0034642219543460483 0.03241115029351685
1.8807189303136822 0.1282458990643391 -0.0034642219543460488 2.08507487479559e-18
1.8810968861602189 0.24277331315162304 -0.0034642219543460488 -2.458636290460295e-30
1.8905264217135285 0.25738881996858554 -0.0034642219543460505 3.785581553409037e-18
1.8904672299635674 0.2822806422694992 -0.0034642219543460505 2.021560877958225e-18
1.8923837945187016 0.29399683342170263 -0.003464221954346051 3.791409883172574e-09
1.883515754798185 0.09540419842820724 -0.003464221954346049 -6.204158703459591e-18
1.8841710285023154 0.2255220164521758 -0.003464221954346049 2.1167116728088793e-18
1.8875229472900745 0.18341853941079136 -0.0034642219543460496 6.17874745474707e-18
1.8902324812846247 0.04376508591896674 -0.0034642219543460505 0.00037445334348199893
1.8955332761687453 0.08927973487244212 -0.0034642219543460514 -2.1587969196193466e-18
1.886769993068364 0.06353792376980119 -0.003464221954346049 6.686057288109399e-18
1.8950857990057182 0.23700414920993165 -0.003464221954346051 4.467602049362299e-18
1.8902751721114637 0.07672318041090798 -0.0034642219543460505 -6.552878610195967e-18
1.8918968798233509 0.1728249325572425 -0.0034642219543460505 -8.377606825440553e-30
1.8915549374089484 0.19681832519747375 -0.0034642219543460505 -6.762892477309027e-18
1.8965132867521628 0.1495243379041571 -0.0034642219543460514 -7.978688394325377e-18
1.8909275042055573 0.1392618577784545 -0.0034642219543460505 6.348338525198722e-18
1.8811771984841719 0.052055024067148646 -0.0034642219543460488 4.798853538815113e-06
1.8948632363346012 0.20798744918865977 -0.0034642219543460514 -1.8558256733342085e-18
1.926213213923053 0.06278460412231111 -0.003464221954346057 4.19705002105316e-18
1.8969714782861737 0.12547441749761637 -0.003464221954346052 -8.376296423235319e-33
1.9138466246199164 0.16926607530148172 -0.003464221954346055 9.503848541423536e-18
1.9175933658544273 0.12112964510156621 -0.0034642219543460553 -6.905437680840075e-33
1.9122916156955112 0.08758742537841807 -0.0034642219543460544 4.312852839325473e-18
1.8989565381404918 0.3063017275391354 -0.003464221954346052 3.0438567422539133e-05
1.9009054030660564 0.034591662194913955 -0.003464221954346052 0.013885586780101385
1.9109427389346045 0.19836086402526534 -0.003464221954346054 -2.0025699022473665e-30
1.9162162201123087 0.032154704817626924 -0.0034642219543460553 0.02149396816829929
1.919394343457542 0.07314887771399424 -0.0034642219543460557 9.672256183164468e-18
1.9102885036604234 0.10099041888687119 -0.003464221954346054 6.210276465229679e-18
1.913472912759065 0.18344595469437866 -0.003464221954346055 -2.2160689932666356e-30
1.9051715482928515 0.07538457731647777 -0.003464221954346053 -4.278838455129607e-18
1.9050313661768123 0.13981059594846684 -0.003464221954346053 2.2387963714365512e-18
1.9128918831155994 0.04936528939907402 -0.0034642219543460544 6.0238962923745035e-05
1.9083382674069558 0.1586062810723862 -0.0034642219543460535 -2.133249192902886e-18
1.8998049271185546 0.24771501940421722 -0.0034642219543460514 -2.1813579974902e-18
1.8975658457637816 0.056086559663858365 -0.003464221954346052 4.1184389786168425e-07
1.92957780442038 0.030534964765617373 -0.0034642219543460574 0.018376167296041704
1.9041184148032317 0.2207584029055261 -0.003464221954346053 -3.853824656132361e-18
1.898933124320103 0.317640673572469 -0.003464221954346052 3.788702676957724e-05
1.9040539520283368 0.1767159073328955 -0.0034642219543460527 -4.4790893813820664e-18
1.9071618180454648 0.23543487341607278 -0.0034642219543460535 4.326483547697384e-18
1.8981697930166979 0.11358101369222681 -0.003464221954346052 -7.110860992050278e-18
1.9161143164585963 0.14701382247983735 -0.0034642219543460557 4.04942310189742e-18
1.9062261057632741 0.28719824500999036 -0.003464221954346053 2.2455500449094476e-18
1.9227220393753761 0.19693585563280433 -0.003464221954346056 -2.2328630632297188e-30
1.9189609192032946 0.2783519288364364 -0.0034642219543460557 4.9630449438844235e-18
1.9090817857800935 0.2548405672607167 -0.0034642219543460544 -9.735937165408969e-30
1.9176516130583583 0.3045384081830696 -0.0034642219543460553 1.7083013226470415e-07
1.9059361907853827 0.26724335705376057 -0.003464221954346053 1.9648344441992762e-18
1.9154093830193468 0.22216340960575726 -0.003464221954346055 8.530874685651224e-18
1.9131599509855826 0.320350276024807 -0.003464221954346054 0.00025249912542760347
1.9177953411991449 0.2662995153142706 -0.0034642219543460553 4.4221826960063096e-18
1.9254371328792474 0.16121323104812607 -0.003464221954346057 4.319826583995994e-18
1.923175300419849 0.23471325641447705 -0.0034642219543460566 1.914858434767942e-18
1.928578961856389 0.22165326768369406 -0.0034642219543460574 1.9795703316519186e-18
1.9338641788303894 0.2961809267824237 -0.0034642219543460583 8.722053233735325e-10
1.9280151027813002 0.2493279129776803 -0.0034642219543460574 -1.862368918914302e-18
1.930133916889458 0.2704657301347948 -0.003464221954346058 -8.936638095353014e-18
1.9272345915522786 0.3176855810286408 -0.003464221954346057 0.00011052640055442869
1.9343311799491747 0.2809878983309287 -0.0034642219543460583 -4.396636462842635e-18
1.9324579088811698 0.20635922157424655 -0.0034642219543460583 -3.901809979164836e-18
1.928598845200014 0.1733624111571065 -0.0034642219543460574 2.2839072475216384e-18
1.9219565023144356 0.2919957426181412 -0.003464221954346056 -2.2071802536958173e-18
1.9301603707752721 0.11606826581411638 -0.003464221954346058 2.0279243398860956e-18
1.9294926739074154 0.05013885290922811 -0.0034642219543460574 1.0606428312576253e-05
1.929445094687392 0.0893060642354389 -0.0034642219543460574 -1.919293361653708e-18
1.9303327196915465 0.1289579495960709 -0.003464221954346058 1.7855681490707766e-18
1.9325307543190269 0.15092937707747917 -0.0034642219543460583 -2.2769236465745866e-18
1.9481719576228997 0.19121139767504616 -0.003464221954346061 -1.780016231992912e-30
1.941678992053366 0.16253792576625503 -0.0034642219543460596 8.649858528607458e-18
1.9490834627905724 0.059783185581192624 -0.0034642219543460613 4.0807557133728276e-07
1.9459385576964074 0.1403735718407762 -0.0034642219543460605 4.089858761171978e-18
1.9449224367452422 0.07054594984716134 -0.0034642219543460605 -4.45364221327986e-18
1.9435159363933074 0.21658477705397838 -0.00346422195434606 -1.6388359910637208e-31
1.9453342805568365 0.22996200435460004 -0.0034642219543460605 -2.1510385062673786e-18
1.9415924954469421 0.24972916962590996 -0.0034642219543460596 -5.5721331844778705e-18
1.9397551542058256 0.08233261795858651 -0.0034642219543460596 0.0
1.943654492690565 0.045856551263969106 -0.00346422195434606 0.0005226108489075497
1.939831082784447 0.09679648161204848 -0.003464221954346059 2.0491383025188122e-18
1.9570579775795545 0.05033944268492303 -0.0034642219543460626 0.0003145953420430078
1.9484662324427275 0.11283255674429479 -0.003464221954346061 2.0006204113306233e-18
1.9403740151929716 0.17453466682019514 -0.0034642219543460596 -2.0367541837625e-18
1.9430346210254448 0.1264274021982736 -0.00346422195434606 -2.0445968704455128e-18
1.9441735046789645 0.26987980701730013 -0.0034642219543460605 -1.9543387020423133e-18
1.954246968472336 0.22091113740986806 -0.003464221954346062 2.0231145939732555e-18
1.9489667772960368 0.3271585251386531 -0.0034642219543460613 0.03827457404304197
1.9478592583879495 0.28041324010005814 -0.003464221954346061 -2.1658775856914167e-18
1.9594133892318326 0.09873559754746718 -0.003464221954346063 -6.970178296047964e-18
1.9602092663307984 0.08690510392872813 -0.003464221954346063 -6.633862144144794e-18
1.9478896766943232 0.3085743103632367 -0.003464221954346061 6.758314329621435e-05
1.953603706253455 0.16991880459325603 -0.003464221954346062 -2.2446499606073835e-18
1.9562753488331748 0.15651875583927108 -0.0034642219543460626 -8.822946761128942e-30
1.9790934310600963 0.14828165462345624 -0.0034642219543460665 -6.400487961026006e-18
1.9834789954070862 0.10251295939836057 -0.0034642219543460674 -2.1916100622349972e-18
1.9653325992825437 0.22597349062264385 -0.003464221954346064 -2.3624883014466784e-30
1.9853893438226717 0.07932699617690403 -0.003464221954346068 6.629482643136212e-18
1.9711825438829098 0.12338139090139 -0.0034642219543460652 -5.9084842999870265e-18
1.962432439366143 0.25539393805344196 -0.0034642219543460635 3.669368173275322e-18
1.957604634396859 0.29821800133071796 -0.003464221954346062 1.0219085252854145e-17
1.961174759798798 0.1816727138479539 -0.0034642219543460635 2.042571436805232e-18
1.965967959434137 0.1108575488667192 -0.003464221954346064 1.8128439018109463e-18
1.968906244961202 0.0742493619483644 -0.003464221954346065 -1.3834103977792944e-17
1.9856737059918403 0.050098925766265415 -0.003464221954346068 0.0002329722376910542
1.989690044942425 0.06557154104299572 -0.0034642219543460687 3.1837173921440657e-10
1.9899057831702258 0.037081367048129414 -0.0034642219543460687 0.0260411354289747
1.9622642439048352 0.2382564377668082 -0.0034642219543460635 4.211852715490194e-18
1.9766079658028082 0.08945931783216551 -0.003464221954346066 -7.757499815071022e-18
1.968982758507047 0.05204027706772474 -0.003464221954346065 0.00017788786393161548
1.9615544432407883 0.21102804244127019 -0.0034642219543460635 -2.8466082718765218e-30
1.9644352305337278 0.04128545632255335 -0.0034642219543460635 0.0030233961283233773
1.971615922976258 0.17184933895582463 -0.0034642219543460652 -2.1323580346749797e-18
1.9683348225535915 0.20132455497288132 -0.003464221954346065 -2.3947072985882844e-30
1.958070290048738 0.26849873883360115 -0.003464221954346062 4.7991660608375026e-18
1.9767109488909247 0.13652405884096386 -0.003464221954346066 -2.162110347357317e-18
1.9777553634470513 0.16126996558270562 -0.0034642219543460665 -6.5771059248062165e-18
1.964172009831267 0.1399878759595309 -0.003464221954346064 -2.156403158182241e-18
1.9920607148085114 0.147741326887438 -0.0034642219543460687 6.580067639684792e-18
1.9749942684411126 0.2765745365222758 -0.003464221954346066 -6.886409733470037e-18
1.9859579320037426 0.1835032840246193 -0.003464221954346068 -1.5656848883300163e-30
1.9757762240807044 0.21989561483239267 -0.003464221954346066 -2.3977218569505163e-30
1.9908435872783001 0.1653795381492859 -0.0034642219543460687 -1.8975372432560035e-18
1.9852294822316592 0.285325223112358 -0.003464221954346068 -6.411288089788429e-18
1.987658466898009 0.12039026925973288 -0.0034642219543460683 -2.038270276101817e-18
1.9754296933943007 0.3159806436751673 -0.003464221954346066 3.159755512876822e-05
