x y z curv
0.08558744007188918 0.5799998482577939 0.4014866581322456 0.10064088021900357
0.321837021306551 0.5799997467399063 0.38079444490366987 0.10818958031847531
0.2982026290072094 0.5799998226212042 0.4024434236772182 0.12153440013274461
0.31358213038705696 0.5799996892245471 0.3633275638254517 0.05932722628199439
0.33846108083268467 0.5799996890079324 0.3642686125709078 0.09579999226154766
0.11277718397650965 0.5799998436787746 0.4012215911893689 0.14473754135188432
0.1938210623098481 0.5799998587118623 0.4089754840886226 0.07915887702294813
0.21521929075647828 0.5799998445630145 0.40562557872985466 0.12258411685721393
0.33106706516689527 0.5799997762891886 0.389969936320279 0.13027275348306167
0.17629523898705948 0.5799998133526714 0.39475507993869824 0.1558496188842969
0.20514504870857397 0.5799998049202243 0.3934092145960814 0.14044669978964755
0.1928233573426744 0.5799998193798331 0.3972185547071494 0.1253891004792416
0.35117182983814893 0.5799996645403602 0.35749372925328965 0.07079997245843771
0.3153391767201334 0.5799998139561151 0.4005548213746257 0.1478893730203307
0.25451931039677034 0.5799997948612943 0.39240840954171613 0.14088326465647152
0.24487296604950465 0.5799998320933117 0.4031095480726964 0.11793822310749108
0.15003897513029857 0.5799998330436679 0.39955957816165566 0.12487990081041245
0.27569808211004804 0.5799997458265822 0.37865749700500106 0.09836339603290549
0.16484365773286302 0.5799997915085991 0.38778509889327456 0.14880591419531655
0.30161970844902664 0.5799997102133052 0.36909639094196545 0.0712223895580842
0.3416760855190625 0.5799997457820948 0.3813109929298484 0.12930356525878334
0.246819927102914 0.5799997567331425 0.38073922929438153 0.14765790447335053
0.044851572068832765 0.5799998953110644 0.4119223951753531 0.10725226777332926
0.26680613600604464 0.5799999063609931 0.41155682462640525 0.09762428100307376
0.026243513891511527 0.5630045482035886 0.39333960519168054 0.20578025532263877
0.1528956217942177 0.563025283446178 0.3925395568268845 0.16774611243270712
0.08700626420012197 0.5631061778218768 0.4029461524746634 0.15056664313374804
0.19954487346169192 0.5630272217444287 0.3928184563821439 0.18432740440345766
0.1763369236328263 0.5630626480100703 0.39737930139515787 0.12416721116431984
0.09523024082481474 0.5630399982082418 0.39440453870067227 0.1907226436333374
0.06402480525805013 0.563068845442721 0.39811084608832725 0.12850846722872447
0.11482753179774348 0.5630719581809299 0.3985439614512871 0.13944630178446898
0.21603377812474023 0.5630661258850695 0.3978527673056895 0.13727681729532865
0.050679365506121156 0.5630628688568592 0.3973308336079773 0.10172369937816467
0.028042607035090095 0.5631336336083339 0.40645575661581285 0.14632812440493723
0.1826285880016297 0.5631402588262444 0.40719363404338244 0.09816940282458113
0.31839277986478015 0.5630296079211285 0.393168430091421 0.21402206233647617
0.25621504457313937 0.563093987321023 0.40130965849455236 0.15641688848498528
0.3304168555795428 0.5631093952666422 0.4031575493636086 0.15642268492057582
0.24093420770804005 0.5631138769036885 0.4038204019003466 0.174031308844067
0.09960198964860224 0.5631378749591417 0.40698849239607005 0.11921257487719758
0.22911944403573217 0.5630667516777463 0.39792579475607265 0.18498720089197931
0.2068037187656419 0.5631310226972842 0.40600844156507365 0.12330531886429585
0.15947981125159041 0.5631109012639715 0.4035392969355524 0.12834288999846535
0.29817998753562874 0.563140768980765 0.40712716176581043 0.11194246101542533
0.2673289827444559 0.5630643584219684 0.3975826306624235 0.16877581990053617
0.04710347467530664 0.5631620758781198 0.4100817441253991 0.13031383067508767
0.13676248606968658 0.5631366073640122 0.40678763298598897 0.11886735490026495
0.07503056840253465 0.5631415991217679 0.40748311410423765 0.10773690803811588
0.3084358053261205 0.5630885188394223 0.4005651477183045 0.153212897447364
0.2802593452082215 0.5630200253630495 0.3912847281667054 0.21365787227556698
0.07977880922664435 0.5630233270000435 0.39082527563239905 0.18066134120871344
0.30483664359916046 0.5630238818056956 0.3883890065859751 0.2383945625207233
0.23958198192020064 0.5630257149037519 0.38771402838357727 0.20267634967119355
0.2918563405115676 0.5630198267244536 0.39131660685260666 0.22266278311424237
0.12471092808782146 0.5630240307071503 0.38724778383087033 0.24464310778740161
0.11036051317914267 0.5630233897816037 0.3864807260666235 0.2423242500433205
0.04857123801931497 0.5630208270023953 0.38402536744031357 0.2570161328128986
0.21229163264948545 0.5630267267491998 0.38669745416617063 0.22410604767478096
0.25225962781427774 0.5630274590680385 0.3843027419811872 0.2860972031980879
0.09001250077695885 0.5630222245607941 0.38428941257299437 0.24406851065680843
0.13712281241609509 0.5630243182396442 0.38676284965958735 0.22913862812756142
0.161024910873028 0.5630232376381488 0.38401383614210666 0.22111005356903377
0.18366800412162074 0.5629863978840256 0.3838642150547841 0.23259955267406135
0.03593957950583006 0.5624900736295666 0.382345215659174 0.2773625581724622
0.14703882844552046 0.5619734583121111 0.3812934632680971 0.2211328396452732
0.031895282955174756 0.3102972635432697 0.37986716466551884 0.14215207980063255
0.03222514907963377 0.544885383275268 0.3797217080864046 0.13221444711148075
0.031586379523493316 0.3911522407010716 0.38005112676727554 0.12955686546687623
0.03242188669458285 0.3563680058867127 0.37958277434964593 0.1440282505464431
0.031366793715765735 0.16423328340383808 0.38023052989345457 0.1781739752728208
0.0309304780520618 0.24164575285926249 0.380503558872761 0.21525069934781216
0.032219053392305 0.1811653264437332 0.37966751478273864 0.15217193456828057
0.03870946499022004 0.1189787367289512 0.38106034237839614 0.17900863156702337
0.03570306015136947 0.13289800428769666 0.3799061466355735 0.16769770268320122
0.053073736375776864 0.09444491331741464 0.3800175579695002 0.16704750918778186
0.11686479549505298 0.04339948343898666 0.38242672389417987 0.1461566283292521
0.030501558480455788 0.4507216767541019 0.38089728170020787 0.13891789507300567
0.02931921318649922 0.3354186499132337 0.3830846544416392 0.15559640804355057
0.029160667360540838 0.21579760127151099 0.38418704127242054 0.13954397433955473
0.02974614792871456 0.522405932569522 0.38203014826038 0.11976134510015651
0.030169902562876598 0.2961667138437746 0.3813116418248712 0.16191872245090957
0.030206525890314518 0.26352556619742123 0.38127403956158756 0.13474269360673777
0.0326721530543605 0.27762980293503325 0.379500734513487 0.1202111255490028
0.17525876458652923 0.03164110305733906 0.383346998762573 0.11992449437765686
0.18879221769348478 0.032857011417272125 0.3816215654788687 0.11786801873812608
0.2437295637787299 0.04839486084626592 0.3794295803930047 0.1062438251742783
0.2810763724779547 0.0716864785727104 0.37941046650174076 0.1473534931943564
0.3167043014657302 0.11204807283667861 0.38233432486212515 0.17471652450457179
0.2933004457543818 0.07829963499706497 0.3821550933430989 0.14801573979269908
0.3243694586945174 0.15093291169712864 0.3799982276390723 0.16942300159510204
0.30516059989459143 0.09842010549879486 0.37964760499656147 0.17822130431482677
0.325318961706709 0.1816575115007195 0.3800237745446198 0.15780308050340772
0.3258362286946821 0.22520086027812647 0.38035898590464806 0.18083799218497518
0.32653109710026784 0.4244185033122049 0.3809285387874335 0.14974623988749083
0.32424632202772163 0.5111916180919536 0.3795269654618331 0.09946700416461496
0.3278007258609274 0.16843696239980227 0.384056347586903 0.17131780557937742
0.3278021647733799 0.2109305458510764 0.3839956936500792 0.16889076786329754
0.3274230538800994 0.4966228025475452 0.3824815670892929 0.1260798629672875
0.32777923658148916 0.48089243297524664 0.3834494963478054 0.13503077370878422
0.32687601976720304 0.2942567903422239 0.38138644869941285 0.13416530934856
0.32350777015927895 0.5233507938039107 0.37930028121155557 0.10136472478335523
0.3233291822478005 0.3871541044616129 0.3793247102075541 0.15653315478972493
0.037443246698868296 0.2015215743460782 0.37927572401367915 0.0877366722058106
0.03541890643464712 0.4279100402765358 0.3792810887788378 0.1062523413914288
0.04003146205676991 0.3271240396740228 0.3792384198064186 0.025996269202985593
0.03948285287851172 0.41172521645564053 0.3792304822693786 0.05729805064122976
0.035818080658139476 0.46087697367132674 0.3792699254377631 0.059646648348797904
0.03665899698382612 0.4976339139888969 0.3792548924710447 0.050719804768259394
0.03777599934615081 0.48045451818808016 0.3792463780691878 0.03902175126425109
0.047487280997270905 0.4543555570713315 0.3792739041913369 0.06657697294843118
0.21313234464534375 0.5347377854769936 0.37927853730425637 0.03625808700091329
0.07519035084305963 0.5237471654223171 0.37928274769033316 3.439295094317331e-14
0.05452235342443354 0.4990528173973815 0.37928038825385196 0.011882237348766858
0.10605074838762582 0.4666375614678961 0.3792740771122836 0.01998912431175047
0.21790670532937453 0.5465143228841549 0.3792798701544069 0.10109290326436692
0.09486865372487036 0.4967430026929875 0.37927844000825817 5.357159124184421e-14
0.11806131339662235 0.4771482830870186 0.379274950057347 2.961587891683468e-10
0.057848110099211814 0.5194510538647624 0.37928289890580436 0.013446512801800776
0.22995506921806452 0.5505905673791698 0.3792799067219166 0.1915501708277721
0.10431738451637325 0.5232519371378005 0.3792814932984655 1.824508010529724e-14
0.046538479774939585 0.5075792216858764 0.3792818207247803 0.015134044551880648
0.10060263210560141 0.5349087640013974 0.3792831574845633 0.04130284552253852
0.1558621388996007 0.5035421775453385 0.3792768299469679 1.2448567412063633e-10
0.07738335933916499 0.5465503655890132 0.3792856166556744 0.10719168853964602
0.13968774758929953 0.549389584009163 0.37928343925097247 0.11689519918292492
0.06288643853602524 0.4533114645022781 0.3792741118410253 0.06842282256760909
0.1574858211897891 0.5322401951321769 0.3792804869907602 0.026577791616845318
0.1751568829760685 0.524291641735027 0.3792787336710275 0.0008142911149384426
0.1964780215236206 0.5434248285522227 0.3792803448941578 0.09591460142528893
0.114203297187219 0.5472536425970786 0.3792842034280461 0.1003126120991586
0.14300475921240802 0.5303553680136179 0.37928083414667535 0.0083276715299951
0.04582736916682359 0.546002869578102 0.37928683500847155 0.10346186736529946
0.08888149062102854 0.47018347761422413 0.3792752387135666 0.013850688279958761
0.07810722921337654 0.4803256097094947 0.37927699483111027 6.709773007442837e-11
0.30950741150583083 0.552369476379471 0.379276886992274 0.14293185898483596
0.05222790202349617 0.5349712217474393 0.37928514219366183 0.02955316658117509
0.10081778921923824 0.5496915756385448 0.3792850666703435 0.13983510943467567
0.06916148706075018 0.509411055448261 0.3792811340110464 2.99802594478667e-08
0.11567823770008709 0.5228322365823991 0.37928097463717014 -7.871303112761352e-15
0.1758273522798258 0.5368067664254565 0.3792803300344494 0.042595524490805066
0.08034612460005322 0.5581612692776281 0.37928700203820603 0.2186863532661341
0.17842357567489053 0.4985276703052358 0.37927525747918556 2.816173412888075e-10
0.24993102532443462 0.5441186414889173 0.3792782508066936 0.05449378327410888
0.20569126458478032 0.5556489870576918 0.3792815544463104 0.2608726083723419
0.16521706712362644 0.5493452110980559 0.37928239035841427 0.08636453803087892
0.26620131398877594 0.5504623418876061 0.3792784090533169 0.1641565808639701
0.13589782609851012 0.47999320397099504 0.37927459036288436 3.299776111482869e-10
0.1043552523678864 0.4827627224893621 0.37927623852932857 1.310185862869538e-10
0.1246336507130982 0.5515054770475494 0.3792843288896279 0.1781548171387806
0.04051630711395344 0.5310699226133465 0.3792851145637375 0.023165814052537093
0.24086278725966118 0.5361347242894005 0.3792775854743293 0.04029681698563938
0.0483079726214146 0.48477127530153236 0.37927878923468505 0.015782949833372188
0.1448545884978904 0.4997749414887776 0.3792767909434235 1.1394540507546269e-10
0.05781295358323757 0.5458347573023131 0.3792863234624781 0.07008220484230789
0.2087514270148184 0.5211723250186712 0.3792769562763534 3.079859374314028e-10
0.07546332451698884 0.4550366766684907 0.3792738217812577 0.05502493830646192
0.08984594342538768 0.4859738006795603 0.37927724800119955 3.9683997422082426e-11
0.2741146083381337 0.5387404267635323 0.37927656486877553 0.030145848687584124
0.15762104431501436 0.4915803284884502 0.3792752061026315 2.9879645233393606e-10
0.06550150442047684 0.47555328806416536 0.3792768907258821 0.001083284892683937
0.15167261804733462 0.5432663042033237 0.379282155088487 0.05220581678045491
0.1793307529378489 0.5482587211150967 0.3792816727038244 0.09707394461952074
0.19028077371302665 0.5531139482790703 0.37928185521807367 0.18980124036175963
0.09252599070466444 0.521137599279624 0.37928170077617385 6.884596556303825e-15
0.18637711729826736 0.5108885308908708 0.379276536239345 2.7186469517239686e-10
0.11557218435697417 0.48931207047183367 0.37927662993906647 1.2835294068414443e-10
0.1362250448980499 0.5178688898029182 0.37927949112548975 -5.288300811619442e-14
0.12118186587911793 0.5096781145939608 0.37927904309242744 -3.846114386984658e-14
0.13171542197536706 0.5014244761494668 0.37927754183038864 7.145426396547547e-11
0.08177695659760381 0.5118276525176123 0.37928093207760155 -5.731470239787425e-14
0.2861672468006786 0.5552659900207966 0.3792782164827115 0.21812267122926532
0.11876775556827665 0.5350518194787008 0.37928243381286575 0.017474276577858456
0.13107094265572972 0.5288288278068972 0.3792811237068801 0.00419079951400624
0.055489063929791846 0.46618562351924697 0.379276084441359 0.021614143986985808
0.09630339042895945 0.5089554676093583 0.37927996587528207 1.1838161692724495e-14
0.19842879386668286 0.5116751385290256 0.3792761458617323 3.255462089108927e-10
0.24194414015044505 0.5527437743036473 0.3792796962100811 0.19341334045561456
0.1497227601379677 0.5170982186970876 0.3792788396151575 1.5116665174392142e-11
0.0882704139356509 0.5404407234227915 0.37928437911966384 0.049587579252672535
0.16832280996478552 0.5104134571965092 0.37927721230578026 1.6716724534866879e-10
0.0660354177159494 0.5350686134506931 0.3792845906505017 0.021117612708384345
0.0798561350251909 0.49199839369545745 0.3792784378408743 9.976976108424435e-14
0.22125923105718173 0.525048268124838 0.3792769480831544 0.0024491467993707403
0.11117381894598875 0.5039272251853534 0.37927870588228907 9.825368221510171e-12
0.2888072097373116 0.541549171302492 0.37927649298859833 0.05736973580999599
0.2048251486928338 0.45384565595838167 0.37927334177794014 0.06173472708326816
0.2843689720574172 0.48644294289536216 0.3792745185309586 8.777497266994654e-10
0.26498204073856196 0.5287565849991012 0.37927603202456195 0.020291700857400726
0.24137057912818685 0.4580431325526674 0.3792734963119413 0.05097396252824619
0.21392269869209934 0.5102192704584848 0.3792753621669247 3.882415063013264e-10
0.2535214810708305 0.4650508682733252 0.3792737487235731 0.013402367132631028
0.16166568909467227 0.47268507084126743 0.37927401168837055 0.0009729038681751183
0.3035580680327028 0.49590062831725745 0.3792748595062282 0.014069772137269974
0.2370834073296479 0.43993950799051124 0.37927284733523653 0.06048842072438932
0.3152468047134976 0.5353862391456644 0.37927627524920526 0.03160785811735819
0.12086475976842827 0.46525872422102427 0.37927374100721234 0.019677621537496425
0.14842584325737362 0.478724188453688 0.3792742265012835 3.3671927922574426e-10
0.29728985638813105 0.5117396520747864 0.37927542615664955 0.011977021053751922
0.13490255024422168 0.4688771555086091 0.3792738722268358 0.02137665127597606
0.17381964806768718 0.45402107004562686 0.37927334451765926 0.09602619910631181
0.19551814264493542 0.4811846173237996 0.379274320018257 1.2625631368876121e-10
0.22350977469512878 0.48861905980312537 0.3792745895253834 9.217158206350843e-11
0.3113989459641025 0.5158303541720899 0.3792755743015505 0.015440930861106572
0.1469222961783837 0.46709686453345134 0.37927380982914116 0.014198725423074788
0.09757992543522823 0.44135111613709155 0.3792728819557215 0.05842310178691274
0.272291863508923 0.48846312568419925 0.37927458951521886 5.434447803393926e-14
0.26781922955102927 0.4542727573978027 0.3792733642769406 0.06034086691634782
0.10479646365503875 0.4528819970982541 0.3792732958261611 0.06306154234575247
0.09117216724637148 0.45222385717417396 0.37927327069386646 0.057934667991331706
0.2015111614817492 0.46504062247499284 0.37927374241206746 0.04000455303316804
0.23710865051049182 0.48836487369466397 0.3792745819745047 5.6593320232861326e-11
0.28858853542278917 0.47007059692689296 0.37927393254234826 0.01189771489271604
0.12555921137415574 0.44547543715100224 0.3792730328901666 0.06522302583370594
0.194781690348738 0.4924557116046866 0.3792747236739414 2.7643155570173277e-10
0.2823977322016189 0.5276893477160061 0.3792759957857632 0.010534702041307555
0.2528035520748044 0.5053834843777595 0.37927519338896154 1.4809639336490488e-10
0.2296648253021926 0.4999749904800526 0.379274997007638 2.177327604983834e-10
0.2347600995827271 0.4766760965950981 0.37927416300447975 -8.586418766633975e-15
0.17433983608300607 0.4874565418867082 0.3792745422631839 2.9044884034757733e-10
0.24836198485195193 0.5244193722753154 0.3792758747624582 0.0009865609822386722
0.2968408796087111 0.48188279805418754 0.3792743566082942 0.012377025203752204
0.17571714040828168 0.4681306107438836 0.3792738501498715 0.027066732739849244
0.07990947425691473 0.44239598848210626 0.3792729173642722 0.08348953126043879
0.2941902055601905 0.45416353423143796 0.3792733633785341 0.06705572959574702
0.22327320294845251 0.472373411853533 0.3792740075658885 0.0047054546806073565
0.2129146495382768 0.4445172747002834 0.3792730085522452 0.07272910686150727
0.16104979754685947 0.4532764463611685 0.37927331638510364 0.08843665744188663
0.2746873374710944 0.4670544371410071 0.3792738229121966 0.01610441465999752
0.30327818965173126 0.5267970489858688 0.3792759662094107 0.018143059236673212
0.2564124256865451 0.4877512252487185 0.3792745621994283 5.0253151832801115e-14
0.2193458981556381 0.45793792637481534 0.37927349002607 0.03336987143894354
0.11321849349627514 0.44270351059972796 0.37927293218700425 0.07313043193503102
0.22708634197754957 0.514846758644777 0.3792755294318851 3.1552836773834683e-10
0.26386132475362967 0.513739915323721 0.37927549398702565 1.9146102865961908e-10
0.27738979201166525 0.5168888923472361 0.37927560833219887 2.0343891899157617e-10
0.24767476423964424 0.4793741904035064 0.3792742611284915 3.7535281117984386e-14
0.18532344249180813 0.4460232784592457 0.3792730593450143 0.11627239292605286
0.2129924720066178 0.4827006837229871 0.3792743763222204 9.998481484526571e-11
0.21284375003323053 0.4978721182639738 0.3792749197584715 2.0506988139002476e-10
0.2849157368740296 0.505615578421974 0.3792752053730065 2.9026518114376945e-06
0.14357787275529194 0.455524020543692 0.3792733948981126 0.04440401891204043
0.27172227814601513 0.5033913245390705 0.37927512419046555 1.6282338032929208e-12
0.13098363548212932 0.45562648670517014 0.3792733971290829 0.0585179917288975
0.14818957259978394 0.44043229880389 0.37927285482733325 0.06814873422152683
0.3161760872441858 0.48037715637154677 0.379270601472095 0.013151416827663506
0.31413084604788705 0.46918127778747476 0.3792705808050105 0.018467698491942325
0.3162765568728688 0.4373481726076245 0.37927087039831264 0.07667025754428505
0.31620956647029475 0.45490271570395696 0.37927043781144637 0.0427013209862443
0.32181142366013255 0.32351201705635185 0.3792750382343287 0.13173683465423597
0.32189122876128695 0.1926450300715698 0.379274562157668 0.13230643223621213
0.32090182902598086 0.33838156362031907 0.37927447975441775 0.11540910532289887
0.31770326939797533 0.40808775627604144 0.379272678633404 0.06359710356260549
0.31777477006680666 0.2873757627022919 0.3792739450645069 0.027706017519078276
0.3178332296264403 0.3703551290762413 0.379273055251707 0.056277525855807725
0.31924562321913086 0.2506807182348751 0.3792740708487459 0.07040120482166437
0.1174599879944781 0.057997838682808237 0.3792795885934026 0.022556657469862792
0.14992496112448103 0.04770223303546785 0.37927057194447716 0.019999851978459156
0.16059736685943765 0.037876386556819935 0.37928795079123845 0.05815578580092604
0.05206638674332558 0.11458780843305968 0.37927934383370365 0.07109219588459234
0.06828624950773868 0.09409390131259249 0.37924764018493 0.0383366792903725
0.13141573173900625 0.04683570788545565 0.3792839016822184 0.07249983212477466
0.08126109446336444 0.07860851187550699 0.3792641726980527 0.06800949376921721
0.08904454753790045 0.0654659029586562 0.37928261414086595 0.09417204011651639
0.22596627827884114 0.04896481326076156 0.37928133561476496 0.020999821041567016
0.21646415139634728 0.04236957964371053 0.3792878626035713 0.06350864686121421
0.26099026897081046 0.060361586202997086 0.37928167547362585 0.12755907351798426
0.2403813002269629 0.06134372072030904 0.37927437079268 0.01956317972861478
0.2662566581433513 0.07416921828159762 0.3792748457046553 0.01717153780989605
0.2907618865672039 0.09856553109419453 0.37927210901814096 0.021587797439312505
0.2049664778478306 0.04219841719506004 0.37928621012448527 0.023559458131924865
0.19030151058302136 0.05082163329760166 0.3792742264903837 0.023519896428097882
0.3119278649714126 0.1383374252896343 0.37926683868373007 0.07063748502726562
0.2925390234447703 0.4390338433515191 0.3791791082195772 0.10926822809344722
0.26594593192086646 0.43890583258363036 0.3791541068758872 0.07536394832372144
0.13293690256899338 0.4361487787946246 0.37794070388517886 0.06793108115741338
0.1721817912000846 0.4361410868572275 0.3779354992975089 0.09173316783643853
0.09420364441172642 0.07881947223002753 0.37890850706747486 0.020741299735175914
0.0471568847615899 0.13927869716530306 0.3789450545803603 0.021601133176031153
0.1657125545872114 0.054384000827198624 0.37866468157864563 0.021289110875447152
0.13434894126252567 0.062449684716148826 0.37643235585833307 0.023579924043943486
0.20968343219934377 0.05488847638596801 0.37923881720355607 0.016380651348063536
0.27901178721486464 0.0909163823134249 0.37899563927042007 0.014361691784530251
0.3119413878141174 0.15775940015906037 0.37704857194698227 0.019629263333168098
0.0475659647944758 0.435597053940338 0.3790658960181783 0.07893834564444466
0.040890163791224385 0.24829399934615692 0.3790747288274998 0.028934836731231893
0.0415969654552574 0.21488759542148167 0.37874174885439776 0.026801292885259675
0.0418845810930733 0.36638828543475593 0.37852150361758174 0.02044303674189664
0.04354376429265207 0.30177504190084253 0.37702475453019596 0.020928785745649818
0.043969244306927016 0.3865949386105938 0.3764186016369432 0.022008289701265397
0.04429879244677857 0.3424681873515536 0.3754000626304549 0.01429243785800493
0.3152070939222122 0.21060819019436117 0.3786229903449576 0.02413437953059421
0.31698792472360693 0.35799228580087167 0.379187565820599 0.02796333694016337
0.3157813019664924 0.23826036853074528 0.37897501785823695 0.025941092484367243
0.31560859953746456 0.2673975118595272 0.37886658914827115 0.0313186733736783
0.3126610752512988 0.30662632987177074 0.37535105158441784 0.021330774983722794
0.26400465339973117 0.4343898699055376 0.36636426062470784 0.06932378832861866
0.24981598936640811 0.4344004722162127 0.36682843231712003 0.06747241644812299
0.2825967332932399 0.4343439165141847 0.36350618750110364 0.0950682233301958
0.22512755231863357 0.43444852919470794 0.3697138860348342 0.08237998286758927
0.2386249663404717 0.4344179453662202 0.3678338849294547 0.05957285914219283
0.2086010899634874 0.4343001978263665 0.3618653469859233 0.05488503885363551
0.1925250350840278 0.43443524432393843 0.3693164300306236 0.07813328127863371
0.19852505777247098 0.43415344602788764 0.35447037686274074 0.04720315141952674
0.22077103005295248 0.43413110608696986 0.3542871505375662 0.03119225390386624
0.24608455801173323 0.43398022704345984 0.3510665075214133 0.02262929299061322
0.2721300614992087 0.43403173493924707 0.3527166176121211 0.02792947650888458
0.23389355061400555 0.4339602340409598 0.3503929709857274 0.023500571813497535
0.19199952571015716 0.43329941070524725 0.3379200997485258 0.010516561113166973
0.17947257781675166 0.4324840542554643 0.32770968523572075 0.010053828013005462
0.1717965288528324 0.43327399846546033 0.3377302497836624 0.012479044730432702
0.14897937238470188 0.4333143180812422 0.3377082815892915 0.007318749021576991
0.16511517765638292 0.4324265847124503 0.32665308940441323 0.007879084515044307
0.12853704276139563 0.43266559394127546 0.32883298637814096 0.000398271846801411
0.10843359671679106 0.4331016112368768 0.3357214502668776 0.00022716878099085175
0.09368029581440154 0.4325981626532378 0.3298824181685819 0.003419697239863682
0.12982049546955843 0.43084456161954093 0.31215929960706873 0.0007687007939178015
0.14173449141613992 0.4320508548509037 0.32273983814954554 0.00030559016101403463
0.11474463325581027 0.4317610209255405 0.32088889387388564 0.00037249054975981645
0.10710624430194325 0.43046036072033533 0.31091460295231566 0.0008395925482136356
0.09754870649725625 0.42890990262838324 0.30276733289261487 0.028338253608940055
0.12435739369126875 0.4285717394124805 0.2990090870464182 0.0014106460592757685
0.1075590901276689 0.42747336867921026 0.29511805595137386 0.01831893318288079
0.15391121713575281 0.4262208395397673 0.2881654648872114 0.0025595646296572776
0.13756998503160095 0.42715097489651505 0.2920623520443061 0.0028926298008323473
0.20984874909264772 0.4286765756783216 0.2992839186547937 0.0012655021207143655
0.19734622139472807 0.4295444150817519 0.3045206847102071 0.0006946929166101068
0.15084027462211913 0.4287807782774945 0.2997157210189072 0.001354063614372877
0.16190606308696343 0.42933199449866305 0.3031070067445606 0.0007107415327466904
0.17613314290192209 0.43078439179058314 0.31259648648013966 0.004615583410756634
0.1556508197375539 0.4314810499601156 0.31802713747044836 0.005514467175749924
0.0947641378094862 0.42597638051924536 0.29075293154394977 0.026491113272816023
0.07515013496060834 0.4301265844025627 0.31093888837265937 0.052350897974963645
0.16028372056626067 0.4339590954598914 0.34982416074353057 0.024960437579036356
0.13129054194461162 0.4220719220580878 0.2754586814138752 0.005860053984800248
0.14268360027986393 0.42423689770265693 0.280999938486476 0.005050386297393128
0.15523417289552027 0.4226717782867623 0.27613861236664305 0.002769870819980001
0.06830244911160481 0.43171932101425337 0.3229526545567599 0.07146915866095865
0.084095423552587 0.4312888165158156 0.31876775777842076 0.05599387467905761
0.07716535091544535 0.43269805039929576 0.33203593882814625 0.041499774728711844
0.0875835235240971 0.43346831453479406 0.3410901178340905 0.00531296424200482
0.07390912908816359 0.433820333136518 0.3487624702180745 0.05829564148783913
0.09995484088966451 0.4338017464280628 0.3471782981796589 0.016328575096635174
0.12125402344148253 0.4335656652143339 0.3412443336154663 0.0024764856463942993
0.13768409381075478 0.4180112146799818 0.2657799143830817 0.026457071519751765
0.12038536303402836 0.4191219091216836 0.2695732922446407 0.030112648575802856
0.13366548631967307 0.4112648153924518 0.2561902927703835 0.02930363845453124
0.15688855949633762 0.39732506556213076 0.24375477100364792 0.04940866010902386
0.1586818546571989 0.3797554356513409 0.22714949477606244 0.060406027557826814
0.17864676916104014 0.3901423083121823 0.22692842712102104 0.08286049912869083
0.1572300613618527 0.3526876864482532 0.22736386161256672 0.06496262235289081
0.17889158534769317 0.368344708219409 0.22581939958035946 0.10728297229528483
0.17103309774805364 0.3811054144832036 0.2258193995803595 0.07720864377888362
0.16951329930725856 0.35903754033000673 0.22581939958035946 0.08701269337271525
0.16064683278075162 0.36610289652623756 0.22581939958035946 0.07209780085865898
0.17501344146793543 0.34269322730315654 0.2258193995803595 0.06331131805181336
0.18964761136414143 0.34597701724303953 0.22581939958035943 0.05185463687129212
0.19332967306156557 0.3634449740584006 0.22581939958035946 0.05582900570706678
0.19728123977574819 0.37710445600049525 0.22581939958035946 0.05699153222737628
0.15283431971866857 0.3459518414610123 0.24019036533612917 0.05376657609514797
0.17715868740656923 0.3370337481240089 0.2363966979692209 0.0591344051282062
0.19502997652754506 0.3873539938488044 0.23590985124111524 0.06098698240978882
0.20585074767568212 0.3609695936320957 0.2359359299466075 0.05434019769852919
0.19460939308535938 0.341715004667691 0.2366310150665665 0.045256245234738667
0.14568781123591606 0.4116856923747825 0.25536120847965166 0.0281029356788135
0.1754293956334152 0.4151473122552751 0.2591809444997107 0.027207492562599685
0.1152223431940671 0.4340475203578323 0.35267488766403154 0.026524997769759348
0.14354705521896768 0.4339472524545231 0.3498059381213597 0.03166787182972516
0.12281113196579328 0.4343378206901408 0.3634452289701342 0.06853620966986143
0.10005976596950397 0.43432002842342754 0.3621363939949358 0.04809535162081337
0.16561881776970488 0.4343854526398005 0.36665193013716524 0.08339603051059448
0.13815370044964032 0.43432267662938195 0.3629010876040498 0.09103904371281711
0.0682291626088916 0.43451306273376855 0.3724204316717035 0.11657918555069356
0.08517095349480175 0.43434109592187276 0.3630267227017058 0.05624848060751212
0.15701179238509436 0.4345350712309779 0.37455734706743177 0.08500083098597991
0.1653248824048918 0.4057091754224891 0.24752842549537452 0.042044455895248155
0.1599110679026938 0.4142913317054707 0.2579170819412618 0.020185860849000918
0.1764078980252611 0.42142017629063416 0.2721167180779427 0.003538639047304901
0.10764292975811299 0.4175919425906663 0.26834130552857144 0.036438671810604756
0.10948029280661584 0.4229617399401483 0.27972043437076916 0.0266226447564253
0.08406735088599951 0.4274516267540456 0.2971091937818525 0.05231540536571385
0.1888533064524331 0.4163249266455837 0.2612832655929497 0.028959116487238624
0.20391576743991152 0.4174470604944057 0.26358991851098773 0.031641062191916494
0.17941835713269033 0.4250998924032463 0.28360473234433525 0.0012124551437474144
0.21770550829195537 0.4306408529554889 0.3106986088875814 0.0007462436785026157
0.23210508168569738 0.42858589985228035 0.29922311247940914 0.0012268873904626566
0.24202845191347172 0.4268749219554215 0.29242826411610484 0.009091486700559207
0.2456229803381092 0.4296406039870065 0.30608694614387066 0.0010658403257123455
0.2584682025936685 0.43043816256243567 0.31130879949055734 0.012560761931705232
0.2340041213327848 0.4317785594461431 0.3202519476033516 0.00046803355968489155
0.20671768542571495 0.4318655762507357 0.32131686149690714 0.0022211440997587234
0.25904583305313006 0.426487940663435 0.2922531960448223 0.027387825776492382
0.2666694558054968 0.4234815610295474 0.2831445994236684 0.04491803206670969
0.27521011821629565 0.4285110965849655 0.30221579421831035 0.059771099968853415
0.17870633061243718 0.4063464572127681 0.24766591269617097 0.04674081278657451
0.22158018547559874 0.400384464903919 0.24786003572639112 0.021319292514431442
0.21446379442667846 0.41104616052989423 0.25490168750650827 0.02512936811547896
0.20334546312328777 0.4100288464598582 0.25278731219036166 0.028397195514177884
0.22907269517013032 0.4116626372184888 0.25726320694147725 0.037484563481866656
0.23234329272276544 0.4180085770984357 0.26687940985291636 0.026682932992167112
0.23001618200373258 0.4251896689296064 0.2846856615832536 0.0028222228059761744
0.24109665657972165 0.42145532328445084 0.2748952824287644 0.02875934596423612
0.28646084836848984 0.4337432391503615 0.3475355526439229 0.04933998893364652
0.2611378292504133 0.43380172219417334 0.34740901537989843 0.014903197506033411
0.22812241201163203 0.4334784671718659 0.3395680031236399 0.00020037977987903693
0.2534349147875421 0.4331994280573958 0.3368948935586892 0.00021824455359485735
0.2401685342697067 0.4328840554215618 0.33219950390904646 0.0003194580891011995
0.26529290371117026 0.43308514937914655 0.3358597676794202 0.0035321838888755764
0.281394733582987 0.43308120554893104 0.3365328394276807 0.031171801799152903
0.19230540181878 0.40447031639696607 0.24654571686763532 0.037436010358770394
0.21352130283774973 0.42127472567359653 0.27235787876572326 0.006406001910047473
0.19006474773181486 0.4216515760283347 0.2728496676915788 0.0038761499384408673
0.21164419727855388 0.4260271634945533 0.2872800926136341 0.003274471812588222
0.20032205982786455 0.42697995449658593 0.2913735457281526 0.0015301124671309673
0.16597107335151495 0.4254766315431501 0.28499126373382666 0.0022937227935481926
0.1957978623221906 0.4323975145863736 0.3263503288299606 0.0074329114708625325
0.21523361035155922 0.4330897796678479 0.33470549659770854 0.002230690990083441
0.25582720605403453 0.422163622068516 0.27878605169313253 0.03330520221927578
0.2680085445015887 0.4317463842204843 0.3220542214069353 0.014643561373844805
0.27840296376850904 0.43069775414768574 0.31469155837746643 0.06040278900002173
0.25167369589685584 0.4322749444187103 0.32511249330100145 0.0003915852905640622
0.07232513458546512 0.4251054774762345 0.29826085801806035 0.06124490747747976
0.050506166427375127 0.43266629668368245 0.3663912176775176 0.11960430693982614
0.12360665013247892 0.4050323671623478 0.2527661245523687 0.023321054935126678
0.054417386448692505 0.42820121205758443 0.3354783078469183 0.06199538368583627
0.052810596616861126 0.431266447355236 0.348804391490355 0.08458992491968477
0.09283720105912872 0.4169131723184461 0.27247207122430794 0.03616111422820835
0.3058396711039437 0.4335958230654636 0.3707102583952244 0.09105075065630318
0.29330724110239537 0.4283629898216948 0.31528670744812515 0.060961597825754776
0.2829874427924485 0.42374296545947365 0.2946022178645029 0.05593962433119591
0.299230332754011 0.4328241101364394 0.34257733199540374 0.07462937099177926
0.2944197528734904 0.43200926092787406 0.3295280268980756 0.051188682466556355
0.3009530354298986 0.43408424636220244 0.3597843503567061 0.12272862760881093
0.24485008739309094 0.41219223791934667 0.2604356799784989 0.03570652075005504
0.30988160626213646 0.4268895915553076 0.36161519229275463 0.09750054613654367
0.30295199843251597 0.42298838215205775 0.330985108636631 0.07975645981254813
0.25523186196026143 0.4149847347154269 0.2661829855505998 0.03569478081790827
0.12979797509728483 0.35923183512662615 0.24678468149316163 0.020051227867927984
0.11508502396537346 0.3661774158440893 0.2535410159001378 0.005680690902986489
0.09446729993968964 0.3746935411901849 0.2673100673934521 0.0037941758122550006
0.09850746230924494 0.36038404086134107 0.26378267571250213 0.0033798700365624957
0.09032266174051674 0.3510512326634902 0.2700626554028195 0.0037854730766523777
0.08587564804783424 0.36979973454630793 0.27498242622265656 0.003586390524012655
0.08066991481245499 0.3597314975461703 0.2806285241743006 0.002753307242815634
0.10224843988472057 0.3835253854862781 0.26187140397479014 0.0038540778943705863
0.09696284765004298 0.39401694041698726 0.26646845589983154 0.01892747727699616
0.1115182839843056 0.39002791255461666 0.25663934732171284 0.014304076916480927
0.09374850791534316 0.4053374791268337 0.26956560710953376 0.03522072641591596
0.08460441551155226 0.4027737282770582 0.2780723115891668 0.03861007759930011
0.07176467548989637 0.39105133684100724 0.29318936189322725 0.00591793954695792
0.07377140540484783 0.406005244112237 0.2909830412941931 0.03449704757949948
0.06731632241693113 0.37861621235117837 0.2999989223309705 0.0024264117814780887
0.07118499519682703 0.36891970568379306 0.2935578779463738 0.003265594516065043
0.067293297714794 0.3546956514318167 0.2997694184165956 0.0022729636250472494
0.0734470155480075 0.3577467088365072 0.2897810766646829 0.003790766610864015
0.0752688051722243 0.34023947540944 0.28706118123745494 0.003164094405878376
0.0659581986835047 0.32952468878994945 0.30218836965539797 0.0019012747668467006
0.05823117144492054 0.34772829674171585 0.3190674404685819 0.0014386007850014358
0.06419563469113317 0.3406497414229634 0.3052176747030343 0.0011520420470818905
0.05707022558066859 0.32525533963008635 0.32208705160431383 0.001526614323977208
0.06168610831995678 0.32448565962954534 0.3113762049387667 0.0016105349553120875
0.05439372297524806 0.3400158038987321 0.329698000374566 0.0011420663988823097
0.0506338212038692 0.33659625413286764 0.34288335594806985 0.09535336375124444
0.06253960413233756 0.39055123591937 0.30925537833702643 0.0020681082101931237
0.06271209971932543 0.3648999517720089 0.3084360299559874 0.0016556651242992909
0.06192798031949334 0.3779808205012502 0.3104732033059685 0.002217025171748853
0.056305935886238404 0.3824271987361297 0.32367961879971674 0.0018237000605837105
0.055583656461592634 0.35689426154935044 0.3252186191089317 0.0017338697947135778
0.05276181804160445 0.3896076602038654 0.33533283376670464 0.0013552696606825656
0.055081233587873674 0.3699384944050367 0.327067661187007 0.0013445183359156842
0.06489013794176036 0.41182008973893675 0.30491453131880014 0.03753066938465461
0.0665312048036158 0.3998502911341678 0.30194921958092213 0.02163580791844665
0.061137744780097154 0.4026288113365494 0.31310831727773225 0.02723792883325905
0.055798112305482886 0.3986684729420137 0.3250971376254582 0.008901967499486886
0.05419579141601238 0.4108233192659275 0.33097273970439767 0.038765925674831586
0.050848386288122494 0.4174126633558548 0.3426510479490119 0.044437663954039364
0.04909045495827437 0.39298452166123 0.34828995676628016 0.006129617688940587
0.05045833395505221 0.40430406151802245 0.3437717188267471 0.02160055177339713
0.0956440106859246 0.33757891556983843 0.265934774041421 0.003417462579616331
0.13639272415047715 0.3708792568862961 0.2449514859666785 0.03364663376802212
0.1257554230388509 0.3719389925583979 0.2485391097491395 0.009493587879478599
0.07787487954996185 0.32563881540431194 0.2838484404143246 0.0026808165636925253
0.08203891008092684 0.41421754329248256 0.28091938298452834 0.04007293926590409
0.12860944338782726 0.3851606154420394 0.24848716006931582 0.022732008848067566
0.07112025462573471 0.3148493069407834 0.2938134263242908 0.0038236777016197243
0.14591331748332015 0.3889768711396469 0.24382864015862118 0.0414437716261367
0.05900186995022426 0.3042241485765653 0.31761056339836924 0.002100558881165554
0.052563281314151306 0.3048720987298982 0.33632100065301507 0.000808704899108231
0.05477169473389806 0.31293593122732716 0.32887931515661994 0.0017076147626292721
0.05990443903651828 0.4219880918347311 0.3161876518545139 0.06650102219649505
0.046294502938241625 0.40323525826002626 0.36397405203947597 0.046254383197589566
0.04757774717418809 0.36599976716614224 0.3566638362403237 0.011768719952048668
0.04645253166892596 0.3896417970062859 0.36306211609880124 0.015403230662876188
0.04718749507591274 0.37818239619682453 0.35887115086058474 0.01332722848476939
0.04620572264866958 0.35639138760032996 0.3646002071662371 0.01585814341365942
0.045578000111936 0.33272440880492515 0.3683074980865312 0.018540426769823797
0.04432844399706435 0.40036578225306535 0.375249682659349 0.02218288174238363
0.045243211756958314 0.3759515924879684 0.37007175207664667 0.025374807362561234
0.04705354373364523 0.34488878872767414 0.3597587948285901 0.013991910944269466
0.04799268687785397 0.31047444210331804 0.35506150134915104 0.008855685966127725
0.04742082777976981 0.32219160668196706 0.3578399316051277 0.01266425738558694
0.045991463982935084 0.3021522066374821 0.3657693304220477 0.014841484709623827
0.04662011492803974 0.4167804809022573 0.3619747810161601 0.0597596937774459
0.10531970133562757 0.40653640969575966 0.26132388611668805 0.03714200286214886
0.11365299231809102 0.35225657473969174 0.25401989263686736 0.0058473065449245664
0.05236604990543325 0.3229281387549918 0.3371674395044041 0.0011771883847056083
0.050491913861423 0.3626317411907292 0.3432551416751383 0.08671351943507405
0.04933722745321486 0.3504336623878333 0.3473697762047266 0.005980570040682576
0.0768404876635 0.3787222317005376 0.2853707797013864 0.002691327675483696
0.0819921380735275 0.38809625387653013 0.2799104429124886 0.003840698194612369
0.12595461710809375 0.33669132764988663 0.2481718628133328 0.005399604858812126
0.11367283280892872 0.32692221141357475 0.25402440648097546 0.004536570140948469
0.11586343511749304 0.3072592280601974 0.2536403654564988 0.006513289417806819
0.1032611688230158 0.3115618661094812 0.26002111164082775 0.004621256846421107
0.09241977118708794 0.30478867225176326 0.26842975302652927 0.00555902147915838
0.09312267563567847 0.2936424545342948 0.2679729119322431 0.0051932531097269126
0.10422624188259916 0.30013583130663946 0.2594327994696086 0.006714501177257616
0.08712154300798008 0.27645476167024574 0.2734139175616779 0.006517672972919347
0.10588321298007805 0.2678894847380714 0.25985138970013666 0.005659664337273816
0.10526203109318198 0.2809834733311601 0.2594651589269979 0.008363671447806056
0.09643142730221585 0.26240719786718075 0.26621925615151826 0.009580102536660865
0.08339870009943956 0.2991037545753189 0.27755949960796933 0.0029893375945262268
0.07738417529302025 0.2918529772161543 0.2843514082283713 0.004011237976515363
0.0776695568719889 0.311831740432778 0.2843681286193582 0.004249144771369913
0.09236345223026629 0.3222729270719312 0.26851736966272827 0.0029608291843656064
0.12393152645612004 0.34980516325128824 0.2486542603395136 0.011590604046152584
0.11350001452325736 0.34020937140007707 0.25368962054682787 0.00591763881417799
0.10035379352478031 0.3276770654198377 0.26200379200081514 0.004802685421530479
0.08458797361804407 0.3176819186243127 0.27616228806998255 0.00619103938457432
0.05769207865921701 0.291866196992655 0.3207773310065609 0.001360551788949451
0.06131633963667395 0.27944398716452956 0.3121135590809426 0.0013364537166673954
0.06353478847385541 0.26654389127339967 0.30681681003819294 0.0017013677460194234
0.05813645722677242 0.26300715124302343 0.31939335695205084 0.0013793933744556245
0.06418499564986072 0.30324201457310285 0.306205154603082 0.0026046809247757823
0.053023872932809475 0.2832837323180522 0.3345246901022556 0.0013603439448117564
0.05323406394130395 0.270260492448543 0.33400132754364065 0.0006962451353614228
0.05440386457871148 0.24807272494787383 0.3296420879125884 0.0011683321376554903
0.044649262657159905 0.280713686937516 0.3734549213353712 0.012858303041495527
0.04678539834785893 0.2862627680595676 0.3606042309721172 0.014210765495376664
0.04709547043013843 0.24098071310248897 0.35945707250884645 0.013441858925489648
0.04754108055171788 0.26290958151942667 0.35721080759739376 0.011894741141233733
0.04531478754483155 0.2544046690573133 0.36971052254716663 0.014567335934910504
0.0475387010694309 0.22372130264554851 0.3567781121212909 0.011501623696942192
0.0456333099906721 0.19951823946388075 0.3677162627912683 0.01849806779895272
0.046932875782563714 0.21066008153697544 0.36024084216951735 0.013510833052751227
0.04783806458240435 0.19097608102686203 0.35434382799842373 0.0091281511342163
0.05237599067405663 0.20575322219988476 0.33627536677007464 0.0011916533805561161
0.05279185336149247 0.19002843885405812 0.33440229228868734 0.0028528163527155345
0.05726591094169556 0.19320960023774114 0.3214155627106449 0.0051612077542740435
0.061150204062075594 0.21032451473669717 0.3119500414647217 0.004787441707126354
0.05616304434318504 0.2231984282732903 0.323854395425921 0.002261583530114374
0.061489299360610976 0.2330438272796893 0.311301419830597 0.0020025379666862896
0.06296158199956761 0.22221198892017327 0.3078375234638016 0.004683465308942204
0.06836119064154095 0.21639252452742808 0.29825933578148045 0.005151843727303157
0.04498577382209452 0.17387492869713495 0.37058777242349616 0.027045325658708416
0.07259870016923298 0.23317789029933894 0.2914425488201243 0.0051284934111983215
0.0656813380682739 0.23992219654724423 0.3024754982393836 0.004184153439918289
0.04822255274388297 0.2772661199631478 0.3529787390700037 0.010990087296410432
0.04937359272519971 0.29322705687747597 0.3476335094537878 0.008298934572774988
0.07295277007749759 0.30093465573103306 0.290821676346604 0.002438637807580518
0.06757782587415727 0.28776904224237665 0.2994940918960864 0.0024019675292837064
0.0975502827405174 0.27438523774407764 0.26516167997862156 0.007322383265063315
0.08398197551751423 0.26256651905633 0.27721805374598396 0.004825006488914911
0.0837350540248248 0.23654793898465687 0.2778050292391365 0.009866590795921905
0.07655538979822667 0.24251711727705658 0.2856501715982841 0.0045303389936925615
0.07073983379648197 0.2554860421129612 0.29418865440618186 0.0039086700659647245
0.06952829810948005 0.2724785818443757 0.2962214813987456 0.0012135703102055995
0.060703299110482084 0.24508043825419293 0.3132256809204096 0.0016676267817131182
0.04988391133070672 0.2375962345223266 0.3454849472984741 0.0007632745145322642
0.0529107879727604 0.22546002615694838 0.33466597799555775 0.0008682739470995042
0.04950259169354985 0.2160570597517907 0.3467209503581268 0.0015448481562590573
0.04982470679297109 0.25518347351673476 0.34579204193542157 0.0849540873190276
0.08996285474819764 0.24397345318639502 0.27168602527990404 0.00951092125599355
0.1272384018382952 0.32498324554341035 0.24823107536616335 0.0056420623891980295
0.07755482706481032 0.2215589340911554 0.2851278572590798 0.010236791568163948
0.13839251989916374 0.35129923871465846 0.2442361337548167 0.03764905478362605
0.17456750413776778 0.29745021029393826 0.24563199031419727 0.00036184622848078966
0.18050735811981555 0.2830179352053509 0.24709365652335208 0.0003607606882390926
0.18078030091282662 0.2698684905192925 0.2488246270067658 0.00045351422672049006
0.16492690083738468 0.28931206707265755 0.246807123341743 0.0004679453015717942
0.1584079202250283 0.250648508285079 0.25295107147303064 0.0004468944261436482
0.16699848868557418 0.26712609179782093 0.24960996338813107 0.0006079668085193548
0.1560496504393927 0.2712297729082473 0.24950325860587266 0.0007002215894110049
0.14382288465257506 0.22263805581144322 0.25956949076597313 0.0006562800859786612
0.14700409681750143 0.20720649251349435 0.2632574886039178 0.0004923940566903725
0.14423075434992721 0.18428661022466722 0.26958911087264326 0.0005162653748188435
0.15425498304132446 0.19601100657087292 0.26546073404534376 0.0006826870375820839
0.1560046315643285 0.21723557715683978 0.25963266939540663 0.00036446056049393213
0.1340185151842072 0.2006749723310489 0.2666681334016465 0.0006933124978928255
0.13393010708649158 0.17792202206140292 0.2736789273608108 0.0009522209425433016
0.1284462197035302 0.2103955613830868 0.265158562971452 0.001054179044116651
0.11602668366303173 0.2070240942973008 0.2685947382813483 0.0013721604554526067
0.12910638633456756 0.22526409958082136 0.2613103255335727 0.0012648105557392323
0.1212239364373647 0.1756046195644021 0.2775786440820719 0.0017879447960098274
0.12236173775726368 0.18787821688314654 0.27272163439297054 0.0014864548390591487
0.13265473269273323 0.2611869848561982 0.2538839389207899 0.0032440779098585337
0.14522164724812642 0.27653670141553066 0.24973188537033036 0.000561597013278737
0.14335369249600044 0.2652442552677535 0.25182367824192226 0.0009613114698131186
0.09855315589145494 0.17822657758550148 0.2837686969745483 0.0029770678342336356
0.16578570732365344 0.3210234241910459 0.24338993389835822 0.03267291419934222
0.15053958361958925 0.2883910905082784 0.24765486425212527 0.0011093871569394036
0.15617771274901784 0.3011841467291826 0.2459666409415011 0.0016771344242400795
0.16487568625073157 0.20119872316883486 0.26326939920674014 0.0006822268010812086
0.15855949128009647 0.1830523362356931 0.2686285452402385 0.000838930982614697
0.1552602260420602 0.17191058591459857 0.2727219176926122 0.0006524785099689442
