x y z curv
0.040691116661177695 0.8251630110817653 -0.406511907786909 0.06673130277087792
0.06803548423437154 0.8244652073755461 -0.40419522291000115 0.07736984748015767
0.0680948195354001 0.8257365866484758 -0.38631958895599583 0.051975385125288334
0.053896636940489684 0.8269373349690294 -0.3756212136351804 0.006657238494749155
0.06569524332760397 0.8266488129711582 -0.3745531823551935 0.012449939681887881
0.035337630907730365 0.8327835559924678 -0.3001314831886573 0.042821555408921505
0.03045723879319456 0.8318522842572442 -0.3147475795705214 0.061275139335886936
0.010485536465267457 0.8334152161829417 -0.29907950385970583 0.08960824622617947
0.041797400462153994 0.8311123109465546 -0.3215726649201923 0.010624759582510229
0.05116998295002841 0.8303618318373529 -0.3291644455300847 3.3988066842234707e-06
0.051470719906241844 0.8314855849533704 -0.31328587651871126 5.7320322188355016e-06
0.01724120567441421 0.8310731954914298 -0.33144071730934477 0.07621304335123945
0.009568850291954254 0.8325108448034468 -0.3129536607407022 0.07656121965781978
0.03323806075746002 0.8304647088255346 -0.3340945736555025 0.045499962745438695
0.016548029589233185 0.830300485294397 -0.3433307680205262 0.07882385477243779
0.03721982493290386 0.827763216461848 -0.3712132918187482 0.01491518559923403
0.025757175284754946 0.8291711492764409 -0.3559117331831185 0.0525546134495411
0.036985149715394815 0.8290127205927538 -0.3536372815955025 0.019174852533652136
0.01481123736796428 0.8288367527488631 -0.3652518177088502 0.08877731073886838
0.016688864321376916 0.8273262224093411 -0.38639116456912087 0.09629592130062489
0.02847258710099142 0.827419129247547 -0.3799723271796416 0.06063989179597376
0.057103869144958755 0.8329433135093214 -0.2925959468663468 1.9271851959952414e-05
0.06011652139925129 0.8339051144930918 -0.2801600224675375 2.7777301945791204e-05
0.021712310193635682 0.8332766659075115 -0.29758054841577714 0.07367307164986071
0.044929133882292305 0.8334317849282014 -0.2897761971044072 3.5750507962308583e-05
0.07554615112191838 0.8341088350483443 -0.2733099103486146 2.746356739404518e-05
0.08400294126178269 0.8329603080556023 -0.2843677243711228 3.0469378779649203e-05
0.07298139876313031 0.8324836544695784 -0.29354394080902907 1.4516827948667963e-05
0.3945540222812974 0.7539330718242827 -0.33484375540267675 0.01158456583443889
0.3957602449156988 0.7488362111863308 -0.35141498255460807 0.007088580636950979
0.39870241921225325 0.7331602070764929 -0.34761929414228626 0.005933916315289909
0.4030514270376323 0.710027699979346 -0.3498339760508633 0.004781753597849125
0.4001485568137615 0.7209468912139763 -0.36478059813469316 0.002080208757833463
0.40224569786314857 0.7054709192131907 -0.3653622965938491 0.00351619191398761
0.39692478861088465 0.7353920605071557 -0.3807141018113798 0.018819712776604193
0.3987522236892415 0.7222118053798474 -0.3796200011438669 0.026421454272424337
0.3971312169440035 0.7271256353742146 -0.3930034850300046 0.05859942624347629
0.3975361014059959 0.7376936363605517 -0.3680577388586773 0.004182485961124565
0.02592632024820474 0.8353375739701848 -0.2739342711157775 0.05938206488259116
0.043225386284454284 0.8364617429514246 -0.2574446688815545 0.0073862525016875746
0.036773149801210124 0.8354263993556651 -0.2699333405437608 0.01401660598496854
0.03494448781728706 0.8342626744041186 -0.282427011229051 0.02794024228973802
0.01935173187977207 0.8343761747738081 -0.28569697186119436 0.10433998577036428
0.006943878690031668 0.8374939570994667 -0.25466028756746256 0.07144516292950188
0.007659465528106066 0.8363104906828178 -0.26747325488566287 0.07403867062714614
0.02680549293723787 0.8364506024866605 -0.2618448450844535 0.03399310138154104
0.03771861101054245 0.8410739528166876 -0.22382536293408645 0.034023262404899994
0.024016919346438195 0.8399441850484577 -0.23205031928980765 0.06861526803533315
0.047391960884703585 0.8432071897978942 -0.20937625790176412 0.00011977052427403385
0.031506859838461465 0.8380834818435255 -0.24359021808820197 0.04295159786938235
0.07615263222577563 0.8269822307649229 -0.36534100752446974 6.642702662818822e-07
0.058130757758635576 0.827809455988622 -0.3615620726162219 7.198773408601817e-07
0.022953480289711652 0.8262780924143371 -0.39867805599592615 0.08926023756876007
0.03827507723050423 0.8262336858117802 -0.39243937676486346 0.06211863058349246
0.3472865759150725 0.7985618421065362 -0.33783739109699146 0.005123074700413657
0.3439575033932092 0.7988357212037802 -0.3596697079744649 0.003534884911821251
0.3279693403549013 0.804930647398529 -0.35889898975684664 0.002189871223335683
0.3226312795262996 0.8082221330306141 -0.3396006307818981 0.001310233718348132
0.33142747421885055 0.8052591215162667 -0.3309968243340089 0.002207350587376828
0.351293566029786 0.7936516679878673 -0.38402622556751814 0.04716336766353745
0.36516178027794804 0.7846431250005161 -0.3853009241041172 0.04315321961169818
0.1282764044824745 0.8305038064214312 -0.2990978512021092 1.5057040116080676e-05
0.1400350632180118 0.830235781650106 -0.2984362084611212 1.0838705995067071e-05
0.17534415621806995 0.8321816748594124 -0.2695742173885699 5.36032022048852e-05
0.18731959773457707 0.8325139909461795 -0.263858426464036 8.925453389879573e-05
0.17112470240166403 0.83351518682073 -0.25879752357315283 7.633306638136834e-05
0.28511596980472204 0.814742358251421 -0.3601997476213282 0.0002443470844594344
0.30605351551461707 0.8123803617677454 -0.33909817733319414 0.000805895998385539
0.3082210034480774 0.810897690720332 -0.3553169020034737 0.0010909461583352323
0.317462618407941 0.8116340325109844 -0.31168050249667906 0.0013513297799607955
0.3200216782835756 0.8099843160120064 -0.32741942153161246 0.0012417319477346295
0.15289040058016454 0.8646205319700319 -0.12622141523695327 4.304043980105005e-05
0.10177650409097157 0.8718826056696152 -0.10536487767871563 0.00019463542848200533
0.112200409474213 0.8681088253513332 -0.11646629426837497 0.0001385248890160758
0.10683415718665872 0.8640830857181004 -0.1286639904633003 1.3104724894812587e-05
0.1011733504725906 0.8674178793460127 -0.11877747823631193 6.827052475829351e-05
0.2235254072979934 0.8633173447009627 -0.12794915839382587 1.996169871785813e-05
0.21286288353343383 0.8646253279853506 -0.12468649783145132 3.382125963371271e-05
0.2963294338625807 0.8648597546806436 -0.11686551781481931 6.571034983908944e-05
0.30726666065969327 0.8623276929121089 -0.1224759298165752 0.00011216801512738402
0.46449492504963674 0.7982181059389342 -0.11813201745732985 0.0033249997342051896
0.47144558593436786 0.7828781612964976 -0.12381408569577854 0.001930185204626592
0.47327326996264785 0.794748607957567 -0.1090835802770676 0.0030832547492070125
0.49741693853659996 0.7266021358676663 -0.10956318987112347 0.0020235881754145204
0.4976094191736834 0.7491809038169474 -0.10239214660823603 0.002406576933734791
0.49189232622467505 0.7368137320976217 -0.11735543913005426 0.002022919021436151
0.5015212229246411 0.7069441367987002 -0.1074926879342623 0.0023453880759974352
0.500948383267858 0.7354996238392634 -0.09997570039159957 0.002399735008040059
0.45194421191276707 0.8127433589346853 -0.11618553705123058 0.00231681125764085
0.46331145093182524 0.8069267749466742 -0.10779206945995029 0.002593078248446097
0.4321818702781779 0.8259036251800171 -0.12337562187173556 0.0022029841056921363
0.4414055652761913 0.8197633281232091 -0.12001491666017618 0.0021892436989247683
0.3525738776200293 0.8661132122780307 -0.1021666858502114 0.0006974410800164409
0.34685950408783295 0.8600042572764699 -0.11955204274470238 0.0005450935914008445
0.329540241224134 0.8594900619040369 -0.12522109629940864 0.00043813914733560887
0.33371885865413764 0.8631877115674573 -0.11451824107325716 0.00047475266991062334
0.48651637459275276 0.7986078977495547 -0.07436491145234127 0.002344317913230307
0.40597782704291463 0.8462137532096771 -0.11562008455138009 0.0024443496619115314
0.39758903399090023 0.8444696021249287 -0.12568739411430271 0.0027998267475884088
0.41372501725792493 0.8477377347886293 -0.10648178370447864 0.0025431212801100326
0.3957921511196022 0.8530792471814185 -0.10854624990440999 0.0016152724285308322
0.3740822476564908 0.8595489799294483 -0.10791651093326107 0.0009437003904376496
0.5058269733386251 0.7265625248100187 -0.09216794944997515 0.0021372457385362116
0.4915960060706546 0.7069209004813815 -0.12469605371381093 0.002234627003666444
0.490095681539349 0.7188135438828339 -0.1248332531637525 0.0017770174802911743
0.5047843137301748 0.7858322854443476 -0.017040336527234166 0.09277031195531146
0.5107431515423554 0.7740872747714358 -0.021730377041241547 0.08840428587467594
0.4032080844176396 0.8608599637342221 -0.08479192146126467 0.0035672984846603995
0.38491426848183885 0.8671114501932942 -0.0824644442555141 0.0014318177797884972
0.41495691529233303 0.8530637943622703 -0.09431086265600211 0.0025781270901313142
0.38517306333608137 0.8622803850335965 -0.09256159217608426 0.0016235055286326818
0.2829632337391998 0.8666202596604247 -0.11349140886878231 3.3572499315179586e-05
0.261159215537386 0.8690669746702016 -0.10813770848727312 9.43477486310526e-05
0.271383361142189 0.8707942202010802 -0.10193979069719387 8.798779843800087e-05
0.2444970609426972 0.8708179015070504 -0.10410073461757798 0.00017641536966765244
0.2253636760990196 0.8713028033311343 -0.10411874732650786 0.00014984454647010427
0.26308862102746167 0.8754865347260801 -0.08724531210795528 0.0005692143799289766
0.25065084619881095 0.8746499566539021 -0.09110452793687353 0.0005731683966230921
0.23812967596946447 0.8760023315610941 -0.0877201688329118 0.0006717166320337691
0.2841659230957017 0.8740508611429634 -0.0901571005665241 0.0003076120711284749
0.021042088442060323 0.8835191970782399 -0.02713797919575598 0.10144105496783024
0.042040731950808166 0.8836637025504406 -0.025775751854305043 0.06615184982862102
0.02827208333297432 0.8837031553534427 -0.01743258948134434 0.11256644879157862
0.29709943699425256 0.8758665262403021 -0.08250961446852978 0.000635224162189358
0.37551192961644186 0.8764206940086651 -0.04401989620336855 0.006443559116674723
0.346890645960594 0.881880194996096 -0.03899005965106806 0.018348766645966068
0.39040675076344317 0.8742851388193428 -0.04214380069139232 0.012776129469053243
0.37713794423947367 0.8798550931956746 -0.02045900364580501 0.08616836787443775
0.3854006688847147 0.8773071875862452 -0.028099788192250785 0.08056058557297832
0.35904729789427553 0.8800332453246762 -0.0381210425207864 0.02131178420869013
0.035069297789794 0.8671267818985885 -0.12154558329143689 0.04320341518229701
0.022962201351719443 0.8662011624597736 -0.12455976032056408 0.05416733213029847
0.04574316040568082 0.8720526152348989 -0.10685095397131401 0.00021445393057709672
0.026158813053652436 0.8705313590897874 -0.11173574665065931 0.04961494561810621
0.00739117909493271 0.8683613828378866 -0.11851624781597844 0.07425868555651687
0.17648241417516355 0.8841483248831652 -0.028003810518475298 0.06308788805387802
0.19189559307221532 0.8848825887758824 -0.010949778266941232 0.07255990020412623
0.18765111081654454 0.8842636154224387 -0.026993799803054844 0.07731295798669295
0.16852760126488547 0.8834502446104304 -0.04316381782082525 0.01542809655618315
0.15274888823666832 0.8828345843907743 -0.048325237248759714 0.0005515885484244225
0.13548098121969243 0.8817235129619989 -0.05799330887654279 0.0007146023709910022
0.3082261228758187 0.8701021268389209 -0.10006131132802538 0.00013030517664797386
0.31213037271988053 0.8656192946426897 -0.11215948823857652 0.00013553978035970215
0.3366564062017185 0.8682653461580927 -0.0995750681010954 0.000382390930606555
0.20138791751970925 0.8710663479071146 -0.1058951780777416 0.0001338066331338004
0.213632650808276 0.8733940995464377 -0.09784029742771129 0.0004094427190897922
0.21132030422608716 0.8849548281010702 -0.012685777290312299 0.07659557830031861
0.1715690698963584 0.8709051571584588 -0.10733942619678075 0.00013180935097817077
0.13083318017361356 0.8716618144348918 -0.10560206968835124 0.00018514750273652367
0.15881216703756254 0.8687450093542836 -0.11395692357607 0.0001574358770169495
0.12484995520557349 0.8682046786991983 -0.11600743556928744 0.00012985174543979347
0.1385497432684736 0.8658288020358186 -0.1229296229999026 8.414122316518858e-05
0.15107298392880678 0.8774848736117069 -0.08194239437019908 0.0005679476678098181
0.14703088188997457 0.8723420047330359 -0.10319272759259668 0.0003354848622154777
0.158531185438381 0.8745545045254992 -0.09354030323428994 0.000451118010751281
0.14034199368106898 0.8765754829920186 -0.08622369843634775 0.0005218460242079801
0.11092867427842228 0.8739451398582972 -0.09852206768132903 0.0003886389420415342
0.13194827026085035 0.8746131246586959 -0.09469038926920809 0.00046262505655645097
0.11242756308408967 0.8780239741494336 -0.08116422231347463 0.0006164439018465972
0.1016398430201291 0.8765453299099133 -0.08768520236483027 0.0006571147550086648
0.13388517059076013 0.8797978669967251 -0.07320628725557263 0.0005995977473092723
0.08761849196589673 0.8778360465446544 -0.08236422250609993 0.0006992144216999767
0.07442976686886373 0.8787517014175582 -0.07841320373703009 0.0007743778103928545
0.09060359360668738 0.8748371348687907 -0.0949355650079456 0.0005576821179550272
0.06735755163379462 0.873561151999623 -0.09994578342296216 0.0003941993212633444
0.07685438613909694 0.8756358549256048 -0.09142683880888969 0.0006937639887641761
0.16539230852945688 0.8776364178653597 -0.08147413990092706 0.0007555928328299979
0.17426077889318042 0.8796258254312237 -0.07419060798486013 0.0005416305805661139
0.17097442689628692 0.8739286142796279 -0.09557088561864563 0.00046239061588925065
0.1766490728599381 0.8766422009770172 -0.08548443604298407 0.000531900233026039
0.07070201341825802 0.881100875956204 -0.06446871980023504 0.0006315621800531846
0.020394170893339655 0.8827794709871594 -0.045104891551180123 0.0887255054458656
0.04932278399438914 0.8823790717419193 -0.049108887236086425 0.00047276918863562063
0.05778670396562237 0.8816478306241273 -0.0580328974495354 0.0006500212566891801
0.04931264943555977 0.8835490773690244 -0.03433868634317417 0.035086536559635416
0.028900568430479376 0.8833544193555566 -0.03753755612904123 0.052765007776357585
0.033064217490180604 0.8822553971072729 -0.05126076745609382 0.025846626839432847
0.026515900321452908 0.8812794674360895 -0.06461305846559535 0.045952445039984226
0.03950473326995149 0.8811766526282274 -0.0651663376182609 0.0019729157024483434
0.01937511277535669 0.8757016415294718 -0.09390130820136561 0.05718281553231858
0.03086158465938984 0.8772741429916691 -0.08661416317880374 0.04845864107579029
0.04828586456180507 0.8798225680463896 -0.07483552481988213 0.000558200595718747
0.021255220517733105 0.8790618922422849 -0.07892036094668314 0.04853568925974033
0.364280782238837 0.8590213246966665 -0.11437014987952028 0.0008168063470152957
0.3744923186952528 0.8538756035241283 -0.1211080516630635 0.000732411342944715
0.450774369028783 0.8352436451449655 -0.07490022298934794 0.0015295187840609079
0.4234331501846482 0.8514964336903156 -0.08078673888786947 0.0014792815276961312
0.46325976653043827 0.8275621732815678 -0.07359158627441471 0.002463406708335583
0.1876191025087309 0.8693046088641377 -0.11177300941816963 0.00011561409097027154
0.218066428168472 0.8686178748592608 -0.11286091043715896 9.169255551214155e-05
0.19706178615038386 0.8657715679238005 -0.12194084726147858 4.249640080495135e-05
0.1103564344600195 0.881077738350414 -0.06465934985799843 0.0004273966043043252
0.12044572692154291 0.882039496091827 -0.054710438899441556 0.0005237880494440972
0.1006777887171315 0.8824583992883397 -0.05121227428887502 0.00040666330932489754
0.08782253177651474 0.8810532591482045 -0.06568259119476601 0.0004672247999426169
0.17658166003802214 0.8675899620419634 -0.11704762389171072 0.00011325197287297413
0.04611937551598022 0.8638677728931465 -0.130739185842279 4.0230908074517984e-05
0.5096638972948253 0.7152422701168002 -0.08648798801108758 0.0033669919642964345
0.24180884676297584 0.8648918834905898 -0.12218879183406138 1.7209641892201915e-05
0.3583546785248921 0.8696892770211391 -0.09097387368771429 0.0009901526042961218
0.3376447535153302 0.8755183738862082 -0.07710439506562292 0.0007114785161073441
0.3136118317065011 0.8737531986723581 -0.08764501665086308 0.0005450267683175362
0.3267287791085063 0.8743497123596468 -0.08303777858234855 0.0007243231514920409
0.2490711586095837 0.8778192324875617 -0.07940883646471121 0.0005543336259927709
0.265596022308035 0.8787341233639278 -0.07396203029163595 0.0005161077167773882
0.24272964956308157 0.8801129073871621 -0.06919130097304056 0.0008003906829538107
0.2565559412220606 0.8813561999991049 -0.05943766501121228 0.0005547108342585752
0.31519243352240306 0.8791114028782824 -0.06706656482469611 0.0006465809909294654
0.280893786804214 0.8801588005561434 -0.06386934683970139 0.0004583139630060432
0.303308178455452 0.8785864422134002 -0.07113676633697365 0.0004992039968226659
0.28769654839729086 0.878086421202459 -0.07537788417479847 0.00040945932520526613
0.2229661133601558 0.8767605261896898 -0.08533294716850201 0.0005168182622270739
0.23084990246808032 0.8788478107404422 -0.07568900680202953 0.0005382198655017964
0.21022174715477907 0.8786202211171803 -0.07778307687395979 0.0005854254190179639
0.20896086043915432 0.8810990754387271 -0.06221162180471538 0.0005025328710053735
0.19620873983801693 0.8811080407873063 -0.06204732837379456 0.0005795470009460888
0.2414908707197115 0.8822084245985194 -0.054719754498053205 0.0007200605970898509
0.22445601385707908 0.8822919302495975 -0.0534398280072738 0.0005115073065667511
0.192668399425134 0.8733571449707689 -0.09818338829484681 0.00045725642573966977
0.2029610242245149 0.8758664931813316 -0.0889247772910425 0.00044449899368268717
0.19149548508452124 0.878537475979786 -0.07867904048255941 0.0006815303002705887
0.1812461194553586 0.8827156927362153 -0.04928329872426534 0.0006325493232826672
0.15231035133603238 0.8810369743942187 -0.06460532291034125 0.0007180899161065629
0.18366160057449818 0.8807958309723083 -0.06466900829412525 0.0007854253245795389
0.16355691582342646 0.8812277854898898 -0.062384766370763414 0.0007316098033076902
0.08004544755118777 0.8820249099046253 -0.05470325403622249 0.0006469670048999553
0.08562644369515147 0.8829726112883838 -0.04428348827387075 0.001233826810766235
0.062273252760691074 0.8827962001311239 -0.04349771917835327 0.0022683733781372847
0.06496175645662282 0.877236983222172 -0.0847920449851693 0.0008384465832913303
0.04634952739674024 0.8750092939535025 -0.09500017059931061 0.0007519722322200543
0.03475559110882219 0.8740060328742438 -0.09982278527380854 0.036938106138103916
0.06370425717984018 0.8702763354641294 -0.11159298320182752 0.0001741974182459488
0.07598486617305028 0.8667334588382215 -0.12161418270673424 0.00011010856057740547
0.09153859631286647 0.8702921008833584 -0.11045960583933907 0.00019642585906841855
0.09159711777850366 0.7200692869402645 -0.009723747101145597 0.03847087356383266
0.09823885422396544 0.7155674807782098 -0.02262890591641549 0.034738208743767575
0.23258598489551238 0.7379242285139175 -0.14344826672266486 0.009114259184815903
0.23102980955086463 0.7262960819754342 -0.15183478338082912 0.012097659528675048
0.2113709639656143 0.708046572804494 -0.14361671883590865 0.00962570812223678
0.21545297073850905 0.7225646195803116 -0.1434040675557122 0.008178696308360482
0.4849025315699202 0.7015896456140492 -0.13311335782003644 0.002139309760816079
0.4851365061717389 0.6757455490731228 -0.12888208682823887 0.00169837902549533
0.47312440747780093 0.6968217533398524 -0.14711395468277555 0.0011231413439339371
0.47641872444308786 0.6774711897801069 -0.13934631324245547 0.0009782370632642969
0.4605188652313378 0.6791866345647151 -0.15773082848640033 0.0008072211804061113
0.4578801635880583 0.661072359138922 -0.15694759306121644 0.0022977246400364814
0.4505683559219843 0.6641020921384401 -0.16586899750241926 0.0032204047355361763
0.46871004625695734 0.6831635790899122 -0.1492725724086078 0.0007355955892985274
0.4654801247309573 0.6695022392951775 -0.15008763046502385 0.0011288672903508963
0.45176071543618745 0.700172848350291 -0.17189037818644462 0.0026087083316139784
0.4516056230257581 0.6843311054728987 -0.1688387421017837 0.0010759377619227615
0.45918861930990823 0.6923323143054564 -0.16193266302479833 0.0012865602153203518
0.4466579097556142 0.673676200983211 -0.17223807150933862 0.0015817508353536303
0.4667479710826683 0.6400539959959872 -0.1372510507687851 0.0017496962184988445
0.4774106002781938 0.6634031711868292 -0.1350388149337963 0.0013473901634469118
0.4775920997153383 0.6525848927480529 -0.1298215631114626 0.0019993567215988743
0.44830925057745663 0.6490107078559688 -0.1638598700482388 0.003197372587195833
0.4595526734837451 0.6507845287594742 -0.15097595407382305 0.0020460770462233913
0.1783090705384585 0.548984545759801 -0.13476238757217066 4.208958053904561e-06
0.1702215337586356 0.5535506909290544 -0.14901300251380328 7.614339330427355e-05
0.16305874329380002 0.5506993395235841 -0.14035165129926622 4.8268278800232235e-05
0.3848123900193659 0.6470782794900797 -0.3878764609973142 0.05256112273682808
0.38846913171562764 0.6558818588137806 -0.3936725093078962 0.0582590049706339
0.3902428339064033 0.6528451008292806 -0.3688683720460386 0.0075858095604921525
0.38940660245319464 0.5800300916875242 -0.15489709166268084 0.002804887486707471
0.39590822570950945 0.5670012920605849 -0.12846259841238397 0.0022028042220633964
0.4027948661157766 0.5777103247819257 -0.1411117873134125 0.0021165564445251696
0.4394052643429898 0.6965098752190144 -0.18665952123250582 0.004451255092935815
0.4406280872151625 0.6820200260820697 -0.18172954358185514 0.0017757310501579113
0.4415049387103798 0.661720402136069 -0.1758892780413502 0.0031055742987245393
0.43308789868120645 0.6886254412526209 -0.1935914383726727 0.003870925037743181
0.43366284068275335 0.6744749778320679 -0.1900677707113488 0.0037549657529718206
0.42036777543200504 0.6011143465789118 -0.15412534857271865 0.002194109928733068
0.4054872458169531 0.5914492523130714 -0.15555127986364362 0.0018222885327895744
0.41588656983644734 0.5784235771470174 -0.132379091106445 0.0013649501790579843
0.05517111661470102 0.5485132122529568 -0.13595083338397995 2.955790458020843e-05
0.07392810636437093 0.547391779589636 -0.13201515339795616 1.5181152532244869e-05
0.27669604079834353 0.5949690134019229 -0.3948209481921678 0.055559801274560915
0.2721064948222717 0.5936336147728116 -0.38192348864781334 0.02889868112194724
0.26564740101625706 0.5944959113214705 -0.4063227230806795 0.04940021611300792
0.40148325121560663 0.6896171770378445 -0.3343155223130386 0.003820422293785432
0.4029072293510346 0.6989468546759826 -0.34245137123982416 0.005431763524771664
0.39689833668500274 0.6663663955755583 -0.3252207177449755 0.005719062290559699
0.4034239319794617 0.6928720624142924 -0.3215736545354469 0.005132646257791473
0.35773134394165057 0.6214017736998663 -0.393355233802076 0.04592074881070881
0.363587040429225 0.6269464895598428 -0.4030599537783099 0.04898015223233337
0.4054594299890007 0.6928075183411335 -0.308203656816008 0.005080847303596082
0.4043197839330754 0.6821565632194899 -0.30113345651777174 0.002824672397932805
0.40042843413325385 0.6746831778417718 -0.3152670639969733 0.0031581310358652385
0.39800682073888866 0.6602949614718144 -0.31188618832673054 0.0047102036000056585
0.39667939998718277 0.6786322769189772 -0.3625636206211713 0.0008528566902244744
0.40091860985956734 0.6935559149330188 -0.35212851247630655 0.004467482389442032
0.12704785230280702 0.587376894987495 -0.3952422158624144 0.04633410471691274
0.13718701519115128 0.5883722431442424 -0.4049088298708883 0.061012141873377765
0.39910049273351056 0.6949729095800738 -0.3814302668154963 0.0254166950088581
0.3967821963012769 0.6835204815035318 -0.38837960600271926 0.05762484924293024
0.39539558593280505 0.6756951449071079 -0.37849713327610107 0.02533787899776611
0.393642549080896 0.6662775833928001 -0.37284954623173644 0.011660598730447301
0.3944571949192627 0.672341767907321 -0.39976511605142556 0.07201797501623157
0.39371521873213516 0.6677062126682777 -0.38802622254846725 0.04389216632125578
0.08334125102832367 0.5511350470314998 -0.1438718321679799 7.320913710967807e-05
0.10689720687076737 0.5498244686579998 -0.13913160749717893 3.578095217047803e-05
0.09091948111522176 0.5554261317516748 -0.15752761236167845 0.00014982865271127326
0.3532015668909248 0.6174131149057863 -0.38039806833065515 0.014916305212132436
0.3479045069803103 0.6157276427858063 -0.40532196994964914 0.07989269307488153
0.37511843145684143 0.6365948547152209 -0.39118216245517917 0.0530467212096199
0.3773343705785844 0.638888443637222 -0.37003333392587856 0.0044645753251265526
0.3631196570041678 0.6249973188376302 -0.3775849881527266 0.012388261508396902
0.39680201004172283 0.6866041517510519 -0.3993472254224601 0.07460812740580199
0.3989412161099381 0.7018773001023308 -0.3966820292312402 0.054123760089951935
0.4127713672916364 0.6969605974258644 -0.24556587721540737 0.005547819579797128
0.4126731545063749 0.6780899507313536 -0.22860077062638504 0.0069136983768662025
0.4149863978516841 0.6965534513487204 -0.23376879702780243 0.00910180769238783
0.410378235483693 0.6841763928935478 -0.2499285574486911 0.007040962477933925
0.4572771723162175 0.6122355315210204 -0.12777773166553577 0.0020301930947719104
0.4456044612776942 0.6128279423271654 -0.1412064069146789 0.0015025116014577861
0.4481353837443395 0.6053384083044093 -0.13249615844851068 0.002460383156720751
0.4564731527191203 0.6209057575727079 -0.1355004069289638 0.00257697540850442
0.11774836820642813 0.5552878811162524 -0.1555516304730197 0.00010601579646540744
0.4077454550808088 0.6923762558959236 -0.28495387298401775 0.0035323372900652288
0.40656757139605415 0.6788056109126508 -0.27918583819135034 0.004638506544380609
0.40149602356417846 0.6617367777504899 -0.2947350391350885 0.004555326578058844
0.4076864793587413 0.6732267359129925 -0.2666314059950294 0.004562426799851833
0.40410394426220236 0.6724875925965617 -0.2886661907991163 0.0036319254953523106
0.398447411641002 0.654070271505524 -0.28051822861277276 0.005878537745163142
0.40029923060997563 0.6566358391852779 -0.2634852815170669 0.006481415342700954
0.19510181729807102 0.5493934187819448 -0.1355587961028451 3.7868784152141675e-05
0.18998969036534222 0.5532353881017043 -0.14728859431225785 7.891420443730513e-05
0.17703893317103808 0.5571869537059347 -0.1597463117026106 9.861634836710772e-05
0.2773261988830602 0.552834378060229 -0.13999861517987622 6.304734945060954e-05
0.29270089769895474 0.5536146775363024 -0.14007746157742612 7.92053409760178e-05
0.27739761186636464 0.5584145144139112 -0.1565026376951557 0.00019944104134055667
0.3205816388961201 0.5558004010673071 -0.1402088534796434 0.0004304409795619262
0.3286199788909009 0.5536842154871918 -0.1323452949587356 0.0005557048316869034
0.3437999948313955 0.5630425431667339 -0.14938856255692157 0.0012195898644272582
0.33503245330467535 0.5579807394496339 -0.14173116289681503 0.0009878548761382447
0.34810137056009943 0.5581899543004648 -0.13727599265609955 0.0008291811767960752
0.3083783457667352 0.5647850125583692 -0.1684176246241627 0.0007249261563066131
0.33017130404650746 0.5645408130626663 -0.15838084846499734 0.0010525053897671242
0.2956913052039399 0.563024923984174 -0.16602552597660453 0.0004278246591152992
0.03435637896614235 0.5558593859766725 -0.16028572622362106 0.030581883595896864
0.048049051761920716 0.5555233259803781 -0.15792944964931172 0.00015048679483268683
0.364125623781574 0.6245906919827607 -0.3554051863393029 0.0033224314899299614
0.37205903145670033 0.6312265396420159 -0.3469577074135404 0.003464605371552833
0.37675926802150217 0.6374183954621313 -0.35667304891764096 0.007399643543546027
0.028159706095032253 0.5524374016610091 -0.15008267927035004 0.03769247069043978
0.016800439070929308 0.5532406618291995 -0.15307894894047294 0.08969557545923176
0.0378709607310081 0.5482180264785862 -0.13575508780252504 0.02929956200482818
0.017838749764409006 0.5480925782756849 -0.1359031622537522 0.05976760267002516
0.2980046388253882 0.5676128200839522 -0.17928364457493925 0.0008014489287710039
0.2656912969279021 0.5668373776816354 -0.1869856171872063 0.0004962699120837885
0.2756085247718343 0.5622473522750686 -0.16890695474457315 0.00024927541248854487
0.28656517295202966 0.5664150522276836 -0.17900516136867026 0.000521979765471375
0.2950008628455526 0.5710248684957848 -0.19116006823886178 0.0009919439434265425
0.2814004079740371 0.5696981088228892 -0.1912562725924224 0.0009172427387136239
0.2630069270637179 0.5622798589909757 -0.1708589416386298 0.00037467742376501897
0.2443771351331952 0.5644071781251903 -0.18040662459732393 0.0002893252399831995
0.2550780878443257 0.5684444158921055 -0.19435844578472272 0.00045943754192922056
0.16772889610129693 0.5873664667265048 -0.3756407853814548 0.017638315903706403
0.16161082273391203 0.5880485626997407 -0.3886085661762325 0.047513282551436054
0.166111304634234 0.5893761249470154 -0.40621513826815925 0.050082830343442714
0.17476320427749448 0.588338081606308 -0.38678668470570576 0.05186865604882508
0.22964941200410924 0.5910320056742706 -0.3964488602651544 0.05391276568071545
0.2402171458660511 0.5919324161758756 -0.40127784327126964 0.07446095425433269
0.17882712007987916 0.5875092911083063 -0.37195369288621455 4.054877888680479e-06
0.18364826187983124 0.5895021459694454 -0.3995227294805418 0.06361282327091067
0.1901956098916712 0.5884672010607221 -0.38016921388226954 0.024760202699118973
0.29415572255239464 0.5973529497863119 -0.38249778995677747 0.03313460183586512
0.2880132934608322 0.5967885940086848 -0.39603385773925287 0.06511625645795513
0.29775484851922734 0.5975324519060423 -0.3704091667910239 0.002173302211298714
0.11081603889177265 0.5870002268039026 -0.39721090333604114 0.08145995871071884
0.11524797524335843 0.5860841447833203 -0.38213737390704694 0.024122741712248943
0.10006848352403856 0.5852951414452606 -0.3778409791081182 0.021337748167786094
0.05218523901549991 0.5849025992750947 -0.3937237394622685 0.05081083017141931
0.05675089473169184 0.5841572434312479 -0.3812123733409387 0.02470717630249913
0.06518531861003768 0.5851424428711763 -0.39133772507033604 0.05111420951362424
0.00697648858146204 0.5824118949926789 -0.37792959291432193 0.06719952643688747
0.01409008312209734 0.5839467246635424 -0.39690249937923494 0.1179050452981136
0.00792008668521532 0.5815792761506846 -0.3654337635134994 0.09006966264520107
0.02481945493681769 0.583960922448032 -0.39218574184553323 0.07227842332226643
0.035582229524032345 0.5848809354307916 -0.400577045866481 0.07735089895979619
0.22787396743457053 0.5895257234514636 -0.3747982006217601 0.002435671825157571
0.2105098952343394 0.5895050184812509 -0.38498839007569075 0.028493263907691704
0.2211275886737036 0.5886030666095261 -0.36577995618357423 5.496539616799781e-05
0.21036480039812117 0.5887168832952192 -0.3730291759483613 0.00041001317969742825
0.26281694193114086 0.5891022767013561 -0.3327494995831882 0.0005996074063834686
0.20796178096800802 0.5870160688010845 -0.3506619590120608 6.052328164554806e-05
0.24655927323969185 0.5889542952241976 -0.34701529371434064 0.00021282485443527413
0.2303681347661626 0.58765798468701 -0.3393417216902125 7.07818762176252e-05
0.24084586813808628 0.5894466150639321 -0.36239513792871997 5.49297718751329e-05
0.25112726055057827 0.5886645721103013 -0.3366974597292689 0.0004014328334879462
0.26139177853676865 0.5901847881223208 -0.34924659964215216 0.0004893236604000328
0.25326982196312847 0.5908943868957353 -0.3677056983045603 0.000277677179158427
0.2715178298733221 0.5916195078269422 -0.3561006073188767 0.000605062715224036
0.3765233790360632 0.6341860548003297 -0.3366755212991663 0.008548693436009561
0.37423140402817484 0.6303618862886985 -0.3255852253121472 0.002993099988583181
0.39000789570155564 0.6472101158055293 -0.33008152611039043 0.0072989359847069534
0.38801127778912786 0.6479708184357519 -0.3514479488647414 0.0101377804756634
0.24325113731647174 0.5485012163787125 -0.13025010799627781 1.860029305144867e-05
0.25111950578300507 0.5519887522565683 -0.13993183716104995 2.3771315087510235e-05
0.26100244361935815 0.5485555098468875 -0.12893761946146395 1.8115226977888357e-05
0.31094366536350565 0.6016847034547578 -0.39758204285467946 0.06074956064718966
0.30584941271918087 0.5998754258627479 -0.3844537540642225 0.03722366494849095
0.12323543184099392 0.5486469987474528 -0.13476002255042957 3.596896645066642e-05
0.13696327553894028 0.5478858204101618 -0.132162995759447 3.2783900704947e-05
0.13916198522553808 0.5524173965089845 -0.14598021337086245 8.551142561380198e-05
0.4254810130466821 0.6875443824731649 -0.20644247126584947 0.006075206865728634
0.42389058743038804 0.7025609053173533 -0.21323299985543404 0.01090015791110623
0.38664995209745806 0.5930036783995132 -0.17468805283663183 0.0020131198373316054
0.4031488937060573 0.5981839799101776 -0.1658011970301107 0.0017996902350143678
0.4150866416773514 0.6051407904549295 -0.16348352104954045 0.0025307330723852157
0.21555716546877338 0.5835110021345038 -0.30756525031173276 6.216468501451512e-05
0.21753937429131023 0.5824073682455636 -0.2949886584248838 6.150992363946235e-05
0.21579930226205074 0.5869472286240434 -0.3421043540877045 8.119487780850977e-05
0.22317970779280433 0.5848567506913908 -0.3156710418579946 4.728935208708598e-05
0.22089029662602802 0.5860100339901062 -0.328970428782958 7.94940389801589e-05
0.2516240081924534 0.5871984820849989 -0.31884403525570865 0.00030941502359620177
0.2385679078938343 0.586137117596456 -0.3175240321453438 7.988027877226303e-05
0.1942042760963395 0.5846538384624287 -0.32914468421407655 5.1846188718962113e-05
0.17087255817308855 0.5829017888592051 -0.3170081062561056 3.881305645576786e-06
0.19791568090916128 0.5858484274684279 -0.3414694065793581 5.584594762045524e-05
0.17629092755128037 0.5840383112888374 -0.32810707935993827 5.412353415135493e-06
0.20545989220337185 0.585181708926487 -0.3313980883135409 8.176393719965361e-05
0.1918495629119318 0.5830843878147389 -0.3121153026740359 2.9064773180686188e-05
0.20205464796369352 0.5838771679709602 -0.3177238987358297 7.705959196889789e-05
0.025096845756919138 0.5830291483183424 -0.3787020007800385 0.07694141489391992
0.03635534137750488 0.5833244996215847 -0.3781072836569459 0.04600600562583015
0.09593567974775272 0.5858878061548456 -0.38812038757285916 0.058953732482564185
0.08655895004181054 0.5867675780624962 -0.4047371089834232 0.0665313381758213
0.10525154769822026 0.5875416019385744 -0.4074042518456254 0.06686684191799898
0.03126158958441289 0.5815502550812933 -0.35526748493152355 0.049934082439924296
0.03958376113820781 0.5823926061024908 -0.36357963121032 0.01685087860249804
0.051150631059242974 0.5824245268928441 -0.3592392773522113 3.801695819485417e-07
0.0396608353710179 0.5808340893744866 -0.3417977888204432 0.02563503364879065
0.018602904330014956 0.581138377360545 -0.35475707392777595 0.08994225983988448
0.06427016274855624 0.5820959610915833 -0.34940076361526284 3.9686298147121166e-07
0.07268175688933871 0.5817241207211996 -0.3408781870193934 9.696751616846248e-07
0.05731936761331294 0.5809076482553563 -0.3356565383309186 1.6843093510749224e-06
0.08828012371193063 0.5820394614492291 -0.33904060237965683 1.3973619692137057e-06
0.08610242508194076 0.5847990961357455 -0.37714827931115813 0.023119199838629523
0.08996821428442317 0.5836239036668252 -0.35969918379619154 6.969284325391005e-07
0.07502735568977856 0.5834437365228381 -0.36355934794142863 6.687050187529004e-07
0.0070105911079719144 0.5794561467994263 -0.33438604515611564 0.07213787684130589
0.02638381453230303 0.5783823151354182 -0.31184962501506047 0.06047004410747707
0.04156852675969808 0.5787763674226784 -0.31231517021001864 0.009203464679099204
0.04773358026053809 0.579860753510181 -0.32514838645088945 2.220587703161162e-06
0.02835703839764404 0.5793358235822446 -0.32425207313836557 0.04820612448553363
0.06143809996688895 0.5779602292733294 -0.29470807282761713 2.8011848461946934e-05
0.05002604854474626 0.5782671585536989 -0.3026072803357041 1.37998527169068e-06
0.030008881342880638 0.5772980410354073 -0.29564970581154737 0.0594849988857199
0.011465287270032367 0.5777909186234249 -0.30849406135608415 0.10363686472518965
0.031908419880471856 0.5764723080776615 -0.28343578411958215 0.053204246664077325
0.016269212428674122 0.5766190107195437 -0.290487167943534 0.07731255649065782
0.04871862323855305 0.5744859431470088 -0.26058159679880244 3.7285409361545244e-05
0.033951182944858195 0.5741942404857672 -0.2595531657383794 0.053210156639258335
0.053321834423688784 0.5767446258045754 -0.28086145477411173 3.979427525323417e-05
0.04749734623965505 0.5725228323942091 -0.24264361234173623 7.902481732075117e-05
0.026257061500221373 0.5750551623268836 -0.2683435015875032 0.11182051895880049
0.007910880193347692 0.5736242579706838 -0.25831434191075514 0.06777651450356677
0.013050226238807736 0.5720582492943643 -0.2445375531315857 0.09790242900373225
0.02569511923277692 0.572519634836043 -0.24617677049413111 0.07281303789027399
0.06925042047245344 0.5753727707272791 -0.2656489171367623 3.19364344130106e-05
0.07920554223124265 0.5762859927546365 -0.2720211041150893 4.935595426512776e-05
0.08033124393394846 0.5746328313429785 -0.2562843022663799 5.661602599248797e-05
0.060431125338324475 0.5731982064177518 -0.24720897109214884 6.628124270293082e-05
0.06895671850001023 0.5725229325187892 -0.23901096885725778 0.00010128073032392443
0.07341038019610176 0.5704226307438329 -0.22538653547355367 0.00010199160460785821
0.1024658793881935 0.5707068635564052 -0.2253626979177855 0.00012325630965084273
0.09917533854900973 0.5727059885686636 -0.23801965776077844 0.00010190840568984129
0.0858050738067949 0.5721720720372198 -0.23551933435844072 0.00010151191923345486
0.1078949600052816 0.5686124801145804 -0.21198023890735715 0.00013910547116960934
0.11896873698842846 0.5701531763386452 -0.21964511462816982 0.0001525067622319253
0.11072711362232587 0.5720188199255706 -0.23265251133565942 0.00012201437656804682
0.132732702730369 0.5690526481508034 -0.2105961096260177 0.0001495500199351623
0.1470440844465415 0.5679683437490382 -0.2045346721198374 0.0002075299583177455
0.11667084142317365 0.5660941430488111 -0.19751815678572537 0.00022199933586979667
0.11877010602909546 0.5630993399263837 -0.1855813454954018 0.0001715281459581757
0.13761857673958403 0.5648580862995537 -0.19064800948839652 0.00020512401677883166
0.1373837910893673 0.5617439924074721 -0.1784697004225019 0.00014719377745062067
0.12805077778806825 0.559112033022072 -0.16906090114059916 0.00015965805090719978
0.14395042310471728 0.5719440763934657 -0.2267837693909381 0.00012261834409652117
0.12028053447105685 0.5746433838854579 -0.24777388484735174 9.553504021441769e-05
0.15938883636639256 0.5745081338745548 -0.2412782930866499 0.00011480761594507511
0.14502319586894805 0.5751152337630039 -0.24729718653224103 5.177673435226624e-05
0.1253271171448616 0.5730654344921758 -0.2367654451562348 9.765579099742849e-05
0.11640402769822213 0.5758890655397917 -0.2604173893286046 6.525732320302466e-05
0.1376778425926939 0.5765064490427192 -0.26178281221791155 5.6793982601952424e-05
0.15475667321571163 0.5763652178194245 -0.2568282494723689 5.4642733084617814e-05
0.12305745944338237 0.5770098377940949 -0.26965807772421724 4.793977011106504e-05
0.10618388545130907 0.5749707091651112 -0.2538516248860817 8.354802431920622e-05
0.08888417138525356 0.5771528774531711 -0.2782165400242633 2.416224250543269e-05
0.10814345709336606 0.5767363573787947 -0.27020903853123884 5.3520501182511896e-05
0.09443590357109109 0.5752396610155466 -0.2588774373395811 7.501667047723196e-05
0.11346587279514819 0.5778768113721465 -0.27992109948590294 2.5012026380260125e-05
0.08660111410645627 0.5788025145279193 -0.297039447757148 2.6690406065170275e-05
0.0972321987743783 0.5804584133371686 -0.31490438372833185 9.576746708066876e-06
0.10310677580288694 0.5786295263306506 -0.2896980659141133 2.695109853168969e-05
0.08675044488256257 0.5796866624966625 -0.3082959983283775 1.1736144159757005e-05
0.10866124874996996 0.5796498418535796 -0.30101548674516404 2.3016168386899084e-05
0.07367875392820795 0.5777989078141306 -0.2882255444053089 2.8025635105587946e-05
0.1397703027508208 0.5816820507506617 -0.31372231589883953 3.246990150886858e-06
0.1232363077490237 0.5809044933531351 -0.3108342531224846 6.350512780794859e-06
0.12201116650493142 0.5798146288596281 -0.29811853107975694 2.3582774344423108e-05
0.15076169767767178 0.5824663428558529 -0.3188806420711318 4.614318517114869e-06
0.13041677342167224 0.5847143490732796 -0.35648190756951337 2.2926151471136014e-06
0.11956401819891736 0.5840624377543497 -0.35242394288794365 9.429685018362462e-07
0.11582265698758668 0.5821820401559737 -0.32940277393136663 2.8058318152011083e-06
0.1411985156164026 0.5837741920085111 -0.3397772591469157 2.1066034520567344e-06
0.13038507148440498 0.5823159361361547 -0.3251726214714117 3.566144183828794e-06
0.15590185928108372 0.5849135077155263 -0.3478111561196832 3.5234644913013195e-06
0.14463330036992203 0.5851381228234321 -0.35572363786703454 3.0753836038708068e-06
0.1622223714795404 0.5861688715709492 -0.36093377009312294 3.3420359121937306e-06
0.1311828359968412 0.5793901650642134 -0.2900151534916743 1.8080809707680526e-05
0.13847836602235905 0.5803977965236495 -0.29912446800530373 2.0703134130047545e-05
0.14915921569761906 0.5798892608611776 -0.28998824480453894 2.4888829052722286e-05
0.15565158756295183 0.5809343919138228 -0.2997761811866665 1.7686990483472713e-05
0.07691158340496576 0.5800658150108167 -0.31681636608912894 1.534817018384182e-06
0.06391467776626873 0.5799040326293069 -0.31969494944943805 1.642479533192337e-06
0.07275855386095237 0.580809174035517 -0.32834818018038003 1.2972488755058817e-06
0.06299011882108374 0.5789128087027025 -0.30682297854722085 1.2802491272178978e-05
0.31148656390989266 0.5768318223856796 -0.20096356804296467 0.0014310833942201998
0.3082391148740772 0.5726824122145228 -0.18990523558194478 0.000984987983429876
0.31951732354619145 0.5749826265973572 -0.18988365038397442 0.0016216751077218804
0.3243277433908182 0.5811755150940868 -0.20326282913464674 0.0022996950607459222
0.33407614759275195 0.5870930554707637 -0.21078356453468358 0.003591339923988689
0.3343484407218687 0.5816182889335026 -0.19757912721144044 0.003044562710139887
0.3389485211701686 0.5779847169931517 -0.18584432544240806 0.0018214602198779902
0.3596933628964197 0.5893342607077883 -0.1927861527694477 0.0027747088760742104
0.3484992957975327 0.5857670317580289 -0.19533374111471805 0.0034666180961892643
0.36853302413553884 0.5963802458401194 -0.19727623386663057 0.0029704281389226596
0.3570996377496089 0.5953275727681586 -0.20617421494402424 0.0048267731584311436
0.36317788895386766 0.6026383035946159 -0.21214406228232777 0.004574304421140888
0.37477312124012047 0.6068162978785968 -0.20805001046053923 0.005577788315614837
0.24426629502760086 0.5696796295763594 -0.202722545588261 0.00033324344418321836
0.2323669514319086 0.5669091825791844 -0.19333931051406067 0.00026192676454588813
0.22445804545849254 0.5729377856179558 -0.22297569361161754 0.00019424352955072668
0.24981970977287007 0.5721532316544711 -0.21296065375065998 0.0004487149270547553
0.2366257387601226 0.5761418126160829 -0.2354203444412481 0.00015304386041355402
0.25059410889528894 0.5746167652829487 -0.22476060262605657 0.000500395321855862
0.251198741488633 0.5773937930045201 -0.23812444644668523 0.000891906449460685
0.20470332697788274 0.5784982695395227 -0.2619558760762032 8.896529356079407e-05
0.22296801135718616 0.5761197613632101 -0.24012284587451624 0.00023611343480181907
0.23311629762192895 0.578306427626711 -0.25025431038050233 0.00016690457990002454
0.22109633501937653 0.578763225536951 -0.25792822716646263 0.00015411821621135922
0.2574094396516093 0.5819760654928261 -0.272291221514437 0.0006161202148431716
0.24181595811517684 0.5803377129816745 -0.26383575322171476 0.00024845885340529864
0.25394245403557086 0.5794337579998732 -0.25115051357840606 0.0009244866095028016
0.23803688827305589 0.5816323352718242 -0.27674631358926016 0.00017030050366274272
0.21165121813083765 0.5756865699702458 -0.24090771584776458 0.0002000600955689303
0.19985361177924804 0.5765672905639297 -0.24915264465126374 0.00013984697619168462
0.19764427892262337 0.5744143967183195 -0.23462364583263534 0.00016451987004645265
0.18777681855389866 0.5725069883768351 -0.22459146656931328 0.00013228410656291006
0.18035222312212887 0.5738005019635287 -0.2339385074850455 9.34820188698406e-05
0.25503183024649845 0.5560149282175921 -0.151482345569053 0.00011625818403674851
0.26289623689819697 0.5536825741000706 -0.14392571856954167 5.040773212957956e-05
0.20854937822358782 0.5480012191665892 -0.1307407622151813 1.595321287121562e-05
0.2025285084228227 0.5533693678978552 -0.1470494117011749 6.148457247231542e-05
0.2430963143602227 0.5579784177922228 -0.1589211309564191 0.00018772387008501602
0.23313359624627325 0.5601007159670263 -0.1668130037690603 0.00019807353428756086
0.21686225420890828 0.5576979890967468 -0.15971885882539652 0.00019571553021633466
0.20392615692497656 0.5633013224504876 -0.17996646058333032 0.00021485327501532815
0.20308263191136808 0.5588493819181823 -0.16468122137379354 0.00016845116591473412
0.22183121261978125 0.5618930349757354 -0.17361339003579432 0.0002382701511094568
0.23081300626704832 0.5644043873623176 -0.1818658301748272 0.00020307714815387024
0.20223165535241147 0.5659651422678417 -0.19107002698500009 0.00014172678791554412
0.27719978816497964 0.5762741447473346 -0.2199288379103107 0.0006875079600469177
0.28857419345819385 0.5766800237542345 -0.21379109292171272 0.0008975214713056076
0.26048362137121145 0.5716132458288288 -0.2077005858735522 0.0004365399586776206
0.26515034391231124 0.5754721786620622 -0.22448605167214744 0.0009616687285916632
0.27378607113166203 0.5731523578630624 -0.206087240776316 0.000751968076182914
0.26471496044960524 0.5776756933457932 -0.23632204761000433 0.0010647343346600463
0.27640825137427005 0.5806237410160402 -0.2404721812042343 0.0008250277859070404
0.2975698394786265 0.5851487030193325 -0.2416200822864894 0.0008563763972184202
0.2858630927593003 0.5792247136867923 -0.22784259729083978 0.0010855821865106588
0.29725712482567596 0.5816033479108116 -0.2282388227639179 0.0010681604972359875
0.2884336702586089 0.5846344573368454 -0.2503324407688336 0.0013182294146013328
0.2916954275653455 0.586623704945171 -0.2637286043958882 0.0010929035209103458
0.3086051359092485 0.589276978626605 -0.2534467890128723 0.001318067856102467
0.29725123118099944 0.5894808488414202 -0.2810172812384718 0.0006620187128104008
0.3222934894573381 0.5932473262047527 -0.2555416447815192 0.0014306356733797695
0.32512810276756454 0.596966070245169 -0.27077690339187854 0.0011092078517444621
0.34393209345399384 0.6056517528256061 -0.283860308959004 0.002034606632754355
0.313787026812782 0.5937751502892655 -0.27415731834160667 0.0008183152705594309
0.3227912737004926 0.5986883374346308 -0.2845731567906819 0.001067116197668759
0.3285481624707078 0.6018431289711693 -0.30723251941884283 0.0011756129237957106
0.3131220641954546 0.5967615538807641 -0.3088153334894584 0.001282186481086672
0.33492648001834563 0.6033627960495729 -0.29561812015161687 0.0016650743856520317
0.31266651752092633 0.5959735576998564 -0.2968372846943705 0.0006842526789245366
0.2885878771647007 0.5901304618333434 -0.3018932811942684 0.0010700012663950233
0.2963248574909118 0.5935730594301223 -0.31490665114311583 0.0007762256917113082
0.2986967185836914 0.5913016021491007 -0.2932945999814043 0.0008867840325972398
0.3076687714994258 0.5967583388168902 -0.3196560105027501 0.0008450004078566667
0.30392105613247555 0.5968024728995676 -0.3332968456325485 0.0008591253896045493
