x y z curv
0.29640732493969063 0.2066370721650277 0.21787713006443388 0.16055621981251433
0.3145373195328546 0.2570778718936285 0.3044209979337237 0.1710167959574391
0.3121145308393939 0.1947177569682006 0.2928830520721233 0.08157658516131426
0.29237312776177093 0.210203844923948 0.19861255971599207 0.04280505837208418
0.3070869337864721 0.20319020901150722 0.26887270699677934 7.190105756610931e-11
0.284726775157342 0.1956765810751304 0.16210359599317023 0.1701515233139661
0.29682307360912485 0.19292832048656383 0.21986869871778283 0.09829882485570923
0.2859362333495358 0.17917755734818663 0.16787928654773843 0.12447361619241695
0.2983420426052042 0.18170977981110148 0.22712243840052776 0.10468997632415526
0.28783515746581767 0.19276472957889934 0.17694747770394276 0.0858651742984936
0.30786443527077867 0.17844116900363882 0.27259601800040417 3.051483629041783e-09
0.28909682338877185 0.18247323006166538 0.18297248295113475 0.026604238155735968
0.3009123453930992 0.18291293420533022 0.23939675563632912 0.09064224794493628
0.29539165189726824 0.17659436138708323 0.2130330355140985 0.07967432256349034
0.30280597784326224 0.17449215881908695 0.24843967677806106 0.037323383991993565
0.29458246232304597 0.19125979108913277 0.20916880224761952 0.08155387081808574
0.28692548389924893 0.2031879867322815 0.1726033895328244 0.09883450482740999
0.31179340246526066 0.17080590268940554 0.291358550563201 0.06452648623022875
0.28293321979785413 0.17135576175078965 0.15353858662306624 0.2433315824511289
0.29030041051301514 0.1975127732807295 0.18872013659469125 0.02971138495660894
0.3143431601404766 0.14014231067566046 0.3035946560528683 0.16360178224273605
0.2982457219610879 0.1563616236009646 0.22669117146786685 0.08517608109198835
0.31537723642002913 0.12829962076210574 0.3085564159899344 0.21329212768991235
0.30402264522885747 0.1635486366925299 0.25426369295818574 0.014673847759757226
0.30942812873704173 0.15824644156452755 0.2800874217039523 2.98976601896088e-09
0.2852283300021157 0.1667319977138142 0.16450770836862283 0.14331741282885785
0.3107443857348777 0.13280397742791322 0.2864238819910114 0.03010931559197037
0.2922086714685926 0.17038509747318226 0.19783404924651682 0.042305209839015624
0.30681822768338207 0.16276063053899645 0.2676151807935233 2.8119351392162356e-09
0.3039947668016004 0.13488850427576538 0.254187854800008 0.029019023595282047
0.31583574477130744 0.1505198307403802 0.31070154041194825 0.20147373779303746
0.29353222467394097 0.15125310655302018 0.20419273696718912 0.07756987622249124
0.31188793593623276 0.1535757097733903 0.29184322335397506 0.08909745737655984
0.3155426074874836 0.11535917641056743 0.30937199021129724 0.16155935657155762
0.30518158697537745 0.1247053102265121 0.259875704500583 0.10171276808393355
0.29973825156520395 0.13608059758524566 0.23385907923507226 0.14664770784411263
0.3002990579431809 0.1508282010615376 0.2365076512401083 0.08783660397919313
0.290092313892625 0.16308121346095675 0.1877422803458442 0.048083850938971724
0.310218917871391 0.1444157386729445 0.2838913719619178 0.003945150025758802
0.31298399416738565 0.1302738293267473 0.29712387625042674 0.1023838798155504
0.3089551694460712 0.1149344397419834 0.2779154511603978 0.14238141963764875
0.31562456832149355 0.1647395041310409 0.30966467183179824 0.1886660737978092
0.30842383690026254 0.1284126138797858 0.275351204217994 0.003045682510113098
0.31351209725610796 0.10789161228371781 0.29969050048090884 0.16196235922476696
0.30059109290192854 0.16522033723317225 0.2378734535380224 0.05237948129777661
0.3060412422440002 0.14556630583550034 0.2639391669223162 7.107134019850573e-05
0.2906321360246086 0.14569476461844263 0.19356283702478796 0.0889779534530633
0.28794233668995495 0.1592494565008058 0.17765672924285797 0.08795090386873
0.3015646655854902 0.12571523629428652 0.24429973450337245 0.1684803501700865
0.3106085104110522 0.10260254444755361 0.2884408347850468 0.16821573509506055
0.30544142329038504 0.10784154335156022 0.2657724166023964 0.2232125627683496
0.30310310814984387 0.11321325667686695 0.2545872250862091 0.2303017111009875
0.31224527430776783 0.09532757325229543 0.2973557806297335 0.18839926819054287
0.2987710589923001 0.12326120448791417 0.23383544075327065 0.20584696254838278
0.3165658673515828 0.09505114069949906 0.3150429458185794 0.24617485528664773
0.2908571023310197 0.13109649518042019 0.20610658675782564 0.12955387242472582
0.3071746398351435 0.10014663797338835 0.27759094865971157 0.24270596805823252
0.2940456794634822 0.12296392503929401 0.22250752409277882 0.15447352402040224
0.2785176558997122 0.1508759339419985 0.15627908303675808 0.19524894161764644
0.2820821401651816 0.13705043552870663 0.17970577377895014 0.1305169619744976
0.3081159303064528 0.08354851121608403 0.29733655269981196 0.2005797376110781
0.3060521358628212 0.09110741615708773 0.28457328419852324 0.21102850248438132
0.30973437395752784 0.07731650708311319 0.30766092224555486 0.22692085794186023
0.2996720543735479 0.09707949489751368 0.2631448009249536 0.17939479838585087
0.30080940061893974 0.09105327341007785 0.27385463040886227 0.18588633035432506
0.29223890924800355 0.1125471690520379 0.23005557275174868 0.1515778890577172
0.2826991069334448 0.12450704146341098 0.19993233257593268 0.10673600301508217
0.29690196637833793 0.10222273731645631 0.25175275473197634 0.18463072940794117
0.27835263229073687 0.1293466316583866 0.1871567378267123 0.11862999722069542
0.27281084268171635 0.13699206954973667 0.16857129983811175 0.14092217566980747
0.29811889847868855 0.0719253887475771 0.29977315328833987 0.19756951525616018
0.28714847943000504 0.10418158822746333 0.23674008153724382 0.1534483671275228
0.30866648458394086 0.06918661253891525 0.3172043352386193 0.2492037384940198
0.29958949819385255 0.07948682991581761 0.2900747211309166 0.16755998403564076
0.28004016910153795 0.11383199057563424 0.21311259044114034 0.11521949091424655
0.28705707008856146 0.09192942708911461 0.2561389184951756 0.12048831676933816
0.27169061716018217 0.11461597317724516 0.20429069901276134 0.09908176089935358
0.2597116821337202 0.13329593251944882 0.16220497505651593 0.15079997230071285
0.2908553052605953 0.08537990969203903 0.27053362893108357 0.12594069793675186
0.2708805897317257 0.12200961291107373 0.19116781842573072 0.10508270668017393
0.2806059045213287 0.10713168323451377 0.22485352497002795 0.1257551184582448
0.28536176930304286 0.06876351973278311 0.293793446508985 0.1421821769392399
0.2775055541993112 0.0982246695271947 0.23702202902422276 0.11327025386337349
0.2612166907148751 0.12360215806702625 0.17982933768098064 0.09677542267692153
0.27010919250129733 0.10178839107375134 0.22454219677003825 0.0939908549298822
0.2688583568965587 0.10737933614023755 0.21397751202630227 0.09325272075359566
0.2809704310977069 0.07782068168818157 0.27461975387990967 0.10119061102542275
0.29459244723275346 0.06208644510803564 0.3131469546572379 0.22826394243193998
0.2897037933676111 0.0765517146927151 0.28437454092046144 0.11365737510782643
0.2610120504261977 0.11444323391061499 0.19570493816856754 0.08547560202841328
0.2481084152670706 0.1322810429585531 0.15510666302218806 0.19814907438639473
0.2770150176803035 0.08447255115208413 0.2600351408021133 0.0870543920212328
0.27348742335319953 0.06412490081529618 0.29298679324342325 0.15819106597551097
0.26869003548044756 0.07708810636461316 0.26684723415620587 0.08241045590701916
0.2530029715307961 0.1168316472756245 0.18596768445000866 0.08619024771912426
0.2837403036436919 0.05795247190767329 0.3114488440910856 0.2411119716052463
0.2671340688146701 0.08501268733859174 0.25190710864121085 0.08550715479895901
0.26585266547098985 0.09424581831849924 0.23490122578815115 0.09223179968138086
0.25470398423522855 0.10150403800826632 0.2138768263263882 0.08923711548462475
0.236321568526224 0.11394762422953074 0.17944041270549632 0.07771790455474714
0.230130313638422 0.1179574567912444 0.16817252999523624 0.09769543376530108
0.24635750044664823 0.10797321268292387 0.19677837472144175 0.07964004575818422
0.2444125772433044 0.1254076877604149 0.1647006333252119 0.12729452983307774
0.2560466842683568 0.08986077387883848 0.23529721813283752 0.07987961892847412
0.2456396465795937 0.06374233447381628 0.276292786866254 0.08034292585716567
0.2548037031309285 0.07146908994329636 0.26730465159441896 0.07823220178531119
0.23837614760356768 0.06776071109620072 0.26480924432941516 0.08197894110137134
0.2599824845255498 0.05636299688145668 0.29794954184231986 0.1629332447127693
0.2691691198115095 0.05129087538980952 0.3124548563371473 0.24770582953287842
0.2509122494023368 0.04839891089324038 0.3074261881563227 0.224447533696103
0.24688129095656525 0.042003040476143894 0.31687826807218306 0.23322751016056237
0.24907589694566357 0.08062538361265445 0.24726441994301682 0.07217207515227968
0.23946465126510882 0.050959972956401575 0.29624782431430674 0.16052058522480395
0.24167174678317693 0.0963520813684723 0.21422131407274314 0.07397221828156808
0.25831095360241263 0.06432020793130977 0.28240517228810136 0.07785468583302746
0.23397716752751638 0.10523153022255609 0.1935756942283023 0.07166235884596654
0.23889726242913772 0.04536581867542873 0.3061896256733837 0.24569955499381488
0.2314268525086211 0.09915652197926285 0.20327723676831808 0.07775266815505022
0.236926233193001 0.07664795435725327 0.2476840938038315 0.07700100098032324
0.23816345429313882 0.08433998463377643 0.2342727098261959 0.07695493025427244
0.24006863716443108 0.05655219581150651 0.28633028195529153 0.10411511282808436
0.2322873259548799 0.09002168394015854 0.22052297094024717 0.07968735884361941
0.20874062793342416 0.1112211586006435 0.1723069184080559 0.09266134294974583
0.22509275410871468 0.09321256530706216 0.21141166132025455 0.07234180467443903
0.22586237386300978 0.07906793448387338 0.23803601006798894 0.07131317012740333
0.20958351608965103 0.09313738496236387 0.2062981061448561 0.05818348994141041
0.22916778012778385 0.05500750595092356 0.28400102571256347 0.0812973801530748
0.21575761648701647 0.08800061789599185 0.21796377975509518 0.06404399618642802
0.208534800867152 0.1207211712552465 0.1545304803229302 0.17610268023322495
0.2082995207687185 0.10438303441984514 0.18490281709377898 0.06199655794597314
0.22824386385136056 0.07051339890608414 0.2547872046223572 0.06999580195254054
0.2206898598571851 0.10354535426470199 0.19066130625864952 0.06658368087152482
0.21895652313526584 0.11497187280989213 0.16877668986626432 0.0902476695793147
0.20906764646421241 0.05294813304590225 0.28202231531504257 0.07702739330972376
0.20970615738858364 0.0744608276699735 0.2415299431223912 0.06884673899341302
0.19698734877354315 0.08621375943255272 0.21567266478640912 0.058215654154693146
0.20026515053078525 0.07744759570833396 0.23318411963697738 0.0642998488826702
0.20796796354714317 0.04692833473855346 0.29308984675383193 0.12914269352503463
0.22766171106356944 0.04878229015842664 0.2952137791559239 0.1665072636817833
0.19891902203383796 0.056837562340755717 0.27176752922612946 0.07060722226016927
0.2101417920334211 0.05934444999864742 0.27023558587705054 0.07846747026234861
0.22260403728768802 0.060888576071324814 0.27087826580662006 0.0795479986265895
0.20247409352062495 0.09794562251776931 0.19505911281973698 0.059929770006821856
0.22811271943252154 0.04253654030819283 0.30715177685445355 0.2199555497316793
0.19458139379746883 0.10781026657246072 0.1741515922777049 0.0700793638571495
0.1967795926248594 0.07090450713852281 0.2445590756815083 0.07099591448661421
0.21328384204941409 0.06694286992263875 0.25676708538822224 0.07262539865805302
0.21212675464704842 0.03768852063779619 0.31174867346137075 0.2275287923019523
0.18443881200661782 0.10507469201113197 0.17857891072347087 0.06203227106316244
0.18603805823854963 0.09615313292357755 0.19564677994763163 0.057781165329687564
0.19262010450594158 0.10092979316762483 0.1870632111908237 0.06389105339692502
0.19094457344145055 0.06549410577491843 0.2542567381871418 0.07172404680037096
0.19191583336362644 0.11301835652654314 0.1640456069108162 0.1020570304556497
0.17858271874391296 0.08995977547044443 0.2068809106441427 0.060841805606472225
0.18510309410780412 0.08265531771345408 0.22122448995970787 0.05900157738551366
0.18212646084163608 0.05976103266598369 0.26452705386763703 0.07727203506581751
0.19052495027908173 0.05289404367683502 0.2781718854759882 0.07641163903255928
0.1940273118426421 0.04478921836667767 0.2938233939442041 0.15722015287227972
0.18433768331250455 0.03982957872873788 0.3025650281383778 0.20892145383466215
0.1834251172826975 0.07391770828199087 0.23771263073892412 0.06347624317566096
0.27980629628033316 0.4241892777200111 0.21004973168802116 0.2678505402030177
0.272387273941327 0.426614002089977 0.2225620577773657 0.103282806352035
0.25984586056075715 0.418573513588734 0.17008363057531523 0.06442794005580031
0.27745666795266966 0.4303179196352228 0.24673667941018496 0.05528203438142867
0.27290769188730857 0.422159748473062 0.19349016442926806 0.21142719831600254
0.2680428704350342 0.4202262317591497 0.18087054360656407 0.16054599323841343
0.28796463313419096 0.4373289393135328 0.2924959993499442 0.08214191014478907
0.2542908021199518 0.41648336456319024 0.15644170615514513 0.04554571917067645
0.28116356665100145 0.43988131899568617 0.30915478795097884 0.20659047223422417
0.2624297587520416 0.42285469078385446 0.19802589191898035 0.055258433543144074
0.27122953055939913 0.42883773595686575 0.23707585757304755 0.0377183788329617
0.27704685782660277 0.4351736999670206 0.2784292397684041 0.020071065544372265
0.2768814607772868 0.4325375646933811 0.2612237926638341 0.020676559524365205
0.2675810888163927 0.4336255978629129 0.26832512389082286 0.00023358992134154998
0.23953437998035526 0.426148265132401 0.21952229087366326 -2.9760057486444053e-14
0.24655320350735688 0.42434479997975716 0.20775148827933332 1.1990577413772571e-05
0.2360329769574873 0.41764677178059717 0.1640349975071169 0.06024368033294709
0.2500879886500745 0.4291735534098614 0.23926765221470309 1.936759441975239e-05
0.23139224290891824 0.4277215356038603 0.229790665685279 1.9087986116500278e-13
0.26561832469875896 0.43559132278095725 0.2811549580228374 0.00020876331085388137
0.23961757832498648 0.4312502966307615 0.252822077958107 4.189956147687979e-14
0.2704201703398796 0.4401460422900274 0.310882565531756 0.23164821827883225
0.2516649408034817 0.4266520416348694 0.2228103243316564 2.7463027851954695e-05
0.2531106745357522 0.435135721814111 0.27818135521455967 4.507870833940229e-14
0.2468030329297048 0.4189655216652504 0.17264217494040046 0.047604516504042536
0.19004094143193595 0.41729114263244327 0.16171388778477386 0.06277130619710178
0.2051977364945572 0.4172267655278772 0.16129371321786776 0.05017731477701232
0.22357728817533154 0.4217801336281318 0.19101250039201667 5.572114787094247e-14
0.19880809578151315 0.4208737417304982 0.18509668877541569 0.007084380678414016
0.204302819575593 0.41910504384064284 0.17355280411539065 0.03503636222127976
0.23771024058779053 0.42921356265871136 0.23952878338736266 8.652326901927199e-14
0.218496107323085 0.4182936839731744 0.16825724472022735 0.04647212280306495
0.23663745752560258 0.4230574718561804 0.1993493934595153 2.871149005339444e-14
0.2258978995002678 0.4255064124006932 0.21533306559892523 1.0777339354795012e-13
0.1910048355808816 0.4191098853707504 0.17358440366976358 0.03424437477565505
0.2590880918618917 0.4304510833242077 0.2476057963746146 3.2004419832031594e-05
0.21035664024553746 0.42161669928534085 0.18994580199570654 3.074375460426001e-06
0.24732370206099563 0.43333430916075316 0.2664239488113812 -8.745515267968303e-15
0.2262126242651855 0.4237580957689454 0.20392220472672115 -1.0066132337792746e-13
0.2471330524793399 0.42150402878899057 0.18921042755900053 0.0005594781764556562
0.23062430266217684 0.41926660350066863 0.1746072668881162 0.04126939063912594
0.20173781979071753 0.43316655332548915 0.2653290411371023 -7.358319337461639e-17
0.2262600372799733 0.43963506232325533 0.3075475129006765 0.07055214058906882
0.2000333251518234 0.435794344368471 0.2824800282872144 1.180583522035989e-13
0.23686076514199114 0.43777879566580913 0.29543208869196536 0.0206138125152704
0.21046618201467515 0.4399043351879155 0.30930499339446854 0.05300172937063617
0.1988458819947735 0.42305639363148645 0.19934235553460702 4.0474954213459514e-14
0.17923578896005504 0.4280496538546288 0.23193221385737686 -3.885969387894289e-15
0.20706173459230465 0.42797420159130084 0.23143975697345393 8.92946405998579e-14
0.19567827388506237 0.4250379995112833 0.2122758407128605 1.017827791983495e-13
0.17897732994942686 0.4165949442322459 0.15716996059267885 0.054069866001122305
0.24139792269107438 0.43587360212865933 0.2829973294183056 0.00012349457565219308
0.19462875296776871 0.43734212631510816 0.29258204428968615 0.012386434867435903
0.20828686111917769 0.4240266057846603 0.2056747078568652 7.022351637749547e-14
0.22213113957551486 0.42942021572204275 0.2408775598312157 6.529608089158334e-14
0.2283055838868286 0.4360342919222557 0.2840461134586668 0.0036081210510257034
0.18280045095760433 0.43566344023700415 0.28162564549554736 -6.094698198726031e-14
0.2078123439333197 0.4306675576837976 0.24901867234680336 1.751132428159905e-13
0.21437764487119965 0.4381800424946843 0.29805093223205514 0.025017386412905324
0.21855847277284718 0.42764068589194115 0.2292629778712917 6.063451819571531e-14
0.2333548402216285 0.4339326204325883 0.2703289878603204 2.673247090406287e-14
0.21558206832187388 0.4360500930645871 0.28414924265583935 0.002921325845591004
0.22833344054042087 0.44136078383209537 0.31881090018849256 0.12462666676907677
0.25928000022082553 0.43873986804809095 0.3017047890796904 0.1518747130908642
0.1959361525678629 0.43142955986680653 0.2539920840690031 1.2749236791282968e-13
0.20406971767228008 0.44138401758169943 0.3189625391942932 0.0905481189472898
0.20866738335560747 0.4345934734398157 0.2746422209627325 6.001010098896047e-14
0.18934660512990953 0.43312822510340016 0.265078880463266 1.43797736630672e-14
0.20283572873043665 0.42629906833490894 0.22050654735902137 4.6804701970124656e-14
0.18392921254073344 0.4213081896842259 0.18793222931240952 8.200749151409917e-14
0.22101129962594857 0.4326486576541746 0.2619488571425581 1.2578764977986612e-13
0.18124951196463185 0.439622062867459 0.30746266412189965 0.0597441187521217
0.1879766973032081 0.42683699957130383 0.22401749929933554 4.005203732949575e-14
0.1810937409924523 0.4242042343293836 0.20683404587289808 -6.421518290843721e-14
0.24993491981739002 0.4375725482336227 0.2940859604285237 0.05849282176619022
0.1985363613040464 0.4293394846734086 0.24035064459214778 4.679386716661883e-14
0.28516757498048706 0.42713917407079294 0.23025756933682834 0.18768007026411437
0.29114558428522586 0.43251325271744545 0.2654026700104666 0.0312416230810364
0.27564392895707635 0.4178217754331507 0.17020403153464986 0.23384113135777745
0.2972205472571175 0.4328597096591637 0.2766966708663283 0.041878798123892634
0.2999407711841895 0.437187635843863 0.30226820048239716 0.17459379119139254
0.28203342823646316 0.41775066285692697 0.1814632311212257 0.24430685229322247
0.28511394063229434 0.41896913809284075 0.19491553076380636 0.18269923443885394
0.2896472721281995 0.418382652120984 0.2058784691517814 0.1721250250714385
0.29564192571071346 0.4214659710678053 0.23336168028354426 0.17111916124270504
0.30642943811987905 0.4307609458903551 0.2937842864145791 0.14515075921327963
0.3011830578563136 0.4192809318995834 0.2492607352539648 0.12107854870395457
0.28463909275406457 0.40869703163898563 0.167070391925448 0.22506806561352052
0.28229246952580966 0.40578410883408456 0.1543202357332178 0.2290911702954827
0.30905252912539943 0.4218709982748517 0.28544569347336857 0.04400589415473288
0.3046100132069933 0.41613704209763486 0.25997975706592324 0.04002091894109315
0.3132609495841385 0.4249526724970144 0.306695912332729 0.184701652611164
0.17725187074279622 0.0694149417738045 0.24600445979800678 0.06384261462635257
0.171766353417717 0.10671769645192422 0.17551606912824352 0.07497000582745197
0.17749766367343786 0.05334409679225427 0.2765303787183977 0.08073155300412287
0.17291541186580067 0.09957529721000938 0.18900519191923643 0.05888160086253006
0.16917795369537886 0.11606011712881051 0.15795296570875328 0.139325683824976
0.17020307305461907 0.08106255522777431 0.22439287124884386 0.06326420628298765
0.16509545386799962 0.43100446457038427 0.251217583229024 -1.53575283129782e-14
0.17607477831591062 0.41921151961988556 0.17424774585223926 0.03254000092618138
0.14509016797936014 0.41837080024413087 0.16876056399028996 0.05922268911885392
0.17724687646281884 0.4302971272684305 0.246600955462979 -6.735168811159581e-14
0.16515976600494275 0.4244470332709118 0.20841873842406425 -9.687140143097388e-15
0.17500432958960394 0.43222863864402894 0.259207485646513 -5.573454016048251e-14
0.13808684507396887 0.4213354664592268 0.18811025801584624 0.004100537811995842
0.14115429878985286 0.4273270716438791 0.22721608600235604 3.7863284850582056e-14
0.1521224326747319 0.42623994607691845 0.22012066764431776 -2.89032727052843e-15
0.15135298077250872 0.4298747845391656 0.24384442167729276 4.5592411019554454e-14
0.16914760576657933 0.43784619956343 0.29587201280537145 0.034592165967955515
0.16749192035208324 0.4275923877286127 0.22894774302111714 -7.471049852568738e-14
0.130891665131154 0.41848972708709853 0.16953677212162394 0.0509953385897886
0.12479939929161457 0.4202772066783748 0.18120323999986523 0.016667995458211987
0.1457890731902554 0.41630499546289096 0.15527753165768374 0.06219315416666875
0.14826693247797032 0.41999072135020316 0.1793334162015886 0.006210202422509658
0.17669717808762894 0.4339788200515772 0.2706305168642718 -3.338283353286877e-14
0.1732804159032303 0.42555530852998824 0.21565219595463764 -3.191922796730964e-14
0.15256605429096404 0.4235927688127159 0.20284315092661467 -2.6952372080043192e-14
0.13361614046725545 0.4232058270550677 0.20031767113463034 -1.8411202156741666e-15
0.16458630307368516 0.43612059869939895 0.28460941313758475 0.007104799286368142
0.11642649306843197 0.41689734355851416 0.1591436513404214 0.07001552823035487
0.16750251291428161 0.4173513977515534 0.1621071585513152 0.04961671976981146
0.1738368843416305 0.4220839962046613 0.19299573937945944 -1.4929107800829326e-15
0.15740220685808093 0.41850903696975783 0.16966280328129515 0.04297451938704697
0.16163919384098244 0.43301111064631576 0.26431450030830494 9.520596688721916e-14
0.09399289216382034 0.44039532386348834 0.3125095681884596 0.24714213810430133
0.12774653848924117 0.43816382595648107 0.29794509109016465 0.033648610997125177
0.15817600170587356 0.44014768729667203 0.31089329507582997 0.06933882631911159
0.12471338799044537 0.4351473656918107 0.27825734866894214 6.903705092201752e-14
0.1357347648055734 0.43360878966762373 0.2682154155932205 -1.703721275017384e-14
0.10475806063109691 0.435849391406375 0.2828393110415962 3.4123285046774436e-07
0.09867120449563208 0.42737105135603 0.2275031351493918 0.0005055927874448678
0.10051499420815888 0.43783075615808786 0.29577122370054915 0.08610094630462287
0.10379713518214599 0.41907991662426325 0.17338880425845796 0.02672964373881687
0.10870135847040989 0.42322478240307504 0.20044138988872406 0.0004367186832111583
0.11283595066786767 0.4201132770309407 0.18013330921150814 0.025067454139445673
0.12935930591963707 0.43214293443628404 0.2586481160870967 -2.3498517500532903e-14
0.12042886218753185 0.42270652995749575 0.19705887418704496 -1.6674998098817689e-15
0.12001774335900647 0.4258362416617967 0.21748578305111432 2.029370884000305e-14
0.11271549427043193 0.43864521178747096 0.30108698719095145 0.10480594891707802
0.11350474994904955 0.43258507696133647 0.2615338802305691 1.3484797303410093e-14
0.14461930703205816 0.43214125310527285 0.258637140959466 8.758807697060162e-14
0.11124598614087924 0.42768406884744725 0.22954612714972616 1.3646666845270905e-06
0.10845461083215653 0.4411848775550353 0.31766280223782745 0.24070961457916493
0.1012312435472027 0.4317890327032834 0.25633828353538257 0.00023894655370167284
0.09391689377148024 0.43451950122231064 0.27415942457209996 0.0013069238758185676
0.14456140854276722 0.4361065112159207 0.2845174691053921 0.0012899007371968776
0.12308483629668196 0.4412645456720856 0.31818277631731695 0.12726718287376418
0.12401082139240548 0.4275150368663516 0.22844289303997467 9.137673162752816e-14
0.14760781734700457 0.43411159651456777 0.2714971191550598 3.701180530716595e-14
0.1551246891439634 0.4379717255239184 0.2966912930962684 0.030924258792133844
0.11810892488285149 0.42962307947680595 0.24220160312119912 5.504470704917067e-15
0.10180577080706102 0.42474459304330703 0.21036084522069803 0.0007264840338224504
0.12963450237703614 0.4297092363222893 0.24276392793790505 -1.0211831542291854e-14
0.14421688740910973 0.4383683230348696 0.2992797949273238 0.013603378650326974
0.11575428968486848 0.43652454973419297 0.2872459131825906 0.008977181867291465
0.11206456312224078 0.4344159326119685 0.27348345431695864 -8.306160549468901e-15
0.10152844272772578 0.4217721726377781 0.19096054057118916 0.0004966262253295957
0.13243006483710135 0.42612731834089723 0.21938557242890439 3.0007260524141057e-15
0.10083119523074478 0.42907083973544446 0.23859726294075004 0.0005282555539420242
0.17252471096716565 0.047258696855735666 0.28845581883005844 0.13378473822862216
0.16395254415978608 0.06484228084400895 0.2556546316057008 0.062289179838811395
0.1636546473639326 0.09483439967657599 0.1986930940943939 0.05832521387629002
0.16478341002428393 0.05262336304763843 0.27881083200062867 0.07642103250519047
0.16451897686939695 0.0722179950029294 0.24160131353487824 0.07029780208824812
0.16731390169584476 0.04069973320746996 0.3012858157658469 0.18274941151810795
0.15931616389825248 0.032416739187949684 0.31758841592847725 0.24524470971615095
0.16912956118517303 0.05853706123891418 0.26726793382518266 0.06823959343597898
0.17473655942762578 0.03539407348547943 0.31084122873104725 0.252218225075025
0.15554748173465388 0.11867074092028554 0.15595233132433164 0.1450226255599777
0.15427440553144023 0.10348870620387243 0.18505742932334035 0.061886563854116616
0.14574566370175573 0.11187050803964294 0.17215705081178423 0.09198313745057973
0.15469477965107423 0.06303935958106666 0.26129355270787047 0.07525873726890286
0.14361726828064084 0.11763864887330928 0.16199552432056558 0.13197943438693222
0.14963666920214092 0.09860190944800384 0.19587676593885628 0.05907545707316426
0.15828785500379586 0.11273274273439099 0.16622457603134874 0.10293990093451941
0.1499199638877981 0.07823749868280222 0.23423360388168912 0.07071942971812839
0.15386220574813964 0.09032363400631051 0.21005846076639764 0.06455722227379898
0.14901800472773366 0.06924389705115937 0.25152573802842937 0.07103975851266855
0.14253506432941487 0.10491624076583768 0.18639061122178627 0.06669928738007457
0.15840372971516997 0.08252941450344436 0.22321767125638206 0.06633144306096474
0.1386671630792003 0.08654553439367688 0.22213152999797398 0.07036803977295926
0.13734766940989515 0.06325703312402375 0.2660801862001014 0.07824559456649025
0.1325884054872175 0.09730876496742778 0.20371262444694344 0.06805899955675071
0.1318417143896068 0.10877744022037836 0.18246482671837616 0.06534223842737949
0.131253207084324 0.07022241940766497 0.2547718935437927 0.07699987366116291
0.1550733499155864 0.041691866858426296 0.301414674140374 0.17969262001243322
0.13148639774299004 0.05365024055648636 0.2857142029577129 0.11611961850578237
0.13709439372307297 0.03719211424300122 0.3149220827437394 0.25190917871663704
0.12989795783776292 0.09235174155176595 0.21374911418665624 0.07084004850291868
0.14924959685999709 0.05601949150516507 0.2762542459000177 0.08254851817671369
0.1538788647077431 0.04876896240908691 0.2885107088010492 0.11181817644437657
0.14170949791882448 0.04826583012502099 0.29289595226596576 0.1430097962521793
0.13278576241698675 0.044873396709796905 0.3017688972223621 0.18664212561667967
0.12334190618133672 0.041664370796241745 0.31044585718072515 0.21789076257770246
0.1304111923385848 0.08202168900891284 0.2329324946039885 0.07385198622336642
0.12032543270151744 0.09860173449027343 0.20829964134510454 0.07862027381570606
0.11943937276662638 0.06512413724554866 0.26976548209925244 0.08300677945029385
0.13128788478580922 0.12078028914568506 0.16034031493935472 0.12694929249217282
0.1219647366858248 0.11487704236630339 0.17757451500089882 0.0774754040002817
0.12048311872708611 0.09108404411074908 0.22185350168852364 0.07669709934695139
0.11975018856609232 0.12321242023388629 0.16396951027481238 0.13648782479041144
0.12432472505731036 0.10614496998616398 0.19179906466924396 0.07019967982414606
0.11860702606253584 0.07308827696500383 0.25587087661383867 0.08372605902935912
0.10193769980510331 0.08095298988354559 0.2510357826436415 0.07959926310152109
0.09892806717897515 0.0502772692672603 0.30812856735434735 0.22470229580722065
0.11583724532899892 0.05239518361514571 0.29487558611283937 0.14910685646510527
0.10312311890732206 0.06583995095862857 0.2776762097389042 0.0812466583321247
0.10581549430231169 0.044415670751186014 0.31487758686151457 0.27435163105527793
0.11004216461816191 0.09736431052927705 0.2168708467392921 0.08869367622008327
0.11474409930586651 0.1061032085331967 0.1984628837952193 0.08205520878760869
0.11675279570249773 0.05897785380108268 0.2824737368325784 0.07904722821167649
0.09565222637318439 0.057094037942487394 0.2976405649230989 0.18621386981761717
0.11578931242298988 0.07998092145117788 0.24506939570474762 0.07659623224734091
0.0997835826251115 0.0722681551070841 0.2679256497777836 0.08246911046245517
0.10699733260662983 0.09049386780396262 0.2309796439372133 0.08353334501034063
0.10470689898487404 0.11668226522472896 0.18532767888997698 0.0894354117015843
0.1018084880944794 0.10686628652275366 0.2046094988429089 0.09150105542451385
0.10561241597557472 0.1254926143177818 0.16916985703201232 0.1207754939148527
0.11090151065662099 0.12980532794581254 0.15797860516011059 0.16358109836927145
0.09496735502462345 0.09424713216352942 0.23150736676431613 0.08834558404140963
0.08196698651921447 0.05354629915775496 0.3123706351768375 0.23725877192227718
0.07229841399807724 0.06094756589193004 0.3067855438772377 0.23489705861932356
0.08368961745367637 0.060099408129062115 0.2996182382864321 0.20527735822196552
0.08745415611667046 0.0689846743564394 0.28124262141025386 0.08517578934506775
0.08480428156385694 0.09581529247279708 0.23639678679067844 0.09440166521145674
0.09118430183990549 0.10373647369434646 0.21771911966157936 0.10513719692225013
0.08639286464712567 0.07879385335895309 0.2649173769599963 0.08612294404441237
0.09803533523163048 0.11382421785413954 0.19490010216676448 0.0933814541781173
0.08716870468430288 0.08496012365849281 0.2535593980113511 0.0893323759720803
0.0750742204641456 0.06943640115297794 0.28985294029944897 0.15474298556823982
0.0897377186937615 0.11125889235467876 0.20593170363090707 0.10419572048267295
0.08185429931476958 0.10523871672486305 0.2231551408299267 0.11485681213127653
0.08695986919636549 0.135198536981597 0.16820373092836502 0.15066062635489189
0.09364030710224025 0.1250440762860418 0.17924707981971644 0.11554204200846181
0.07968609672211392 0.09216994098270222 0.2470724083953019 0.11695166425203234
0.09064352451839092 0.13966165263037028 0.15738272792045974 0.1906900877801745
0.06767527540702557 0.08224609945349166 0.27440430358298634 0.1264741749910979
0.05840182725091694 0.07105355994630685 0.3014849045305598 0.2444330622127037
0.08112249537026942 0.12661578690839423 0.18807927587766354 0.11457196666208691
0.06614831113050923 0.09876112809911416 0.2492340964805625 0.1490002351160854
0.07690624329465415 0.11741159332064743 0.20740866037497568 0.12030172034317978
0.0656727735034704 0.08917675484836526 0.26466255053166443 0.13850791035320495
0.0716181370074741 0.1131180472564565 0.22041222709899638 0.12906846705670894
0.07307733311400755 0.12572064669431204 0.19914955909726284 0.11597449143617918
0.058473762887598014 0.0980538004099373 0.25997456001653374 0.19496586309149333
0.05601488248806469 0.0826879693902029 0.2866217455407409 0.18786844979849657
0.07686496658663824 0.14100893334252718 0.1709438871048523 0.1585977333166656
0.05595504225722589 0.08883001178126539 0.27728652955315025 0.1703993301925781
0.06545825599132188 0.10776946978046566 0.23627174631102452 0.15234937890195688
0.07311757921642925 0.1379232047389497 0.1822020163646624 0.13207234696266962
0.07656231219923722 0.14873281991711768 0.1624385986998267 0.20604306507520495
0.06570460381641563 0.12521200939741728 0.21261619009098232 0.12217484375435161
0.05123548433410098 0.1047833040564978 0.26860657641461855 0.21128137623277632
0.04825437905083503 0.09128619136177335 0.29001760140580374 0.21745437084305436
0.04915588618839263 0.09942351870985965 0.2792827869312634 0.20284489037461367
0.05819716222863386 0.11139133062923429 0.2447721018325095 0.2032811964348236
0.04632071785605888 0.08400167969855615 0.30236133698102424 0.2876698586112692
0.060644975392018435 0.11843670921385335 0.23143187036775673 0.1856270950040658
0.045690810003099325 0.07542500238052813 0.31289854961512803 0.3020516797684596
0.07379029454300429 0.16374468389472302 0.1566949811307849 0.23517737934833538
0.05880330975613278 0.13063011090452842 0.22795350365742556 0.18182979709814384
0.06515123273992039 0.14492582303479035 0.19766507991537619 0.07990725723260224
0.07069910605910903 0.15018541618097686 0.1740379680950868 0.11898606230267228
0.0514858127430705 0.11459693935287264 0.2629483049195656 0.13595414177155987
0.047754424393508695 0.11146523242845754 0.27924456599415226 0.1376556416409302
0.05434489334701707 0.12087168702590126 0.2492667081290429 0.1517788580137989
0.04166296903853428 0.10002958308962173 0.3077979663849107 0.23886482470704204
0.06733275510736285 0.15337311914110552 0.18588304234032693 0.08224916327653709
0.06962856923899763 0.17858382188415728 0.1740123993433087 0.09880059914359228
0.058187203653803574 0.15128505942933018 0.22869652727318202 0.1112393950864835
0.07365124047958688 0.20618660128718813 0.1547859995659194 0.2193148582091723
0.04506824128641787 0.11281931670048814 0.29139874678216077 0.11392992988553602
0.06553079602377122 0.17222431585941117 0.19359774980348704 0.029049790703751084
0.052983970995116605 0.13880543505925458 0.2535654328454976 0.03005138059947935
0.055749302307356356 0.13370490785167713 0.24034850256554122 0.09930878586873933
0.07138210989802284 0.17102277658327936 0.1656313332009543 0.13806942478092185
0.07332410173197362 0.1804341371580872 0.156349562673146 0.23603622785448386
0.07138588087723437 0.19112512462423012 0.16561330976589417 0.158827839306296
0.04932598924242344 0.12754011988197358 0.2710487953549758 0.005757671914299375
0.04727305407210765 0.1759736413744534 0.2807572623369852 2.525577555739077e-09
0.059592974321823304 0.1735526022467767 0.22195517408290033 0.1291712774945369
0.04009521956189669 0.13459428765283601 0.31509789973598834 0.26056502102933093
0.051589113922065735 0.16314136653571426 0.2601798051215925 2.921015604704296e-09
0.04291402062320319 0.15923893910717724 0.3015960584284046 0.1346669542392776
0.04063071034643213 0.14961400535444405 0.31251328529545624 0.2038674371048964
0.05636707854749637 0.17825926269272646 0.23734439819016745 0.10097811085450997
0.05757031576910599 0.19022220243076277 0.23157824039133165 0.13918332292687788
0.045951037577087586 0.15193301298420897 0.28711335157918083 0.020525634494131716
0.04836447265253459 0.14504003040079977 0.27560640382005774 1.4152346406785246e-05
0.05106826754873342 0.14686062944781503 0.2626969148340835 1.750609395699476e-05
0.04385325292335822 0.14544584901294694 0.29713904320192824 0.09901601167450227
0.06626924437194795 0.18606276618993928 0.1900635412682851 0.03338886655176831
0.04643013896487278 0.12425979568930243 0.2848790688213168 0.01647635136125243
0.04469886399138558 0.16819916000362223 0.2930594280529692 0.1006366579584183
0.05555420476898376 0.1509883574863455 0.24127633727435085 0.08974179857087158
0.04540853892593312 0.13654822810672013 0.28973211074668076 0.05374555777074508
0.043738973423959146 0.12452254944342694 0.29772431320476084 0.1182750266568712
0.05483000832738493 0.1664513919781688 0.24470374665119432 0.05424383389868822
0.05327755405049918 0.17739827068634134 0.25209326636349333 0.01829778158389977
0.04948639478426792 0.1672115289323195 0.27020897886170964 1.8729350279706004e-09
0.041232024230680536 0.1137609241166198 0.30971119708506417 0.2175268200645459
0.052899528750264734 0.15297314441090049 0.2539441322332886 0.009492195959293123
0.05998510318012 0.18542890323106875 0.22006084559456576 0.13837840417321715
0.044412986262908176 0.18404781282393534 0.29440901107569667 0.08631897431741459
0.07075333988051613 0.20780817778913324 0.16862233025025103 0.14047875035479673
0.06442610078448387 0.20678514758953473 0.1988376575094439 0.049345596175345494
0.06198745803439079 0.20173415793973076 0.21048324062144103 0.09727420334901057
0.05278179726150456 0.2026312742482021 0.25444428724354484 0.009453061715741975
0.046517231435359185 0.19038562657098862 0.28436032229466823 0.015030251259872486
0.06668929536680941 0.24216871847308008 0.18802991594660634 0.027086816162137456
0.06713278577137838 0.208963059954535 0.1859120557698405 0.03078093729279544
0.07366946270810931 0.2507819291979559 0.15469657144354088 0.2212642756263103
0.051730180952465725 0.19105436809975448 0.2594662139396039 3.970563030232408e-09
0.0565720261162872 0.21939677195768506 0.2363442907843768 0.09247228578530252
0.06895658431818977 0.21707118829441985 0.17720262198515796 0.07302748213962236
0.05891956369407908 0.22322546649082206 0.2251337746193222 0.1323080496757906
0.049464002211603145 0.19719881380005372 0.2702882061614448 1.4093621274321728e-09
0.04205682972683948 0.1756919306004514 0.3056606865269762 0.2161646814401229
0.053264612679724814 0.21506662515516745 0.252138632969083 0.032589259562874194
0.05469253322274048 0.19658038196324806 0.2453196893741746 0.08128806586872536
0.06833388930214045 0.2302609575636459 0.18017626236874923 0.05601316534239037
0.06899394113318282 0.247989870893629 0.17702422689478065 0.06467991304432866
0.05578313709230288 0.20681908143738054 0.24011158006633535 0.10858627045954264
0.07131221930687434 0.22965091873493415 0.165953437150189 0.1406598301661313
0.07248029906910931 0.26911928549786446 0.16037534665209122 0.18685212278734278
0.05888404903055171 0.2107518609823486 0.22530337263272002 0.1053092257653152
0.07173322986250993 0.241768460707313 0.1639429280600423 0.14755905472592756
0.045256951802143 0.2702747782053703 0.2903396062621833 0.06840117960831753
0.050708903766921 0.26834479150003 0.26431391700846396 2.5415304400706756e-10
0.05646987644119636 0.2361548128161959 0.2368278371159717 0.10254173101754716
0.05875060621513912 0.2688063861221307 0.22592405533765558 0.12715654580996272
0.041165074306701535 0.2134553505263117 0.30990131536895216 0.2236929404720045
0.041112417558791324 0.18684998875031597 0.31016571792721503 0.2101122426190336
0.04483081799665507 0.2141795711129783 0.29240136215860824 0.05819231082018603
0.04724771461494938 0.20925599719590254 0.2808659451467559 2.5230881995138075e-10
0.0405768880384244 0.22879486886614653 0.31270169859906694 0.23557322263233113
0.06111086994398834 0.26471619311716266 0.2146585854055069 0.0801918442113598
0.04367254824850228 0.24131059274038238 0.29791744665226355 0.1411056543538381
0.04327947943035376 0.2646345497964976 0.29978246439118406 0.16498183537137923
0.050128659033188944 0.21709538181813143 0.26710899764681356 2.9485040348097645e-10
0.04305431565464643 0.2209798930792183 0.3008787334623561 0.13578668068707947
0.041239766705105874 0.25622546633910526 0.3095238026498495 0.19851334236414642
0.0555657206673259 0.2588929251982721 0.24113297859950542 0.08286757559969452
0.04630106151060623 0.24634600831267667 0.28536693303208205 0.02343606835612763
0.046447613240716154 0.2335930576780385 0.284673566701384 0.023889793553757806
0.05370127280599255 0.2503938607399659 0.25003767810448946 0.03594589628180933
0.05807432323555959 0.24799320329007948 0.22916270048259385 0.1298956462090664
0.04077728200509014 0.20117562857946925 0.31175857923242156 0.19237757219088178
0.053793202968833595 0.2662528883560037 0.24959105387600405 0.05176167294727482
0.0540263123931668 0.2365031451659551 0.24849280013661953 0.046989317371665465
0.043212201843498804 0.19356867808192058 0.3001384366817666 0.16183007867420507
0.04018863495208985 0.2666390809529556 0.31453661627765706 0.27136298506202705
0.049569110576115516 0.2344138271323183 0.2697717000482225 7.745817930335523e-11
0.04452612594072656 0.2537021216501756 0.2938365526753297 0.10247353449102792
0.05265263614885249 0.22713698651575326 0.2550550691660809 0.00498120132352965
0.07160529203137976 0.2797611444818046 0.16455274146792423 0.14394439983184737
0.0476672332426768 0.26760239154831494 0.2788346664993753 3.064269913542599e-10
0.04743192489275591 0.2220599048072255 0.2799802884141251 1.853591968917458e-10
0.03969808876420643 0.17481409374325022 0.31692336227260365 0.23711513102117165
0.048812563459679326 0.2560604238469978 0.273372718970188 2.0352332766592922e-10
0.0674540602105074 0.2640069728944703 0.18437768759069373 0.02978951839406281
0.053428201955626156 0.31902925438664514 0.2513291495079424 0.022316115947868184
0.06782878298203998 0.2988301739825212 0.18257965327694556 0.03517847494376249
0.06495330423606895 0.29650749467746146 0.19630741293093762 0.0318041742150984
0.05639335511613609 0.2887166036336932 0.23717327720953335 0.09813327465024688
0.046625704941719415 0.3326554945041833 0.28380480045293843 0.005664248882001507
0.04014294704635774 0.3546744008409151 0.314753991924876 0.24851085014732693
0.04933792867184576 0.2887760303437985 0.27085643296902057 1.1911124211227963e-10
0.04149470455926844 0.34296565687103536 0.30830059619948014 0.2032846983622988
0.04428630747139789 0.34411956019363626 0.2949732663137028 0.10924850483649527
0.05136797308724574 0.28104463031478 0.2611648427040649 2.4307631171853106e-10
0.06294927682252732 0.28583955738915306 0.20587479600120284 0.09003605339691537
0.05858977844585041 0.28016892540640953 0.22668738103972644 0.14841933630733786
0.045095408442106404 0.29926834300054256 0.29111055521654694 0.06690529439495065
0.05002478486501766 0.3335321915195057 0.2675773279678339 -2.5444631401621655e-15
0.05022740031641859 0.30847381604040236 0.26661002601058087 4.6595043871693084e-15
0.06840099673590967 0.28322467827600606 0.17984786021645505 0.04875351989171921
0.04417579413848943 0.31143163502789867 0.29550086557864413 0.10368183006180828
0.039214832488410276 0.3191285524215047 0.3191848831636744 0.25914740888698573
0.05892886203921097 0.3084760633430708 0.22506856953615045 0.13775676435288398
0.039731556739829435 0.3065846862172775 0.31671800131284855 0.23594516533773266
0.04747306056243781 0.31227541991390945 0.2797594586749893 2.636427468170665e-15
0.04746439113008626 0.297499590534211 0.27980084722074905 2.3495254855114802e-11
0.06330150105383658 0.3092985319422503 0.20419325006785155 0.06854054162204805
0.04193208001516123 0.31847034920207795 0.3062125316831056 0.2148984773280797
0.04269558559513514 0.28352295596776317 0.3025674965351152 0.20455585703860577
0.044395811049649604 0.3244361072819557 0.29445048769619503 0.08380175071010418
0.053777419427222445 0.30663215948384 0.2496619580798139 0.056490562488646666
0.059107338363578905 0.2957079345254898 0.22421650965280626 0.11296173211064871
0.05635132416133504 0.3194866597884645 0.23737393626373265 0.14197534773875903
0.04738650027499461 0.28045183415411723 0.28017270423393 2.6781146177413514e-10
0.05140778495522505 0.29369046394735276 0.2609747777433129 1.0611573703580538e-10
0.05295524794392771 0.33333540068828005 0.2535870688227989 0.03244428487945674
0.04803599558899595 0.3430736074545964 0.27707196298188724 1.3106771774195862e-09
0.04167242304623112 0.295218689265884 0.30745215429097594 0.22098723035123974
0.04254491795787026 0.331895512864869 0.30328679557876315 0.21099310693351286
0.04514024890219809 0.284923708280872 0.29089648336511154 0.09331534327171516
0.05502265641113887 0.3439439835567155 0.24371709966226576 0.0463352737227629
0.07235668009154084 0.3231093643582512 0.16096311956257703 0.16239778681792705
0.06255744504217259 0.34883342942694867 0.20774543146079105 0.05867620167336642
0.0708330205926196 0.3530671736989343 0.16823718876758148 0.12315551690490496
0.04930363541343276 0.3598746770032812 0.2710201516575713 6.74995664726529e-08
0.052252842381549355 0.35869364065110765 0.25694040772452714 5.583592458621471e-08
0.07344341726030214 0.35259877536321704 0.1557749516163809 0.18607206323914394
0.06683152483883893 0.3500486825987039 0.18734064138093778 0.02260195672364785
0.06493172905350075 0.3353038351254835 0.19641041453413227 0.038307332359299055
0.06977070912305544 0.34320400643149007 0.17330874652202105 0.09408388762053409
0.06278750673896445 0.3315770774670843 0.20664709898882494 0.05609549943037747
0.06962993758875574 0.31281693462702065 0.17398080079879077 0.09982317428143667
0.0741220756713153 0.3346891606696381 0.15253498346617206 0.2120031234584436
0.06730774547323123 0.33289992444741234 0.1850671269547334 0.027576566967771048
0.05910182711979357 0.3264006414525443 0.22424282076019514 0.12903293485643652
0.06543103115011159 0.3224149841400693 0.19402670740828 0.03723154887033362
0.054957059686872936 0.36116382399045877 0.24403026353665486 0.07569844077665701
0.04479804251667829 0.35659573762910735 0.2925302033218524 0.08398154449831711
0.05043701813177398 0.3479721238819804 0.26560929422203067 1.6317936802817858e-09
0.07339210361230143 0.2990637500563071 0.15601992697142758 0.23079109090648847
0.059111901523817595 0.3453609728625593 0.22419472477016467 0.15730027852778591
0.05842125063305799 0.3575222816947863 0.22749194595340166 0.15359644383594473
0.05598369325370494 0.37378764739863557 0.2391290348706676 0.08864628764824255
0.07070038253606493 0.3832336847224483 0.16887041318765633 0.08963020275306022
0.07311635422615487 0.3965032058731659 0.1573363760333655 0.18019491658178485
0.061288028773301716 0.3641963769908798 0.2138057236692949 0.09798936952666198
0.0634252203334157 0.37497805190366623 0.20360260458420584 0.06412546503861302
0.06797515379095358 0.3689910808277745 0.18188086762675024 0.03356463087922262
0.06748208022807825 0.38854501300863487 0.1842348392470845 0.045859090027023784
0.06992153805947861 0.39648263549951007 0.17258867742361952 0.10718309084479298
0.07107583398561394 0.36800391658373727 0.16707797870405136 0.10769341814990463
0.04667300323686066 0.36493722172072296 0.2835789947054078 0.008529684667411141
0.05344769561680909 0.3729295027442534 0.25123608525007907 0.047745580165968284
0.05346540576347053 0.40235662475543005 0.25095328965385655 0.06964517199112484
0.048429732390386025 0.3777961688525917 0.2751648593981319 2.0522388281346306e-06
0.04054793495033422 0.39786107102015866 0.3125463145949779 0.24629262816615996
0.04795862869099979 0.3922391448760938 0.2772827704120354 0.0019662569180030815
0.04288457873577454 0.38157854745399067 0.30155502188750055 0.18335152549058245
0.0443220762745456 0.40275974733810227 0.2945189553180496 0.09009791147536292
0.051160092680725335 0.3779065394113083 0.2621533508127551 8.074441285629255e-06
0.045139160059393085 0.3883479280322537 0.2907521282260122 0.0714393980635738
0.0625119004287675 0.3963534187974976 0.2078982831188539 0.10739537166678771
0.05805861062301684 0.4028579035283834 0.22906163686571346 0.16091678833876202
0.05769517131889357 0.39097583521967394 0.2308979249578384 0.15334152126040967
0.04457133419660041 0.37225671731372306 0.2935993469151358 0.09304268773257666
0.050497484455620884 0.39022877581913534 0.2652024494985249 0.0017331226613722204
0.0529250710812388 0.38676644788699777 0.2536651047449839 0.01765868245092179
