x y z curv
0.3477325274860843 0.49789777293795257 466.7841514372375 1.1953395156886414e-05
0.35143733824967976 0.4663632888023966 466.8194493298503 1.588297047786699e-06
0.3482787974331081 0.4876005092677377 466.78939406898155 9.252390849904623e-06
0.35144973278399794 0.4976199660946624 466.81935639985784 3.4828580263191384e-06
0.3508650081391413 0.486481475530126 466.8138938202931 2.1449103287372187e-06
0.3500629938278911 0.4512112141891983 466.8063907437766 4.1161482891224915e-07
0.3487446188570993 0.4509911646543132 466.7937203194625 2.0926615067048676e-06
0.34686220699392706 0.46722739549630415 466.77572193075434 1.2527846352202167e-05
0.34686559864119937 0.45520534943915614 466.77568712192476 1.0310037874248477e-05
0.3489810105564049 0.43992116729440434 466.79592990935834 1.5253478536542263e-06
0.34930419301787485 0.4664406735259866 466.7991842780049 1.0585339912928884e-06
0.3469267214768426 0.47982755602116495 466.7764125384558 1.3427871032608952e-05
0.3511917777759728 0.42903919204273466 466.8171137138057 6.988124172555218e-07
0.348411771938111 0.4760264111785228 466.79066211975703 7.368997063343722e-06
0.3510264069596727 0.44347092277447525 466.8156054609757 9.599018756307743e-07
0.347361896056054 0.4405179310074353 466.7803740472422 6.4114301147821705e-06
0.3406786962468369 0.431547882265585 466.7243120019821 2.349548514129648e-06
0.3414956814650855 0.41964101994361047 466.7309361502175 1.7046349386261914e-06
0.34411410111870117 0.4111403934616295 466.7523108244558 5.327381533389595e-06
0.3409460901438634 0.4453210917341769 466.72656608302253 1.3891602119126678e-06
0.3445964322150428 0.4279069155782912 466.75633745298023 6.666147058979312e-06
0.34550462683752503 0.41394333689418145 466.7636975886726 8.677195732595935e-06
0.3425924615006862 0.4310805767973146 466.7399624210105 7.390150709903079e-07
0.34591609750563823 0.43396734593776604 466.7671605109546 1.147656173622491e-05
0.3459327180343629 0.40271039044474244 466.7671442524547 6.931204687377972e-06
0.3398841562326371 0.4183922466086358 466.7172239952887 9.050647372185179e-06
0.34420501810749016 0.39005946475982595 466.75289490541854 5.227775523751775e-06
0.3389855605385804 0.4386166804627522 466.7103490012727 7.207935153578735e-06
0.34531933352372735 0.37851187377205503 466.76193336557367 8.38329371105932e-06
0.339639367624183 0.40395496694208916 466.7145949307609 6.812529703335535e-06
0.34112628259928945 0.3941533934017394 466.7268682143673 1.658200447082691e-06
0.3431361713324819 0.39951913301300035 466.7441639568723 1.3305370417838612e-06
0.3391307685178402 0.39278287895970265 466.7098461850313 9.427954373706035e-06
0.34419303076516106 0.4592274700326848 466.75372544601834 2.1199889963602367e-06
0.34527753659695276 0.447894022552118 466.7622785902589 1.0990371969496989e-05
0.34553454538952927 0.47621470098786844 466.7645095825113 1.2761671682248634e-05
0.34347011355232687 0.49809080001955924 466.74823006910367 3.4857416459045737e-06
0.3429047195260365 0.46813624559312234 466.74353498261905 1.1742931529443279e-06
0.34114512669857744 0.49145558830569647 466.7296900971377 2.3371796055919344e-06
0.34591075846508046 0.49089866817596334 466.7675991575074 1.3295226416140023e-05
0.3402699704722807 0.5024436874475073 466.72280014967413 3.1736282158433627e-06
0.34268360530172803 0.48826460201209904 466.74190838107785 7.415778445190507e-07
0.3438898501712862 0.48009510074564166 466.7514508349362 6.858710314697263e-06
0.34094645531993684 0.46291282521004334 466.72722013380906 1.4331421969459417e-06
0.3405837877919394 0.4772664563562876 466.72478508448796 1.4752025379094742e-06
0.3398393368408019 0.4538540529923612 466.71775560370975 5.627666573364162e-06
0.3383164664029684 0.5039640352391417 466.7071402971645 1.2624367201047695e-05
0.3384212474972539 0.4669488144218916 466.7065813233497 8.138896444995184e-06
0.34396250447821297 0.4451916480995331 466.75137511710517 1.441344096964379e-06
0.33932272577662403 0.4842144176210272 466.71466774131034 8.78479660004174e-06
0.3585971063260055 0.3202438375362697 466.8982798132712 0.07997064773985892
0.3554162915430278 0.3429187138034063 466.8619691280287 2.1864051748167175e-06
0.3584173717895101 0.307640780498137 466.8962510193365 0.0882438556203776
0.35756126737233573 0.32471347828574826 466.88645998493195 0.06312516817832513
0.3557963370636787 0.4087444728567911 466.8658039648962 1.023279959408905e-06
0.3575435445719062 0.40344862453834823 466.88594069914996 0.056479736201733674
0.35502293081204356 0.4165391659810733 466.8568816067215 4.395445965960337e-06
0.35846393776833024 0.397437323942428 466.89655350675577 0.08898645365778597
0.35773681518412437 0.35212450451741895 466.88841720509396 0.06169988665124104
0.356958930550239 0.34338964397511806 466.87956022134045 0.033801558181394985
0.3588018416185202 0.35843423282654047 466.90055258422245 0.06272021702601233
0.35641541300275353 0.3612932595926497 466.87333348157256 0.0023694801159163696
0.35466596363393654 0.35445214586161466 466.853393871934 5.092900836005974e-06
0.35893023020785036 0.2940068670117952 466.9020550798131 0.08098081821135213
0.3577939248689751 0.27610756104611966 466.888804458703 0.05653937311360334
0.3588809695380476 0.2755541712446893 466.9015109723497 0.08836922548091405
0.3541849873534885 0.30254908482893184 466.84801784965157 4.188409117697567e-06
0.353592492249722 0.3280450782992753 466.841301682437 4.454425996644358e-06
0.3539027359862996 0.2905163052521312 466.8451049793852 9.10432389987259e-06
0.35444333276496925 0.32114696754475397 466.8505941196773 2.8919829365194666e-06
0.35247735325716206 0.2876116745907107 466.83014788016663 4.804705792783848e-05
0.3506948578118436 0.29247782380041476 466.81209049442737 5.550117921551854e-05
0.35157227856389317 0.3080191558407627 466.8208218068422 8.531797980057614e-06
0.35145970152227557 0.3215554012218176 466.8195653367892 2.3512795015157235e-06
0.35317730134643843 0.3159921513581878 466.83697297159927 5.0632065330378005e-06
0.3518787715514421 0.33495475834610416 466.82382304780407 5.41132237895089e-06
0.348595685165294 0.3411509029073245 466.7918688254566 3.071324561895289e-06
0.34948621871824354 0.3116212799345545 466.8001505254882 3.3073008981466714e-05
0.3513314523669633 0.3520039640679377 466.81871790530244 2.786565830917154e-06
0.34774742535990594 0.3497419639585507 466.783709576244 5.009260238328054e-06
0.3503477948078163 0.3312653796663705 466.8088309288152 5.445299485397664e-07
0.3482480008856003 0.3621586905425484 466.78876679237555 4.02533027978505e-06
0.3491729826902863 0.3259632003800705 466.79729232167625 8.18522320134397e-06
0.3492822516000225 0.35282924677874 466.79873092092237 9.52133752269268e-08
0.3552169488108154 0.3745461778568176 466.8595062642039 2.98536499145807e-06
0.3537395829140831 0.3650380469715884 466.84270348304165 5.773389859474856e-06
0.3549166612601365 0.3859220997956764 466.8559476402415 7.772262662231286e-06
0.35429236560308425 0.3975362093219863 466.84867889886846 8.102116824676826e-06
0.3539069941071192 0.4198099924817445 466.84402932576137 8.820650174112943e-06
0.3571921399989645 0.3690170229874266 466.8821674766784 0.033820670949518836
0.35540654097465135 0.3970023183042567 466.86143390834957 4.749147440526039e-07
0.35718403591815645 0.38118119639047565 466.8819437548009 0.0388737461772373
0.3568125243500509 0.3960453755083765 466.8775325673397 0.04140091469852743
0.3537765100100278 0.3854183180360724 466.84290656865033 7.920567509944864e-06
0.35849130880372987 0.37970872985603776 466.8969184430332 0.09079122011721211
0.347039429584312 0.3112554502902568 466.77679848432547 8.732201631568578e-05
0.34826035630811836 0.3041079854948001 466.78837546110015 8.737296858316913e-05
0.34722654391056423 0.33861396496144563 466.77862648638495 1.0932815712958207e-05
0.3471849125334644 0.3249523662048248 466.7782054597277 3.6951829938015236e-05
0.3494717075304551 0.29968728369362213 466.79986668785654 9.666677312295282e-05
0.3569498003996818 0.3111986783622438 466.8793847285898 0.02809111813505753
0.35537390085501225 0.31074964135259453 466.8611862090045 1.5556713234723226e-06
0.35742736700159805 0.30022593826137234 466.88474508102547 0.06143475990149915
0.35444829127296007 0.33764520317938906 466.85087521443006 4.39928762267122e-06
0.3563521757768431 0.3003851087473266 466.87233522981603 0.000415891411223228
0.35589148248028796 0.2874959114143558 466.86683758821374 5.493771013383018e-06
0.3554020998426448 0.32694996606151694 466.86173719207255 1.891637795338524e-06
0.35675703110384765 0.27797438698188215 466.8766970222259 0.011827276744390132
0.3564200407057231 0.3214902680893272 466.87341237699036 0.00038478420352174464
0.35703412805195667 0.2889726951954875 466.8800489029113 0.02113817228718341
0.35618508908263696 0.4251201737132683 466.87025638329237 0.0003833258963271257
0.35854807526966526 0.43269493190346786 466.89746691079887 0.07986013699457223
0.3574988865780396 0.4182383316109133 466.8854024491747 0.06624655759879874
0.3588513356499018 0.4502633179300513 466.9009332042369 0.07445955808889619
0.3591369413284157 0.4163689079614141 466.90427625206263 0.092284874207186
0.358551561937663 0.5435759332867188 466.896670347659 0.06749534133040326
0.3576225472423517 0.5604346382755326 466.88498877881693 0.07418807929394257
0.3584676800788238 0.5564188259745093 466.8955969666124 0.08013616854407854
0.3572295365332596 0.5167398237291414 466.8819362883033 0.03167701529224887
0.35828671268438034 0.5119435906406553 466.8942359281999 0.06395896191207319
0.35712436524821267 0.4963130960551341 466.88074434035434 0.02164175828821779
0.35886988456319446 0.49586171554915226 466.9010411490574 0.0770752415149811
0.3553388646480708 0.4981871864772482 466.8599804922305 4.387868894074223e-06
0.3562872348452853 0.5120810394905132 466.870986677783 0.0001167686933954597
0.3566906244206558 0.4831415550710935 466.87572158286184 0.0021508309908873768
0.35816212251211604 0.4655432798310928 466.89285908859284 0.08055546075165858
0.3580099036704063 0.4864271998112112 466.8910563332114 0.07155510200677637
0.354438891963775 0.5047035235989642 466.8494147856692 7.473663065137067e-06
0.3566605826099536 0.5630331257942962 466.8732959115091 0.07838108111215443
0.3564194896609339 0.5356859992618114 466.87159844042617 0.009894207527128048
0.3554411326564378 0.5225521441173362 466.86054803336754 5.410215533831696e-06
0.35738771956800974 0.5284822364431957 466.88339382179987 0.03516556450189866
0.3569225764107979 0.5485253262821761 466.8770218566199 0.050901655634765536
0.35582772292555626 0.5469739487659163 466.8640964045381 0.06250011801070474
0.35558417791892494 0.5602162907488765 466.86116774865144 0.07579932650445027
0.3543399614866597 0.5304953438345043 466.84763358502227 1.1006385115896673e-05
0.35424144722494866 0.5571801509140244 466.84624218554654 0.05619266169633107
0.354345159807955 0.5161235653563921 466.8478497739274 1.1373037135902671e-05
0.3539590513014328 0.544820721136967 466.8432322027353 0.03410486311896446
0.35420235508054304 0.5703780071754072 466.8456613230705 0.060685364419005954
0.3533279440099101 0.5061233835686005 466.8369675392088 1.2535215499485252e-05
0.35297922002142057 0.5565551652782992 466.8332491351109 0.06273961674974386
0.3516316550390961 0.5623687541163723 466.8197226281516 0.07213325258329775
0.3516728406013755 0.5511898884120777 466.8201850556115 0.07035795216854109
0.34800210169727974 0.5651070818399173 466.78603574956605 0.06012877366501858
0.34742197803347713 0.5358387637236532 466.78078351442775 0.011824632874802492
0.34682334921375263 0.5194074083713002 466.77535107159747 1.114257337052483e-05
0.3476429988154482 0.552949795561305 466.78277907553166 0.05313258894756067
0.3492643627267569 0.5204555509696592 466.7981612191405 1.8436134884822504e-06
0.34978168215169003 0.5011075344275018 466.80353087480745 4.3951854444292054e-07
0.3480235983765956 0.5240497919806628 466.78634149024674 7.676885186883003e-06
0.3504720923204368 0.5252929062521372 466.80946002840255 2.3715159773583978e-06
0.35229393707395407 0.5129049441769125 466.82699113458904 7.033155917802925e-06
0.3507008644822186 0.5407934505042364 466.811239481552 0.03556781233034801
0.352010483942661 0.5352032326588014 466.8237595804803 0.006949375997318923
0.35042089869807236 0.5582494642699332 466.80816069343837 0.06086210561047365
0.3497511484254361 0.5486522032838729 466.8020659680984 0.0407112717721705
0.34777301792001003 0.5115921120289615 466.7842805719513 1.1959443774520099e-05
0.35262487480802995 0.5238970994132587 466.82984804713215 5.921129521461155e-06
0.3495226097095797 0.5360468374288853 466.8002170971523 0.0022482984366221054
0.3574734970414087 0.44520527203519233 466.88506254005796 0.05314026201694764
0.3553711068731866 0.4362084083547973 466.86084342564266 1.6094388772091753e-06
0.35645973453173907 0.4430038390155098 466.8733631255318 0.01408361796836565
0.3565953534667675 0.45509858254325386 466.8748118744887 0.0237213530196661
0.3539593746002772 0.4483288603058899 466.84440144216677 1.0786294601785554e-05
0.35533276429198546 0.47028212884774123 466.86006407589247 2.817727613765585e-06
0.3544443222520815 0.4860054932372398 466.8496368438435 9.305279526579992e-06
0.3554264763295791 0.45790193410360436 466.86126966736873 1.6380694946228614e-06
0.35413444866089033 0.4654405545595618 466.8462568945657 9.029629008308944e-06
0.3565324350717309 0.46659288532490834 466.8739710557985 0.005589115233357398
0.35396986273739084 0.43677411116766357 466.8446366581894 6.9900749182539685e-06
0.3445162374561752 0.354461519884824 466.7548742548854 4.2873247476272886e-06
0.3417116085647949 0.3678874120830081 466.7313258853036 1.2054375848430196e-06
0.34528433725880375 0.329534808648031 466.76121805628316 7.893246348847467e-05
0.34444811614711063 0.36781972755574066 466.7543669052412 3.9473694034095825e-06
0.34287089533064685 0.35024419138817847 466.7409995874526 5.588740410891668e-06
0.3462663589190418 0.35830178975170834 466.7696292933913 5.679986294187775e-06
0.3437516787475684 0.3364605047757355 466.74834743111353 5.247915884571719e-05
0.34279016600760814 0.37776563204885794 466.740456300697 1.0034245431231848e-06
0.3403565504615331 0.38019190437602335 466.71997732148793 2.7232454049715133e-06
0.34569847239225926 0.31792022621831373 466.76464748248566 7.107433682071947e-05
0.3441259494451408 0.3203729234890993 466.7507207947004 0.00011993450258796015
0.3421318484185977 0.32725350967131783 466.73296697819063 0.00010939971390540269
0.34132229278616644 0.35481445177422855 466.72761489184086 2.5199011432926683e-06
0.3421686453628766 0.34133447886075224 466.734359009012 4.978578376684346e-05
0.3393394641722875 0.36895820840475574 466.71074832873455 4.246515143809835e-06
0.33985546792589205 0.35005229722778763 466.714448705559 5.5227791211825785e-05
0.3407701497423924 0.33955430407691034 466.7218399053319 0.00013114179857796814
0.3385652155874394 0.3385152381294699 466.70307047835263 0.0002546781566919146
0.3331284848261546 0.40546741384097434 466.66473990359543 0.022105494991939895
0.3368497110699382 0.3943208034623125 466.69210301149474 6.976507228030699e-06
0.3344703667214185 0.3982373705325085 466.67435001272946 0.008695744004496868
0.3311147254746575 0.403879145976601 466.64932203251146 0.0632298621413597
0.3369737876590351 0.3675465961098452 466.69133337445083 1.8876741794921577e-05
0.3355091670939973 0.35501151682738497 466.6791627024447 0.00011725428121943625
0.33738100834123297 0.35374559270423983 466.6941094832621 0.0001379971147174301
0.33373069087413276 0.3845356706232872 466.66769672341394 0.01959799694868478
0.3323396072881867 0.38959916714505305 466.6575242110256 0.05657043087694061
0.3346026865618922 0.3671182035763944 466.67300139638627 0.0023704449728088376
0.3334603471147664 0.36055381768952255 466.66384091478 0.029000838894079776
0.3363586747355681 0.38127480919799844 466.6873887526914 4.400571920486317e-06
0.33240573008802843 0.3767353058287725 466.65705775163536 0.05770795827612045
0.33098208167712434 0.4334815191833681 466.6506313041128 0.06017600638213674
0.3327847468116765 0.4167370477552075 466.6630229166949 0.023847778341168073
0.3313548905464337 0.3667108802875017 466.6481256586553 0.06269672882713397
0.3306960348839224 0.3919223750983357 466.6452097494239 0.05901479803127542
0.33369662573375714 0.556665360984316 466.67680055156853 0.08449508744218938
0.3333219415143679 0.5421400744440115 466.6738331640574 0.06582715812740536
0.3350528813857248 0.5344988474896768 466.68541703244483 0.02477937824743534
0.33694986420378403 0.5209251552468326 466.69796430141855 1.1118067931327744e-05
0.3352983904599902 0.5478915046245534 466.687471543149 0.05502599394083519
0.34302651168231707 0.5120422851903437 466.7448350035293 2.7359749122942827e-06
0.3396896059743539 0.5296711481283248 466.71851824369696 9.127093081446923e-06
0.33970124129527424 0.5142393956267672 466.71839179649965 7.814202866412798e-06
0.34411562489646585 0.5224014236656733 466.7536531306249 4.162446382142298e-06
0.34456090303181014 0.5089285277252081 466.75700697411224 6.385819435154707e-06
0.3413175242078883 0.5147054604613959 466.7312665754407 2.686333479902601e-06
0.3425896903765471 0.5244208186640513 466.7415329532186 6.426082139807367e-07
0.34127647801965294 0.5474739445681809 466.7314049931949 0.05222011610998703
0.34038201132977597 0.5638060258329382 466.72451549155636 0.0812040085901493
0.34563477241519647 0.5253621686126048 466.76543748737737 8.614361882948444e-06
0.3440140084682874 0.5525244664554104 466.7526385448299 0.06025442082893631
0.34380895520336985 0.5641669627448644 466.7509164302286 0.06092741303500186
0.34484446081617914 0.5427658831105846 466.75914438922405 0.030526048801842152
0.3433058963624028 0.5408528824466192 466.7473416731667 0.02190014641008038
0.3423832386157155 0.5568854197434616 466.7400484357593 0.07601468737749768
0.3422099084449809 0.5703261975054439 466.73854763519927 0.05749978457438623
0.33714077966069556 0.5341152333799695 466.6996522956146 0.004062147398183323
0.3374770934109348 0.5544806252359608 466.7028794749601 0.08260613955176344
0.3392599959074102 0.5556331957506129 466.7156398707666 0.07124434751762357
0.33865168602047013 0.540168464872536 466.7106726359518 0.01879115395159555
0.33432717763979214 0.5012512292807049 466.67862152404894 0.02090885168757582
0.33783442773049044 0.4878077279472909 466.7028732272961 9.669366134017678e-06
0.33724609664235683 0.47552518564538704 466.69830497031137 9.454616018825448e-06
0.33659046763769634 0.5065809175497685 466.6947533542445 1.2973576463659328e-05
0.3346960422415868 0.4828835493132776 466.6805889042031 0.012835444166388975
0.3462446427964614 0.5468071594455985 466.77077822553224 0.03846831905404289
0.3455880465894806 0.5644347608667009 466.7655176949959 0.08021554589557882
0.33189027358776607 0.48419436054140175 466.66066486586425 0.04694343289929988
0.33237468795037683 0.4706786505924993 466.6632603858043 0.06576311480371194
0.3370297765327457 0.45466548215193037 466.6959494913713 8.5721680639651e-06
0.3304370287665396 0.47822493307698527 466.6497136248636 0.06609981775085524
0.33407109012852293 0.5150054467889694 466.67763394324237 0.040950974649972945
0.33237705871597667 0.5125163359567735 466.66561945627825 0.05229692189414842
0.3329108726056459 0.5693774197563038 466.6722292151734 0.07426745858741653
0.3335578027926552 0.5279958910378695 466.67486438385174 0.042144860838316214
0.3304447941690534 0.453897019818113 466.64803137129064 0.06985822112318904
0.33339541530899763 0.45237385484127957 466.66936881072525 0.04322283676564159
0.33503377179750643 0.4599177634730866 466.6818219028521 0.0011314512437353894
0.33537034236514107 0.43407264510832 466.68303204723924 3.885053292366687e-06
0.3320793705342269 0.4431405596902547 466.65941159618615 0.04794531790885305
0.3373434256075616 0.42714461970286405 466.6971432376234 5.69030206535972e-06
0.33545845453292056 0.44752033621616233 466.68412633064804 2.483554352563903e-06
0.3351160652045531 0.41634802207740873 466.68058540381173 0.00012150403536759097
0.33647242699415825 0.41048370866319406 466.6902487265779 3.941626661901419e-06
0.33801658457739797 0.4035046445820696 466.70123977422736 6.404110726438343e-06
0.33364869004027015 0.42966004405932734 466.67036624107493 0.025699593130014714
0.1613691524157591 0.08354289248548631 466.7878742361122 0.0007358305352051596
0.1558146540110488 0.09955295620262526 466.7674843212997 0.0010818489984216638
0.15939626703770318 0.0659936559625063 466.8116922261029 0.0008684291569433544
0.15278512622906731 0.07925210487374436 466.79520633353434 0.001282664761505312
0.15530429995129738 0.056362296368901214 466.8253687514394 0.0005136000297293793
0.15354314040580821 0.09290308248904348 466.77678594010274 0.0013466876052019286
0.14189898326822364 0.09963390890786612 466.7709466792158 0.000845681191774718
0.14904689677265662 0.08627950231954841 466.7865653607551 0.0010240144364114328
0.14116157721619182 0.0689391150574747 466.81211962816053 0.0006923498949212655
0.14196037228780642 0.07752469752961823 466.80039653227726 0.0006556767358045598
0.1401105572877317 0.056774817193526055 466.82870334281705 0.0006228730992063463
0.1322079466799435 0.08249614559395554 466.7971014483561 0.0009607092035249432
0.13393822469935698 0.10806690029695677 466.7624423866788 0.0010802573438468022
0.13003752799268792 0.09458661556367011 466.7820018465932 0.001103704191667682
0.12214649729165536 0.08019936507909617 466.80462860305545 0.0012167721452350099
0.12945152259290174 0.06730993713801874 466.81844551313145 0.0009001469212052205
0.12742587545374526 0.0581614556390336 466.8315380215916 0.0007976955063179822
0.11663090286900017 0.08756485198297334 466.79767247833445 0.001200054974087178
0.11572898726768668 0.07558629599440425 466.8139693714354 0.0010289072962608866
0.11797620293596414 0.10446331094612867 466.7746408656981 0.0013733240112278509
0.1193015914852684 0.09479134382236208 466.78664073292 0.0014099435393190925
0.11246202895135735 0.06903005457728602 466.82456352337755 0.00132481145817431
0.10028042547795252 0.08961614857378696 466.80513835536993 0.0012877489112893914
0.1052387041831244 0.12070960911011648 466.7609870054074 0.0012093757976437641
0.1017190339180575 0.07825036654910082 466.8189868143121 0.001334096441414587
0.10293459143310638 0.10041212882655719 466.7891514934401 0.0011658972384213531
0.10466668963727555 0.11188734218405781 466.7729260841422 0.0017827225898663173
0.09300868483057152 0.0867108034900298 466.81438582242464 0.0010836372005652223
0.09782069551937574 0.10859350152954308 466.7820695735726 0.0012241008552637041
0.09002845993788439 0.12064627121778192 466.77266824714815 0.0012315801001420016
0.0908897707618212 0.09930785521713456 466.7995572276825 0.0012922553650669079
0.09465012995359351 0.12556449186702032 466.76235189227253 0.0015615189013748689
0.07944872269655659 0.0904364353710116 466.8212662494144 0.002315554315407838
0.08492343456300469 0.11441058119180658 466.78513992774697 0.0012256317087988842
0.08583477166923757 0.09493550412689725 466.8095932831827 0.0014335895663508723
0.08163306716665558 0.129929723345831 466.76818335237306 0.0015485080474312532
0.07723081750328642 0.12238686834661591 466.7823100577756 0.00117569240058972
0.07472780494427593 0.11246936085263151 466.79753728859066 0.0012684621905012037
0.07144796839309317 0.08892258144579265 466.8312246885878 0.0012603761936018452
0.06974926240798884 0.09978915097331477 466.8191659911848 0.0018194646714889135
0.07085835228601103 0.131662423469138 466.7771294020638 0.0027833601134333633
0.07119826510579101 0.10707274502286229 466.8082515007453 0.002066691011794763
0.06295364625740546 0.14086365416874372 466.7750100342356 0.0019770781252907077
0.06663174890235908 0.124796485918738 466.7907944104486 0.0015203714565748922
0.06973744162052009 0.14197982702625794 466.76544875213557 0.0015348086878948224
0.06012052576321664 0.11156522252988749 466.8155016472644 0.0015310990352457637
0.06188207593655566 0.09850985676389663 466.8296355532345 0.001679212995670879
0.05504691247916523 0.15021155844049566 466.7741964793383 0.0014812175306487233
0.05341901493308855 0.13877436431498186 466.7905853429048 0.0016600695562784254
0.051556820249312685 0.13176597365201154 466.80190511810497 0.0013067205259591956
0.048620170266987714 0.11378263526971262 466.82852183814146 0.0021939914182145404
0.04950878707042385 0.12203286586936757 466.8170153171364 0.001029363351250197
0.04584449723900601 0.16803725568467487 466.7669779799061 0.0013197641497398882
0.04349770454395337 0.13527771358678084 466.81017962636525 0.002999901398202801
0.04451196648798429 0.14914082636214723 466.7918627878299 0.0020567465873370995
0.04134358884498742 0.12448681550339137 466.8267308294441 0.0026520814250891667
0.042487729185663334 0.1581999658700829 466.784463058479 0.0018614952887593865
0.03416644187091829 0.13321658334342165 466.8293428023451 0.0016525560757953404
0.04069111284190509 0.1780587864401143 466.7645340142633 0.0020193874787618887
0.03673104769982635 0.1579032745376053 466.7955670230971 0.002525799531756244
0.03919103292503377 0.1693549605221807 466.77752919349905 0.0030548659388710004
0.03568013767680278 0.15080530760871638 466.8058313559271 0.001188580713431396
0.031199061059016785 0.1488135353858967 466.81736751361757 0.0019416315045300656
0.032266843990198565 0.17145400849413395 466.7891912262217 0.0017008121021221776
0.03326201354252308 0.1879014734823081 466.7686832259608 0.0025088300456817636
0.029890688754340575 0.18464292157503362 466.7799896350506 0.0019878313616925112
0.023490231729908887 0.15990391818609812 466.8228308591155 0.00222341165578732
0.02576658135678089 0.17358751016077767 466.8022187894286 0.0021937572464732526
0.024465909739739236 0.2097320174126527 466.76799538131417 0.00274815823739132
0.019692213563723714 0.1889897827780495 466.80348066366764 0.0031958133484237274
0.020018683141518563 0.17190987981461792 466.81918117644176 0.0018927908846178658
0.022795950542921745 0.1981338236628466 466.78466395275626 0.0025056000324353905
0.02145949030527877 0.22635290192402002 466.7623717740585 0.0028603639698304237
0.015393912928203718 0.1816261019189458 466.8243476345972 0.0023957016821570844
0.019664282093136688 0.21697469587490004 466.7771418392265 0.003718686798649894
0.017318417572755387 0.20843582973781827 466.79370045422695 0.002929422480374473
0.012715497577484254 0.19886256396578203 466.8201730955527 0.001781107075463374
0.16405588207323074 0.15362677669482364 466.69868147283904 0.0013317538899348738
0.1605790980457959 0.1277020332835344 466.7312598893923 0.0016205475682815641
0.15214452305839957 0.11359520660149673 466.75013891667186 0.0013002467616906848
0.15424811733432303 0.1482913380056723 466.7068400582561 0.0011086462872384537
0.15163178040201988 0.15643916990527695 466.69736544945056 0.0010713476519460866
0.1513788583692824 0.13956479883456155 466.7182294085958 0.0010702396869353404
0.14862853668330717 0.12490121507566915 466.7370250772856 0.0013571235090145265
0.14164321425785087 0.15420248864577224 466.7027728375933 0.0013126630118712457
0.13063292628359524 0.15830613662939383 466.70169674076055 0.0012569470801942542
0.13159392883922952 0.14771687176863535 466.71434400186683 0.00143327722591162
0.1368542141377308 0.13886292928682234 466.72326049212893 0.0012122917470526813
0.13111893162074506 0.11994964408352707 466.7487342697005 0.0014342453195724531
0.1197753500790292 0.1627294521566214 466.701286655439 0.0018453614164443623
0.1258036711940283 0.16754587990488262 466.6924676167331 0.001157257418724538
0.12242058446416065 0.14292704976485335 466.72420483206076 0.0012932609198950445
0.121089651818924 0.15360670238769253 466.7117982786244 0.001428370880387036
0.12362745913507028 0.13486934057777789 466.73346689203885 0.001445620188025121
0.11227691885733723 0.13736062466040747 466.73625262432336 0.0014775635763149423
0.11439512175658134 0.12473417503273074 466.75062196610224 0.0014389370678041338
0.12142857688603952 0.1162906919473639 466.7572814774036 0.0010955933202731617
0.10719564620978657 0.15009096058822788 466.7238127621981 0.001050386534299665
0.10093398650443648 0.14148652494535957 466.7384066281984 0.0011418366631426396
0.10507160305681121 0.1680255323362691 466.7033492779764 0.001580316552931437
0.10053664299090478 0.1301017510496894 466.75254090947936 0.0010552089151267961
0.09557745083135284 0.18200820761842149 466.693297603333 0.0014721072830808002
0.09970302882923907 0.15936572355838904 466.71758392312574 0.001085423689142892
0.0912072057597236 0.15051788602884697 466.73476052950764 0.0014185628006272806
0.08699325706039537 0.1412019060990664 466.74938455178375 0.0011495583798482908
0.08936051294367613 0.1599723775997176 466.7248056970342 0.0020904357667007414
0.08434434313671865 0.17513526054612333 466.71103135047855 0.001986585493672957
0.08141564310115801 0.15924564314225603 466.7327829110785 0.0018060148667645786
0.08230877349615122 0.15109801371590803 466.7416768698899 0.0014074744825132261
0.07402187105932886 0.14626477655782333 466.75535996753433 0.0013613213831523633
0.07657644892420981 0.1907928104246018 466.70010376455673 0.001926365344901235
0.07616125192605225 0.16945354053567385 466.7257374052334 0.00185376764860567
0.0648783005615125 0.1603740174457332 466.74887940999974 0.001944502505833773
0.07193933514912329 0.17894064997290138 466.7190073085378 0.0018684547941548845
0.06841681746518082 0.20318424919028374 466.69473824060265 0.0019785562867689643
0.06392315883449204 0.16897995599249735 466.73993831407904 0.0019160963086121076
0.06616133592521546 0.19418877428173825 466.7079077093536 0.0018617611016099015
0.058716097140836074 0.18028263136658407 466.7336190021359 0.0018544451220426988
0.0557781735065927 0.16383929089418464 466.75657831522693 0.0020601177208325874
0.05392948462496951 0.17376747636635337 466.7475954703642 0.0018380133075962919
0.05835774622945985 0.2114096066432928 466.6983888391068 0.0018392919683949767
0.053049140887622484 0.1932573044928416 466.72679114860546 0.002290816012300464
0.04919692613385262 0.20516573842330382 466.7194506117838 0.00269578579009733
0.04686323011703873 0.18812526485347636 466.7422662676297 0.0024258927786164255
0.04740831483753205 0.21715590907806487 466.7090155342328 0.0027431897220642565
0.038606408437273934 0.18779830074884948 466.7574082816929 0.0035249545433440263
0.0404054776111632 0.21089389847523218 466.7288665715602 0.0019884992451563543
0.045548225506120886 0.23120860582314035 466.6971457969415 0.0030919166066826777
0.03823163248477584 0.20434261724239888 466.7401383992649 0.0019344139238344888
0.03988020093292142 0.22424478287477045 466.71558838744807 0.002003700337634363
0.03590274065498226 0.23731713835400356 466.7106807818877 0.004177723105521924
0.04255703987837932 0.24343919414689405 466.68954873163136 0.0028390932193027045
0.036768011413864286 0.2461893794992254 466.69952380569697 0.0037834518056509103
0.028667543825147454 0.21622351308640309 466.7501445035188 0.00342152057311699
0.030162959413805753 0.20602644938716233 466.75633521968945 0.00295200961259395
0.030250659178534187 0.22852434086215967 466.7338078170667 0.002053866865250747
0.032522845416641466 0.2336554421372317 466.7227727962158 0.002185963638903868
0.036058120891343325 0.25556904354000715 466.6918286701589 0.0027251732095705727
0.029702609655773107 0.24492509968032938 466.71910253376745 0.003940497245995874
0.02677652287120267 0.2400774443932026 466.73279713541956 0.003412709056281591
0.09615668566451509 0.04297660466225332 466.8720218510073 0.05139479759128492
0.08713413635236811 0.05744779616468332 466.85899321140585 0.001209387632537219
0.10962773289880706 0.023260095269017185 466.89074010495904 0.11484285004667544
0.10924539375735617 0.032681463385417574 466.87759852970794 0.05362413795378235
0.11340607665631842 0.040948418169694925 466.86322034689834 0.0006225646807065122
0.09842612115672761 0.033466814702901464 466.8837285234574 0.06703685368408799
0.06343412530664239 0.04988634659853532 466.89387375973354 0.1250457607532492
0.05968517281967448 0.0680903038628336 466.8735051706146 0.046682430628573225
0.054392561960513425 0.057533317216525603 466.8947508388194 0.1361720193552677
0.07391494563683663 0.04033910095576031 466.89554562280443 0.0977140432097171
0.06882469263465713 0.05797852943301432 466.87653436063613 0.030431999367891566
0.06995561080237575 0.06554973158025641 466.8648399819218 0.0010008345068040238
0.08212488562448614 0.04846383834170136 466.8761675891434 0.0834739276042868
0.16478167887851675 0.019262171120491858 466.87662823822563 0.05833479680447008
0.1613829388356485 0.011082069772217236 466.88893651076773 0.12896420497555428
0.17266759841468007 0.008398391881220367 466.89154964681904 0.12417034391420358
0.17252753884575225 0.030959868752781436 466.8588746855862 0.0009374654310803891
0.17637453237575623 0.02403855040766749 466.86847222887144 0.0006924784017042807
0.16858462165790639 0.03787475557058622 466.8492972122801 0.001014392043580274
0.15273113546605863 0.007443524539738279 466.89581641680536 0.1470259831336113
0.12360122359772013 0.017032874095626364 466.89207198589054 0.09121194779826933
0.13276468938358726 0.03033277106416124 466.86893533209064 0.0010981165602153486
0.1347967479223545 0.009478850215584433 466.8981752220845 0.1322014460812696
0.14373070533632998 0.019237890711538395 466.88111160647554 0.1007274531554241
0.11486810167281557 0.014744736671529299 466.8998125796466 0.10635333722361252
0.012489843528739353 0.14465105694621455 466.8714354282322 0.01135082334645692
0.0074927492630176545 0.13557828679996498 466.89757863052273 0.09283927871358066
0.009352882201157174 0.14358310028672 466.88356191216144 0.07129952213577115
0.003394346969275277 0.1717126467765272 466.88616241969703 0.040458768553996084
0.005085895042400349 0.17744437639143323 466.87360889614854 0.014531749981899692
0.007015836535791141 0.18435961137749843 466.8590837869317 0.0011183125341700222
0.00268478796941867 0.15020626278021823 466.9040100661217 0.09100824796492125
0.005207681589052782 0.15902276262217174 466.8862286651141 0.04796393003991465
0.03196866896912325 0.0874034964867296 466.8911935387891 0.10608270699112737
0.03481477932446845 0.10112833676229 466.8684453252109 0.0024382638075510876
0.045478527146909684 0.07597815572702837 466.88288517083527 0.09106421729098967
0.03952805592663275 0.07538411384911183 466.89330992432446 0.09432819139799445
0.04744068796327469 0.09656671913529247 466.8526913246421 0.0022867876738325065
0.04558818774289328 0.08915358241035776 466.86539049931025 0.0016311343790363132
0.0373176580767411 0.09131321585127726 466.87630400108037 0.04451853945594903
0.017321462382032932 0.10557794225540224 466.9008234510844 0.08828824377473848
0.015283008221752471 0.1168934032451533 466.89320981232294 0.08650840364178379
0.024596796559301144 0.108111586320041 466.880596776174 0.06457472825821171
0.007340511471455809 0.1944049989750634 466.8516721548292 0.0011154839802891658
0.009342553832800278 0.1985922449786117 466.83748537761727 0.0016314433613048216
0.014129131891386907 0.12663421279182446 466.88591227043435 0.08394775276236859
0.04791325440485132 0.06738669721913498 466.89063979377164 0.127624986418396
0.16083831998217638 0.04531001676222361 466.8396043724735 0.0014136606928423854
0.14964631807282397 0.045887781049236416 466.8410742968481 0.0008517220042208126
0.15457382381173979 0.034486914691508365 466.8564833353263 0.0008349062102474736
0.1564557332518437 0.026458093316699356 466.86766151477417 0.0008968170587095109
0.17441834926860098 0.07942118902834583 466.7919214432627 0.0009976931844215304
0.17182948560152472 0.05097907962166 466.83040406556535 0.0011066527996506945
0.16998288332211 0.05764306603876155 466.82160986834117 0.0007625629157022114
0.17027889631021426 0.09716590696637452 466.7685078242483 0.0010207554112425664
0.1732322858131624 0.14414554654963296 466.70939041146005 0.0014674593971268273
0.16705812505206002 0.1054360614702307 466.7579406603825 0.001258239615456227
0.16853911899135668 0.11635350132696823 466.74433025591765 0.0009589677974932437
0.1693450211022658 0.13656152516426667 466.71925781483463 0.0011991192325043866
0.17524744001168974 0.1551468953482132 466.6958222108316 0.0010953662685418608
0.1388115693479133 0.04245628408605728 466.849410903866 0.0009463788623484395
0.13786425663700694 0.05010168788808117 466.83876585886924 0.0009093514892760744
0.12645863063205565 0.03814692224235125 466.8605103948661 0.0007163634654862763
0.12464276157978096 0.025602444097011172 466.8793087925725 0.0618232449826315
0.12350778841317156 0.04592198948642608 466.85085259383925 0.0014608619482487926
0.0898876463167595 0.0740395759529025 466.8334013540204 0.000792264449537796
0.09812112783731053 0.06302129243631346 466.8422780025921 0.0013029556035450529
0.08833311716599047 0.033480952443727605 466.891677016263 0.10321861951577198
0.06390707310556429 0.0762806572986427 466.85730593167045 0.0019960980464891285
0.06490102500535619 0.08301429366062488 466.84690232419507 0.0014806030991791424
0.07662796991119422 0.0799616292077273 466.8377838197649 0.00190516453208791
0.07933638372096394 0.0665938038605827 466.8537289786584 0.001268677961090873
0.073914364863111 0.04781226625170689 466.88515761666685 0.09519088473617593
0.1074169845123791 0.05105396937217306 466.85271109723453 0.0009501016701531161
0.11471946241945608 0.05901881479651578 466.8367302168381 0.001255331950542881
0.17734396566830019 0.16585892433616112 466.6829285109942 0.0010020070919569428
0.17093603899224918 0.20030871888613713 466.64399354743125 0.003112634467209763
0.16790869586606072 0.2135517107471928 466.6292360312933 0.020646812670293127
0.16967450216287722 0.17906137842028597 466.6682868136138 0.0005656128782269578
0.1655393949565418 0.19286093635081666 466.65300779427207 0.0014971313245230188
0.16051446946463394 0.18595528809906395 466.6614483349734 0.0009704926937024636
0.15791700328217584 0.1749227088717895 466.6744619500817 0.001106161550177839
0.15961941355603282 0.16590184671222546 466.68454568563664 0.0012012052768677233
0.15457981021661674 0.210653772615384 466.63411243965385 0.014725175838366232
0.1401344903864395 0.16652858569014328 466.68811492079834 0.0012164409746470268
0.13638583566352375 0.19779506840959543 466.65367762688834 0.0011725093420400063
0.13467347423931864 0.21851910160377974 466.63058443620923 0.015549593742282935
0.1287033960485446 0.20741121041247135 466.6457759987492 0.0027812631363571057
0.12945903171869266 0.19068307368592616 466.66436678297055 0.0016629485597048198
0.12838940653329745 0.18033323729263337 466.67656139158095 0.0012553617658151064
0.10900248110452274 0.20329427519471172 466.66008828551287 0.0014296530165532953
0.112691431948855 0.19270775927313727 466.6700193326359 0.0014919229977955193
0.11072825892954506 0.17787445181692502 466.6879737382856 0.0010572590216860914
0.1016507674109087 0.19502869166969247 466.6742973864866 0.0018588617151486001
0.10962598829313089 0.21914937976169294 466.64192722245485 0.006556274709838473
0.10131853250686533 0.23585261439389396 466.6287493070389 0.022747807105372865
0.09984846694045764 0.21602100202541233 466.65198910578397 0.001979518890755885
0.09482662641307316 0.2264836107475069 466.64359671894005 0.0072040508710565524
0.11556357783463056 0.22578592242322343 466.63098216356946 0.01947828787563007
0.12466289266313649 0.21570103649847833 466.63824207696115 0.011198202084667982
0.1486703431143435 0.2022876123648254 466.6451558249039 0.001740320713797777
0.14635700467403262 0.1863755966551714 466.6638413666494 0.0009655684528466432
0.14035491761876775 0.21072762375743284 466.63781452427895 0.0035432807467141083
0.04049033816165564 0.10945525113930818 466.84719587584664 0.0012959490119146017
0.049884469142203486 0.10363499952462028 466.8394584110933 0.0012248565022478389
0.03172688555344233 0.11720948630462334 466.85410675128173 0.002338875988415921
0.03695797786090424 0.11957544170014406 466.8410276438333 0.0018027646897356784
0.02155595465707734 0.15429851726727362 466.83393283862017 0.0025231603710123706
0.02098038908307021 0.14616232454205424 466.84479882592484 0.0020178996824050124
0.014791786227387312 0.13396423832210344 466.875740687794 0.031357237771403534
0.016861714577403958 0.14453431190359683 466.85798684125507 0.002928218078107375
0.025008999439431856 0.13409611744309663 466.8484301443194 0.001447371888891004
0.023397953818217018 0.11788780922516728 466.8717765773278 0.008486899896231723
0.02397320243485411 0.12692814713387346 466.85949439872115 0.0016831815551690175
0.015523939248322929 0.22572373427105968 466.78762705757583 0.001994342676662683
0.014208029144832157 0.20763705419000558 466.8070248756285 0.0025189407838579377
0.011280218936792796 0.21389348723153154 466.81723355552396 0.0011859606957073795
0.007896681800615 0.16871263567702086 466.8664624666084 0.002292814226938396
0.01225534336973869 0.17412767137858215 466.8432711632125 0.001501359883108242
0.009717969520103469 0.1857313417543355 466.84374003584156 0.002499058107162272
0.019980072899142047 0.23703435195541728 466.7598120694129 0.001789569685682151
0.031037840738112606 0.26645212177139066 466.6955354906341 0.0031193189167494444
0.026419341598518314 0.25998172208991666 466.71701799689913 0.002872672442880516
0.013791507509394552 0.16182838302219354 466.8497995136938 0.0014702480875267584
0.07559011401096309 0.2549493352354026 466.62937059725135 0.033054088522929556
0.06944881631296349 0.21219391916662592 466.68334225209435 0.0023379636636664553
0.06018652344250364 0.21999375075241356 466.6862476842773 0.0020281598102415634
0.06615538802725882 0.230548810652224 466.66736766713336 0.0022873871958273076
0.06975131322012025 0.2358145800175114 466.6571531853812 0.002033649617056114
0.04991232690244722 0.23351659411629308 466.686717885726 0.0028245116790129527
0.05780967198673138 0.24011697568536863 466.66755879424915 0.0031147162981094534
0.08069800893548039 0.2329761953144508 466.6489482251984 0.0029186064533408057
0.08348562569312414 0.24316191932621298 466.63508241336984 0.027380065213819832
0.08763087166897507 0.2490164564668007 466.62477518534064 0.034017415010515056
0.075112639148153 0.2196715159109328 466.66884689712407 0.0019171403279841111
0.059011478542518 0.22918127165006522 466.67793771913796 0.0030999335569798997
0.0690566833035294 0.2515275660060307 466.6411964003612 0.014471652570718578
0.0597916151506003 0.2541023960034815 466.649827382558 0.008113334752519066
0.0871707381002839 0.2237190217831635 466.65316822245285 0.0014749028047850118
0.08145492187206192 0.20923410009093985 466.67446006258 0.001336929615440851
0.08203852146815886 0.1988734772080519 466.6852522482396 0.0015158304268599611
0.039442468750154024 0.27196783024808413 466.6684129478762 0.0035522273980392095
0.03791944171972463 0.2629670427255547 466.6803386008633 0.0035786236585988226
0.04124094121901147 0.2858991194661427 466.65092972999827 0.020530504835820054
0.03909471203426953 0.30395472078856356 466.63791374370226 0.054181819450591605
0.03621681720744455 0.30038459583042354 466.6486580668114 0.030954157424688187
0.03317024891650531 0.28891776109274586 466.6681322694876 0.002223190196613559
0.06024758718974416 0.2749013785299025 466.62685338461665 0.038936956315729694
0.04656924546493463 0.2662205239899455 466.6587726852411 0.0033839514718304246
0.0487577937253301 0.28160770458551265 466.63889365110623 0.023725488124961877
0.053303427862309266 0.253884400291658 466.66019748569187 0.0021647278209109837
0.04768022704833311 0.2504750309310392 466.6734570727664 0.0021599198950520517
0.05704176121428574 0.26345366879457116 466.6440373057529 0.01717302189879571
0.09393034194669281 0.19054773091237986 466.6845404441287 0.0017275212905234745
0.09324734067010663 0.20395150709886362 466.6700572079628 0.001632629957839258
0.055732083176671096 0.08696178647597466 466.85343253737904 0.001102627955823361
0.05594911976251049 0.09392438785023344 466.8437995493803 0.0010830951743156562
0.0010068927867917439 0.21765850086067667 466.89557430113416 0.07116930513689566
0.0010869142364365871 0.1980034827382548 466.89706260336067 0.09363328924182474
0.0008383858328862278 0.18427970616178962 466.8995382002706 0.06027052844194549
0.007027137436547566 0.20507911099926615 466.8475841603806 0.0008833058647475796
0.006047058231628674 0.2177917661394705 466.8501703681437 0.0003066977209136469
0.004535961604270133 0.19738612442769507 466.8674939985031 0.0006632954192723662
0.0030992631011740298 0.1989715110880996 466.8798852768608 0.03597386073166775
0.0032006222158928203 0.21053542528299318 466.87622996770267 0.015239439665537329
0.005819781068866635 0.23521138690487836 466.84707405413485 0.00015504604080550364
0.0045943432207652644 0.22887004544073808 466.8594758206217 0.00014291820405663117
0.0034356956082074066 0.2217402377584334 466.87147178564385 0.004940488812507972
0.004615633574154411 0.21025637393196572 466.86372027557184 0.0002634015718329538
0.008780133824002483 0.21178497800715324 466.8333867446259 0.0010234388591507844
0.012245741429567832 0.22337741575855605 466.80705311121795 0.0012320398694782642
0.00913872681751957 0.22828106938015624 466.8259397821437 0.00043396992036818193
0.0015474984925255646 0.2563786795510303 466.8873332991491 0.06471457232986967
0.0023142508881704993 0.2389544154965547 466.8815591527017 0.04854443567959387
0.0045045826590215275 0.25151326963638726 466.8580028378643 5.94837510985969e-05
0.0027604315562050133 0.2618504351382917 466.87402782962755 0.017409917634722577
0.0009423974628581864 0.23887860076242248 466.8952662383215 0.08744869407828643
0.002884843169973148 0.24919173894102695 466.87448663296954 0.0030987273293760645
0.005824834353530315 0.2792955606587496 466.8401131714568 3.845653239113074e-05
0.004349717027477905 0.2688529831606714 466.8569888253028 3.439201110768621e-05
0.006566927027349265 0.2531780264285131 466.8369573511208 0.00010678316519429747
0.005524915138355782 0.2618825069638926 466.8461439900931 7.112243786554249e-05
0.011447539366228221 0.2369132197644651 466.8084352830115 0.0003760033974561711
0.01596499708161347 0.23674612344066018 466.77954007461665 0.0016535791116086536
0.008231565696439676 0.24386608322415562 466.8272460960973 0.00014743051349075875
0.007782024225478176 0.26325083443538905 466.8237358271704 0.00012440485980577264
0.008598973702302778 0.2753266604596139 466.8141391607069 0.0001287612137239781
0.010712040213521559 0.2975469508313575 466.7911316965731 0.00013216937415875047
0.0102919603154891 0.2826188648786449 466.7978214762845 0.00018851775683729262
0.0035715207358391803 0.23793658465531425 466.8689866337263 4.278923228822349e-05
0.0018292112008319716 0.22811586581678195 466.8869495242144 0.04686857260948896
0.0002909736909726214 0.22945570132746684 466.90261449605964 0.08622033349197997
0.022412248674687135 0.2621814752453381 466.73029352457087 0.0020218230239724645
0.020243579595977872 0.25400326395851885 466.74585447883067 0.0012547871541924948
0.016946955953372766 0.24634710255512254 466.7693254145665 0.001692979455212373
0.02072496181387236 0.2900138801287224 466.72046172049284 0.000803251090905913
0.021879692459055862 0.2987596734866349 466.70808054518704 0.0008864584513764785
0.017049743368936734 0.26024803490268167 466.76093930391846 0.0007330267596508897
0.014635041480469084 0.26249251445533683 466.7754325031276 0.00034430204492974254
0.014706131108793225 0.2521663998311269 466.78070096767397 0.00036445434131587303
0.017964873587225146 0.2679950078474625 466.75067427417275 0.0006702178014567691
0.01276799790622282 0.25319061745373533 466.79276522829684 0.00013027310154735365
0.019173597982890856 0.278149428596996 466.737159264699 0.0012327632585410048
0.01655317120235915 0.2796938199727256 466.7533819876469 0.00014722855608205096
0.009351338723772293 0.25291316148369025 466.8151890796357 0.00016178719880564273
0.024155254109402873 0.27257215347459146 466.7154661884471 0.0020827777464943555
0.029553654463187903 0.2917205720637247 466.67992377478083 0.0018898798523013835
0.027905369797156323 0.2788740691275262 466.6952100059903 0.002333128851443494
