x y z curv
3.799244877541128 0.5399453182446117 673.8595317292104 0.0074411454792930294
3.8176031822327072 0.5399453182446176 673.8585881965328 0.007934556327601094
3.8104079680861402 0.5399453182445468 673.8699679986831 1.2341318713470908e-13
3.817579350423371 0.5399453182444214 673.8901289595768 1.3379104464757879e-13
3.8011333616827003 0.539945318244466 673.8829463588427 -1.4806764072633712e-13
3.829969484848833 0.5399453182424525 674.1974693266563 -6.65552662576598e-14
3.8281633718678534 0.5399453182423292 674.2173010035343 0.006899489932791186
3.846690661842215 0.5399453182424625 674.1958777078216 2.203335609951509e-13
3.8437131452142657 0.5399453182423568 674.2128626134951 1.7635133652452835e-13
3.836738358577869 0.5399453182426023 674.1734022103565 1.9248919375484725e-13
3.8556873137538776 0.5399453182427193 674.1545908903629 6.273551246897744e-14
3.838158967387668 0.5399453182427196 674.1545378289811 7.553252791718934e-14
3.8402662341383147 0.5399453182425342 674.1843352929492 1.210108081941752e-13
3.848970435576298 0.5399453182425953 674.1745282677381 6.462713605409317e-14
3.829227383004058 0.5399453182429009 674.1253867236047 7.0752119036697e-14
3.841533310695156 0.5399453182429049 674.1247592230263 8.241877430050295e-14
3.8281829633604647 0.5399453182428253 674.1375500803852 -2.2892203155757286e-13
3.8495959113634743 0.5399453182428477 674.133963162674 -1.2057812679176228e-20
3.8406315744005672 0.5399453182427978 674.1419768098541 1.4052448611307823e-13
3.8564622833294866 0.5399453182429103 674.1239068766153 1.2973028486687886e-13
3.858608879175396 0.5399453182427981 674.1419326897034 1.9095907767682883e-13
3.827959893760413 0.5399453182430456 674.1040783203212 2.720061675023049e-17
3.8341665644278873 0.5399453182431306 674.0931515977031 -7.18435048814761e-20
3.8469679138540123 0.5399453182430024 674.1096313010773 6.702537112955474e-18
3.8606990616407826 0.5399453182432004 674.0841901638889 -2.7557700487064636e-18
3.8502184915396933 0.5399453182431119 674.0955554105374 1.2450833842103006e-13
3.8593105862576 0.5399453182429966 674.1103771650178 1.4764779345852932e-13
3.8449370789994157 0.5399453182434745 674.0423431021987 -1.3559444920337534e-13
3.8361015909426777 0.5399453182433548 674.061561461697 -1.4036567821498716e-17
3.8417035508351653 0.5399453182432847 674.0728356484738 1.1390833048314817e-13
3.838148090676823 0.5399453182436351 674.0165229003686 1.2021372933499467e-13
3.8267493097521603 0.5399453182435736 674.0263925252436 1.374763910793407e-13
3.860479768739967 0.5399453182437075 674.0048778827412 -2.0983415416053645e-13
3.828811176237193 0.5399453182435022 674.0378769071832 0.0
3.8545755723142134 0.5399453182435767 674.0258985045175 -1.0778490517868728e-17
3.837535933480406 0.5399453182438447 673.9828268777245 2.0892434770733026e-13
3.8422960898042287 0.5399453182439211 673.9705341583191 0.0
3.83037634769506 0.539945318243791 673.9914552337586 -6.930572215079876e-14
3.86027046745328 0.5399453182438791 673.9772984347098 6.594428944504793e-14
3.8576856050968193 0.5399453182437914 673.9913913412403 -8.611430534797896e-18
3.8406640401822156 0.5399453182437336 674.0006794827462 6.581882247340297e-14
3.8287837389556225 0.5399453182441513 673.9335543285322 6.939900249836083e-14
3.8382654298216488 0.5399453182441033 673.9412452540704 -5.507666140232827e-18
3.8481064211643323 0.5399453182441679 673.9308603217211 -5.267642214279294e-18
3.831727741767766 0.5399453182440243 673.9539699867071 6.612019982807466e-14
3.8518180179972594 0.5399453182440628 673.9477706466287 2.346188518959036e-18
3.8518497469940267 0.5399453182439821 673.9607403420664 -6.971825485687507e-14
3.8369625528438847 0.5399453182443351 673.9039985639039 -6.952825411622175e-14
3.8276887941079414 0.539945318244275 673.9136361373196 -1.1311990407225943e-17
3.850014260549843 0.5399453182443459 673.9022708595478 6.490602122182094e-14
3.8420458173165404 0.5399453182442454 673.9184192040042 6.989777468204392e-14
3.829297208310611 0.5399453182445033 673.8769471047924 7.310863389059081e-14
3.8421429188373626 0.5399453182446052 673.8605651647205 0.0005762886880297689
3.86000137499147 0.5399453182445075 673.8762736468644 1.3630440682684188e-13
3.8593251127586683 0.5399453182445835 673.8640547397306 6.386620044177223e-14
3.8351643699557987 0.5399453182444313 673.8885404063651 -1.2598993871117633e-13
3.8457491160228274 0.5399453182444955 673.8782042699695 6.355845460396277e-14
3.8690079872621306 0.5399453182424028 674.2054809856202 6.061021793192077e-14
3.8786059508986774 0.5399453182425048 674.189080756182 -1.981952745985082e-13
3.862515622338529 0.5399453182424849 674.192268041827 1.3323583104873443e-13
3.8939540275500395 0.5399453182424826 674.1926457696325 2.7178975445333347e-13
3.893237812648086 0.5399453182423712 674.2105481898174 -4.333936144205432e-18
3.8803674042953924 0.5399453182423726 674.2103284367943 1.487228272556301e-13
3.8855839049683882 0.5399453182423036 674.2213955835495 0.007686628842256436
3.8693473515923085 0.5399453182426751 674.1617023846861 8.691009633436825e-18
3.881427310695641 0.53994531824274 674.1512848927465 1.9602864147980392e-13
3.8866158979325682 0.539945318242564 674.1795636084316 6.855709980472355e-14
3.897954072150962 0.5399453182426146 674.1714379619103 -7.496132967436558e-14
3.8918911436051675 0.5399453182426771 674.1613761646058 6.728291543339761e-14
3.897909507516305 0.5399453182427547 674.1488933600374 9.626063375388023e-18
3.8703885722371325 0.5399453182425649 674.1794269000349 -6.842717739603689e-14
3.86996632275692 0.5399453182429321 674.1203770458802 -1.374464659164424e-13
3.8845630148170462 0.5399453182428655 674.1310798146039 -6.297130567597246e-14
3.874905537049033 0.5399453182428191 674.1385523646566 7.321686890269327e-14
3.8923594396731245 0.539945318242918 674.1226474359579 8.38845743792747e-18
3.868361099083579 0.5399453182431209 674.0943865145914 1.538095603549918e-13
3.8785642129975995 0.5399453182432237 674.0811765023997 1.71959522025056e-18
3.894829586960971 0.5399453182432288 674.0805274916437 -6.488840666107065e-14
3.888210971494342 0.539945318243114 674.0952956254163 -1.6932598626317304e-19
3.888999042502531 0.5399453182430097 674.1086866746375 -7.278324508329542e-14
3.8759332821412293 0.5399453182430451 674.10413926048 -6.941498155963398e-14
3.8883812802378093 0.5399453182434819 674.0411391435915 0.007016019330625604
3.862538433445147 0.5399453182434754 674.0421854611902 1.2298469930444888e-13
3.8722412050979393 0.5399453182433956 674.0550026098296 -6.055277716794946e-14
3.886010152766609 0.5399453182433981 674.0546230195984 -7.37521040143325e-14
3.897533581649916 0.5399453182434234 674.0505435109542 0.03171526967182211
3.8733988620943416 0.5399453182433147 674.0680047683521 -6.12925992774825e-14
3.8746220152236877 0.5399453182436493 674.0142344825609 3.131639942543482e-17
3.886483390318913 0.5399453182437226 674.0024514313253 0.020939106824972527
3.867405224175665 0.5399453182435632 674.0280823318149 -7.088906806342194e-14
3.8719605837821196 0.5399453182437209 674.0027038780386 4.689501074385758e-17
3.8838597072579994 0.5399453182435963 674.0227615001548 1.4258086443351195e-05
3.8966397135597997 0.5399453182435802 674.0253427267169 0.06062416054958949
3.878840904914179 0.5399453182435308 674.0332898164208 1.6668207409054161e-13
3.89295300340204 0.5399453182436562 674.013134491401 0.02687751122459877
3.881616558200186 0.5399453182439233 673.9701800582575 4.4365908200762445e-05
3.87552320346105 0.5399453182438281 673.9855109350126 1.4004957931718953e-17
3.8931458349726142 0.5399453182439418 673.9672300709407 0.03702695386513607
3.8863373043439706 0.5399453182438088 673.9886005925655 0.01377902312456068
3.8737787223719016 0.5399453182440588 673.9484050183366 -6.820359292813317e-14
3.873257764656929 0.539945318244157 673.9326179225859 -1.8513350852589216e-13
3.8632245142807604 0.539945318244096 673.9424258438197 9.46900117397415e-18
3.883210455484233 0.5399453182441126 673.9397481708502 0.004062968162678892
3.870505653983228 0.5399453182439883 673.9597376324385 -6.496501789715755e-14
3.890825109184265 0.5399453182440599 673.9482329294444 0.0329228565470599
3.897321800704002 0.5399453182441429 673.9348893944508 0.05010045236622122
3.8671385243439147 0.5399453182443882 673.8954622999221 -1.299676581948041e-13
3.888603648180701 0.5399453182444042 673.8928775928497 0.020818641042688723
3.8739296131980847 0.539945318244332 673.9044920803249 -1.2072817486605345e-13
3.8646390615722988 0.5399453182442671 673.9149163341203 -5.808200439881717e-14
3.894432904968377 0.5399453182442546 673.9169229941208 0.028067545048157363
3.8856996804587576 0.5399453182441949 673.9265318781873 0.0049593187211055935
3.897578928624242 0.5399453182443401 673.9031972718092 0.02585063650091566
3.878276503261278 0.5399453182445579 673.8681693882081 1.366731544625888e-13
3.870206923494185 0.5399453182444627 673.8834906239422 -4.010173873217117e-18
3.8848138793007285 0.5399453182444758 673.881387893018 0.005352989126013402
3.895935336803154 0.5399453182444953 673.8782529296153 0.045253404235395825
3.8907485770853105 0.5399453182445725 673.8658443535245 0.015034404396415811
3.898228372356255 0.5399453182423076 674.2207787373729 0.009313124027609046
3.906269872523238 0.5399453182424916 674.1911926227153 -1.4595980582620328e-18
3.908200978587015 0.5399453182423539 674.2133120235768 -6.995667841211052e-14
3.9211919947096248 0.5399453182423268 674.2176768931087 0.003937251360417153
3.925433630988639 0.5399453182424074 674.2047301161076 6.215193456826491e-14
3.9066495148991303 0.5399453182426925 674.1588973065831 -1.2590016734183756e-13
3.91638198211814 0.5399453182427514 674.149447940347 0.00035230136080113345
3.9217455690131895 0.5399453182426467 674.1662633621479 0.001378474457066302
3.9240431399915643 0.5399453182425367 674.1839525943617 0.0026797774238556784
3.904735161964542 0.5399453182428529 674.133118154213 1.3194922665816989e-13
3.90459338192844 0.539945318242927 674.121213843727 -1.3149240627446282e-13
3.9166748553518396 0.5399453182429028 674.1250997260541 0.019466333888261324
3.928497091630353 0.5399453182429086 674.1241752513552 0.04655540897687328
3.9324828700486387 0.5399453182427811 674.1446347634095 0.038872530061715115
3.9238658356140927 0.5399453182428318 674.1365066044306 0.03276250554989848
3.6503526897244747 0.5399453182714858 674.244285085526 0.0793565279505538
3.656562913429075 0.5399453182552741 674.2182431222197 0.06848903695759437
3.6714084352741976 0.5399453182485454 674.1801651087785 0.05261159694062648
3.6716891937375404 0.5399453182500157 674.1486730505951 0.07891449637372049
3.678911057202194 0.5399453182454482 674.2250557623023 0.04577530109557829
3.6669237667152195 0.5399453182545912 674.2347020486013 0.08851484467943836
3.7112992678663757 0.5399453182524763 674.2441345419295 0.061154626235502434
3.7262299535221004 0.5399453182513791 674.2416936397627 0.05902758501054325
3.755068575494408 0.5399453182526075 674.2444263085613 0.04296507021783728
3.781170618852408 0.5399453182528011 674.244857263496 0.05822833046929844
3.7880984478962265 0.5399453182471563 674.2322982561959 0.061113066995818366
3.6708048024890276 0.5399453182476 674.2001898874155 0.04622186309952872
3.6738189759839677 0.5399453182462242 674.2142559879442 0.04645726543730993
3.6795353552736416 0.5399453182444106 674.1661123212998 0.04487338055353932
3.6685089566913556 0.5399453182502382 674.1613996238905 0.06859967522618379
3.723080675275801 0.5399453182456802 674.2290136521071 0.03762747407397195
3.748651291089359 0.5399453182435787 674.2243383709541 0.023190917175303794
3.738305880920971 0.5399453182525116 674.244213101636 0.054543640614117116
3.7644455570613653 0.5399453182472664 674.2325433676549 0.036178502321023
3.7759836303228926 0.53994531824616 674.23008154068 0.0418488338153266
3.693426213796652 0.5399453182455932 674.2288205139193 0.05033883571215698
3.691953080527265 0.539945318254534 674.2487127804374 0.08118613090227032
3.7088127565809534 0.5399453182436746 674.2245517934996 0.03925713429811267
3.6784426729072393 0.5399453182464756 674.1291073701036 0.0759484232360436
3.679740161108385 0.5399453182521674 674.2434474124706 0.08758523925593147
3.67737655002038 0.5399453182431987 674.0893061964252 0.0718278058305591
3.695149745993016 0.5399453182568641 674.0681305551359 0.047388496331641314
3.6865670574772937 0.5399453182426643 674.0961326288573 0.06768674785526281
3.704442666155162 0.5399453182427849 674.0771910522153 0.023441120811029396
3.6836051521371416 0.5399453182428985 674.1079611948467 0.08837072747691564
3.6955707613799693 0.5399453182427464 674.0873199265279 0.057946865508831526
3.716012904075462 0.5399453182354629 674.0373615616168 0.04177523165311381
3.703145824871672 0.5399453182060784 674.0316726807326 0.07768178530591587
3.702285829582061 0.5399453182079025 673.9320547328646 0.07338068630066084
3.7080567398828177 0.5399453181914987 673.977074202674 0.07691888629695093
3.7068399620751324 0.5399453182308714 673.9107915894532 0.06804350389613083
3.7068148697849272 0.5399453181964255 673.9651773943484 0.06284571565138942
3.698104043370076 0.5399453181570131 673.9986991309509 0.0815700233338976
3.6987240992738744 0.5399453181491691 674.0131529456248 0.09536730165854786
3.7006644295065843 0.5399453182263334 673.8975491038042 0.06728152794457778
3.7098472253593187 0.5399453182150633 673.9457316703109 0.0923656786092375
3.6952357913227556 0.5399453182244577 673.8825663119744 0.06677004282882144
3.708913287472171 0.5399453181942913 673.9945331209931 0.07253468555786317
3.705205510962174 0.5399453182872183 674.0471254191035 0.06108699952493198
3.7156890918067793 0.5399453182532774 674.0534303954817 0.02348408712964694
3.7119008650199294 0.5399453182654516 674.065671863299 0.01778086425047372
3.7186931684112414 0.5399453182437681 673.9557400533466 0.04438143343171943
3.7090574497288182 0.5399453182490506 673.8670973958986 0.05467389243604982
3.71696783273804 0.5399453182450786 673.9165892371282 0.04999115860238334
3.7135255144432664 0.539945318246774 673.9003527473787 0.057795924999531366
3.731847433457077 0.5399453182461355 673.8520187525297 0.03846175303014487
3.731984556719758 0.5399453182519903 673.8364966848713 0.05532188204761443
3.778324397268556 0.5399453182504073 673.8406933068059 0.08129627160993598
3.777446393624896 0.5399453182459601 673.8524833267854 0.017556650352146513
3.767014727563116 0.5399453182536923 673.8319842644843 0.1035701898653495
3.7046219746982754 0.5399453182512322 673.8466770690404 0.06607146943521765
3.713671942642738 0.53994531824698 673.8563450947809 0.06364167373158268
3.7181205382539853 0.5399453182447568 673.8824779703605 0.04969501321197146
3.795250264576185 0.5399453182507342 673.8398265327434 0.06296698440376605
3.7553937460491724 0.5399453182525649 673.8349731205509 0.09134333272518735
3.7567727572471505 0.539945318248232 673.8464604104602 0.05640463478913052
3.719880123270328 0.539945318249311 673.8435995584141 0.05687860912728827
3.808182890234006 0.5399453182517506 673.8371321005441 0.07793288998500301
3.8202759348558635 0.5399453182518443 674.2427286426044 0.08943278009211228
3.8677809407663535 0.5399453182502026 674.2390759133685 0.0469381030631354
3.859204511817904 0.5399453182462878 674.2303657307087 0.03927899267441532
3.8406330839392466 0.5399453182477244 674.2335620375463 0.06200686045881879
3.847210247549774 0.5399453182523826 674.2439260239059 0.06561119070670052
3.880622069200207 0.5399453182505721 674.2398979744594 0.05680293889143236
3.870538879799819 0.5399453182449006 674.2272793511972 0.046211090355326605
3.9360482480929386 0.5399453182492958 674.2370584979341 0.07368123565177198
3.9506451875370363 0.5399453182496009 674.2012291569341 0.03949470263760711
3.9347048774892905 0.5399453182428284 674.1946987310101 0.0181900854794368
3.9398307010868328 0.5399453182448926 674.2150724241993 0.04111433954610997
3.90517970688106 0.5399453182492349 674.2369226907375 0.05237773300561175
3.918145151454143 0.5399453182462779 674.2303437977064 0.04552558150806577
3.916943303576149 0.5399453182519551 674.242974986656 0.06325150600154744
3.96183417116508 0.5399453182589863 674.2413740963266 0.09497166423957032
3.9452850641250503 0.5399453182499494 674.1496517818821 0.06276454216353412
3.94765929019019 0.5399453182497926 674.1786201558193 0.029745184434305235
3.9470115951849847 0.5399453182495626 674.1657845417081 0.054231561981279056
3.9355716404078787 0.5399453182436007 674.1571046093457 0.022928452972588522
3.9360335805575155 0.5399453182437578 674.170904587506 0.028123675325155577
3.962722678986621 0.5399453182561512 674.1948875261552 0.061881156498620596
3.951295853907552 0.5399453182508767 674.2192852101823 0.060791723065781886
3.950679200455782 0.5399453182562797 674.2386884620653 0.09470307672544595
3.959879272833441 0.5399453182581532 674.2297640281174 0.07268751325674658
3.944095999183363 0.5399453182511116 674.136536894689 0.05732941837335999
3.831649070583353 0.5399453182460601 673.8522185044133 0.03471394930110362
3.846887214592078 0.5399453182540939 673.8309198696156 0.0666537410465328
3.8574560049076485 0.5399453182469737 673.8497964280725 0.047069382069551996
3.8372996183339083 0.5399453182515703 673.8376099719691 0.0713048294481327
3.9095630862948676 0.5399453182808293 674.042305348348 0.07189851921332331
3.906891920179564 0.5399453181989179 674.0183042905953 0.07242731141031065
3.910612690319274 0.5399453182431175 674.0948335209132 0.02462784966782256
3.9191776574255415 0.5399453182429883 674.111449626643 0.03454261407972554
3.907932698441278 0.5399453182430225 674.1070431216334 0.001962456541179855
3.868734961459805 0.539945318244799 673.8555619401244 0.016948150133604296
3.880476576128253 0.5399453182541223 673.8308444325637 0.089902560477824
3.8921812352493803 0.5399453182457217 673.8531157463617 0.03453633571422861
3.8802003458803407 0.5399453182462738 673.851652158689 0.029782826223329964
3.8677112299585703 0.5399453182528462 673.8342275597519 0.0701707034415083
3.8249787069607577 0.5399453182531214 673.8334978194792 0.07606896207887082
3.89008409850994 0.539945318250553 673.8403068903535 0.05310804715943488
3.925593976583468 0.5399453183276618 674.0433600905267 0.07564260175499417
3.9066932517060953 0.5399453182635202 674.067239120154 0.0335033978577812
3.9150443300825595 0.539945318289273 674.0575050589623 0.05226113420891925
3.920049484759792 0.5399453182499252 674.0723823709701 0.06772350934790593
3.9399342297660302 0.5399453182457676 674.1063987907839 0.0642835040182901
3.9034061237597215 0.5399453182167198 673.9776252071888 0.06660024641021199
3.9147345691569884 0.5399453182523704 673.8575414943983 0.06562410774042733
3.89983124350941 0.5399453182452612 673.890608556299 0.06247843860742509
3.9032502254710884 0.5399453182469821 673.8685653716703 0.060488994575986006
3.9094404454226384 0.5399453181986127 673.9633665746949 0.06727748976419595
3.9166739870705136 0.5399453181671324 673.9892293624185 0.08468180807895256
3.918246521013904 0.5399453181857322 673.954618341967 0.08507328406979438
3.9091291777855837 0.5399453182123605 673.942656402518 0.08233461030484805
3.9069401602504197 0.5399453182342969 673.9152062326921 0.07087095788418779
3.9174388289828292 0.5399453182311045 673.8855423457494 0.08337709209474173
3.918845010931388 0.5399453182113964 673.9120572339862 0.0757555955025878
3.919595710104169 0.5399453182565976 673.8242818131196 0.0770059721516483
3.903693730240479 0.5399453182510798 673.8389106816855 0.08551863508861125
3.90799892151675 0.5399453181934282 674.004906991651 0.08098809861391053
3.9042499161932493 0.539945318212371 673.993825886985 0.057221471976952945
3.9082496573179197 0.539945318243054 674.0811469059093 0.01619877130613357
3.924993814125327 0.5399453182430094 674.1012267111711 0.05629436078350844
3.9241012229092735 0.5399453182426331 674.087213390296 0.0671079280935794
3.93355824122731 0.5399453182420478 674.0794131691591 0.06938514291480664
3.9440838134209733 0.5399453182514553 674.1168037918362 0.06714765644423741
3.8100413963669073 0.5399453182467605 674.2314176205955 0.049515109426046866
3.803757363091714 0.5399453182528496 674.2449651637643 0.058092037157418445
3.7328659782251195 0.4492736879327358 673.8237502480379 4.18501626900283e-07
3.721239436897684 0.4587843483680162 673.8237502480378 0.030393620897771974
3.743902181111686 0.4630561870972295 673.8237502480378 1.4182980077334318e-07
3.7453993130494374 0.4482609521155653 673.8237502480376 4.70491148846537e-07
3.7422389357002146 0.4873226819493803 673.8237502480378 4.700797368275508e-07
3.7378391211599014 0.389131481409044 673.8237502480378 4.0894426378084316e-07
3.733171186209333 0.40432360463618244 673.8237502480378 3.511515493206182e-07
3.7241212439806577 0.3950521908396258 673.8237502480376 0.017046680685070384
3.7322231119547187 0.41959353147460443 673.8237502480376 4.1635509855151073e-07
3.734981644347574 0.437098091896932 673.8237502480378 3.650346908370769e-07
3.7259228144689445 0.3719389247641649 673.8237502480378 0.01365499409118973
3.7263537426188473 0.35849784727496087 673.8237502480378 0.015139264103215309
3.7403634914151693 0.3595181496749954 673.8237502480378 4.388854095204129e-07
3.7384400170269516 0.3731467389615498 673.8237502480378 4.484959860026544e-07
3.7288986677677576 0.3066387775491764 673.8237502480378 0.0103829277077112
3.746539378988367 0.28567526394603115 673.8237502480379 1.4799818794488547e-07
3.739923767653478 0.2972420049997441 673.8237502480379 4.3403114615027217e-07
3.7252406189512355 0.3184061156029132 673.8237502480378 0.01024614377529833
3.734550358295509 0.3365103482092433 673.8237502480376 4.989955145868233e-07
3.7483945178576095 0.31549902684785047 673.8237502480378 3.6857035428475663e-07
3.7362649095737863 0.3250910763795094 673.8237502480376 4.516933019659951e-07
3.7328565317537437 0.2460294868561554 673.8237502480378 4.5933561590008067e-07
3.7235993514572847 0.237313822466466 673.8237502480378 0.03537887785213404
3.729458607751548 0.2636943198238418 673.8237502480379 0.0057270893307814945
3.7310332312477286 0.28437327971991855 673.8237502480379 4.563918403232011e-06
3.739676877742613 0.25852097705617494 673.8237502480376 4.104564775662664e-07
3.7488198047707044 0.2713477480668821 673.8237502480376 2.075972749019243e-07
3.742887424074003 0.2198409633450295 673.8237502480378 4.0807331279536206e-07
3.738793507087512 0.23329602899259502 673.8237502480378 4.093043200685557e-07
3.7390425262192526 0.2028024020217098 673.8237502480379 0.022011422718628635
3.7645195204909787 0.4585942869221375 673.8237502480378 3.471434056192511e-07
3.7721300296106453 0.44884527012007924 673.8237502480378 4.2078523233718355e-07
3.7558772725500527 0.48314417211375205 673.8237502480378 3.47162650591459e-07
3.778457144681223 0.4664724921644765 673.8237502480379 2.5505193960983163e-07
3.764738399116868 0.47213860146607234 673.8237502480378 1.4017916064332872e-07
3.77474928373064 0.4890943332156382 673.8237502480378 4.4359259553577826e-07
3.7502730634524117 0.4164130337070314 673.8237502480376 4.0705206303291125e-07
3.7650087957568843 0.39740872467154825 673.8237502480379 4.508054988014366e-07
3.753735838210204 0.42805076215283294 673.8237502480378 4.1437395322485164e-07
3.775232292785045 0.40291056148745263 673.8237502480378 4.227368245364964e-07
3.7780091101971656 0.43693212274258264 673.8237502480378 4.3547215628390735e-07
3.7787826351055296 0.42185288665761955 673.8237502480376 4.59690339611925e-07
3.7650567927722483 0.42327437651681976 673.8237502480378 4.1649179759349195e-07
3.766630615620775 0.43490630026795896 673.8237502480379 4.863703088674855e-07
3.7508695980825615 0.3672076311141723 673.8237502480379 4.5009234291360566e-07
3.7557187087377413 0.356015472462473 673.8237502480378 4.4260740611881985e-07
3.7502657511389637 0.34116592282625435 673.8237502480379 4.3119052639371673e-07
3.7617907022120627 0.34249429995539604 673.8237502480379 4.31315851725615e-07
3.7518975698136567 0.3888184220701308 673.8237502480376 4.0370547604195027e-07
3.775565747852145 0.372098692323927 673.8237502480376 4.997003338583132e-07
3.7674890247613493 0.3596424303718604 673.8237502480379 4.445186425148982e-07
3.7677192421984236 0.38218689832134844 673.8237502480378 1.6023248230342957e-07
3.7661804475862573 0.3043793616710344 673.8237502480376 4.030227802578825e-07
3.771561319494428 0.3177347463660918 673.8237502480376 3.9806193089715106e-07
3.775100290167896 0.32885967163385954 673.8237502480379 3.478204030603138e-07
3.761536946414453 0.3234589129433289 673.8237502480378 1.5076355407744405e-07
3.7743748053859703 0.2946422104488455 673.8237502480376 4.048115555993194e-07
3.7557253842981435 0.2432101882138477 673.8237502480379 4.1280306801916174e-07
3.757106172885345 0.26330465374637224 673.8237502480378 4.116742004309722e-07
3.7742544693543962 0.2657543843122281 673.8237502480378 4.08174575466377e-07
3.775332976514872 0.25189592685909856 673.8237502480378 1.5665673331365475e-07
3.7661352930809695 0.2762669312297464 673.8237502480378 4.545390368271758e-07
3.7572903756257983 0.19595888794403685 673.8237502480378 4.5708392237523533e-07
3.7561774817620246 0.21674314381047266 673.8237502480378 4.3548538083266066e-07
3.770881287231546 0.19440357520542303 673.8237502480379 6.415435807552843e-07
3.767453724860869 0.22927445287803827 673.8237502480379 3.989858578229058e-07
3.773447846120604 0.21750133736017188 673.8237502480378 4.3856039515828815e-07
3.7658811847421196 0.20653352444939227 673.8237502480378 4.863857454963e-07
3.7990676575435067 0.44124222604223773 673.8237502480378 2.677248288660674e-07
3.7847464521110123 0.4546335055349403 673.8237502480378 4.1160603851598155e-07
3.80776682576104 0.48839669491439264 673.8237502480376 4.075055582979248e-07
3.804885021418877 0.4656967717369359 673.8237502480378 3.927200320720135e-07
3.796785874655418 0.4814956222337079 673.8237502480378 3.368596110060716e-07
3.7905542614957586 0.4013504512864352 673.8237502480378 3.7992600575460424e-07
3.7920398192193665 0.41426075729379974 673.8237502480379 4.197440407038228e-07
3.80560698760568 0.4192738916720771 673.8237502480378 1.4706005545022523e-07
3.806397044586151 0.3974447397054413 673.8237502480378 3.4264739288770543e-07
3.797861936759404 0.42932923647805066 673.8237502480379 1.5710782089835329e-07
3.7872630342497478 0.36890731903627105 673.8237502480378 4.7438306730595375e-07
3.78043326512795 0.3559984641431456 673.8237502480378 4.2919524214363874e-07
3.7913077306611456 0.3508854608532831 673.8237502480376 4.005423079943433e-07
3.803597619349511 0.3567577500946128 673.8237502480378 4.1040040247808853e-07
3.7855677025959062 0.38329651831203193 673.8237502480378 4.493261488773521e-07
3.797343920212623 0.3807651789360498 673.8237502480378 4.939265578155673e-07
3.789875761404581 0.2927177680298795 673.8237502480378 3.5865796873034563e-07
3.801462612163535 0.29175000334945744 673.8237502480379 3.771226530580154e-07
3.7822740751183357 0.308003547553577 673.8237502480378 2.499781117036266e-07
3.801855982873155 0.3283059767464623 673.8237502480379 3.2218187902990294e-07
3.78835488458881 0.32835876310475426 673.8237502480378 3.428579590370844e-07
3.806332582044674 0.31374208840271167 673.8237502480378 1.4192507022484988e-07
3.7789500784788297 0.23888619547348655 673.8237502480378 3.870190559301154e-07
3.7856834959639363 0.281136674403031 673.8237502480379 4.003294662337769e-07
3.7955117790195185 0.25923868732229094 673.8237502480378 2.3635861771316285e-07
3.790879938510484 0.2703515191381672 673.8237502480378 1.564543377985419e-07
3.8037783071755156 0.2687397819056222 673.8237502480378 3.7091557070572626e-07
3.802951857587601 0.24548019943307434 673.8237502480376 4.697040871323807e-07
3.7853174805765395 0.19979110766931857 673.8237502480378 4.889481435010707e-07
3.792316818768129 0.1904591791466636 673.8237502480378 6.576760827653495e-07
3.7897344206128674 0.2130857733710914 673.8237502480379 5.299844530136135e-07
3.801214685152601 0.2278829192977567 673.8237502480378 4.428537535662036e-07
3.7878744755667215 0.22946864233363481 673.8237502480378 4.850655862336257e-07
3.8004382683525666 0.20632889866833204 673.8237502480378 4.976570111094346e-07
3.8170191436000667 0.45079151032045733 673.8237502480376 2.6701444510460914e-07
3.818091387151912 0.4651181292102225 673.8237502480378 3.6151982055749396e-07
3.8171821774840518 0.4762907281139356 673.8237502480376 2.6588366938182384e-07
3.8313171719155106 0.4880631488348903 673.8237502480376 4.6663540447338374e-07
3.8356937463801355 0.4737908864032391 673.8237502480378 4.1183511007284707e-07
3.83598308118417 0.4618198521718128 673.8237502480378 4.460953446318485e-07
3.8346431166975394 0.4475772686800971 673.8237502480378 3.328359219357823e-07
3.8278936954766687 0.39668664794924663 673.8237502480378 5.07203758544965e-07
3.8210981057810045 0.41036231865730893 673.8237502480379 4.6727176485568123e-07
3.827540626348383 0.4223086639691197 673.8237502480378 3.616924072997588e-07
3.812571326866304 0.4379534943669154 673.8237502480376 1.4178187241487222e-07
3.80869856457746 0.37702838981858156 673.8237502480378 4.089850625860632e-07
3.81664108291308 0.3375979262095438 673.8237502480378 1.6237533513653525e-07
3.8168436464377313 0.3626376499172099 673.8237502480378 6.322299419155747e-07
3.815621837700734 0.38832940797990795 673.8237502480379 5.204314171900845e-07
3.8282409018662023 0.3685898852377071 673.8237502480378 4.736898362614337e-07
3.829654717205998 0.3811300928288177 673.8237502480378 5.0054336818415e-07
3.836636489621354 0.34270556364698307 673.8237502480378 2.1697878030424343e-07
3.8288075530911634 0.3541140493119319 673.8237502480378 4.104442722218679e-07
3.823672118343879 0.28826425139561507 673.8237502480378 4.506175176791939e-07
3.8178935050201193 0.30706740333696914 673.8237502480376 2.0938297575237157e-07
3.836442324211471 0.32841054531981034 673.8237502480376 2.253144140080033e-07
3.819510655828153 0.32347233339608317 673.8237502480378 2.0845455361489895e-07
3.834017494919124 0.297815957141205 673.8237502480378 4.271283023368954e-07
3.8368674410043804 0.3155097503495867 673.8237502480379 4.3486822605479334e-07
3.816650141981156 0.25097787503914676 673.8237502480376 4.715460303961368e-07
3.8357610810472726 0.23563944211811494 673.8237502480378 4.174414361241203e-07
3.822859360163683 0.26562771935624174 673.8237502480378 1.5484096839943596e-07
3.816985881385743 0.27790314986579184 673.8237502480378 1.5614570353555062e-07
3.8338216640456597 0.2743757339035213 673.8237502480376 3.6290918772865006e-07
3.8361412778824335 0.260744333976881 673.8237502480378 4.612272690785231e-07
3.81026623268294 0.21775047969457284 673.8237502480376 1.6802347754740553e-07
3.809335853145937 0.19951699320414645 673.8237502480378 4.861082737863793e-07
3.8219575708833653 0.19486352825127504 673.8237502480378 6.086368594851613e-07
3.8352481415297524 0.20651151456125522 673.8237502480379 3.37220369926993e-07
3.8120022235841104 0.23309374592378204 673.8237502480378 4.1519736378324356e-07
3.820665391796627 0.22528157859347925 673.8237502480378 1.499448617355064e-07
3.8486303257198333 0.47200236710971966 673.8237502480378 5.169011291198232e-07
3.8456839874731057 0.44224856379406313 673.8237502480378 3.6369152292687074e-07
3.855238211751118 0.46150196075431366 673.8237502480376 5.783056435325104e-07
3.8634575634313477 0.4722469855382703 673.8237502480378 7.780719805322154e-07
3.863730554370364 0.4492804412657351 673.8237502480378 6.640840643103262e-07
3.863416127859268 0.485150520073275 673.8237502480378 7.549496991896579e-07
3.8423602554129053 0.42188822670453285 673.8237502480376 3.541160167280095e-07
3.843314249519479 0.4088412978294649 673.8237502480376 4.822214268035461e-07
3.849058319332249 0.3971066436047125 673.8237502480379 4.495652584137943e-07
3.855687217185509 0.41947422507885457 673.8237502480378 4.126593871751258e-07
3.854636064577031 0.4353275628262093 673.8237502480376 4.3850035341468936e-07
3.852475531668479 0.35637237887031936 673.8237502480378 4.0803105661384997e-07
3.8404252431526604 0.37604371164164163 673.8237502480378 4.5123756076173117e-07
3.859473490991973 0.34620307392444893 673.8237502480378 1.4203407473308178e-07
3.8616153703233653 0.3866407826619371 673.8237502480376 1.5036288359094205e-07
3.8404938450500024 0.38799421246844623 673.8237502480378 4.946700864221336e-07
3.85262853983435 0.3697573846321709 673.8237502480378 4.366263455246385e-07
3.8553004806128595 0.3053882083882836 673.8237502480376 5.200375092808769e-07
3.85679852564032 0.2908661957842269 673.8237502480378 4.835384870730455e-07
3.849991960310306 0.31740473764696486 673.8237502480378 4.6738023086739264e-07
3.8633460661823813 0.3134145470422013 673.8237502480379 5.048257209115701e-07
3.8518994743275607 0.3303907706856065 673.8237502480379 4.026643443011735e-07
3.853293670090554 0.23759664335860878 673.8237502480378 4.1880860067803106e-07
3.8445808924587164 0.24992388618232425 673.8237502480376 4.339816647686474e-07
3.865655933506284 0.25322444177789416 673.8237502480378 4.683410366529278e-07
3.8652252816102033 0.23840829276844702 673.8237502480378 4.906217607172276e-07
3.845903614750165 0.28235008045284565 673.8237502480376 4.4251106362282936e-07
3.8543624479655607 0.2564258996932051 673.8237502480378 4.2126921620594195e-07
3.85714031459789 0.2764333127046217 673.8237502480378 6.271154524061762e-07
3.8379455307214303 0.2227656652402008 673.8237502480378 3.9133094641156705e-07
3.8386801925924487 0.18824303663074649 673.8237502480378 2.228045236155355e-07
3.856853592271065 0.2185077903938518 673.8237502480378 4.760280617715681e-07
3.867096243264742 0.22493196215437788 673.8237502480378 4.5193980942237314e-07
3.8603796294542354 0.19468994096579456 673.8237502480378 4.542393322903017e-07
3.8640328625526763 0.2074221526552688 673.8237502480379 4.0998635832360767e-07
3.873410680641674 0.47898808568796536 673.8237502480378 4.4165740134897063e-07
3.8861611151510678 0.4559923657292397 673.8237502480376 0.0008635225403312834
3.880162101239305 0.4690028284868226 673.8237502480378 4.879810069800745e-07
3.8757958556730547 0.44999630576379024 673.8237502480378 4.833667935614848e-07
3.8693231848947054 0.45991332266700213 673.8237502480379 6.750181519379639e-07
3.8862874413083253 0.4865580550004161 673.8237502480378 0.006607586284559285
3.893103813385003 0.4757224348009551 673.8237502480376 0.014114750205860253
3.8734296321833233 0.41495375611462293 673.8237502480376 4.0366257187123767e-07
3.870370973588384 0.4260647013466006 673.8237502480378 3.7691070799889444e-07
3.868212496731097 0.40342762997500037 673.8237502480378 4.525141745201884e-07
3.8741537557492864 0.3890459441015465 673.8237502480378 3.8095293416737046e-07
3.8925492232070384 0.4341361054661509 673.8237502480378 0.013877143160409491
3.88994719434329 0.40639552081564756 673.8237502480378 0.012408281000773845
3.882843392215549 0.4249356742102964 673.8237502480378 4.421360604401097e-07
3.8782982827549985 0.43764647704108933 673.8237502480376 5.196199550882094e-07
3.8963878771046914 0.42033034522630436 673.8237502480376 0.03790319174308082
3.8784678091515894 0.346309332846637 673.8237502480378 2.186033131940104e-07
3.8705987145061806 0.36633460378786525 673.8237502480378 1.4134805325156742e-07
3.8901493722794207 0.3405525882385265 673.8237502480378 0.007340438528839768
3.8827817919723056 0.36599561983384576 673.8237502480378 1.4185191651434684e-07
3.8949830498211395 0.3780287885096343 673.8237502480379 0.04079235275791905
3.877024998221845 0.3098550767037812 673.8237502480378 4.3324589204627073e-07
3.87378123041633 0.29649140839228844 673.8237502480378 4.4777955938002016e-07
3.8852257220136837 0.2957994663545216 673.8237502480378 4.4791427940330706e-07
3.878934647825476 0.2855241111050722 673.8237502480378 4.601539097730569e-07
3.885551477245846 0.3239238131904449 673.8237502480378 0.005537000544445863
3.8740416785563565 0.3268515587087477 673.8237502480378 4.191802139665085e-07
3.8896924827190644 0.3127264744782081 673.8237502480378 0.01226756327933385
3.8682641002599962 0.2735175500037424 673.8237502480378 4.5223250298144627e-07
3.8912041036283607 0.23393082834953086 673.8237502480378 0.01667109510738777
3.8772670068662967 0.2466230443599317 673.8237502480378 4.791134693503782e-07
3.8952687961475827 0.27319277617273097 673.8237502480378 0.023688664596211054
3.8917873112991135 0.26135878649037414 673.8237502480378 0.019505492500182256
3.8759352533851485 0.20948905110157423 673.8237502480378 0.0101775300839709
3.8802060860246232 0.22199429780204877 673.8237502480378 0.01005542071190281
3.702131949569409 0.4345914926395079 673.8237502480376 0.087401916308373
3.6941605300817684 0.4439269853876008 673.8237502480378 0.08752274555384346
3.7036730384384366 0.4899667884320608 673.8237502480379 0.08343142599232921
3.6931799410625277 0.4986851156391811 673.8237502480379 0.08113301375576473
3.695386864080697 0.5363925958098419 673.8237502480376 0.07640161742175472
3.702957904370707 0.4644505930218161 673.8237502480379 0.07412767433765206
3.693367290155407 0.4755732900593783 673.8237502480378 0.0608127259912207
3.695400425072243 0.40725642600726997 673.8237502480378 0.10649717769612826
3.7038413027105372 0.3274378689020396 673.8237502480379 0.0900330229924898
3.6933373064014967 0.34949712415945133 673.8237502480378 0.08532257463871984
3.7024260612733206 0.34152910017208205 673.8237502480378 0.09880116365460334
3.703727932403422 0.30292873965234796 673.8237502480378 0.09112573106973304
3.704153994488789 0.28405150316647687 673.8237502480378 0.08781365409297961
3.7170270123787676 0.28486678126479553 673.8237502480379 0.03841897311809101
3.7079272000739047 0.381906679077239 673.8237502480378 0.06341705563412037
3.6988511464723435 0.39058747853604414 673.8237502480378 0.09022217394869796
3.692927325257979 0.37390986500819723 673.8237502480378 0.08917267270548083
3.7160014576428977 0.49644826230780187 673.8237502480379 0.05352169273077906
3.70603586617882 0.5022331757505646 673.8237502480378 0.08660254845793466
3.7025036063607892 0.5138580268595636 673.8237502480378 0.08562220773822111
3.703403861199982 0.5263850035171453 673.8237502480376 0.10391844742107968
3.725841585119464 0.5342078628758948 673.8237502480378 0.0635394689956374
3.7137585227800693 0.5354079024632256 673.8237502480378 0.09013398467638965
3.7182122639182413 0.5218664010567107 673.8237502480378 0.08549348937907661
3.7387418855653536 0.5092659971259867 673.8237502480378 0.011773491356376417
3.7290209799924376 0.5152960753022265 673.8237502480379 0.04776816929877599
3.729714914459303 0.49860283756107615 673.8237502480379 4.795940861809233e-07
3.744345569340585 0.520083501039837 673.8237502480378 0.05301550695384397
3.7372537714024316 0.5367501986317602 673.8237502480379 0.06618959100123376
3.7777236053179166 0.5016084665809348 673.8237502480378 5.132546255024848e-07
3.74997012546155 0.5029517974918614 673.8237502480376 0.0063658974917843855
3.7518040834047586 0.5311051604221835 673.8237502480378 0.07436370408810491
3.779677926937746 0.5228687133561708 673.8237502480378 0.054544864656336296
3.783016947864957 0.539066107695978 673.8237502480378 0.08930157172700359
3.709642501204018 0.4050293831137076 673.8237502480378 0.07587790495490947
3.716950008051009 0.4161075061732131 673.8237502480378 0.06867708527523993
3.7037427115842876 0.4231950181318357 673.8237502480378 0.07624040647165252
3.7179228211251356 0.42759126085429694 673.8237502480378 0.05244813447949012
3.7139986763498953 0.3657678423419006 673.8237502480379 0.06550070531491625
3.7128200127994386 0.35047382405658245 673.8237502480379 0.06446117988452392
3.7647273146570366 0.5264295011311404 673.8237502480378 0.04936217337444163
3.7577436876512467 0.5144682643420415 673.8237502480378 0.03213165268713824
3.7623278890070457 0.5026981902448424 673.8237502480379 0.008245735714402673
3.7699644192961794 0.5123709605344374 673.8237502480376 0.03368016946786599
3.78800605015342 0.49496182244586084 673.8237502480376 4.1449640118711443e-07
3.7947881833556343 0.5094174525400468 673.8237502480376 0.02340472790225528
3.717400885799792 0.29682316323811636 673.8237502480378 0.04247741794134744
3.7137982559636997 0.3182269076872074 673.8237502480378 0.05146149497021973
3.716151163709492 0.333326764817795 673.8237502480379 0.0313705355329648
3.7978545668078123 0.5390930318278125 673.8237502480378 0.07464800184135643
3.806240145691202 0.5271975629839941 673.8237502480378 0.07698439334932752
3.719335889791602 0.4469681791493325 673.8237502480378 0.030905015171795582
3.719059991069664 0.4712698757923399 673.8237502480379 0.04412742478234256
3.707163318546039 0.4749600254527925 673.8237502480378 0.09203641173765088
3.6994142254125015 0.24126743542101742 673.8237502480378 0.052839757673770575
3.7106175635704473 0.23864183714449835 673.8237502480378 0.04676546781898896
3.7172786651320604 0.24875357097289935 673.8237502480378 0.039711076626018034
3.7054710694934223 0.2533165510495599 673.8237502480376 0.04878104804546288
3.7064685645648963 0.2652856534046295 673.8237502480376 0.06826781402353042
3.714723383287907 0.224127855809715 673.8237502480376 0.06840890893970793
3.70377684138155 0.20848710227201478 673.8237502480378 0.06560731755552854
3.7389441053634442 0.1894310320926071 673.8237502480376 0.03310369785421338
3.725455814006269 0.21928133410255546 673.8237502480378 0.023462681984534998
3.7228474295222833 0.18554129968691274 673.8237502480378 0.07101694948959489
3.7198603074137138 0.19978421398076537 673.8237502480379 0.06980664331726681
3.7433954530948146 0.17672395395727533 673.8237502480378 0.08367220921934215
3.7876382452672432 0.16278087839791333 673.8237502480378 0.05214561613989077
3.8000252626643265 0.1673917200133488 673.8237502480376 0.01033416073223281
3.7974320759861944 0.1557479040222886 673.8237502480378 0.05263812916200765
3.792621824765072 0.17785940266677008 673.8237502480379 4.7446084010190426e-07
3.7561304402564675 0.1814626323603148 673.8237502480378 0.006206960713196637
3.7523715387635166 0.16159111288750086 673.8237502480378 0.08407055553445092
3.7691131061746903 0.1591566832788901 673.8237502480378 0.07692731938331306
3.7790944898518894 0.14831006800487634 673.8237502480378 0.05754941726798599
3.77968714552243 0.17605899359924476 673.8237502480378 0.0060826702940750465
3.7894852148084195 0.14238607380072585 673.8237502480378 0.08848685054233059
3.8074041788370274 0.13921969654292846 673.8237502480379 0.05552993420612916
3.830004410549823 0.5136263423636783 673.8237502480378 0.04115386953219442
3.8150129567322884 0.5001584963489205 673.8237502480378 1.4878066154875366e-07
3.8302377321444996 0.49963443233568344 673.8237502480376 4.0950830118382865e-07
3.835437844781197 0.5364658792801832 673.8237502480378 0.0893565897136644
3.8569158789453106 0.531410881245107 673.8237502480378 0.07083962952538078
3.8711778404121993 0.5307695288097947 673.8237502480378 0.06955611231958367
3.8692418524618892 0.5121655837467008 673.8237502480378 0.03751093104256766
3.841789578657475 0.522597483947292 673.8237502480378 0.052382111000562594
3.840862366791492 0.509049119558339 673.8237502480378 0.010449979436684468
3.8566558172334933 0.4956474436788096 673.8237502480378 6.78989230478e-07
3.8553599475571825 0.5160347126887096 673.8237502480378 0.030562431767509904
3.8929580948245226 0.5319769514566254 673.8237502480376 0.07974499960226408
3.894698128195263 0.5160526751339563 673.8237502480378 0.0790876823577051
3.89281929184711 0.5029702883758899 673.8237502480378 0.024826843347110775
3.8786603759415605 0.5043150042367529 673.8237502480378 0.0060067439079580535
3.8702343589759036 0.4957267239881794 673.8237502480378 7.039223723982171e-07
3.880188219967443 0.5201950337253183 673.8237502480378 0.07267026167720561
3.9018689597732665 0.4853438128263089 673.8237502480378 0.05380594863289327
3.897857795478979 0.46147740907363966 673.8237502480379 0.04183187767691084
3.908179709343732 0.4716707172128455 673.8237502480376 0.06861005382242585
3.9026460303301587 0.35906023173933166 673.8237502480378 0.048967765863533054
3.9047859222553263 0.535062907744251 673.8237502480378 0.09205998197304831
3.913311348953692 0.4990190377824443 673.8237502480378 0.07468820326383888
3.922876461141151 0.5163411109782109 673.8237502480378 0.0830212670890498
3.915588492574949 0.4516918388602926 673.8237502480378 0.08227250770139795
3.9089569102632353 0.4354923973065497 673.8237502480378 0.0646300989730184
3.917037235040721 0.4268598213132011 673.8237502480378 0.08463115156424536
3.91792042837493 0.4132559790937687 673.8237502480378 0.0816943573427819
3.9054535766289415 0.39670391300760915 673.8237502480379 0.06883550479242247
3.916535023359496 0.4006639108212047 673.8237502480378 0.07639018943080456
3.9121006287308333 0.38454439901277243 673.8237502480378 0.07811440573558755
3.915332615015353 0.3722053766599501 673.8237502480378 0.09812486695764232
3.9029189690141535 0.2832677944156893 673.8237502480379 0.067240254062518
3.9152145024517675 0.28956322784328353 673.8237502480378 0.09403628547751083
3.9216956660674223 0.27310107150694624 673.8237502480378 0.07311310303738469
3.90896614760579 0.313311406076637 673.8237502480378 0.054697845857811636
3.905492477101365 0.29881364691622603 673.8237502480378 0.0838268816175464
3.921593080670962 0.30858461445514584 673.8237502480376 0.0715290788395369
3.922527474091357 0.3554499579083043 673.8237502480379 0.06180707185509885
3.912868863383504 0.3450493531554815 673.8237502480378 0.04943563391595696
3.9016350072099875 0.34064407614750714 673.8237502480378 0.050346175620502746
3.912578233337214 0.5249192992287024 673.8237502480378 0.13547488994635112
3.8436706058300194 0.17751637712173363 673.8237502480378 2.374610425320793e-07
3.8572764529939505 0.17799409026746915 673.8237502480378 0.02674869828281327
3.8537114130812715 0.1561154102315176 673.8237502480378 0.07425161701039859
3.8649239984090955 0.146985675942394 673.8237502480378 0.07067853727452074
3.866339208894479 0.16874644029351774 673.8237502480378 0.06976056622487516
3.8803396741072884 0.16665344029386145 673.8237502480379 0.09668536116053464
3.8159279851505117 0.1481590476481406 673.8237502480378 0.04634886125148349
3.812279404188236 0.16372339987227524 673.8237502480378 0.02225213744163164
3.844903758588961 0.14796312207695622 673.8237502480378 0.08212522276014039
3.842584390979333 0.1614690106080013 673.8237502480378 0.055283354930599736
3.8304584906291064 0.16450160429081112 673.8237502480378 0.03297557315170038
3.814737904901156 0.17740267409545024 673.8237502480378 4.5653564692922994e-07
3.829240051599081 0.17665712797967 673.8237502480379 4.2366467015914084e-07
3.9177005373319775 0.22235647060414507 673.8237502480378 0.08855732204823542
3.921969732155608 0.2582836508079311 673.8237502480378 0.07801816884616099
3.9082305788536678 0.24108730175723048 673.8237502480379 0.09822419474443955
3.9064655267088817 0.2631419458206529 673.8237502480378 0.07558129806076702
3.900051427723561 0.2516212045800963 673.8237502480378 0.03252411099262214
3.9014037745380175 0.2238860748911379 673.8237502480378 0.06663994360099838
3.9005963989807633 0.20956981266620753 673.8237502480378 0.07704860204275463
3.8765068656398687 0.18483799465183737 673.8237502480378 0.040999176498481386
3.889665078924428 0.21226308543383648 673.8237502480378 0.06774756444191682
3.8869498992317175 0.19332910689193678 673.8237502480378 0.06503542254531487
3.895619176513924 0.1808541417059472 673.8237502480379 0.06396805401410315
3.810201596353963 0.5389460508318836 673.8237502480378 0.0893325219160937
3.8125995200424017 0.5164034291608148 673.8237502480378 0.023258587593819213
3.92263146764119 0.5347558647874142 673.8671571022155 0.07801047029021921
3.920914291123528 0.5292314801560309 673.9288002555365 0.09358590737834346
3.918591133246673 0.5194739965549151 674.0122660155799 0.08463817974550465
3.918919940916176 0.5355128944663562 674.0000091318427 0.09844127850478414
3.9195564199197843 0.5388472857450182 673.9771218872721 0.0806396416909854
3.9185260783544607 0.5395090534471956 674.0139887224816 0.08122148498397064
