x y z curv
0.3163608386533282 0.17924869688030856 629.7207452144041 1.315358940702489e-05
0.3170625248133908 0.2166546967599282 629.7296677388196 5.734662388072901e-06
0.31728622006850393 0.19233055336502294 629.7278503021405 1.1947546483693907e-05
0.319011704000891 0.19837767020153735 629.7389073421946 5.427569215453056e-06
0.3187011447657802 0.18339628973463534 629.7350526248199 1.8415365011227145e-05
0.3188925732171174 0.21356545417290856 629.74019769403 3.0494824605178117e-06
0.31989247702460344 0.16676541068149187 629.7400383560813 0.00028766372883884774
0.314392987636186 0.2556928208706558 629.7186007424142 9.18411900995613e-06
0.3162967759981258 0.23104714296457746 629.7270168859636 9.248385997322947e-06
0.31404980514083636 0.2270757276927344 629.7129003501386 5.7923147694662934e-06
0.3163728210277888 0.2436897288333603 629.7290773791749 5.0917495360043665e-06
0.3148396572499571 0.21235794690688875 629.7158235893705 4.434199686180546e-06
0.33686799853629495 0.13676602711175875 629.8470794769609 0.00040878389735271163
0.3340433754296219 0.17988639194938044 629.8357874094568 4.993355643445572e-06
0.33560393758520013 0.16940491957849962 629.8448442452257 7.331414019518435e-06
0.3349161060834948 0.15306794611954913 629.8364257753501 4.365835484783347e-05
0.31230226976703823 0.1771971308955039 629.6973181274734 0.00015189356920527035
0.3106790523697238 0.20080041115942376 629.6908819930459 9.186596309285675e-06
0.30339986353671394 0.2094065175476876 629.6530492874602 0.04804211616411111
0.3042816704056491 0.22111859035760079 629.6583656858443 0.027560758121046126
0.3010393385812684 0.21306634205981212 629.6417538163616 0.054189520461121535
0.30279909171368374 0.19783832687630865 629.6492855319303 0.04674092218532595
0.30170391433661553 0.22619022298019426 629.6457520368062 0.06216738484309105
0.30716244791078134 0.20021050759060954 629.6716860795226 0.0012142067056537273
0.30615852168484614 0.2570738426344746 629.6714654738549 9.251180220998774e-06
0.30920235215740344 0.26925524297465553 629.6896362935271 7.154854008683538e-06
0.309383375416973 0.191244526451683 629.6827888596077 4.9323634872887865e-05
0.3098430401167412 0.23335163421459576 629.6896590502299 7.912634761093307e-06
0.30721510206426533 0.2302530224785922 629.6748397909674 1.2840745474577651e-05
0.30703478370280046 0.21418769277162789 629.6721913145798 7.9015465468062e-06
0.30842752299086057 0.2532234113741535 629.6838938655931 7.638240795098144e-06
0.30966551223095334 0.21703784811202453 629.6870003986674 8.025408020228453e-06
0.30277545714061216 0.24737131372418078 629.652654995741 0.05307128402658743
0.3050195735127448 0.2430297065007888 629.6638872473964 0.013582971814375363
0.30357871366262196 0.2595235372476168 629.6577517928187 0.030123120083412648
0.3039098967335396 0.27330893467043205 629.6605201928701 0.023900495231086154
0.3021490858061173 0.2843290607132615 629.6519497368281 0.050338654291106434
0.3015082896765539 0.27204405499692735 629.6477100671572 0.05225461759861436
0.2990812625305548 0.26506594403458306 629.6350853537701 0.050264730785102685
0.30026678265138845 0.251811540110546 629.6402562534022 0.045756057437692586
0.3012504691711326 0.23886468467792432 629.6442975478034 0.0668671222190323
0.3113740777209573 0.2552601985591489 629.700361994788 9.82296772007652e-06
0.314354517368208 0.1749109661987577 629.7086147754409 0.00017920489457020638
0.31201296183626714 0.22230895490305103 629.7004490063282 6.541196330680013e-06
0.313656530689456 0.188803026950243 629.7061553583737 8.237146042683452e-06
0.32044451152190434 0.5050623088871815 629.8028213631851 1.989310520400655e-06
0.3216916659256811 0.47598179262026286 629.8066366976075 1.4185241883555708e-06
0.32377745520139695 0.4879977521902667 629.8253421418029 6.019487877981488e-06
0.3204647114209125 0.47021616885915074 629.7958980316994 2.8917593749372643e-07
0.3187166613569225 0.4616155697213678 629.7805200918073 4.28835415507879e-06
0.32429507928762086 0.4767415559302746 629.8270909796064 6.443187587428342e-06
0.3225073279060238 0.49806821295042125 629.8174847788162 5.632406610362424e-06
0.3199975006860204 0.5335525796265782 629.8051251410344 0.0455748079319208
0.32377452440927174 0.46446126256685594 629.8205366050457 5.21105155932395e-06
0.318025163980543 0.4948513971036889 629.7818818176171 2.0857347345476705e-06
0.3215999341451047 0.4582520992837785 629.8023187007841 3.180110724783703e-07
0.3196944115930289 0.49621214227787225 629.795174142356 2.6836752994057926e-07
0.3188299022556979 0.482408951925343 629.7856283547831 1.833196680325406e-07
0.3190076154482004 0.5120715205337552 629.7930415798774 7.251569864133147e-07
0.30767728747937206 0.4920726617874635 629.7061951790029 4.3180451620992936e-06
0.31020392566823213 0.4794447284623097 629.7216800554689 2.7991286778700284e-06
0.30834901605951875 0.47551198622647234 629.7085734736199 4.287757247212566e-06
0.3089312081928062 0.5109884586103187 629.7171958318122 1.913972209197583e-06
0.3075473237385774 0.5042532217719728 629.7069169633701 2.53104650375977e-06
0.30688162279223 0.5210294613214804 629.7046079599108 3.3157951898526686e-06
0.3101106709247899 0.46446198694299357 629.7190743862261 3.264059596167014e-06
0.30852032508089 0.5404342455190659 629.7189290798749 0.06953364309830161
0.311360009731235 0.4916001307483372 629.7315371564375 2.356382795526937e-06
0.30733880586502765 0.5495723192551583 629.7118809731978 0.0711230858844818
0.30915168993151076 0.5527582751728684 629.725469003986 0.06664267142968151
0.31026591580973983 0.5434553502979707 629.7320052199026 0.06167136235190027
0.30960123827123254 0.5283761951395018 629.7247809413103 0.021673903382478914
0.30289390102473024 0.5132157292685232 629.6770474027448 4.499603480258406e-06
0.30473445070595745 0.5324486288813197 629.6917490562023 0.023487560465891136
0.3049814189169589 0.5008233590411328 629.689309211119 1.3936923128551892e-06
0.3029180197863137 0.5314826159051057 629.6795639545862 0.02552169481180584
0.30569403925273475 0.5124093181434279 629.695535347053 2.152236475666469e-06
0.3047452687052671 0.5455812125285073 629.693514975161 0.06388086995098223
0.31435758943760694 0.46287128142166256 629.7484429429587 3.8570837021246784e-06
0.31203310188367894 0.503332864059613 629.7382618095377 3.946262592881823e-06
0.31134106915512333 0.5158341702183877 629.7353037333792 3.7680846613501674e-06
0.3131743863270123 0.4858783583147932 629.7436471456388 6.296937776513362e-06
0.3164614605413725 0.4682980050313692 629.7643983471887 6.065478916351994e-06
0.31584207592206237 0.4791814433479481 629.7617018288488 5.05890251515752e-06
0.3130265323409614 0.5119400963011588 629.7467648324152 3.389456528197274e-06
0.31243042905000573 0.4757789559156369 629.7366937263174 3.97520947785036e-06
0.3118712565251837 0.5595548470050886 629.7467558714654 0.047556608229407875
0.31435359458806816 0.5038031187123808 629.755048363572 4.566107787739463e-06
0.3146219617746614 0.5331973271082951 629.7626470420697 0.02006682800598411
0.31424440554466393 0.521107253931528 629.7574937437723 3.5262030397648978e-06
0.31454368023470924 0.544582548665496 629.7642070881851 0.06439480757171172
0.31366474055309934 0.5560857273404443 629.7597123219374 0.06266886313308836
0.3124868557184315 0.5390708315958995 629.7475525599705 0.0534482610490693
0.324052293726903 0.5123435695911475 629.8337045949244 3.631291557753043e-06
0.32280561243360684 0.5485049923083918 629.8321446581801 0.08349361072242754
0.3245722024240739 0.4989714393901259 629.8347807594206 5.3874863315436725e-06
0.3237863922741464 0.525851789440028 629.834815696075 0.016530315630686424
0.3216212935092613 0.5242785687689331 629.8160690052997 0.00034819438965604595
0.32124569040157835 0.5400562235143473 629.8168154873625 0.07376361669626372
0.3228355603403918 0.5365261706583229 629.8294142649327 0.06922002583293299
0.3164910217715655 0.5355912808293539 629.7777636232228 0.04083314065761462
0.31628640589546825 0.5504376893825805 629.7790841559892 0.0795343190571642
0.31755065926037773 0.5179258325278431 629.7827291992314 9.389849833574068e-07
0.3156886541443906 0.5221497098446404 629.7686579968951 3.184356851652857e-06
0.31708202816143893 0.48666862786410714 629.7727453350486 4.487235623041361e-06
0.3183065040374247 0.5313532733865118 629.7914593987371 0.023137672833454005
0.3173282292091639 0.5573967962702555 629.7888154761226 0.08523534362931252
0.3165420575644095 0.5033003994778826 629.7717358258072 3.856411619664821e-06
0.30162485017131313 0.5468521641821597 629.6723378923292 0.09944093495516867
0.3048428499794459 0.5566375293679995 629.6954731153706 0.060761324604762766
0.30370090474267797 0.47179723665663287 629.6777445731473 3.962687219510366e-06
0.30353852558059063 0.4940539092663793 629.6789153978295 3.7874361774588998e-06
0.30487139188105 0.48033494210277394 629.6860872914178 4.790093273454096e-06
0.3058431837388819 0.4701883390470734 629.6913020003142 3.225033910750491e-06
0.3261519537945464 0.5300094081199596 629.8571254422795 0.010346575998696574
0.3260886336176578 0.5461178850945297 629.8608153179864 0.0667990157988282
0.32468844635301364 0.5340779013374455 629.8450235259152 0.04218624047231784
0.3244747896441777 0.5476266189370429 629.8466827747222 0.06721336739797157
0.3253001590635105 0.5162150862955577 629.8458075928668 1.1096927473775444e-06
0.29956905197119693 0.32920648306796196 629.6414559486196 0.06372589627658945
0.29957664872624756 0.3134406355027884 629.6404169822321 0.06246777306716999
0.29819002140356565 0.34452792213582656 629.6350952310071 0.057865284761479875
0.2994813835131206 0.36682517298820805 629.6435214130402 0.061791771749483505
0.2997291898966945 0.28427229457214165 629.6394642342947 0.05686757434651498
0.2971999017472994 0.4338178857013331 629.6350919576213 0.059195304785492224
0.29966728961750894 0.39014253147496547 629.6460125391641 0.057612903617111126
0.29826963835259035 0.4528961183054334 629.6426934898036 0.05897214865576445
0.3006044876459889 0.5142185279493228 629.6621729937389 0.01762759899181139
0.29971537066958803 0.4814536847971227 629.6537107225644 0.06212434888043953
0.3009709681605085 0.48919106635226706 629.6621374690911 0.029935101891832103
0.29777222538705916 0.4803620846911935 629.6416964947452 0.06638155483242894
0.29828554292312565 0.4966212714190239 629.6460589033577 0.06992890595199999
0.29628262417872087 0.5107649990057883 629.6348097393403 0.046209720421347016
0.2993817950195117 0.5450729216118141 629.657212084616 0.08175844257244473
0.29877326075411637 0.5565932964294844 629.6544093839267 0.08003364025353742
0.2970820645807426 0.5534875331056738 629.6430011798423 0.0852162096142227
0.299212580233422 0.5270652986187808 629.6543392510889 0.06347269429455558
0.29738165910041947 0.5388228099666458 629.6436224650139 0.07833804274763644
0.26292206296128495 0.10773539711307953 629.6617807682992 0.00690809265170427
0.2689952377245237 0.09735191846852498 629.6865935141653 0.00598288363529109
0.27466398352462806 0.08069859755420056 629.7315184416502 0.006230784588124163
0.2738855080735064 0.07663539927116617 629.7422784464845 0.006057804618453126
0.2725316561858059 0.05624255283327913 629.8014596931531 0.007037276793629367
0.2791495214583606 0.06102616431025672 629.7920004587661 0.005317252401057929
0.276698411964621 0.04447560321299366 629.8429776308238 0.00397656253572871
0.2798742832452634 0.04963344515355116 629.8285292607845 0.008726404305632741
0.27740253416074423 0.028134429628755182 629.9020422768032 0.0023983756205503783
0.2789619786169796 0.0229418519588424 629.9243966959436 0.0038023372493884502
0.2892084768452422 0.021961206274464944 629.9379491254778 0.004131149904740488
0.28176303886933163 0.011705670147503365 629.9768994870083 0.0033470953074038307
0.2810496163786451 0.00765773705080783 629.99599121779 0.003568693034908782
0.28390227511457405 0.014452556058285897 629.9657072001908 0.0033789391126620425
0.28875507864823236 0.0178995634592072 629.9542882597435 0.002790848350919677
0.2901677772924339 0.007539776890982414 630.0070926490755 0.0023711270585151005
0.2735069537639707 0.10809784994610006 629.667994700964 0.01011466417576638
0.2796882073263902 0.10579647272449774 629.6780751552388 0.011468171400849882
0.2803296214547301 0.08788610413813747 629.7187941888219 0.009331575743233919
0.28007575059760437 0.07512103482749795 629.7522465742708 0.010972412832681671
0.28054171290287233 0.06742246012469813 629.7740328807081 0.01142668706035026
0.286161912539842 0.05785981089446433 629.8092969107905 0.009913369259948185
0.2877772081206217 0.048751833451078794 629.839862151096 0.006923856252854617
0.2864899091328091 0.04485767761084705 629.8505724300118 0.0075871481516190924
0.2875136502105641 0.054839600498177966 629.8203060770785 0.007224231790774214
0.2968802647402555 0.0345551252226752 629.9004283022294 0.00676631777047507
0.28678370583335255 0.03814454726310458 629.8736483190421 0.006015392707514592
0.28832300910105924 0.03343987450426416 629.8924530769261 0.006668648876774472
0.2908079445419284 0.028379106026782668 629.914541721777 0.0046171934117159455
0.2991797430467436 0.02645723969567331 629.9348157828101 0.00463655914252729
0.29516616843324633 0.012235753045319205 629.9901572378059 0.0064826274256509185
0.29964187823062105 0.019813808807620882 629.9628307770756 0.005161574011057397
0.29938185622965374 0.01720634252767942 629.9742565315671 0.0047894943949925144
0.29944759515318586 0.008582034687735381 630.0178848435885 0.016628759203093316
0.30019393865344546 0.011304412890981112 630.0033787314119 0.005152978832559602
0.28570355909817957 0.11562362913004647 629.6677957671033 0.015591512685817599
0.2891893353202376 0.1037301406290651 629.6953705160934 0.014426671418785229
0.28830005975791506 0.0947113456823448 629.7136364094725 0.007601696901138766
0.28878819509276626 0.0762839093100718 629.7599568144065 0.005881002075510062
0.28722561729499924 0.08652784824174321 629.7313334621019 0.008576815389632536
0.28970929093001324 0.08156501442993029 629.7480831621485 0.011271127926878701
0.29264644304944676 0.06712200346386238 629.7914855948034 0.006972448325022295
0.29402427400189246 0.07181288789707639 629.7809425224624 0.009511719753459292
0.3007511966518716 0.05481550697837667 629.8414296015878 0.005166964129579145
0.29967118842116164 0.05947004754863318 629.825718654029 0.008446819237921167
0.3024875404753718 0.040892588471172844 629.8889596911495 0.007186391950771553
0.3051931996205408 0.0460186253609406 629.8773486008561 0.006834254783118102
0.29682952033968746 0.045538246420118916 629.8624863068906 0.00887441386582563
0.30199810814905376 0.031236077720692892 629.9217849651804 0.006041929876403749
0.3054757759031737 0.025554057543133193 629.9502985560024 0.008472263546010782
0.3096309976385023 0.03283275210439465 629.9318690859557 0.005394716553487436
0.3105678523837377 0.017761595052794087 629.9954067630428 0.0056526472613816735
0.3100786418002744 0.02182507530255822 629.976591925663 0.005137120649208144
0.30994085082208667 0.011864183561113371 630.0248055196414 0.021143520132786493
0.31475029873033966 0.01687454363068483 630.0108701496565 0.004553852025612868
0.29315590344611947 0.1268972636508745 629.6612404557035 0.018158954547505858
0.2908152095633322 0.11211356215609707 629.681985064795 0.014828304952570566
0.2969457419657605 0.10410473183463154 629.7092591924685 0.015064220905614115
0.3025272705801587 0.08794206586935288 629.7571841552692 0.009683068351626446
0.2979204032597042 0.0983608635694242 629.7232336252034 0.009443861606093713
0.2989165256177722 0.09422946080021852 629.7348404498902 0.01071778431317369
0.3054151628362951 0.06984231614722843 629.8088705378035 0.008808677686642669
0.29879095361004193 0.07870861268742002 629.7710580728966 0.009371785226272964
0.30645406295267374 0.07588352823524734 629.7957104085317 0.01126069937400158
0.30579424267334565 0.054562195298725205 629.8519002817629 0.009289981119589326
0.309545646857783 0.0690569252600444 629.8205443820492 0.010589007638402667
0.3157702119986422 0.046886506483126346 629.899667575268 0.005339775030618643
0.3134007625295306 0.05330243772993939 629.8741802163659 0.005802640277037505
0.3132147980205349 0.057327723411106056 629.8615028362341 0.005621717819384367
0.3127425946254988 0.03167008059361705 629.94342994035 0.005337654844959055
0.3147251057548648 0.04127735632834226 629.9153391072094 0.0036950487879352425
0.31826065702777484 0.03287989083675898 629.9537951289802 0.006122785252143351
0.30211823626329326 0.12119385713462133 629.6904563564551 0.00877083610811611
0.30424768439433003 0.10793658543096715 629.7191149845503 0.009286731554059357
0.30868077290176055 0.09992014203804292 629.7472840059454 0.008602793112103999
0.31078270502389344 0.0928218770107854 629.7677031411963 0.01190039029043135
0.30966511483307324 0.08586920902414279 629.7800803001685 0.00970024037017682
0.31410066174092366 0.06946761702876751 629.8316907553942 0.011817778041024149
0.31550925382739015 0.06627783291233347 629.843925349785 0.009831223715752981
0.319134360438108 0.05397618095993413 629.888167509778 0.009598294070842128
0.3251300930214773 0.05436617984661478 629.9052598076986 0.005413645156938252
0.32174297021426856 0.06361936397739827 629.8692735750999 0.005390130550893406
0.32340383995341887 0.043411360981151115 629.9336531593681 0.0053104747434148634
0.3242334488128603 0.030352448345721768 629.982137527798 0.004183776254672338
0.3260138655198238 0.02850851356581578 629.9954871485695 0.005724687856107977
0.3281646397469929 0.037580729932374615 629.9695438684762 0.0053739431798375936
0.33199242793042016 0.03066324641929801 630.0104319561041 0.007077213521367903
0.30717584614860877 0.1183519003802534 629.7096708993682 0.008192179784088583
0.3097378755579663 0.11042087288899491 629.7309218249364 0.013522973045146172
0.31629697004165036 0.08582588093193594 629.7994232738695 0.007220487813921889
0.3197893970580957 0.09578645778154635 629.7914522989502 0.012089329822441154
0.32370768569216346 0.07297112331799024 629.8530055836808 0.008474954447842731
0.32257821682286525 0.07728966016215133 629.8393025029635 0.007813117545581661
0.31793951668715925 0.08135714679847732 629.8141253375835 0.010426310346490464
0.32806004918782095 0.06448912422466857 629.8891934901746 0.00599798710452339
0.33326752503529317 0.05193852591207422 629.9428513992077 0.0066106599512487955
0.33078362810984674 0.05433465360927082 629.9263150252451 0.007083663274297258
0.33543129293277674 0.04314542590873695 629.9790912354279 0.005747774267005328
0.33553127145894573 0.03916283134550101 629.9929300564409 0.007317672850861579
0.33529088894333225 0.05044829546959403 629.955124716391 0.007173981222356595
0.3378982619298249 0.033977411237466795 630.0244461352556 0.03659870916160551
0.3403832498515944 0.042145859080028346 630.0040414129794 0.00519838746396427
0.30208424329713307 0.1456108822788259 629.6585618198058 0.020595852130412703
0.3052523559540729 0.13907598099703228 629.6760756260874 0.009353822433502494
0.30660489895267506 0.1323131314152004 629.6880355991466 0.011589265305850222
0.31220524872035044 0.12750509695126802 629.7149016440501 0.009248287651709906
0.30930105085161425 0.1282778881956296 629.7026217475263 0.009098839428179864
0.31590329533359596 0.10819163199693341 629.7555207385516 0.009021546588882134
0.31527625216151645 0.12414050211770235 629.7314044721215 0.00743519133517929
0.3257650654648188 0.10159296794185844 629.8056474595792 0.006946238631340561
0.32031740633091815 0.1031342682560395 629.7808586832559 0.008788177257272482
0.31752895503972267 0.10425423270567653 629.7676787877706 0.006280495512893545
0.32987382830171175 0.08470476252430599 629.8519472113821 0.006106796797142975
0.32466479444769475 0.08914071087484594 629.8220222653827 0.007800509642441577
0.3301684303376839 0.07385415877676857 629.8747943569604 0.006998791740338958
0.33414420246752263 0.07591789319934938 629.8875401200781 0.00612393426078885
0.3401735935027155 0.06390744129983372 629.9414048048754 0.006948110462971725
0.3345097541514224 0.06630490475977101 629.910018927304 0.004994003452313042
0.33933156771334994 0.05192645206080492 629.9687605644867 0.004888034445754797
0.3417349155605794 0.061718519772579895 629.953952324246 0.007262129758109935
0.3430304193218292 0.054657543514596466 629.9793940887573 0.0037107050206090972
0.34427842588673585 0.044866579366843254 630.0160505706904 0.005574117884751566
0.3058130417757543 0.16129108690478564 629.6648358514009 0.010691220683181905
0.3092205688328985 0.14375839654797642 629.6876353933233 0.00769676829844301
0.3086780718207343 0.15389371237495855 629.6806287161655 0.004096114161757268
0.31407971338465857 0.13985711662293793 629.7130337230905 0.006374419077626566
0.3216935426928037 0.12044582314710206 629.76482841935 0.006387112146435964
0.31864393076969355 0.127464403662478 629.7438086153627 0.006438171828940547
0.3258770555478839 0.11044605123189874 629.7952336186798 0.006462509536892199
0.3249562076907296 0.11994031520035993 629.781234453791 0.0055942352424010085
0.33102203095785343 0.09793243869406468 629.8355362535754 0.007694570146984924
0.32974754129109235 0.10431165895566266 629.8213009616794 0.006827291290122201
0.3391491928765308 0.08490838483011715 629.8952232188419 0.004817322203439754
0.3352944654308553 0.09325909696349863 629.8631096150291 0.005512272405556907
0.34498705182093375 0.07304325166059136 629.9468812148149 0.00512242381588871
0.3408576433464724 0.07026388788764595 629.9305419449552 0.005527347127324658
0.34048768608825913 0.07768682349204262 629.9145046278935 0.003291194445371047
0.34549733976504204 0.06581988301218064 629.9646224556525 0.0050433139760543665
0.35056717693559414 0.05411927485786356 630.0239360079166 0.024012289598785232
0.34892406920280483 0.05652338232916519 630.0063091448172 0.004844430796415221
0.3045737289625852 0.1700806561610969 629.6575520869452 0.025767480974561736
0.3182386024034635 0.13875633244901434 629.7344437856847 0.0038686525064505193
0.3218218975410402 0.13718339754015224 629.7536323686344 0.002551857789920999
0.3290542129344037 0.11551358154555252 629.806056933515 0.0038890459085142203
0.33565281560221594 0.10230587568755406 629.8536272198793 0.004210413472489963
0.3358715678516085 0.1123150500109106 629.8450896704824 0.004113952593650086
0.33349043159616765 0.11051811956842991 629.8338609268932 0.004404709811482796
0.339555971228847 0.10181437002232682 629.8756678935481 0.004528665566425903
0.34875027019813076 0.08267312804487714 629.9529551564201 0.004134427808559861
0.3457667162560172 0.08416075201869457 629.933098701631 0.004231227149376915
0.34371169984957933 0.08955645490664851 629.9136236855837 0.0046940313433936395
0.35016700760904196 0.07349664818480914 629.976813563457 0.004796908388296399
0.3534256759308379 0.07244376554285842 629.9997082370655 0.0049485029032606325
0.35313673418228775 0.0635368224072466 630.0151619791626 0.005156815479444925
0.25892118560513666 0.09975818392562572 629.6762572956803 0.005791160323333757
0.2568861015954342 0.07940962869294638 629.7257052465172 0.003187862952129805
0.2596064042935371 0.0842756378307852 629.7134759854303 0.004097726066620097
0.2592706471289774 0.0652577504119356 629.7678643364509 0.0030410008570719294
0.2610188986722788 0.05138856351172798 629.81264073534 0.0012468736491820463
0.2714025283754371 0.039664637613316706 629.8560416546829 0.004871717809366189
0.2621600409160849 0.048140648310679775 629.8238016913788 0.002837618123157479
0.25941239421918977 0.11845832120500159 629.6409084713504 0.03422024947276704
0.27061571107450944 0.12058160342433524 629.6435499132448 0.027632313205476267
0.2780278460644007 0.11841726031574742 629.6531460132959 0.018423985985821633
0.2673103114861688 0.030075194963574543 629.8904667406263 0.002530483711855517
0.2650687907939764 0.0704374777968805 629.7542555819834 0.004019390497559969
0.2557466574470719 0.0950215907734416 629.6860644540307 0.006220161521059911
0.2627267133200341 0.09161041280385608 629.6958275916609 0.005400468981017014
0.2685313965805165 0.06001393260315842 629.7874391361801 0.0032300881285130686
0.27421569752202685 0.036555493681418194 629.8685144667859 0.004617672953879439
0.25416058471022873 0.11228767160899004 629.6505096276144 0.017934753422780135
0.2703273736123506 0.024951017130287703 629.9119228636383 0.0023437318802073184
0.2749127029802946 0.016878899751024447 629.947907032446 0.0022365393459096356
0.26920015898012983 0.008679763220228537 629.9854400183011 0.0014919806536654691
0.2704638211160733 0.011240673484457172 629.9730237740075 0.001489058374366121
0.2683285044747294 0.014068541269663283 629.9583966583957 0.0026468543235698967
0.27128221531710695 0.004344969685036728 630.0114516272528 0.000962356312061791
0.27520186395393176 0.001492368368972229 630.0353959807635 0.05513381665416379
0.2794222775630015 0.0003921187071353775 630.0486913669803 0.07017205727110044
0.2914848783790204 0.0032837952594919994 630.0396926992872 0.04807962196593833
0.28546966046576905 0.003414610063198209 630.0280620414784 0.03867947320397383
0.31330951164140497 0.011963994417803882 630.036659012084 0.07405442061654788
0.30405531210648756 0.006611291897748284 630.0444542788243 0.08085093230330427
0.32376533773637034 0.017836936041637066 630.0414484052403 0.0773405233992559
0.3241099237645175 0.019891124467060668 630.0296807868044 0.03451495016962915
0.2871289090990645 0.1313921181947999 629.6448169285226 0.038048445984486375
0.2958948000352639 0.13569042486752278 629.6544975867486 0.02017917967918404
0.2950047735440006 0.14798616117107297 629.6368990041155 0.032632865848383805
0.30083025958431686 0.15302960833737286 629.648463594486 0.04151247718955283
0.30085824976936915 0.17781786384565026 629.6393343453059 0.040274387638570025
0.31121575022031445 0.16642408543318127 629.6907942092694 0.0007093714021677499
0.32042991845700175 0.14645508387305128 629.7431690150181 0.002241188428219603
0.3296013972902822 0.1335382781905438 629.7974522205911 0.0022430012523428295
0.31565024489403626 0.15450822566188352 629.7154836383261 0.0013672312947115124
0.3045245527015168 0.18323106725898158 629.6567270057803 0.031956384477585656
0.30723950438123604 0.17734814878204663 629.6700822465755 0.0005162163996195376
0.3316089933089075 0.12737959851673175 629.8115378703253 0.002028831799296356
0.3258242234322453 0.13902466512358036 629.7741467038628 0.0019948524868385947
0.3420587997217858 0.10435987824547166 629.8880322839439 0.0022045077372355513
0.3331282886397427 0.12033348942531026 629.8240389437269 0.0022440024144079153
0.3354141856903718 0.12203767922275344 629.8363029370698 0.0022310066594603334
0.34711309285657804 0.09680237523444472 629.9265502381027 0.002648604543600398
0.33845171306253163 0.11286730605043632 629.8596628789369 0.002246483861167334
0.34933959874337966 0.0998693558567714 629.9387957948438 0.0033231357546404635
0.3444865131439392 0.1072279134137453 629.9010101935589 0.0026801173979295544
0.35147016492150895 0.09514625871578358 629.9576066348493 0.003591853955451982
0.33309771836408225 0.02606367489802028 630.0390613362981 0.05955576129760639
0.3413918117610186 0.03569795203853174 630.0370060099269 0.04140501819467106
0.3496014934182623 0.047396652581486065 630.0403422455456 0.043754879287676046
0.3533369342216488 0.05714570994048268 630.0344929514307 0.02396931805132646
0.35616026700072057 0.08832810399412241 629.9990231798821 0.002685711488013248
0.35735646939220694 0.08534171587519668 630.0122255730697 0.002720508189808795
0.3584267459103462 0.08307785777794056 630.0237044829423 0.02455651935855906
0.3590276112390342 0.07317150752603928 630.0415429335397 0.1008605987180536
0.35181657381817233 0.08396721789956217 629.9712303282195 0.003875837008168547
0.3538238758072343 0.0844117656744052 629.9855562266491 0.004571179639423341
0.006095674126016765 0.06866821594429533 630.0195893634684 0.010364489016427243
0.007226515769749178 0.07172133156554368 630.0055604740933 0.00549832619773344
0.008463380363125602 0.07889805187472293 629.9859121662747 0.005803857070609279
0.009002497265991206 0.08352898165535907 629.9757616986537 0.0030460238727852023
0.013198391362980549 0.08194978211905707 629.9500573412266 0.00478244792584354
0.014787869297203732 0.08445911216259702 629.9370651660977 0.004966941756445075
0.021105298506357045 0.10189169514527507 629.8793322614032 0.0035069588299048602
0.01837556245071114 0.1008806426653283 629.8962247805935 0.0029782850915666507
0.026437362211527277 0.11051053204473579 629.8412270016169 0.005070238000558707
0.029595872626513604 0.12276282902091384 629.8141141607896 0.003492350100043408
0.042852357135904906 0.1403194342607051 629.7339103510728 0.0023349942139080774
0.05341358825416269 0.16272393535642551 629.6733442202404 0.0010008219430157202
0.009932639870696404 0.0687910464275256 629.9932173153281 0.004652408791040262
0.014102640037630468 0.07134560343543568 629.962734524271 0.0038432604587998005
0.017218734387522527 0.08645034078936724 629.9199160628893 0.004011977920996895
0.024654371214980507 0.09725092304782532 629.8646251187067 0.0032297642383359183
0.029184318124066057 0.10822660299675994 629.8285570660904 0.005045931795961574
0.03499840027939059 0.11729723967747113 629.7896993864634 0.0033422695735720017
0.03324331819830882 0.1133485458084956 629.8024376964661 0.004169495663690803
0.03856846082745875 0.1270414562828661 629.763658613785 0.003323857755680015
0.040300257255540546 0.13140008059786976 629.75186202137 0.0020917734090282023
0.04745009290481916 0.1451215897358818 629.7081290901933 0.002530019396880231
0.05072872658500544 0.15366768193322222 629.688709104913 0.004413337983691997
0.05610375459413537 0.16288920557771955 629.659713791613 0.019435495187867774
0.013159607733459788 0.04946319056200564 630.0225991528116 0.023434240384313087
0.01362921019427857 0.05515590868093967 630.0027343698044 0.006619968499206201
0.013489405140422187 0.06491555204102743 629.9796913758433 0.004340615203398839
0.02012869582506296 0.06449744269833714 629.9446308210792 0.0041528983170821465
0.020821018157498778 0.0803945888088882 629.9091526895025 0.006085535599694631
0.02686508186153671 0.08268528573763224 629.8754903805825 0.008934711028446831
0.023425241964285394 0.08508824737824959 629.8882781980703 0.006220106424501601
0.028302872825733665 0.09651826484649889 629.8466464830257 0.00311513484659928
0.03038607986269228 0.09751120935488924 629.8352870197377 0.005564788570573682
0.033503851488229916 0.10322232183080807 629.8125899577861 0.005419263421734133
0.03807821604436902 0.11809818599020094 629.7733837755142 0.0073446497456048695
0.04171529266061054 0.11980058379904275 629.754578880423 0.007243019307380258
0.04598130054245768 0.12807505337004804 629.7263990841841 0.006682125906285173
0.04660238712521374 0.13522373043740327 629.7174754619605 0.007422426621526655
0.05228890520172644 0.14261971313847785 629.6861823001952 0.0038481278522631114
0.019047173387395366 0.04353779724201104 630.0090586646334 0.0043907446363938545
0.019875369325437785 0.05049260200034145 629.9834051135149 0.004857099261854494
0.01956753129968275 0.046633098202280475 629.99616772703 0.006309494204917181
0.02469362147257211 0.06217760228044035 629.9293957463373 0.008231419611752892
0.02379312708238683 0.06828464022879478 629.9190058490559 0.008546602047284007
0.02970571369400263 0.07206062644092505 629.8846533936529 0.0058457004866912495
0.02541349293685523 0.07538381111153326 629.8960416122158 0.007650291178423489
0.030388105975022915 0.08098623901905438 629.8630288901073 0.007196162726615597
0.03682708881178041 0.08988170172576546 629.8194201565102 0.006721430977656222
0.04155402006068828 0.1063315818974502 629.7729283553506 0.006636970707439867
0.03758561787445158 0.10458371882655529 629.7920253477406 0.00775174041508473
0.04266394391145244 0.11037572982451563 629.7623934130443 0.0053600459647442115
0.044703087136121054 0.11931680925641297 629.7418409160547 0.00674103423458359
0.05039021087728843 0.13157958974003248 629.7040127605254 0.004808335524558915
0.0199009839283351 0.038896418453084836 630.0224470363765 0.026068891393468047
0.027048351761684932 0.04375546979256085 629.9718656129467 0.004599048535419576
0.026716216735112413 0.04865104912061595 629.9576819119147 0.005592565957650455
0.03140553448954281 0.05331162049045618 629.9254794286593 0.006375515957110061
0.027258539062167495 0.054655187702964556 629.9382315729717 0.007111336663770582
0.03078504169043764 0.05980223444631593 629.9100995566122 0.004541136138297881
0.0321049609566266 0.06241310956505007 629.8984064896022 0.005655340824656903
0.03477675744245521 0.06880954428653681 629.8724889185116 0.004914558874751494
0.03407762062671874 0.07858568893965999 629.8526499683946 0.006021827588868512
0.04443574661186426 0.09457518536512442 629.7829377818928 0.00965611896196205
0.041628640006217896 0.08782223038492917 629.8061627194039 0.005804059980813148
0.048521380447901906 0.10354954066272762 629.752316396967 0.012022758211610706
0.0505186551965823 0.11726576347340151 629.7220684161697 0.012650549170488383
0.05033835650242899 0.11078854562722946 629.7333787261197 0.009667349879010387
0.05721723624467801 0.13998933841626743 629.6699189376577 0.011090564736768104
0.029936881019532506 0.03350163191534433 629.9962690285113 0.0050489275003670064
0.03832501164450562 0.04920354604183769 629.9133529344614 0.0066010912495580365
0.04014204232487801 0.05597609982718736 629.8881372295103 0.008143383971963302
0.040753311853476505 0.05947366655166656 629.876511422487 0.005178368707321809
0.042885538928954525 0.07734943431513204 629.8249709460868 0.007842533058156504
0.0404352532384954 0.07328749965438816 629.8422984325566 0.007966417169348036
0.045643582963381175 0.07839126085674929 629.8137933712638 0.008154004584888875
0.0457012253321646 0.08787438068400834 629.7925866385046 0.006564232952331297
0.050094323848161634 0.09470841983482328 629.7646135814712 0.008527961554097867
0.06105517406891488 0.1211861139068839 629.6849955308431 0.010180891090175627
0.056262879780605964 0.12170906829472365 629.69666280346 0.008587871878410919
0.03662459979814563 0.021793161666264212 630.02131869152 0.017885014567610765
0.03396455563987512 0.026482733020632122 630.009503897568 0.004920921926054784
0.03575495875452084 0.031122148305961647 629.9839789548159 0.006341420408969407
0.039655744750357894 0.0372456716726548 629.9484030094047 0.006280700961583028
0.03837441565625669 0.041947958561612965 629.9366354814027 0.006664598700455614
0.04063770811133416 0.05137046683260897 629.8998190534384 0.009041676773305776
0.04353626951212082 0.061459264996907396 629.862380047798 0.006677907922585916
0.05045758402380826 0.06205889779194328 629.842257250633 0.005071287715757048
0.0542905541660476 0.08306342535688359 629.7790869735452 0.009064784327230534
0.058465027462962255 0.08744428799687272 629.7583335269815 0.01288503380620858
0.05869258511631271 0.10046169910700703 629.729136467069 0.009718702591459162
0.06160633438048775 0.10606154149241587 629.710720511107 0.0124382623796082
0.06682100853628604 0.12365251252455894 629.6685034788334 0.014035649087279055
0.045967951926820794 0.015005308528940381 630.0227915184389 0.018245100456951355
0.046841729063081226 0.020026284714693494 629.9949686600662 0.009495235353535442
0.04205552632966564 0.03166331901156691 629.960983469399 0.004682266537090282
0.047100225098191936 0.035594717471588766 629.9333436101792 0.008562363935859138
0.049600315612780554 0.03814091959395107 629.9180325707811 0.007854768007252072
0.04910780559595022 0.04189281265066988 629.906328065139 0.00831234161429754
0.048638284910579796 0.04644310758812526 629.892993766677 0.008449616110080799
0.0501368370043101 0.05204704760754938 629.8720134014243 0.010038489645222018
0.054325569838368074 0.054252208091185 629.8554476406969 0.007274937039095554
0.052757062641187305 0.06719026950896004 629.8225582207648 0.009565510987861436
0.054294978065394704 0.07045224245406059 629.8101736615694 0.009479934211656155
0.05945828200103465 0.07071436638889736 629.7983905349296 0.008482355746617366
0.05934974883475232 0.07521217766658533 629.7868229800861 0.01112921067654576
0.06914130794284934 0.09710716372120722 629.7138630167084 0.00726868090613355
0.06596761156253836 0.10696727820562496 629.6992569989501 0.014733090571995781
0.07463093433301565 0.12029000947206728 629.6604665498975 0.013509722349191533
0.055267918309458354 0.013815666170624978 630.0022104168049 0.005240869009150014
0.05188029731328053 0.02087894157473543 629.9789444203373 0.005643053577383852
0.05375559331539234 0.02860001799703644 629.9429647806303 0.0070894641420871105
0.0611368385484412 0.03983817946756836 629.887718044793 0.005462417249210544
0.05969084574101945 0.054320285112630776 629.8442101045965 0.005808065326222973
0.06683354123588262 0.07521427728400139 629.7720077914348 0.007113967891256415
0.07035358766852522 0.08402081073214632 629.743420674733 0.0092935023230227
0.07451706553972423 0.09862648247399117 629.7019573993415 0.009463267773783932
0.0756656149692603 0.1095784501857471 629.6780201381282 0.00857807879254944
0.05596646295955649 0.011154026012177505 630.0157814460553 0.005212797015039983
0.06252625908708231 0.018194785212600654 629.9684333165394 0.004936315430167401
0.06596622341290936 0.02180187275290278 629.9467569407672 0.0053523662804923645
0.06661113726912345 0.02897299866067265 629.917660100266 0.00602956360171596
0.06185164798288614 0.02641974267373407 629.9354769353936 0.005340679991463212
0.06908629851348849 0.03128149938852369 629.904802240213 0.0068028234397163505
0.0683750228031604 0.04182952090638417 629.869103958066 0.005654365646643391
0.06632226973871196 0.04777323752567338 629.8525628480796 0.007690440518897331
0.06985573652753045 0.05776763210955972 629.8163379022682 0.006210273280363837
0.07306472852201254 0.06889183874838603 629.7795104575804 0.010277698447052782
0.07291697978803999 0.07817734709934149 629.7541972911365 0.009868757399623377
0.07575524486874641 0.08925630863194266 629.7213092995908 0.013145116426770527
0.08423686008180353 0.11241926924031265 629.6627641590276 0.015883534342555787
0.07271752638863661 0.004472300733453028 630.0232624306187 0.050118944523802285
0.0700711323302999 0.013576724353988885 629.9780597479323 0.006742462030536587
0.06641091081762342 0.009907678639705098 630.0004176479833 0.004683441130802909
0.07245202500919243 0.016942855648707702 629.9589688545784 0.006443002325908864
0.07193593307498032 0.02481726484255592 629.9269363687112 0.006562429426316251
0.07069356341480934 0.03388879358934244 629.893529546233 0.009096169505198709
0.07573536542946796 0.04201449968990835 629.8587713467446 0.008079124222470674
0.076221871129184 0.04726041695918133 629.8411602295882 0.005935976682769901
0.07550480638629355 0.05134031950990866 629.8287304736162 0.0041115911455569575
0.08021628495524878 0.05602958322259394 629.8088938342764 0.007435326479055842
0.08413358511384277 0.058492915462307456 629.7975557823032 0.005817484523617691
0.08183512298765369 0.06345826927846798 629.7848279741181 0.007019868607420442
0.0872451238028445 0.07781542929425661 629.7386742039432 0.006999377840214521
0.08767759330305992 0.07350558602391243 629.750188184944 0.0065452068721990565
0.08201436776779193 0.07018158474912103 629.7647160431654 0.006900309440510575
0.08814686227174146 0.08419612798303487 629.7203915125223 0.007755023522567388
0.08418202806765052 0.09148277906952451 629.7059876092009 0.00663352101110437
0.09095540711074118 0.09469141443357944 629.6929506059637 0.006256878018464221
0.08712141445856451 0.10211942605716177 629.6797033107542 0.007095792033868299
0.08416593751737331 0.02096385695603836 629.9317377610902 0.005325575960625562
0.07891176789135025 0.018814746232255805 629.9444018543513 0.005273866761008223
0.08187716494428816 0.024690349583623948 629.9178007707658 0.005639589352629243
0.084646001156959 0.034002254104376864 629.8799909888712 0.004672218034596639
0.08087514730843316 0.02832030482508071 629.9037608663389 0.0067133898971567935
0.08206822506606123 0.031068603324073796 629.8926776333718 0.006328966511524169
0.08024625660204085 0.03752502739362106 629.8698875163207 0.0051459642889068735
0.08779223969503644 0.04224477993226704 629.848376307327 0.004663549544499026
0.08550823736057396 0.05056982492656297 629.8218517353486 0.006726256389552401
0.09274121932086352 0.06902301755751733 629.7600368322765 0.006985453726648375
0.09621187933146554 0.07832402255143824 629.7315080039743 0.00381404425080198
0.09963181322662701 0.09665360473637735 629.6840344234741 0.00485812031689205
0.09648650094454767 0.10709111154321875 629.6637254107837 0.007791998121476451
0.0006473679201741585 0.0824689794845688 630.0455478536459 0.07528737069994185
0.002667822563615095 0.08237357684485358 630.0268416124234 0.02459311326769946
0.003160971011901922 0.07039735237206216 630.040061745 0.08778714114994485
0.004373798343369907 0.08239003611476281 630.0123815831228 0.003672663901130129
0.0071677091313648526 0.0611523366356298 630.0295349034079 0.0493141135511587
0.010143183242548514 0.08712473836649304 629.963138772775 0.0025709073772786782
0.012667981711095028 0.09934092596949792 629.9349380786025 0.004099483365901964
0.011820211205276172 0.09271766615664985 629.9461684919195 0.004573201773920003
0.011316781580528804 0.049269489411648056 630.0364596322543 0.05623464425899096
0.02271723645904805 0.03129791272089098 630.0422007929492 0.0570969392227336
0.014812079279187674 0.040430144906671586 630.0486144963452 0.08035356494908576
0.032999028135597186 0.0217922121312732 630.0391023563856 0.05120153408797622
0.022270373848172615 0.1188095013377391 629.8595879585798 0.0021100399254655486
0.02744043473440254 0.1228201073050273 629.8266613702776 0.0023880512272110993
0.03064359360967444 0.13256274979804272 629.8035336111541 0.0010900048433261508
0.014062649932535268 0.10317182157316068 629.9224217951421 0.0029269060340671583
0.04283710590055427 0.15173408626049764 629.7297237413679 0.0013799716266450928
0.04495376417843556 0.1533249031317617 629.7182697954394 0.002077794761748673
0.05615817597526833 0.17852003981526837 629.6584620600539 0.02811661216249448
0.05356357344248953 0.17533044383992694 629.6713685837819 0.0010530981465612288
0.057973975593242674 0.18620739434006253 629.6496511282683 0.05292676117911842
0.040100533402676095 0.1458315657829028 629.7463413382973 0.0022774874815228
0.037124509943126986 0.1383733354718603 629.7648384640426 0.0027594296947300607
0.033968626264605756 0.1317699139097869 629.7852646636012 0.0029466753214631406
0.058250744853198214 0.16660656236354748 629.6486978284399 0.034851275450236724
0.061811480506765874 0.14209620957398467 629.6540352204411 0.023280326507323073
0.06326549880497119 0.15395751106099106 629.6376769261213 0.051799070099112055
0.06962563106952913 0.14318832143938864 629.63520473587 0.032787936967915675
0.045165603072211194 0.01254423166660065 630.0439206687843 0.09299363871513543
0.061576027253027174 0.006458489038993606 630.032508922828 0.06019596357868152
0.06646293560478533 0.0035822741102213822 630.0446195486038 0.0740004334568985
0.07584275225814036 0.002595495366683539 630.0353659118578 0.0637532555758131
0.08638427169317123 0.005437418640669675 630.0056383793415 0.001747712730164916
0.08939170523722949 0.00196628065881413 630.0290102230159 0.050658213442089976
0.08483316477054818 0.0077384365519946475 629.9932632918029 0.0034560994558478224
0.08605082966936406 0.012025754510770826 629.9712078101228 0.0027648474006679237
0.08548152908862704 0.014449806524166218 629.9592698841138 0.0035778656717184595
0.0932254461932459 0.01748500971301197 629.9428066854971 0.001987126840911455
0.09173989871821188 0.024920587234381793 629.9116587173087 0.0016523360913846337
0.09737076983011742 0.048597545749759954 629.8228012777258 0.00165277129353604
0.07492569482838034 0.1316333854148113 629.6426386162998 0.03819163869983899
0.09949432940215247 0.08448941745694286 629.7133649011986 0.004495814868970357
0.09500170283491234 0.058131690007103595 629.7924923339494 0.00627878996383506
0.08736743375311917 0.12258054069416693 629.642511497133 0.031350089442862425
0.08761478704254703 0.11642005885499983 629.652356280905 0.020071590610976468
0.09882502679186986 0.11799168597508275 629.6429015226856 0.0194719295924821
0.10849880925629346 0.1065147214200381 629.6611196857713 0.0040995232369615674
0.10413499434457008 0.101295089282185 629.6726457914167 0.004677463097156097
0.09422310778200577 0.052426219825235466 629.8109399991429 0.0014550557813071893
0.10983604049540366 0.11197927120740558 629.6505476163045 0.020941290685959582
0.09472269695686382 0.030849247424035338 629.8871708641824 0.0023145186622416446
0.17373626860144437 0.09462423407065054 629.6838417287449 0.00011958062888801812
0.16871667215742092 0.10134466928957832 629.6691756551686 0.0002079242562277208
0.19535260019844367 0.09340723997376707 629.6865020023407 0.00011207766863312415
0.1617978726281365 0.09245213812443684 629.6885790242918 0.0001141132003137822
0.1817965107702743 0.10119883946183146 629.6694972840901 0.00022660831992541835
0.19194425734067944 0.1039884116904004 629.663413351551 0.0020907357655694774
0.19350477175290434 0.09911108992924024 629.6740557928199 0.0001934486223853234
0.1809417394371366 0.08634183960184819 629.7041345277062 0.0001503584829119565
0.1911865987938762 0.08275315603095047 629.7133655994996 0.00010398053743520175
0.16730013744575484 0.08433239732719797 629.7092995796877 6.493419570755381e-05
0.17758202073351465 0.08134700484348373 629.7169791657163 8.784787840060966e-05
0.20464968221092147 0.08108585628584172 629.7176560627746 5.734308085913745e-05
0.17314115441387096 0.08928326353569924 629.6965687695766 0.00014500443943335576
0.19870381553898722 0.0890991402917881 629.6970487146659 0.00016120133297926347
0.184737647860463 0.09052014374828983 629.6933911207445 0.00010700371437065758
0.20370493729943367 0.08531930677107762 629.7067696738276 0.00011949081885612595
0.1964768345555904 0.07189015940546409 629.7443218257121 3.572340887420304e-05
0.17485490692160688 0.07550550319178642 629.7337971493771 7.556790108494932e-05
0.15994338897826554 0.07707500249297417 629.7292272453665 5.4555652813350735e-05
0.15829055308879053 0.08072526128348669 629.7186043791344 5.295522349601135e-05
0.1998938499883431 0.07603806043511097 629.732252643183 5.1952481952326985e-05
0.1853893257191233 0.07819948653796496 629.7259600125075 6.332361045574431e-05
0.16082803640813653 0.05833400468273957 629.7874937616642 9.854039787786204e-06
0.18399910532194638 0.05455812392897389 629.7996183996532 2.3315333282873812e-05
0.15502792850226854 0.05444814894439953 629.799969035352 1.7756378918863027e-05
0.1739650758077177 0.0600534064391374 629.7819746323087 4.8279821231438396e-06
0.1630723822506271 0.06384551855176634 629.769798918965 9.650708710330885e-06
0.16790885766911887 0.052521828791229956 629.8061546841626 2.108731258858488e-05
0.16916605006128602 0.07036536175107787 629.7488683878639 2.152599784466727e-05
0.1823282406766368 0.07066157865737593 629.7479198741669 3.1694294509533126e-05
0.19012907864934392 0.06341017882067934 629.771200301863 3.24830750411244e-06
0.19560496845298309 0.05825854331873061 629.7877394794373 9.965837834907843e-06
0.18935928883855435 0.06780193673341434 629.7571014074218 2.4896487603431797e-05
0.1757391981815533 0.06402436390399988 629.76922594828 8.227087059439984e-06
0.15554422002843446 0.051025967491719 629.8113793593684 2.4567993510348904e-05
0.1844771050116231 0.039989273660800545 629.8504622245791 2.1674847419760397e-05
0.17026528730467164 0.03577472075454945 629.8653859204024 4.313382306479557e-05
0.1628748769042525 0.04042981019193565 629.8489015811293 8.963279390925367e-06
0.19731498290112542 0.03746379614498589 629.8594055731191 2.2749021072475337e-05
0.16298272200803193 0.0462847529442678 629.8281686772915 4.08705797976906e-06
0.1844981517464121 0.04518050835401173 629.8320800532231 2.402372212669863e-06
0.19753860710807492 0.045280136326121406 629.8317285206965 4.282820704859127e-06
0.2052793199636172 0.05204137122389778 629.8077884839187 1.362494139244509e-05
