x y z curv
0.07027394711543186 0.4292690113915375 0.2699960976336655 -1.7251545094517548e-14
0.05925544123796607 0.42593822143567944 0.2699960976336655 -1.7521188738524857e-14
0.048911544672765414 0.4144807663821032 0.2699960976336655 0.00017791865119124784
0.04881196854707788 0.4320810337330149 0.2699960976336655 0.0056216962313018655
0.06715091499020448 0.4083182628641773 0.2699960976336655 -1.541841958692023e-14
0.09636848784081184 0.4378786950948399 0.2699960976336655 -1.5473779663840488e-14
0.11940797670282831 0.4345660666915029 0.2699960976336655 -3.4497763744442366e-14
0.11619304128651872 0.4132364816148374 0.2699960976336655 -1.6362802197517162e-24
0.10091844177849174 0.4216901644613096 0.2699960976336655 -1.5876294413115004e-26
0.0903939040817339 0.40689319707364957 0.2699960976336655 -3.2126601975831054e-14
0.13131513062107603 0.4328496052365235 0.2699960976336655 -3.46261768050265e-14
0.14257857143451957 0.4221018815140407 0.2699960976336655 -1.8926577195115028e-14
0.1526740964260106 0.4140768787771131 0.2699960976336655 -4.873939472648639e-14
0.13130190317201745 0.4126942639220973 0.2699960976336655 -5.713781131969859e-14
0.12481099329742426 0.4220125041762961 0.26999609763366555 -1.9102987310443995e-14
0.14062761300363708 0.4035843631534849 0.26999609763366544 -1.6640519426378616e-14
0.19508819910398853 0.4216289541082624 0.2699960976336655 -1.6130933301784949e-24
0.17525601123118406 0.4313008159827356 0.2699960976336655 -1.655982617800243e-14
0.19346226783037995 0.4348109744422276 0.2699960976336655 2.023058931165985e-14
0.16533106935315448 0.41924599319025746 0.2699960976336655 -2.1869595873669033e-19
0.1867192984871498 0.4117379623633463 0.2699960976336655 1.6734962616891037e-14
0.23101180345883363 0.41217710028988763 0.2699960976336655 1.619929730318521e-14
0.2062282722834245 0.43843161724480634 0.2699960976336655 3.639980074296498e-14
0.2344905132291829 0.4232562555244208 0.2699960976336655 1.883350142120078e-14
0.21921138548985122 0.4231355060207187 0.2699960976336655 1.9832591014275586e-14
0.2059100946472477 0.4261128207050803 0.2699960976336655 2.1516572280590066e-14
0.20677140446162623 0.41345834384424357 0.2699960976336655 3.1603437147081594e-14
0.2787467583081644 0.4299373368431866 0.2699960976336655 -1.7496814782251094e-14
0.28033103744586485 0.40907884509997117 0.26999609763366544 -3.17040116084831e-14
0.26129554172996017 0.42204129658241074 0.2699960976336655 1.794822574432665e-14
0.2563232837553389 0.40610077200357597 0.2699960976336655 -1.800923182703764e-24
0.250352414369749 0.4172804783409844 0.2699960976336655 -3.3318369003730644e-14
0.24347465658330353 0.4306083654361973 0.26999609763366544 1.6920831254475775e-14
0.31933326338050716 0.41319384509369406 0.2699960976336655 0.0017456807721783394
0.28946766107590244 0.4360973045746612 0.2699960976336655 -1.8218191265398447e-14
0.3050410129867177 0.41925372177365305 0.2699960976336655 -1.6945442160618218e-14
0.3090970686108682 0.4306448211627791 0.2699960976336655 -1.6508943294442347e-14
0.3002147867719618 0.4038900914714739 0.2699960976336655 -5.809822159127654e-27
0.293169928807663 0.4141275103985382 0.2699960976336655 -1.673962354991871e-14
0.07477335543309467 0.3977436137640377 0.2699960976336655 -1.8156136961211135e-14
0.05784753800763888 0.3941994245158861 0.2699960976336655 -1.560529132337648e-14
0.07444660721001366 0.3836402910503205 0.2699960976336655 -1.9396732960438073e-14
0.04554519108435146 0.3669774208221679 0.2699960976336655 0.00034501744018740907
0.07037951374290288 0.36928991652700127 0.2699960976336655 -1.7217179924934026e-14
0.04671717085781361 0.3917055665770621 0.2699960976336655 3.217464336223476e-05
0.057570268033681406 0.36905646384682395 0.2699960976336655 -1.7769782288444874e-14
0.08513789291113052 0.3914433348867461 0.2699960976336655 -1.6922151318697426e-14
0.11506513015492514 0.39551969691905886 0.2699960976336655 -1.866931272808519e-14
0.10126779848145886 0.398916399750836 0.2699960976336655 -7.711089887146675e-27
0.10488060227939901 0.3829938325709857 0.2699960976336655 0.0004846313353839964
0.08530835097417606 0.3781936449238874 0.2699960976336655 -1.7463489489851278e-14
0.2638055096992097 0.3934019902284501 0.2699960976336655 -3.158675570147983e-14
0.274330954134747 0.39885933927862105 0.2699960976336655 1.8241416443436843e-14
0.2871773640839726 0.3957886753137882 0.2699960976336655 -5.9527612063268444e-27
0.32119065378868855 0.3740669092199185 0.26999609763366555 5.050126715905346e-05
0.3011881531396663 0.38783570948645696 0.2699960976336655 -1.626483263623075e-14
0.31469553901626635 0.3920702056995068 0.2699960976336655 -1.5204982529428822e-14
0.3084648501563464 0.37077326398937294 0.2699960976336655 -1.1092584543881798e-27
0.28785124328680134 0.3709060783928447 0.2699960976336655 8.159422651463754e-05
0.02244643129341626 0.44544703590708057 0.2699960976336655 0.06947153708568818
0.02506333920727607 0.471612749138559 0.2699960976336655 0.09295961457415873
0.02401516254137436 0.4583298276280124 0.2699960976336655 0.08595509754041825
0.04275833442367073 0.44180798284141437 0.2699960976336655 0.04107342337626233
0.042977320920840875 0.46721252244843786 0.2699960976336655 0.07111389821482073
0.03137832777828541 0.4181716675798366 0.2699960976336655 0.07254360688504362
0.03302340253000989 0.43148989266583465 0.2699960976336655 0.08478866758917812
0.017945233343488992 0.36608055085729985 0.2699960976336655 0.06939271753530331
0.018083916610264497 0.4098443407143686 0.2699960976336655 0.07339499505307866
0.02777004286212715 0.4034588227936428 0.2699960976336655 0.0611652040719901
0.04141513612741579 0.3783886313689363 0.2699960976336655 0.01715734145336738
0.029112115339970785 0.383533259512061 0.2699960976336655 0.038561010033919006
0.07847770554865419 0.33237183609412996 0.2699960976336655 0.052889841892580156
0.0792844361759302 0.3524592039067642 0.2699960976336655 0.018279165881565265
0.06699728479544312 0.3554956861268418 0.2699960976336655 0.00906939769879703
0.05476626921850036 0.3547730438226875 0.2699960976336655 -3.030319275845022e-14
0.06923588989386284 0.46717434052480267 0.2699960976336655 0.08469884521310665
0.0570310677969761 0.46409649865051783 0.2699960976336655 0.07943429811798985
0.08111474362250246 0.4677900967637478 0.2699960976336655 0.07213105159422678
0.06858409062981555 0.4549373962781786 0.2699960976336655 0.04709592651654803
0.07305467854419459 0.44214458897417436 0.2699960976336655 0.006569369729850628
0.08557311075674116 0.4428526724387653 0.2699960976336655 0.00215928612022631
0.10735913385377069 0.4758710458975488 0.2699960976336655 0.08498152242396005
0.10589496187433481 0.4469397678152222 0.2699960976336655 0.01993694995095814
0.10531024134965312 0.45925933023702037 0.2699960976336655 0.06165927782200268
0.09361944072442033 0.452972784113984 0.2699960976336655 0.03475245462947795
0.11720908182943174 0.44807664286839294 0.2699960976336655 0.009226052291799909
0.14399639371466474 0.3699472564278275 0.2699960976325535 0.057514203681549705
0.1267840869161835 0.3994928984063134 0.26999609763363164 -5.47970203288026e-14
0.14307520766163662 0.3880274294831173 0.26999609763321325 0.01444288902398588
0.15573701712236457 0.4000488819326325 0.26999609763365195 -6.465320515799291e-20
0.12152620224391941 0.4648920347926066 0.2699960976336655 0.09484292492857854
0.15956943279915492 0.4432307717759357 0.2699960976336655 0.005571666372013555
0.16152005253205426 0.4610587897100864 0.2699960976336655 0.10734153118603844
0.14147110923319475 0.4433337029553331 0.2699960976336655 0.004930735762160423
0.15139808420266118 0.4783759014138918 0.2699960976336655 0.08112968843699486
0.1332540372375032 0.46288910500911573 0.2699960976336655 0.042073349475428484
0.14958410242989373 0.4663159868552132 0.2699960976336655 0.08541986709064153
0.15852881443129319 0.3630761157859894 0.26999609763457816 0.07476183765082409
0.1269389713387528 0.3652453756647649 0.2699960976336868 0.07508837567648183
0.12206744572489406 0.38603399832780755 0.2699960976336655 0.006015219050792784
0.15720679513168057 0.3768955709500445 0.2699960976350507 0.056374554577494684
0.1320276400093267 0.3757462418117788 0.26999609763366117 0.03702117189197047
0.10988593935788471 0.35542640475035786 0.2699960976336655 0.07496133364981182
0.08947275372488994 0.36392309403871403 0.2699960976336655 0.018269521340060768
0.11621367341714076 0.37369199369555656 0.2699960976336655 0.025063674008175406
0.02443832787485141 0.2986091026390284 0.2699960976336655 0.041757030733507776
0.01603375433649181 0.3261004523309302 0.2699960976336655 0.056947875491069035
0.0417802426444973 0.35399463510296025 0.2699960976336655 0.0016488032363946585
0.028863687872021985 0.33060765901741973 0.2699960976336655 0.047666735918692256
0.03429219007279818 0.3407000592215588 0.2699960976336655 0.024117854985836115
0.03684975322996088 0.30695725178277056 0.2699960976336655 0.024917233831391453
0.022767545848350126 0.316284120529581 0.2699960976336655 0.057124759788138725
0.03785626126499428 0.3217374488530664 0.2699960976336655 0.014852834905089964
0.006506215321297422 0.29501030160206765 0.2699960976336655 0.05996221299715447
0.01262375855460223 0.30726042938649367 0.26999609763366544 0.05962853052861597
0.034180658627663583 0.2897021516572254 0.2699960976336655 0.04108438741831508
0.012290132770689858 0.28531666947621487 0.26999609763366555 0.0971943615668665
0.010435077194360296 0.3378651773400135 0.2699960976336655 0.10225898590740216
0.04859031393165488 0.276242504451138 0.2699960976336655 0.07032634911199417
0.00924025652753134 0.2609549779517699 0.2699960976336655 0.09514785230443049
0.03877603935138283 0.2522799739328809 0.2699960976336655 0.050165850879350896
0.041605877015952836 0.263814705766885 0.2699960976336655 0.05513574460066805
0.026854224487367566 0.26211614505363334 0.2699960976336655 0.08022211924546394
0.029018827722296518 0.27391862433204095 0.2699960976336655 0.06862908136735829
0.008062618272085936 0.24652355105889126 0.2699960976336655 0.09089874465616969
0.09788817630367468 0.34910512665640575 0.2699960976336655 0.05786693632809557
0.05914175260451443 0.3160242357225429 0.2699960976336655 0.05436290352085451
0.05117714079011828 0.3258194431919078 0.2699960976336655 0.018129197423807253
0.05393433499458565 0.30122665639291346 0.2699960976336655 0.05182661864417127
0.04944946944503842 0.3381385015403533 0.2699960976336655 0.002397506312269487
0.06605860171716797 0.33451035324056283 0.2699960976336655 0.03404715720083028
0.03000966926313404 0.35219475508392134 0.2699960976336655 0.03223217535249325
0.016612083029099424 0.34764413884278617 0.2699960976336655 0.06202499273587098
0.18720898856653706 0.37211575668175967 0.2699960976336655 0.06897422798302053
0.18465210322241216 0.3833154180611644 0.2699960976336655 0.03778648620155537
0.1780989873939671 0.3948013931801231 0.2699960976336655 0.003737349009406057
0.18215979741310595 0.45991437183546136 0.2699960976336655 0.06526216950476907
0.1764330543376882 0.443360617487554 0.2699960976336655 0.011118644014616564
0.1857401886765399 0.4765945099080598 0.26999609763366544 0.059347244880274354
0.1714803410890633 0.47761924625358304 0.2699960976336655 0.07820376467309043
0.20774141482191172 0.46942828222812505 0.2699960976336655 0.094887381240495
0.20175440508017348 0.45073071891262073 0.2699960976336655 0.04318008343177007
0.2239062676330752 0.4685690062696013 0.2699960976336655 0.07803864842426866
0.22253217818272908 0.44245542901629376 0.2699960976336655 0.006169757820507458
0.21408487253708866 0.45249366839315586 0.2699960976336655 0.039463288694496806
0.17025554612208038 0.3827890226401949 0.269996097521668 0.023301060393205477
0.23789516261057655 0.4786303586818356 0.2699960976336655 0.07730352440213076
0.24445795400421041 0.45254915387311934 0.2699960976336655 0.03005990819193161
0.20265207477717043 0.3989475103685944 0.2699960976336381 -1.8486611007578433e-19
0.20544575417333105 0.38339925336417724 0.2699960976341424 0.03293514786374471
0.20373323839251417 0.3678097008563461 0.2699960976240188 0.0720816478229411
0.23171609923825906 0.3823026082369937 0.26999609763331767 0.01791315080468103
0.21754707121922626 0.37762160031579717 0.2699960976331694 0.04994339982697554
0.24138890167647992 0.40030973161928207 0.26999609763366306 -1.5727849493276383e-14
0.21839376013528727 0.39608025243927253 0.2699960976335711 6.478205184189423e-05
0.2318526303309724 0.3666971039462578 0.26999609763370397 0.0689555305762661
0.25437942580460404 0.4693732859083974 0.2699960976336655 0.10452088894921167
0.26448919641436913 0.47933143678777657 0.2699960976336655 0.09437688359292365
0.2835794714971039 0.4719571456789482 0.2699960976336655 0.07352531616042292
0.27709278758099887 0.44197465003629494 0.2699960976336655 0.0046773437075120425
0.2669753347236059 0.4560272632835989 0.2699960976336655 0.05279783912898552
0.27988044797578815 0.46029369610194537 0.2699960976336655 0.07204646789018784
0.265146964797356 0.4413452865443152 0.26999609763366544 -1.632601610774294e-14
0.2979961362302542 0.47287670700482426 0.2699960976336655 0.0765488305797489
0.3107806306512405 0.45703751906349577 0.2699960976336655 0.03920522491057156
0.29817593808180387 0.4599975308688704 0.2699960976336655 0.048411657785951044
0.29688515876738575 0.4470008665678346 0.2699960976336655 0.022292415799043466
0.3310910901398142 0.41390226327987967 0.2699960976336655 0.03357100135941342
0.34392699619727185 0.41869774692842776 0.2699960976336655 0.08218801968348916
0.3167661487278554 0.4679401424035366 0.2699960976336655 0.057344679142258353
0.32393939868918287 0.45639703079176397 0.2699960976336655 0.0731711531882389
0.32152812696827854 0.44290888037020726 0.26999609763366544 0.039686043278239755
0.33954635196397864 0.46665681481563903 0.2699960976336655 0.09491468343441471
0.33688125468451846 0.449964537390231 0.2699960976336655 0.0890017437073039
0.34399639810105054 0.43544799609867013 0.2699960976336655 0.08838144823918104
0.33095357542072634 0.4331948469879594 0.2699960976336655 0.04807531892630432
0.2576100784017553 0.37099814827643796 0.2699960976336655 0.01641586116971477
0.2518245062004524 0.3859163818249518 0.2699960976336655 0.00014970768422445835
0.259648508190675 0.3587264910244733 0.2699960976336655 0.05886897627462163
0.2743102794726774 0.36779229204442143 0.2699960976336655 0.007820295456403845
0.2464292087599006 0.37580397094478757 0.2699960976336655 0.016300130703803085
0.304788690743966 0.35389086549627097 0.2699960976336655 0.0002994172427384253
0.29271681105144387 0.35139153006988016 0.2699960976336655 0.03377614414936472
0.32758527335243504 0.3942836474144552 0.2699960976336655 0.017396509503447986
0.34287594045701064 0.39572034245881654 0.2699960976336655 0.06825619949526046
0.3500491411360053 0.3683270923252464 0.2699960976336655 0.07226327171028687
0.3525384261339682 0.3812394976947318 0.26999609763366555 0.0635255530995193
0.33803619962765813 0.3584852401165361 0.2699960976336655 0.06897202020971774
0.3529268009443399 0.35564423713375654 0.2699960976336655 0.09242011881869518
0.2448416294054335 0.3617974993341682 0.2699960976336655 0.07766372996552315
0.2910056943727855 0.334591270372042 0.2699960976336655 0.05715389537343148
0.2789505705074906 0.3555629686317613 0.2699960976336655 0.0471534460671042
0.29930173618124173 0.3141704024487904 0.2699960976336655 0.0559910871584136
0.3152674667150689 0.34888718362911453 0.2699960976336655 -1.4217672865930204e-27
0.30794486225807416 0.33919675509209124 0.2699960976336655 0.018755333890108826
0.316164687169061 0.29559585882591344 0.2699960976336655 0.05244504459908823
0.3116748726022393 0.32240076582645394 0.2699960976336655 0.05026590612984857
0.34561093232157286 0.3465212215131861 0.2699960976336655 0.11225144151053282
0.33237552530588804 0.3241906331993916 0.2699960976336655 0.005775178891443275
0.32723979361222433 0.35430621044015914 0.2699960976336655 0.01396489034563258
0.3275020715311702 0.301535873559084 0.2699960976336655 0.029942343098964944
0.33862108025209325 0.30427731472129943 0.26999609763366555 0.04579552020134631
0.33294753168471203 0.33946525235117375 0.2699960976336655 0.02707699034533384
0.3528143313706489 0.31573272063118085 0.2699960976336655 0.062228238294349154
0.3579676565450567 0.28794668605406215 0.2699960976336655 0.07933299178795222
0.3460121687128513 0.29125921555490275 0.2699960976336655 0.07915600954045549
0.32493676763077833 0.28367321174184756 0.2699960976336655 0.06649876742267466
0.34784748556040596 0.27937937624019094 0.2699960976336655 0.08419088107458786
0.32917721254948434 0.24750610840947485 0.2699960976336655 0.06781951787473947
0.33625289705913897 0.2711201609346072 0.2699960976336655 0.08010243710386875
0.3475176884191955 0.2669902934303229 0.2699960976336655 0.05237707711473405
0.32775516821613254 0.26179890546795576 0.2699960976336655 0.05266316597555626
0.3598147245146077 0.25905652839237414 0.2699960976336655 0.0752580911069502
0.3476521934148773 0.25447223707858135 0.2699960976336655 0.05595725102568286
0.01503139733905295 0.21611894507182922 0.2699960976336655 0.1088749711973295
0.019216432224837442 0.19597804600317043 0.2699960976336655 0.08532862992526019
0.02844702240424226 0.20335808048025306 0.2699960976336655 0.10568463644202657
0.027205622962797528 0.21854551502364314 0.2699960976336655 0.09097612225872158
0.04300261821582472 0.2202522530554976 0.2699960976336655 0.06621914274213012
0.025642472728274086 0.14699918726159136 0.2699960976336655 0.10921800529877297
0.042156612948142366 0.14444220198143204 0.2699960976336655 0.1289169925701115
0.03797189092191813 0.12237539125698155 0.2699960976336655 0.08948789466249822
0.026775688134722458 0.2299523975458524 0.2699960976336655 0.11190202955953184
0.044793410313201436 0.18452570290565826 0.2699960976336655 0.0790118252821472
0.030736130581239862 0.19005726220884833 0.2699960976336655 0.09416138344518213
0.039085924771578365 0.23324388484334652 0.2699960976336655 0.07039364688197869
0.030883810351174695 0.166562860557873 0.2699960976336655 0.10460130532358812
0.037689722024241694 0.15637993868017902 0.2699960976336655 0.081405486529983
0.05427635021980701 0.12078817402681205 0.2699960976336655 0.08207912666426974
0.048258218478072136 0.10970153000103719 0.26999609763366555 0.12322214280903575
0.043273949077688056 0.17226805758196184 0.2699960976336655 0.09917246516422916
0.019051215190372547 0.2398260664968152 0.2699960976336655 0.09851268485048405
0.045562565905352306 0.09283086794465983 0.26999609763366555 0.11642301056885845
0.05920919240524239 0.09558055486408075 0.2699960976336655 0.0972137793818432
0.07301412829710771 0.08894730305641065 0.2699960976336655 0.06760963391687651
0.0655117014546536 0.07752160735646456 0.2699960976336655 0.10956791252623789
0.07845174960483338 0.07566102786578872 0.2699960976336655 0.05899690639677993
0.08856853766973094 0.05758178100689581 0.2699960976336655 0.07573720938152084
0.07817155276736402 0.0526186606852498 0.2699960976336655 0.1042804675327492
0.10034284113379646 0.05566305479044325 0.26999609763366555 0.0778139989836139
0.0537400380686429 0.0805252238759947 0.2699960976336655 0.11874044660526861
0.11977155467907405 0.046270365908080424 0.2699960976336655 0.06887905947664608
0.13187090074208854 0.04131056093480951 0.2699960976336675 0.06891152075998307
0.12179819171465547 0.03367673445242166 0.26999609763367194 0.13444000628603456
0.1084252989842074 0.04246044672250544 0.2699960976336655 0.0980693297094818
0.11078137777788834 0.030481268453454984 0.2699960976336655 0.11212440836069183
0.12630755664103455 0.021638478181458896 0.2699960976336655 0.09915408047151862
0.14381415203754314 0.03271907535044262 0.26999609763366794 0.08829474527080133
0.14725924421525308 0.016709054402088835 0.2699960976336655 0.08626999875853819
0.09807512225077226 0.03687744055847801 0.2699960976336655 0.08563856272926207
0.3317542670953849 0.16211834513090756 0.2699960976336655 0.0987061258913779
0.32124424402880963 0.15394450088262224 0.2699960976336655 0.08111536260548068
0.3272056665430735 0.17912248630361527 0.2699960976336655 0.11659958442844136
0.30803498174296 0.09406429951390356 0.2699960976336655 0.09957091441545132
0.2892797510792211 0.09415349704200532 0.2699960976336655 0.06389906703126398
0.31512125864565355 0.11320599329896316 0.2699960976336655 0.09872293207015066
0.3257629175560872 0.22824724399727286 0.2699960976336655 0.03737109725992462
0.332044080306346 0.20415647387227986 0.2699960976336655 0.09639092310205527
0.3459947611429327 0.22897192336317831 0.2699960976336655 0.09466077053877059
0.34593621250481094 0.21729482089258492 0.2699960976336655 0.0769195926440164
0.32572144189456353 0.2144268820296854 0.2699960976336655 0.07239248199979917
0.3552930462201286 0.1998213235262597 0.2699960976336655 0.05546663748852183
0.3438331838448006 0.19833973036955185 0.2699960976336655 0.09810799001619504
0.3355601823394946 0.23597818733211418 0.2699960976336655 0.08946918370063897
0.3229444868511995 0.1393667026948634 0.2699960976336655 0.110477654195169
0.3335846997312454 0.1233308236778336 0.2699960976336655 0.09058248804882521
0.317834306677207 0.12764041177754815 0.2699960976336655 0.09728070161568875
0.3387179724668723 0.14684666250071332 0.2699960976336655 0.13039608601098648
0.32995220633596956 0.11073290663228312 0.2699960976336655 0.11356626291228078
0.32491940529063523 0.097095309510256 0.26999609763366555 0.08890248248839198
0.3280873532197271 0.19161439433439534 0.2699960976336655 0.11337914382369893
0.34033094312753154 0.1712825592279678 0.2699960976336655 0.11819743364413081
0.35466224786012396 0.18491408183238228 0.2699960976336655 0.05327000275844825
0.34247955197633945 0.18656032289798125 0.2699960976336655 0.09215645542381663
0.16039960767894362 0.03348597338350226 0.2699960976337424 0.06357638722942571
0.16481206524144132 0.02022691624741577 0.2699960976336769 0.09850424487611664
0.2091348274723122 0.03339471915889732 0.2699959938594865 0.06405272760100089
0.19619576768176186 0.03683192726650943 0.26994695642637395 0.042687591984245585
0.15738793793167286 0.00876211057102441 0.26999609763367843 0.08989378061034158
0.1742701625128442 0.009115477269863451 0.2699960976336655 0.09711555501742396
0.2192967476866829 0.009018439964656297 0.2699950383858749 0.08208645826947117
0.21527838236448837 0.021984020407090278 0.2699744012836985 0.11543559434805155
0.19941012750043818 0.022977871126281864 0.2699690664199942 0.0965945531732038
0.20473678988605942 0.010795549124715746 0.26998883943328433 0.11415056810153867
0.18577461406621582 0.02975972318983133 0.2699610122747404 0.06699180682242538
0.24823151962383128 0.05469491234425411 0.2699810797418236 0.04010567157340123
0.25998452483414547 0.046612920524912727 0.26997250638312503 0.0815927872393888
0.2600304520024625 0.059679990349981574 0.269978558623795 0.05458219339787634
0.3112135840148248 0.07472647122091376 0.2699960976336655 0.09222700956697046
0.29646768098070514 0.08462651537364893 0.2699960976336655 0.09522299260706285
0.28760133118696757 0.07699170564070396 0.2699960976336655 0.09154157498135503
0.3017310309658825 0.0668267563959572 0.2699960976336655 0.11002273314013607
0.28920403152015517 0.05744419433300125 0.2699960976336655 0.10734719859208065
0.29973361379002744 0.05279940025802779 0.2699960976336655 0.07879361190503471
0.23379465345461353 0.028258065773125354 0.2699727057599344 0.10017936748074452
0.22254849859528014 0.031892266316103535 0.269973541555592 0.07948061021229735
0.2243114127889765 0.04464004503577131 0.26997283721739007 0.053647848098783785
0.2742264693652412 0.055887554109027585 0.269962258665384 0.0902376397217428
0.2607263520836127 0.03172763943197386 0.2699960976336655 0.08850155220820802
0.2695559547781147 0.04068286876319777 0.2699789033778379 0.06901713880095896
0.24831873748347325 0.03347021574964367 0.2699960976336655 0.10902535476509412
0.24369811741652325 0.020989912976149636 0.26999609763366766 0.09832101748068482
0.24151504058694861 0.04294065996224121 0.2699877678636173 0.048839918499155865
0.3638667517605155 0.27526708179534265 0.26879681007051404 0.09611480419021774
0.36146501000540576 0.33266686117596755 0.26842463967158703 0.0713110355136184
0.35522630942581823 0.39266220043790073 0.26890613326075063 0.0689062766251659
0.18734011242079965 0.0013479204665644902 0.26819256941515074 0.08256380036357688
0.324149636588819 0.0754774964005735 0.2669775752520282 0.07888638436114623
0.3469960532898271 0.1243504434639619 0.26673257501469727 0.08143798518781831
0.3535506757647592 0.14714954320312126 0.26667319296081765 0.08851144429191647
0.3565379222936271 0.16186130849409133 0.2671751324455313 0.07505950582736047
0.36441189151186093 0.24152279829428014 0.2682758473198077 0.08321780441478516
0.36079418189364243 0.3442226186317256 0.26817934394874104 0.08089604367073183
0.2853052246991181 0.03654941678453958 0.2696848391516158 0.07524094191093578
0.34650635549842335 0.13761484729742318 0.26994602401609774 0.08993487649116648
0.3613655436471663 0.30791326653700124 0.2696230633236888 0.08661976325318257
0.34968955499202586 0.4471407615202653 0.26869556629545593 0.07210196807926607
0.3523164615858257 0.40606005362625336 0.2697112802930978 0.08189176199112191
0.2575470379284721 0.01575181080241312 0.26623990705424116 0.07700949876510951
0.2956861823671991 0.04090244694034763 0.2655206857944968 0.06953368719045659
0.3164056439100906 0.0634508166348483 0.2653284253717901 0.08363115230822929
0.3402971024621407 0.10553466742046008 0.2649079496613972 0.08400017280648045
0.34639301210225815 0.4790305127473115 0.26852260820909946 0.08768100372528145
0.011158408630238663 0.3932907517636013 0.26916727683646624 0.10079590224508425
0.003832771789513172 0.22045808183669818 0.26924123654634724 0.08358965512284958
0.008890258351396037 0.17455684164213453 0.2690994856529839 0.08090596222860849
0.013983967422851445 0.15190688912497186 0.2695133787837877 0.10185671648764015
0.021380845328528804 0.1251682721379456 0.26949440987634055 0.08479512218649349
0.013394664476792627 0.4260334696977655 0.26815190426182434 0.10016389864082784
0.007679971134999311 0.37548930631602045 0.2674714917670235 0.0902264023520736
0.026204228631256203 0.10520363568408284 0.2667182115592329 0.07694655160781996
0.06750017870144986 0.04459325825447372 0.26768151405498514 0.07427189303889974
0.1020923601992559 0.019813364504446027 0.2678709564194419 0.09537216699416859
0.11294593956992874 0.014360059551824808 0.26744158453416444 0.0714357197493756
0.003661320805097922 0.23357447210492016 0.2696136458633315 0.07597307071291208
0.007439154752500407 0.19317454873144813 0.26971642632240456 0.09319777110392057
0.08049006857620053 0.03632293543204978 0.2696466696671548 0.07271302724294319
0.05015390764866174 0.0681347791314614 0.26964841280579965 0.0809286477998879
0.0004322891938301267 0.2822727135872275 0.26564433607855503 0.08198956029850751
0.014880445745639367 0.13693389832152597 0.26561784323472065 0.0854938253620836
0.03336254814010701 0.08915380769795106 0.2647975323425654 0.08073846002028927
0.12388157441452669 0.009440518357190671 0.26637063247476517 0.08617397487691636
0.028687384783819776 0.3717406932852361 0.07142771236263146 3.2979811246709116e-05
0.030615075486265058 0.39874957589097754 0.06801429586114967 3.7753157467669156e-05
0.031174588486728626 0.41221612127757895 0.06861619830767184 5.8535825373807625e-05
0.029716410148174582 0.3857422375916098 0.06948781098594857 2.8617258849813028e-05
0.03352657477484099 0.41736451371812655 0.05658183638542021 3.462226074615706e-05
0.03483928318215318 0.40926299432860547 0.046994985757075655 4.7514721202485325e-05
0.03220580900729368 0.3610573528075651 0.05116482710629322 9.065516559378736e-05
0.03398056185671214 0.37117956774218697 0.04410446984833432 0.00047993996930884757
0.032390587685588904 0.3902096641054196 0.0557696294941052 6.875571050238565e-05
0.03206599539903759 0.3790094576350027 0.05528424012114133 7.300803476735449e-05
0.026840730555988467 0.3313754671828115 0.0741932265425601 7.65732882481009e-05
0.027679494743952763 0.34991677474283733 0.07232876336967894 6.785250440900903e-05
0.03214427595870263 0.34664175868393726 0.05008484026915325 0.00010577936385575858
0.029407517166466078 0.33641804707107914 0.062203456309483214 0.00010695435368840047
0.027231423566341638 0.318885572185788 0.0717761307668426 0.0001250632713756017
0.030193007238379123 0.3246606713595175 0.058315541531824694 0.00011349937615947152
0.02910156263632069 0.2995506756070857 0.06404916648977345 9.876735131372479e-05
0.034485725249813755 0.3126548934807228 0.040587596699932324 0.0005838356036737363
0.033754922614356975 0.3276742175444208 0.0424108797387916 0.0008526248824232299
0.028333601958165776 0.2884647148623216 0.06880496422756802 0.00017191376743855765
0.03256110671382892 0.28620963452875475 0.05235766580020852 0.00028967669848915036
0.031912006060682035 0.271178106697467 0.058171685744956146 0.0002350559026528474
0.03155713303112341 0.26064720623894577 0.06273964666948047 0.0003366149711287221
0.032570234864702285 0.2425446344845102 0.065846508471799 0.00041222704982251865
0.028385142803912317 0.25901817063919597 0.07455379699210263 0.00018911626750881322
0.035223833319320025 0.2571602938534927 0.05113346039646871 0.00041641693924564824
0.039466632648952255 0.2493901013171954 0.039731815374536565 0.0002476942490378597
0.03714934990213016 0.24112911089902017 0.050789424737788316 0.0002802118893424827
0.03705632839682753 0.265909455724485 0.04153299938067796 0.0002705310492573311
0.03674493093073174 0.21137501107756132 0.0683831884898433 0.00044754594695507743
0.035729225007217605 0.23308271834520672 0.05949092697543078 0.00038311515379576964
0.0393520146380814 0.21698939518966456 0.05724554004672011 0.0004142367747671318
0.04062675308711641 0.23148315343217069 0.045272097256569034 0.0005652763842858969
0.043243466997308994 0.21682718898495076 0.04549672904448866 0.00045006369748576766
0.04078905248772084 0.19563767632415763 0.06671909431092816 0.000406124783093761
0.04156103121626223 0.20518705998037992 0.057666340780153105 0.00053275270333588
0.04960456860939528 0.2040459182003799 0.036883763592109604 0.0007617820253169337
0.048205776327155274 0.1940425686770203 0.04793091541610655 0.0006700703291108931
0.0478359467663892 0.1718798959566892 0.06545447995308881 0.0006350274079502945
0.05004538337764049 0.17970384156175945 0.05352372220591261 0.0010433568470716963
0.05662129117689333 0.17256822212991738 0.04380951570863635 0.0014195077096280672
0.05219528828983017 0.15143200177642754 0.07281404507421856 0.0010144618285554423
0.05619347836453429 0.1560574888525021 0.05978808837879004 0.001164140894436323
0.062415096594548206 0.16081801798888842 0.04188877934981937 0.0016595707236050107
0.06082597441236498 0.14413370692288333 0.061364850281853414 0.0016456036221434186
0.06623508642712628 0.15015332072481527 0.04484469322430497 0.001230819441371217
0.06890376461307852 0.13851997355778778 0.05165903262422744 0.001145384171494263
0.06889614886955042 0.12497133199171791 0.06654952016420534 0.0022188228227242195
0.08011547535449308 0.10936472761881263 0.06755577679376538 0.0024266621294196477
0.08225914480138025 0.12076335752830272 0.0510863806607416 0.0017812786531557318
0.08268808460509153 0.12820122060662012 0.04165502860712276 0.0025671691244418975
0.09649308338421157 0.10106680554045704 0.0582614238071681 0.0029951513978768445
0.09172656192932724 0.11915319870547167 0.040858312906010275 0.002159296120784594
0.09974735352213907 0.11001956044589908 0.043364888638579804 0.0015896341308657017
0.10258615303398742 0.08772058470367895 0.07030574056818092 0.0029772562968813743
0.10627728193716654 0.10162484981334839 0.048554697381227196 0.0024262006241404298
0.1194889749165931 0.08117574951397324 0.06628965765822314 0.001975495111724072
0.11081882056071049 0.09163191458400927 0.057940392627429144 0.002310416754412413
0.11925952446090797 0.09780110819539864 0.0436093491890478 0.0017107284588670773
0.13083928337644038 0.08423242093326207 0.055708593260223774 0.0019946103503445016
0.14331190165513644 0.08134511436353102 0.05445834254428459 0.001113768656346955
0.14003435917399362 0.07486104499073377 0.06479985185502601 0.0018198029769686877
0.15049426210406233 0.0875040137812305 0.04326069107415596 0.0014548036380374085
0.14465598539103935 0.09394880726310854 0.03597498349713836 0.0010338842856191205
0.15569967985289002 0.07614553952369507 0.05827756605306486 0.0012372213095710502
0.1659820791428181 0.06659306740754364 0.07021074280517402 0.0007055852553856744
0.16111610932216325 0.0903854129933387 0.036724449204658095 0.0009107820584722573
0.0249358260341816 0.41208739688444845 0.10859476775144128 2.663343635900547e-05
0.026271409685195854 0.40523096976194845 0.0969051533737681 3.257218103478094e-05
0.02073571755641189 0.35073337290746237 0.1125105517313987 3.243796965022887e-05
0.023040168794826066 0.38461432430935133 0.11044852060875875 3.8016577504228015e-05
0.026858470850654615 0.3614585224813628 0.07910214835508646 4.74784058768099e-05
0.02286563294623268 0.3601101058981791 0.10248323521441799 3.7588322548280165e-05
0.024547110984971456 0.3525733985488057 0.0902623159539126 7.124971337585655e-05
0.025662242340974424 0.38590612822349596 0.09338835585090255 3.0239108882395524e-05
0.02625672404060031 0.37095950677473144 0.08546911120452068 3.688123385325758e-05
0.02771116645822345 0.39879213319483614 0.08496315267042462 3.764571637058031e-05
0.022489374929224298 0.33573339464059604 0.09873981836608187 6.663884739636645e-05
0.024889108984195756 0.3384681707166126 0.08565995615334412 4.9683693243114645e-05
0.022462572017109467 0.3241849254036092 0.0969975868353379 4.82628006626457e-05
0.020424632757096082 0.3165897655249168 0.10713001702799828 2.9010156149930285e-05
0.02144485856050319 0.29604172090205794 0.1008284846159345 8.359113589398298e-05
0.02494221312746677 0.29663811163743636 0.0832395004733822 0.00013949302189445261
0.02594816939390817 0.3070198683225359 0.07799887284786873 0.00011825706532280662
0.020359004562142066 0.27213776155747255 0.10861832800174843 0.00014408160077867334
0.023581658515385445 0.2774866772913339 0.09217362410667124 0.00018628166906806693
0.026010241133535044 0.26876789206835877 0.08271771322572541 0.0001749470308745236
0.026772778778642554 0.27941379689204465 0.07698070229830135 0.00021983522181030307
0.02187219295821741 0.25953241091029844 0.10358766039968162 0.00014771405133083624
0.022131467865982184 0.24262003068602064 0.10803112427845443 0.0002275256736357749
0.024909056283752583 0.25475615229649207 0.0910820459805085 0.0002441522640454804
0.025479604017636152 0.2354009050317779 0.09682337026831869 0.000320827463502293
0.027894714765571264 0.2252598570396376 0.09124376025898748 0.00019662118982986235
0.028823663538970274 0.24544298622587338 0.07863342891810056 0.0003752100330539953
0.03026116502158388 0.21164781804346322 0.09115567369652058 0.0003301398015861662
0.027748165223399353 0.20474680445699553 0.10514684817643066 0.00047169531742424797
0.03154039175805548 0.22619052475128495 0.07672625376532669 0.00023180619540158503
0.03150343701367039 0.18875373479944632 0.10177196459796177 0.00030499195492644104
0.034323439726988696 0.20307926711812563 0.08180706766065877 0.00047877084408411066
0.031596245780707376 0.19971665887405973 0.09413429283201416 0.00031829073801514616
0.03725913558375289 0.18521374014845549 0.08605939637457258 0.00033693634931421083
0.03438908633882442 0.1679719379337181 0.11075288915964125 0.0003418733507899255
0.038777900790869985 0.16599059151791423 0.09815829630259883 0.00061044141243949
0.04006726706868488 0.1719816360058435 0.0886265013860017 0.0006173934474326318
0.04171149213813562 0.1824051898714872 0.07400049288006708 0.0005013057856170244
0.04224565294355733 0.15214630874068275 0.10059617711284655 0.0007460940785440198
0.04614067171229699 0.16363449861274293 0.07725822267220145 0.000537136567863531
0.049529033448206417 0.14510738770049836 0.08717731693095868 0.000906431092752083
0.0483077711309867 0.1285315771887843 0.10937541505161825 0.0008289746647865498
0.056300992107296464 0.13898704667486786 0.07594884941635657 0.002032961501078639
0.0545248173814126 0.13110817570036012 0.09007184320623686 0.0010717307971762583
0.05451463151908287 0.11674862347383719 0.1081234014712265 0.0015172465521899965
0.06195005735450775 0.126775489663899 0.07770725480194869 0.001987180899353642
0.06352235489608296 0.1146343833879979 0.09039387570185614 0.0016072124234067764
0.07113023832433225 0.10813585308583762 0.08361722208675365 0.0023429595372730276
0.06822050906238382 0.09821364926450321 0.10336462497427377 0.0018071452025019438
0.07971218249600473 0.09414220884667376 0.08982932593055626 0.0023833247142949136
0.07928128739943827 0.08152495363221704 0.11003669232352653 0.0022847123070235086
0.08071886325308204 0.08672655404740848 0.09976597599849946 0.0019740496128273365
0.08592588177303974 0.09909846351004432 0.0727945477921467 0.0026714046528750384
0.09500091820096229 0.08520125439277047 0.0826188718475723 0.002380370220326631
0.09245668133253188 0.07907906871364773 0.09565786148545953 0.0029624972024869475
0.10206082255391417 0.07068762826694533 0.09895895544628854 0.0020580496527083858
0.11515966700058662 0.07256335200920222 0.0834864633954625 0.0010874341989687041
0.12262596269410797 0.05982944196505789 0.09983451583755781 0.0023129648731516823
0.12642405423624653 0.06583872455152709 0.08685744181011584 0.002609458312263601
0.12346223058301778 0.05405247111931266 0.1095358342453525 0.002416138609077193
0.12431472439705599 0.0722857931283601 0.07675339494523967 0.0016648344666931561
0.14545299935710088 0.05368588526791088 0.0988383460972054 0.0009618953667034836
0.13716466786675122 0.05954963530680911 0.09168652177861247 0.00228651145729027
0.13549126072890064 0.05106798399979555 0.10760222586168523 0.0014896511989652941
0.14619354662453263 0.06655407897020994 0.07540609457886649 0.0007482653945647655
0.16152478506320184 0.051242996750033576 0.09864800270961795 0.0012588542842313487
0.1644907953084843 0.05905379100622329 0.08382390665550263 0.0009044386842932966
0.019218361431565224 0.3784239291825805 0.13479690348744894 2.9704798527348224e-05
0.017415327428299918 0.3674000306802583 0.14316985714021385 2.8073042942599035e-05
0.01988879806270269 0.4043133256080341 0.14351286449250963 3.147559200663497e-05
0.017731621237744237 0.38006168731917606 0.1475248776823283 2.602417245214503e-05
0.023159071491580262 0.4055228818711699 0.1181283805967024 2.4550027950451626e-05
0.02028721242542144 0.39204548473441725 0.13368042947575726 1.9214044410981568e-05
0.016236261291395333 0.35207097597033066 0.14439623817242003 3.396317661166241e-05
0.020706884269313473 0.37143485987665437 0.12119342806324986 3.331711381486161e-05
0.017366756592704497 0.34617466252384055 0.13409872225974384 3.3182821703104026e-05
0.019200812222279977 0.3572746870249153 0.12587533498459258 3.417097563284021e-05
0.021950266903339413 0.3937997314366959 0.12170972484953604 2.8683962815307082e-05
0.015142458258972775 0.31868844793591034 0.14075727080217887 5.9912288800029394e-05
0.019501260097162767 0.33622401697659243 0.11675092750751045 2.284329426258815e-05
0.017402366950386727 0.32810645615571243 0.12838697289092965 3.170852952949208e-05
0.01633610503963457 0.3107484760965292 0.13142228609524412 6.45457095978829e-05
0.01460911510285809 0.3034154989053764 0.14159386808368774 8.960071106137361e-05
0.01705106444895258 0.28439794097218796 0.12522575072930672 0.00011379059918109101
0.018225693617244892 0.3058156891323216 0.11915763421359847 8.658648905193991e-05
0.01906714210267196 0.28588622291409443 0.11324580070510573 0.00012524656594527765
0.014368090099584003 0.27790955058561306 0.14096854047553406 7.415513311888985e-05
0.01515150218825062 0.25519820397950144 0.14026476609886773 0.0001691979009990926
0.018486146050445712 0.2498498796760122 0.12292528043517083 0.0001434358868245018
0.0171275310299034 0.261020336880765 0.12810814873053394 0.00018786677801620947
0.01813027561199987 0.27282107237332753 0.12019734648214633 0.0001680883719329165
0.016754435310618543 0.22660409406625984 0.14232865831018815 0.00022354602727774523
0.015954338734449236 0.24245642868071202 0.13870723077243893 0.0001377871885280247
0.020013959054277216 0.2376269128022293 0.12037840491177826 0.00027225891627912624
0.02234699952675227 0.2259810569739346 0.11451576995788186 0.00030486820241126973
0.020036802454960253 0.22424650595002865 0.126897483324382 0.00030718972963178455
0.019895169729329178 0.1927698145573647 0.1487264813936947 0.00026521370363072946
0.02198864721953711 0.19603645383266674 0.13665168723243132 0.00024365582507388732
0.02074558353067111 0.20889355030258133 0.13206573437652314 0.00024510353732633733
0.022382173017845824 0.21323915528739723 0.12120256825145018 0.00017612481090189324
0.02433479486539948 0.1985290757819872 0.12408801245038341 0.0003409460012173341
0.02764482734345677 0.19006367126621582 0.11598108002135561 0.0003489316060306116
0.025671291614226772 0.18574237055476547 0.12826491247443525 0.00033637364146904905
0.02802005513494213 0.15902397602753163 0.1456545247612621 0.00042235804701922246
0.02675699606759313 0.16967923064758447 0.13912890166906397 0.00028886195840466917
0.03547986581751688 0.15685324885392407 0.11828500013013306 0.00035314811063660607
0.030803100583691328 0.16560206470183667 0.1274616825078999 0.0003058568246667868
0.0367516970689436 0.14265792428115742 0.13007973266379386 0.0006938426243698422
0.03703275771076885 0.12863592888111264 0.14702624262397587 0.0005732902754688366
0.03959959943849847 0.14657886995233838 0.11477634922711012 0.0005148228089423978
0.04138542228965523 0.13600354080821392 0.12182665346715986 0.0005263451023283716
0.042355456695251315 0.12600223260580784 0.1323918591967398 0.0011076126741241022
0.043480061707508046 0.11731971708212247 0.1410783764039608 0.000498918698775236
0.05162943838314467 0.099601464347813 0.14331271617426627 0.0011665158018551922
0.048376652196004066 0.1148788789155521 0.12870637957925998 0.00114681782360335
0.05493166001704014 0.10944553160743442 0.1176627052997832 0.0022860866565239937
0.05929090740852642 0.09470931839989415 0.13081433054228045 0.0017319646981644819
0.06766639297600383 0.08752577600602134 0.12292026726305941 0.002161455330621433
0.06404217671195463 0.07987282843431358 0.14540177451736336 0.0026809142837252178
0.07260781946194494 0.07564298594198876 0.13508688492319168 0.001434176418794029
0.07985918742240619 0.0758119318255148 0.12047742394357336 0.0015825713859072903
0.08156318317248955 0.0649922701328296 0.13965425711029358 0.002505837064873415
0.09237070010169546 0.05727712317956929 0.13824882768427849 0.0026389401329140224
0.09429164303843028 0.06864381510001487 0.11104042894926408 0.0019896810345245318
0.09415429203677667 0.06402971019254339 0.12118954237473023 0.001967045537158984
0.10450445382703291 0.04698844407524234 0.14426519701938148 0.0018428533151931136
0.11096402232893507 0.04912512993719981 0.1324223345521842 0.0010839810331709475
0.10684933217509565 0.058117118320343455 0.11694265202912048 0.001506827657900901
0.13124086610734867 0.04751846035641439 0.11784149505561962 0.001460887131410631
0.12862138669489143 0.04315540837601904 0.12985005906548372 0.0019566429566760892
0.13494697439902875 0.03515933964596203 0.14366168265416632 0.0009526784300120677
0.15187722740430215 0.04342930012317988 0.11614234505665046 0.0008015155910136515
0.15021565312569268 0.03552417342935839 0.13498573324215823 0.000991928996689291
0.15569473098054845 0.030273237842642353 0.14559303379477034 0.0010484730852905024
0.15891994153155517 0.038358501475844714 0.1258822341510539 0.0010354431076205247
0.16452188693854328 0.041874464848244516 0.11610711260936532 0.001061328240755756
0.016798379454000645 0.3983003617478579 0.16673959364335245 3.519525948011675e-05
0.015379047224848754 0.38876259597180873 0.17334637220349303 3.409301063798137e-05
0.01892757534893236 0.4102731290248761 0.15515244480840434 3.094292148495548e-05
0.015564097087337097 0.39896574780192073 0.17891563811050318 2.1488571648128924e-05
0.018030652218101444 0.3955779552183346 0.15362468223838782 1.4224208846683994e-05
0.01305455374159497 0.3440514815417536 0.16546523533413035 3.191253978628806e-05
0.01570444792983487 0.3635521852578757 0.15478065594767346 2.5820749911039147e-05
0.015835348446199618 0.3792241740871378 0.16236685390041472 1.6871785685157256e-05
0.01387706653057795 0.3602413039877126 0.1677407934930877 2.771763287941931e-05
0.011988581866501383 0.3300338722238343 0.16788476213106934 3.891125659375753e-05
0.014288328750994487 0.34066501425682305 0.15392032756871615 4.675085729980262e-05
0.010504767779165173 0.328728571580533 0.17919468896754379 4.2594133791903004e-05
0.014080965482008828 0.32581299516007217 0.15029662199614205 5.003076443801067e-05
0.010553920974406043 0.306834899119733 0.1702808740233047 3.7425418731463425e-05
0.013264667612605693 0.3121540506907897 0.15175732510819273 6.097621037895835e-05
0.01111608918609068 0.29692382158313585 0.1646493012319524 5.7571932161828644e-05
0.012835567870466556 0.29002320214820854 0.1516255876219322 6.987026059643804e-05
0.009531012683152776 0.26760503624942467 0.1735078969363046 0.0001072347035113266
0.009900221278082839 0.25314544091200125 0.1736593051637482 8.60650455764959e-05
0.01285329498933246 0.24641186665936693 0.1556097329002411 9.624443456550406e-05
0.01290994665370936 0.2681847698966597 0.150898847784771 0.00010511225661559643
0.01168489269444346 0.2575985281495517 0.1609654138798956 0.00015079672150067436
0.013073955918915124 0.23064008774292322 0.16071733789501827 0.0001504288421741715
0.010519682447334209 0.22982344128536725 0.17665727801971787 0.00017114910815591047
0.014472820302264076 0.20994163308351727 0.1640511271881719 0.00025375295665260765
0.013537213995634555 0.2021117175803117 0.1740345286446924 0.00021730696909636707
0.016478060752438614 0.21024183929937376 0.15197182523386885 0.00021424679156385471
0.016712919597702075 0.197791447859957 0.16088245653294067 0.00035653278082673715
0.01663969973652892 0.18191254292654657 0.17626829855005044 0.0002684250808904389
0.01969388392614374 0.1737666032553969 0.16746940054544118 0.0002459880078427191
0.018098973327028645 0.1856329591768136 0.16485435414773864 0.00024757887861272287
0.023708530574734068 0.15872788693093498 0.16587561045052257 0.00036915372810296366
0.026801558664396343 0.13678726308449166 0.17982775611973986 0.0004431082898568836
0.02274166113544443 0.17192672595190514 0.15320221583839025 0.0003204828149013232
0.026544386783801048 0.14525148682512473 0.16995621613069528 0.0003315706815441121
0.027867262101485556 0.15158871944191413 0.15523938549303162 0.00045851856856703285
0.03170419825179229 0.13363021478873355 0.16197359950514983 0.0003468242879708189
0.03480756922993898 0.12299269146532493 0.16511771896767846 0.0008533682428840402
0.03740500247445899 0.11252012783038216 0.1723856579466344 0.0010785003986797323
0.0439347253778112 0.10985233084776484 0.15029884317367667 0.0008769643257076477
0.04203241109035273 0.10160173835785447 0.1733202510935528 0.0008775782808231812
0.04421920134439286 0.10347923370213939 0.16152230627958597 0.0007953407258907952
0.05057153075156817 0.08971763400603985 0.16554603059290127 0.0017135413701478556
0.054952067358682216 0.07925729839591084 0.17464434114271746 0.0017397075427351377
0.059739034485592264 0.0772698055745644 0.16338402788350803 0.002067756003315432
0.05635681695089238 0.08625995944197995 0.15416518474086413 0.001744673569696959
0.06494459207370087 0.06615011576000837 0.17569515017805307 0.0018249094936940034
0.06890109976122387 0.0674594122178285 0.16149019521810706 0.0022732452484912767
0.07395397902317835 0.0554495115512184 0.17936487474014723 0.0026132671597346867
0.08424833163313894 0.050171041860069904 0.16995333720151432 0.001634884293545559
0.07568515228497759 0.06388075714865704 0.15299976282903505 0.0019334539205112852
