x y z curv
12.521684496645188 0.00836736809504719 267.47037112276973 0.010709038544442639
12.522064522208955 0.007880105699582664 267.4857101980336 0.0010887112904056306
12.54960867081536 0.0010260400918648141 267.5936035187035 0.0010429816845550085
12.561665660512865 0.001432815884814927 267.54667487016445 0.0010933417627632645
12.551803699719995 0.0020097912841639445 267.54111020071815 0.0011640968837707696
12.559204669513077 0.001224790850144893 267.5608225676733 0.0016327942164194493
12.553379769771759 0.0027537627836139483 267.50419164192454 0.0015739629087975014
12.558046597740356 0.0019746932357087594 267.53086431175836 0.0012347118947073719
12.560287542866396 0.0022459082949919254 267.5166746640102 0.001178678845640548
12.562887224282715 0.002855767499414897 267.4902596212572 0.0011634640178885425
12.544206644523815 0.0038684634226729218 267.493120503227 0.0015754682752489267
12.532844515332444 0.005368468965817674 267.49541812799544 0.0013593485156390016
12.549158059563126 0.0037787062933978465 267.4785038228682 0.0017373078930051189
12.534590798968344 0.005710908464977799 267.4723726276831 0.009609356200433228
12.562105583265572 0.003392320599797068 267.4718891311045 0.012899001775143401
12.752648741412221 0.22506588305814432 267.6160229708415 0.0038827653747253847
12.752235784572987 0.23253863068593972 267.5783719143655 3.574428587014352e-05
12.752433293106034 0.22930737970077952 267.59339622436113 5.269119615580554e-05
12.751576845870847 0.22856066143350756 267.54924369769356 6.625878981430428e-05
12.751353480797036 0.23286960363706563 267.5372050917404 2.5173152988048876e-05
12.752014955368976 0.23298109124561905 267.56653761361474 3.90205895486732e-05
12.750624317578222 0.23691478388573037 267.5078312965303 3.3709220306216824e-05
12.751005460190527 0.2284416617144273 267.5260645152387 6.143850348406938e-05
12.750260284912478 0.23169983121885468 267.4970370995254 3.2863495775369475e-05
12.752462222491564 0.2150458595697778 267.6219398419422 0.029346414520512322
12.75222355275433 0.21194081079078747 267.60900978756075 0.00013348550084792945
12.751895962868378 0.21119040602731887 267.5899471076127 0.00010384015943952741
12.751744679819147 0.21401351350931458 267.5757234702651 0.00010373164390723077
12.75166902696551 0.21887686063323492 267.564496321232 7.935179828402698e-05
12.75123752580461 0.21597886419901124 267.5491455205883 0.00011874997066353647
12.750795614097925 0.21277536025629254 267.5343913434821 0.00011016357040386436
12.750342789604233 0.22248552592860876 267.50671387816 6.684544504564801e-05
12.751182866659484 0.19211045839521648 267.6133848792421 0.0015735564473503673
12.75180413688887 0.19974359024960756 267.62401070140413 0.030603238935336948
12.750892113623383 0.19319236817116808 267.588926171238 0.00020367246700649382
12.750787754240111 0.1952260173127211 267.5756053780719 0.00027670876757971476
12.750217490867957 0.19470425117890924 267.5511315057516 0.0002521765161130516
12.750553115362607 0.20397236968398155 267.54167342415116 0.00014836151446328131
12.75099944336031 0.20479892662836882 267.55887105424245 0.0001222041538230894
12.749444905482097 0.19444426170903237 267.5207894389661 0.00010879512436144235
12.750321865544768 0.20908134020632835 267.5212762368473 7.854908407707237e-05
12.749234232021792 0.200296428027346 267.5006263064838 0.00015832865340289058
12.749872034711963 0.17996067492975024 267.59944949622434 0.00039058697725171245
12.749675648222388 0.1813525559571078 267.5809563850757 0.000306355009771481
12.74873316872425 0.17898896906835446 267.5485237126711 0.0003683488385285195
12.749686999748866 0.18377759420024914 267.56931945728974 0.00035989906091364235
12.749712459209917 0.19126140110788215 267.5391768960509 0.00023353934206595233
12.748052595090911 0.1779144312893016 267.525602445391 0.000233996138979801
12.74774721101047 0.1809023752146222 267.50419156446014 0.0003348867614857239
12.747290647489061 0.1595063667585325 267.618777235873 0.014351909216785275
12.749430751720208 0.17404319391675035 267.61675686452156 0.0063049571189809795
12.74853598243831 0.1728436799909577 267.5723694307719 0.0005034544666997875
12.74823776944975 0.16725952824469334 267.59852305843026 0.00027761246023881277
12.746632436665504 0.1614814135486464 267.5624668534898 0.0007129925879753707
12.748218868918832 0.1726634171014924 267.56001465845964 0.0005136301616318024
12.747292603377387 0.17002767185437787 267.53762018272835 0.0004958248243706776
12.746589851359337 0.16993074834941524 267.51296607935694 0.0004230835397295638
12.745122490692962 0.14881641694546602 267.610582818014 0.0006768332215073756
12.743694293734409 0.14372480823398576 267.59393918730393 0.0007409993795794955
12.746353397817396 0.15704510829091334 267.5861680968861 0.0007328683020209536
12.744102160007266 0.14810193617491346 267.56714377033876 0.000761488849993443
12.745549817891007 0.1571003293542776 267.5499565286999 0.0007164610280186277
12.743897379838126 0.15181991171226547 267.5281288958201 0.0003718696294740648
12.739435304712313 0.12735510784536336 267.61965755542315 0.010784914022885375
12.74323081624271 0.14015278067114514 267.62484094915607 0.027087771955460572
12.742053674592318 0.13629729592190792 267.6109960186913 0.0010726902043398745
12.738968179028257 0.1269552806487812 267.5955823366194 0.001138384016114208
12.741815453744106 0.13794138820769442 267.57633901352204 0.0010605424818998426
12.738560006141691 0.12835805852308435 267.55498062651907 0.0012922258658066101
12.741115849555651 0.13648998934553705 267.56426066734736 0.001364429435632631
12.740411063364835 0.13602306293087005 267.54137076809786 0.001330242080360637
12.738242432940137 0.13194547076822924 267.50558794434744 0.0013649365075559645
12.74058378706085 0.1382521960486297 267.52478658448234 0.0008930763828230914
12.73609734222209 0.11832333499877722 267.61090865089903 0.0010659910796347943
12.734980323943022 0.11617936877132189 267.5974735542664 0.0008966087956699552
12.733999309684016 0.11483355672962749 267.57784269100074 0.0017563015259344477
12.73813276618413 0.12529215621556802 267.5821434675725 0.0009582992952115504
12.734817506225145 0.11816713132065504 267.55851200997364 0.0007204664457631566
12.737200377479155 0.12365589676030632 267.56895174957657 0.0013906548103657709
12.735651392746195 0.12130706137576577 267.544027816436 0.00132706161789399
12.7314529878867 0.11302380626643943 267.50867253409535 0.0008205906161590859
12.736082198790616 0.12426846450675588 267.51982586948645 0.0012368042611298957
12.727140422371082 0.09872509460844527 267.61880232646956 0.005889828494174341
12.729345951622925 0.10369569025403771 267.5971985529133 0.001283978766674405
12.72910128152749 0.10386927619765549 267.583303939988 0.0016124369950240049
12.727755432457725 0.10234934074052265 267.55934155581394 0.0009431000455279796
12.730451577468191 0.10842208574440342 267.5486358818363 0.0011300060710822746
12.727093932873544 0.10205087380703759 267.5398605374196 0.0012323936370174054
12.729074350249443 0.10686725789048045 267.5272159164785 0.00155954941360052
12.724907916083605 0.09878118413257622 267.52052083273645 0.0012046358735744382
12.72154441116832 0.08888552254319455 267.61732847816086 0.01861043364482313
12.722459701325844 0.09099006678209771 267.59807604193315 0.0016717119097020628
12.723813794615332 0.0944025801638311 267.56983345180544 0.0015435058617564441
12.721259529773654 0.09145178706286593 267.54259175007513 0.001420408510396131
12.71643590708132 0.08482910927465165 267.51644390944466 0.001189575213342305
12.719639355285173 0.08944573715200077 267.5291368828703 0.0017062660142821283
12.721776880847475 0.09416383745761603 267.5084402147529 0.0014075537723353738
12.716926327558795 0.08659053647442128 267.4992560295271 0.0011715623508500332
12.714198184451362 0.07783060476625359 267.61931807791825 0.0177526676651441
12.709456597501235 0.07211018444851891 267.5924079177905 0.001558159429977993
12.70817520029698 0.07084977012612345 267.5782199967603 0.001636972963118397
12.71679857336494 0.08236030265062307 267.5861176070205 0.0013503182567330017
12.715585616036542 0.08006374626489558 267.60581686438127 0.001274274698869477
12.713606934436138 0.07936621471581723 267.5491654478318 0.0011765986336132307
12.716542865942063 0.08278832219304895 267.56324470831004 0.0011776250671246763
12.709708356837163 0.07477343783777883 267.5320457777257 0.0015067483356575855
12.710260384749763 0.0764654529683019 267.51240351813743 0.0012068433389663047
12.706417525104445 0.06771952120452032 267.61737860364883 0.004358561561853131
12.699398528084133 0.060095365357891284 267.5988881907071 0.0014212041292639775
12.701873800361222 0.06375236446390774 267.57090379252423 0.0013107239183877898
12.704276216232648 0.06701539357678138 267.5556278657036 0.0010165906418969745
12.702173253117177 0.0651259708426438 267.54217216869773 0.0011442818371942953
12.697402249608261 0.06006816315463502 267.53279376386126 0.001496125310821796
12.7013340589297 0.0657351122078912 267.5052094972609 0.0014200400441444093
12.688551611477319 0.04888942335623679 267.6214793086986 0.01780471680573218
12.692346318190792 0.05264222964355482 267.60855318385865 0.0011636403641768838
12.688148400667256 0.04896121537466462 267.5971954193602 0.0010085287300898847
12.685106965473512 0.046781702085237985 267.5734669855192 0.0014545280017872488
12.692557925014196 0.05349599734265421 267.58421622396384 0.0013885917947608194
12.68441060253369 0.047216852405803866 267.53935856734324 0.0012879095086757919
12.695244067425918 0.05669361478698654 267.5630411184537 0.0012984933243788096
12.692160683686275 0.054431534475865725 267.5432998913001 0.0016556025665772339
12.689890013641545 0.05286061621929588 267.52713628668437 0.0016445289427317222
12.686197908010524 0.04982140349648985 267.5152322167585 0.0015730409230146937
12.694481252697926 0.057732224528182385 267.51456865261866 0.0017430320553388304
12.69169733281509 0.055550016993231296 267.5029256407547 0.0010017143783945086
12.678245143041543 0.04017291778367062 267.61560278365505 0.014570727886160826
12.678214644512426 0.04101729573066372 267.5803394665985 0.0011786454283703686
12.675902061580734 0.03883067754058706 267.59343777675156 0.0011399633500618826
12.68306727838585 0.04540442355577019 267.5611565579426 0.0013018324644295056
12.676554119662125 0.0413927459315203 267.5257105912494 0.0012230348815454723
12.682857599019103 0.04730394041595594 267.5012301726769 0.001089941569070121
12.67675655256756 0.042066951948169576 267.5115421807026 0.001158134034565101
12.660892989251233 0.028041376305399643 267.6183236176496 0.02197577467665178
12.660825834787609 0.028397489502210497 267.5945873986516 0.0010727433681687961
12.666784021286828 0.032504718413560764 267.58493745745363 0.0015234141762794434
12.667319663824252 0.03318989432987808 267.5720939129966 0.001991046726054211
12.669171727450331 0.03370214501245793 267.60294864255843 0.0009552234072670215
12.66216073914805 0.030565515951273 267.54558385599984 0.0014559255986455685
12.669648460666565 0.03571881847403981 267.5370328554188 0.0014510387621391512
12.670824745674466 0.035854682415028316 267.5589850398829 0.0009037018842666743
12.662453272276947 0.03135131406138054 267.5264063432074 0.0014971769073963035
12.659602740154288 0.02986392106963364 267.5151120257242 0.0017578179790853517
12.665582916423785 0.03415868976777081 267.50447673408473 0.0011162509712884
12.653625578817456 0.023683671125128765 267.6257744501642 0.0341471024188551
12.6446061391989 0.019254402295037373 267.60375636411743 0.0012123518143817083
12.649944814937236 0.022397867071473163 267.58605326025935 0.0011951995812733603
12.646231891872432 0.020974345729277935 267.5641129550467 0.0011813122842843993
12.655049493542448 0.025484716845747987 267.5713170644747 0.0009630369398635708
12.64643814533986 0.021863698903497743 267.53496672940594 0.0012408967949641245
12.655647479735816 0.02626426116384238 267.5543296095373 0.0012227717050158115
12.649789051275661 0.024201985410465435 267.5178079449018 0.0012564880370402082
12.642762041418102 0.021040875731864018 267.49892456521445 0.0010882044079402761
12.633229687568326 0.01403129215860944 267.61269622096677 0.0012243775657499669
12.641818356107777 0.017623006635235645 267.6257630864279 0.037973373248755646
12.634504295105547 0.015190828046055732 267.5817250684021 0.001620416559307497
12.634012689709767 0.014542501585250446 267.60037408021367 0.0009696781111693432
12.63458043403293 0.015540374940406656 267.568469387915 0.0017220008390508616
12.630782816124444 0.01423766524544548 267.55608044957705 0.0012222042376344813
12.635953316978974 0.016720722566487642 267.54503268376214 0.0015551415797360286
12.6328417858217 0.016104113019716572 267.51998936640973 0.0011636429607763178
12.623339159462718 0.010227506047280097 267.62180725844183 0.03511853613138365
12.616582781285079 0.008862376255797924 267.57489731613884 0.0016760026799950917
12.620140328156992 0.009740617148322871 267.58709000745176 0.0015386760302773985
12.624185206567947 0.010695462422609499 267.6068355960822 0.0010815718170731877
12.612303858361344 0.008003201406092706 267.5526684053814 0.0014008568172684819
12.612645902142443 0.00841651169236722 267.5400199287485 0.0013671357637886762
12.623864075307978 0.01212559588015498 267.5377512285026 0.0013440060408410157
12.616233427717775 0.009930363137078195 267.527195393148 0.001384026387197743
12.624025530617557 0.013305616722004731 267.49903289007574 0.0011129063180642302
12.625957335268735 0.013577234317056892 267.5112247451168 0.001601749583638426
12.59990904696197 0.003852763341192626 267.62310597775416 0.03770713015927661
12.610131977286109 0.006300020260910907 267.6146551751466 0.005623049544875017
12.604391700189638 0.005124784452135789 267.5990050390144 0.001261655838810036
12.60335749135828 0.0053223202149480404 267.5789298230123 0.001812799317998007
12.609376002667442 0.006991351675912177 267.5656364159598 0.0014242086621453287
12.601205965246422 0.0053520143652163055 267.5558461608917 0.0014270880011977083
12.597470996486036 0.0041848931291650696 267.56952975271116 0.0017867213201767662
12.603351571307728 0.006465668953802694 267.53015790074494 0.0011507665439751227
12.601398053071161 0.006512710946989672 267.5122670273536 0.0011338227655673654
12.607864022959635 0.008344762731820223 267.50044382524504 0.001400555061340932
12.590219750250045 0.0021976348007732485 267.61798266333346 0.0085115390331731
12.581462752616122 0.0015071485663288053 267.5888386657631 0.0014221490460750385
12.582933298822098 0.0014633411387445028 267.60213301767624 0.0009857289308696602
12.58398226265339 0.0020396071109651257 267.57753759857707 0.0016830693736830423
12.583185064884663 0.002319445389774767 267.55982905576 0.0011464578994932026
12.587764246824372 0.0035788590723574783 267.5322446713227 0.0012358444710296955
12.587846029066629 0.0042664182043121454 267.5073893240663 0.0015125542985291328
12.752900052864247 0.23810354644783893 267.6265769015536 0.05475160173280557
12.752815455064724 0.22486993056958832 267.6412288979299 0.08653830386986108
12.752177407883586 0.20541624312425377 267.63605405491796 0.08175972595740844
12.751067151157539 0.23994228075201518 267.5234703479451 1.178728478447722e-05
12.749939264088752 0.2190830243537834 267.49604526960564 8.332074033447678e-05
12.748187516783766 0.20077207735969613 267.4631114599423 0.004528920866707898
12.74959464425792 0.22756614968933 267.47621688341985 0.00030443105894666225
12.74936540854366 0.24010176599617777 267.463546633359 0.0024462353722788394
12.749391842631885 0.2113804204654752 267.4851997237106 0.00022910143620393343
12.749070975805509 0.2209471323420325 267.46367188967366 0.0056194363309943355
12.747662457077066 0.19039438113613832 267.47041839003634 0.002243349732048004
12.748317484391732 0.194322158081679 267.48152702711195 0.00033029595531879497
12.744618877581686 0.1455724965230807 267.6359861967995 0.05367304016463945
12.749943154158657 0.177189883700134 267.6333487384102 0.07705979671754506
12.747934040867513 0.16271582514721036 267.6321998664484 0.05396732825851233
12.7467668943457 0.1555804178214763 267.6443988616086 0.07916568790177231
12.737396090156423 0.1211993448531267 267.6362513557839 0.06469210178604327
12.734386285493507 0.11347873473692417 267.6449987704768 0.06571163794344123
12.731652700762004 0.10758685728272062 267.62848299218507 0.0499634495949947
12.72283275411921 0.09077819001791057 267.635759303556 0.05691034359342855
12.713147462087868 0.07604115048577965 267.645361159998 0.06576797455420076
12.717603315969644 0.08253995843912923 267.6292517683496 0.06425154142611422
12.750491236548932 0.18163799799870198 267.64436140531126 0.08918969855233079
12.698168222903945 0.05821808903111361 267.6310807857785 0.057998794326579714
12.700171334797446 0.06025840378200558 267.6433468330792 0.055546234747863285
12.676983793405121 0.03894147537016925 267.64301762659863 0.05461944648365874
12.678695677088985 0.04035629487102106 267.6310693917805 0.04976668650262715
12.58714747356659 0.0015798797802205004 267.64491305883047 0.06844741364695993
12.582443144898203 0.0010919556633551693 267.6328872489217 0.05628841202015495
12.60808714529168 0.0055978331774046725 267.63594844334966 0.072814956843618
12.660662544050457 0.02770385749738158 267.63622777857427 0.06788592447942353
12.668288879500672 0.03274401789652434 267.627628189824 0.053811843891722944
12.647841895564266 0.020445684648757703 267.6413093993983 0.06002517763423693
12.637011017899312 0.015322758605966677 267.64290608414603 0.06716428061999506
12.619772915557578 0.00889867383880813 267.6369066247516 0.06340539052844121
12.567111457826563 0.00011332712286736112 267.6358371745898 0.0693405308918419
12.745677488823567 0.1731615957118498 267.4664794994848 0.004602443945983192
12.744672200263935 0.1636158217010763 267.4781550424292 0.002197115506263107
12.746107496117157 0.1713753055133252 267.48930554514556 0.00036671241919771305
12.737904296803809 0.13538587523933096 267.4624465085046 0.0035688780530174604
12.737193906580302 0.13098028814788207 267.4796386529676 0.002723848284168108
12.739682529251372 0.13848366452865574 267.49305992420693 0.0008932616053326793
12.743608909910964 0.1548909086922346 267.49700741112576 0.0005387102828832242
12.742220180732005 0.14994157197360303 267.4833455862556 0.0005921190501590386
12.724540555294832 0.09977216349869969 267.4936388466177 0.0011795721528012652
12.728078063462572 0.10823760768763784 267.4757893052298 0.0031591050426017114
12.730835364808916 0.11272178632622595 267.4941356450803 0.0008250981238894464
12.709628833557847 0.07805995039674717 267.462602933019 0.016466521554674447
12.707550390940579 0.07354164510095111 267.4964285543606 0.001079618944116752
12.711626412439436 0.08009970822380592 267.47589397521057 0.006273463734207662
12.703202226299524 0.06927705838251591 267.4737077950025 0.00605034892864375
12.699823446922535 0.06472747180339458 267.48841963231047 0.001165996848925301
12.72112945810131 0.09449197474126472 267.4826028164423 0.0013378262710784941
12.735016272530201 0.12393939376577778 267.48920377977896 0.0014391924740796845
12.732709135800114 0.118932577464334 267.4743956541266 0.004231179896703245
12.659141438057109 0.031022897760973705 267.47311775262517 0.009453143911624053
12.661248166032635 0.031699957689051816 267.4926186955134 0.0008558651737363068
12.634432141862595 0.0183903715393768 267.46482064240803 0.018310692885391784
12.630847675930301 0.01621178535638436 267.4877083340096 0.001511205629861014
12.642290353543526 0.021652793937009234 267.4752059996864 0.0030893985448891743
12.650902726856728 0.026455962281154072 267.4669525669523 0.01595101906727014
12.648449892883278 0.024424705919275293 267.488961956808 0.0013571800131223519
12.679843231743456 0.04602063473654165 267.4713059537968 0.0050664724712456
12.678731094856747 0.04453361618419563 267.48687721857175 0.0013955020804908285
12.615629929341601 0.010894130644727077 267.4870306646502 0.001469846008474145
12.620034092828277 0.012691929156936753 267.4746235910467 0.0065008303349023
12.743219377271803 0.15808461762492448 267.4636074528143 0.0037345026140944365
12.748299079723537 0.18981890244089242 267.49356499646336 0.00028824847350584256
12.746704311254293 0.17843607099519673 267.47773542625515 0.001473398084193381
12.717687824204157 0.08952823694121942 267.4682098621406 0.00562878204808197
12.694815017981666 0.05993397881275325 267.4722504712508 0.006897230229899058
12.668154631495657 0.03654968840209674 267.48326565502396 0.0011468352404007344
12.611330865469698 0.010274356185248792 267.4649261521488 0.018111032469297354
12.606294593993422 0.008573793883057814 267.47759532295447 0.0037327507382506455
12.569469806168653 0.0006527241784603447 267.5941795153009 0.0013086073537876542
12.57863590749495 0.0021047747109877155 267.54558372614156 0.0010367867996054836
12.569791169674367 0.0014635753463335059 267.5557822457073 0.0011916422774307855
12.568867452094498 0.0002486346173471606 267.6226611092277 0.025517848501688055
12.564918168200627 0.0007904055397185442 267.577926273386 0.0016735513426535179
12.573018280434235 0.002924384810483165 267.4982102422356 0.0011340978038606642
12.577146725111287 0.002801939951218676 267.51329109233393 0.0011811546433412143
12.570161807374408 0.0021868328729450774 267.52617577888276 0.0010722909413570067
12.579904546006707 0.0037001123067367256 267.4887299660054 0.0013911072333111837
12.574117363488831 0.003830282995526225 267.4698743197946 0.009469066834955827
12.584528378861492 0.004996284992607545 267.4642898141154 0.016783099892443434
12.59740979424941 0.006853690447750375 267.4697091373304 0.009262262698976943
12.594914135893085 0.005881830544203278 267.4848612827826 0.0013959386657127334
12.56726891336387 0.0014306285405519719 267.6492366646863 0.08569610260287526
12.625499383607522 0.01209213927535386 267.64875160031096 0.06640878356734028
12.662863538007523 0.030644201663709916 267.64897089097497 0.06481449881226171
12.737376575989106 0.12519375611518183 267.6491669739541 0.06773464554209992
12.741905336930863 0.1396023266062994 267.64890226836195 0.09058178597254525
12.745870902808633 0.17158432761775355 267.65077220718223 0.08495710229856927
12.74559015210441 0.19089852902968557 267.6514496908562 0.10568734948737783
12.747372778997956 0.21620020335947115 267.65140050280735 0.09230216221963378
12.61402101227851 0.0076522667014182 267.6476549617644 0.0568240617197859
12.688826246504517 0.04893865432783908 267.64554541900424 0.06670402836307378
12.718509705719821 0.09148789775304016 267.6511166683618 0.0742995401361804
12.751797266549072 0.20541744873454332 267.64760225328547 0.07206437766524176
12.751530743200167 0.24890534501544467 267.6493963761371 0.10060988267197694
12.750532733286795 0.3561743056257919 267.65033025352363 0.06287648202997653
12.751029502329082 0.3716889554411741 267.64980833375375 0.0944361022040847
12.749481446717404 0.512176118251027 267.65038912813407 0.06420029663524532
12.750510695083175 0.5281123918554587 267.64915287606516 0.056558600171613606
12.749662037797076 0.5411796415502582 267.64997471268197 0.09745575137685585
12.752897299396317 0.38918605174349874 267.64574771351147 0.08804428156283226
12.747452827358172 0.4849167762024099 267.65143603916573 0.08519921177213395
12.751338900024109 0.540172138114705 267.62567538101683 0.08981383575878576
12.751027940837943 0.5422142415461196 267.59902846646565 0.06598841950575766
12.751353720172455 0.5266159128817167 267.6073620921149 0.014538008471827433
12.751875583636451 0.48990307071299694 267.6128376633166 0.0010808468510339253
12.751694095887625 0.4932795467651888 267.59995280313564 2.059614735309036e-06
12.75164824333448 0.5038956469538636 267.60762437098515 1.8390523932625013e-06
12.752100095963216 0.47572751075562664 267.6191284256683 0.008065891861793868
12.752100199428977 0.46627346656075974 267.60994799356166 1.7125003922485509e-06
12.751836236495986 0.4811524019840776 267.600174670848 2.1804256354557146e-06
12.752286094460661 0.4425023771358902 267.60658078353947 1.6392578594960045e-06
12.752451806959073 0.43837094891205897 267.6183810541942 0.022321702191778172
12.752545505474895 0.42354256541481905 267.61665480303395 0.010299379176639934
12.752451800952079 0.4143626985313572 267.60177707000463 2.2048150791554676e-06
12.7523834681047 0.43099882667567063 267.6068733137865 2.145910132685918e-06
12.752788510833144 0.39483816184045323 267.6218997584164 0.03155197475041269
12.752609684079776 0.40607984853848156 267.61152960721245 0.0001443233440731884
12.752795398259575 0.3669861508438902 267.61055818986137 0.00020455801345074833
12.752810591796857 0.3833200367424759 267.61837947938045 0.021824053669235618
12.752907758299433 0.3387083330525167 267.6133085080562 0.003940609405614071
12.752962704469482 0.3490837451149718 267.6209293361034 0.03643016897834837
12.752782893765675 0.35315556522456243 267.60543059645795 2.3557441366716833e-06
12.752848182071808 0.3211129578387481 267.60601384659924 1.8667034186965374e-06
12.752995651965453 0.30853853567286493 267.61905660981813 0.026382026582378343
12.752913243996794 0.29524562907663066 267.61205024817707 1.5079675962809451e-06
12.75286380974968 0.30605345499081565 267.60705565259406 2.390750569144272e-06
12.752962051842438 0.2660501269359383 267.62115876637006 0.02997343038205881
12.752953852779239 0.28159557156675924 267.617492744897 0.013011515756442583
12.752784569295986 0.2827016754806708 267.6017420112407 1.8558854852070401e-06
12.750897295640096 0.5370778424563696 267.585398157274 0.03482578319522389
12.750947887788154 0.5230143676840515 267.57699154018667 4.128001484586712e-06
12.751201460193089 0.5226863826394095 267.59217552854955 0.00035730211330127986
12.751514337160893 0.4928818262372984 267.5882693809359 1.8105369522153383e-06
12.75143043642268 0.5078094599593379 267.5943908922454 1.9193063771945183e-06
12.75126622136548 0.4995344602062295 267.5778425185172 1.5005025384052112e-06
12.751908517829136 0.46969063492359886 267.59688196778507 1.4671901696152393e-06
12.751611633594493 0.47384256361862365 267.5810926911872 2.0350617579426387e-06
12.752047256187478 0.44893370373928365 267.5930048259869 1.5223119064981276e-06
12.751830625635595 0.4498419891161874 267.5799919910637 1.1341934663366417e-06
12.751810510484288 0.4607292001847128 267.58485555272034 1.2533885613058075e-06
12.75207973174342 0.43348396517220733 267.5866923887906 1.464423717631729e-06
12.752513043841887 0.3914837037620019 267.59628652814496 2.144362574531652e-06
12.752229096258652 0.39786935494578474 267.58089895596794 1.1997336692614179e-06
12.752342378494145 0.4050297421210991 267.5905934561521 1.3880157774347609e-06
12.752632749826715 0.36777632259550513 267.5970608965121 1.4782498052952003e-06
12.752240574968559 0.38285372045327887 267.57660771585734 1.1641916946025229e-06
12.752439565989132 0.3760201240301114 267.587204001305 1.976894495054544e-06
12.752571542029752 0.3565310069294511 267.5908935358417 1.7205015984716683e-06
12.752498095435232 0.33565025941493415 267.58307813221603 1.2417377250665974e-06
12.752686291887446 0.334303184868796 267.5947325651113 1.7860286463065815e-06
12.75252119733928 0.2930187759899144 267.58360859450676 1.2326868134697774e-06
12.752692226685827 0.2994479690477535 267.5941009753623 1.7415218423384712e-06
12.75270084253998 0.3128013936122669 267.59425598171526 1.6843550528714727e-06
12.75252291519086 0.2703745791735338 267.58561615069004 1.9820464669793e-06
12.75268534774685 0.26578398414538335 267.5967728347415 1.9565081465788788e-06
12.752469369739373 0.2564635825395198 267.58467633213513 2.1182359148523853e-06
12.750519013128189 0.5406562473710057 267.5675742267633 0.06816663296276824
12.75060715984708 0.5469170109281333 267.5771246825409 0.06091524483007621
12.750618104843152 0.5193802007433151 267.55802080549927 1.0644986275794187e-06
12.75107323157231 0.4954296219075048 267.56556936519576 1.3481710227786293e-06
12.751381121524833 0.48655647392849966 267.5753868979239 1.285079233612077e-06
12.750875312519888 0.5081947388544026 267.56348880652405 1.1480430696784062e-06
12.751380245518781 0.4731953696798569 267.56836523067665 1.0974174578491196e-06
12.75116056585712 0.4829019250629054 267.5626170287693 1.378420057536312e-06
12.751838333462857 0.4389295764064331 267.57475716406236 1.2046059162001792e-06
12.75159120695247 0.43919377993225917 267.5627291982474 7.995063216332611e-07
12.751516711016768 0.45876787632349736 267.56772937374944 1.135725561788588e-06
12.75175389433325 0.4240896383100848 267.56502915843134 1.5262279122048404e-06
12.751993413865938 0.4009407921848353 267.56922219781245 1.0058011587588377e-06
12.752046374291675 0.4109300510798918 267.574706321024 1.7904457957804668e-06
12.75169170633182 0.405187233691677 267.5556161345198 7.224210287386876e-07
12.752241353905198 0.3698587273390295 267.57384624319633 1.486950793794102e-06
12.751873298363922 0.38437293257363914 267.5588085272966 1.1008489465344026e-06
12.75226058822974 0.33936492667326695 267.57022473182207 1.3459262938091935e-06
12.752311513461006 0.3574494065045835 267.57513139120914 1.6689837774917117e-06
12.751917402695172 0.363091758421044 267.5565082606908 9.859645690015751e-07
12.752005818893302 0.34612164611435964 267.5585991556645 1.0351365100953066e-06
12.752397640460504 0.3259538152536916 267.5761646109512 1.9993913186826064e-06
12.752116727622665 0.32843583731434883 267.56249321301294 1.4595162673557142e-06
12.7523157348788 0.29808216563628176 267.5716140845423 1.555834041940726e-06
12.752152850829338 0.3111057486062285 267.563473779579 1.2171707925845155e-06
12.752401506211172 0.31283767775417803 267.57569670260995 1.1056630792478953e-06
12.752136854673262 0.2756283544285629 267.5638862382786 1.410469146139648e-06
12.752334430281355 0.28293201751076724 267.57333688034447 8.738583426470975e-07
12.751954515806302 0.2839758310373956 267.5546469481541 6.843584131526142e-07
12.752243745510548 0.2590307297926643 267.5716013357305 1.8993142192782797e-06
12.749930237952748 0.5402341347341705 267.5405695662203 0.05280127590962489
12.750322456931762 0.5136191397044874 267.5417137384015 9.401987571911096e-07
12.75024396715682 0.5316766727993243 267.5487429242579 0.0222584142693661
12.750663785247069 0.5053535958807492 267.55164895026707 8.461236445563322e-07
12.750700618992719 0.4935681816451972 267.54717397402214 9.328195027314146e-07
12.750370944025892 0.48714745575157464 267.53008370732584 5.92576705524477e-07
12.75111033451334 0.46771515054586277 267.55238132479946 6.16339750665015e-07
12.75080086643543 0.4775254119513365 267.5437656801167 7.349379716718438e-07
12.750567131329126 0.47388306249885 267.53235856133585 6.093441168440944e-07
12.751251334604799 0.4426801949573952 267.5483915023715 8.861976976067372e-07
12.750924459197064 0.4495254417486032 267.5372781812877 6.45259309492413e-07
12.751529819167763 0.42065364029845453 267.5528167817623 7.734142275692127e-07
12.750883256901956 0.43669654023546267 267.53073149787076 6.28617144880687e-07
12.75117482689335 0.43048862364682683 267.54101232866833 8.00387844248888e-07
12.751263493692269 0.4054083845631 267.5373662877046 7.197974236279555e-07
12.751771797298288 0.37407054418775154 267.55187216371957 8.672267830750171e-07
12.751447025381163 0.37009236734483264 267.5375497800299 7.529396523634852e-07
12.751335804046434 0.3828063221433249 267.5351727321077 7.697549406844016e-07
12.75171619101062 0.3506819750041124 267.5461755004761 8.787657697939782e-07
12.751883192767064 0.3333041585346079 267.5515575027932 6.258393874736409e-07
12.751555906679378 0.3333412034710157 267.53784506623646 5.791207622971774e-07
12.751743568190651 0.31220431506621593 267.54483619955926 5.514337367667066e-07
12.751480074601712 0.30174630368808375 267.53399635933806 7.399781727502798e-07
12.751766214830077 0.2686743069171759 267.5477624030397 9.887600315164177e-07
12.75163150034891 0.28888751621473685 267.54061456460624 6.494293149149637e-07
12.751883775662492 0.254362704317749 267.55478352766556 5.33727975493332e-06
12.751365189989965 0.2634284054062252 267.53165568312266 9.572323171296544e-07
12.749124708032829 0.5439441598689613 267.5114732192269 0.08071328210181067
12.74947236010813 0.5420038190874275 267.5234036559126 0.07692480999788666
12.74886298264797 0.5556448146673254 267.50848575166094 0.08280418165328506
12.749507875114539 0.5165199071140951 267.5113641902755 3.372553988339284e-07
12.749760523780566 0.5219717954174016 267.5236325661186 0.0032310799592403508
12.75006833809882 0.5078037413111408 267.5281638043178 4.6832221091814546e-07
12.74979964426689 0.4903632864975306 267.51006505210086 3.969545287355202e-07
12.749823184500453 0.5016910499425502 267.5161427226465 4.642634544927129e-07
12.75018713127211 0.47285513315390304 267.5174156142971 3.889521275476931e-07
12.750368255272331 0.43892583767442384 267.51202593512744 3.8802595361166255e-07
12.750610734281402 0.45327966540924014 267.5260067423875 5.460077581874266e-07
12.750253845762188 0.4591019192305864 267.5145555633179 4.422510654115201e-07
12.750933684427203 0.41574206881906256 267.52668578863984 5.145558413575836e-07
12.750761265006377 0.42674832127750684 267.5232826040513 4.145393587302328e-07
12.750719553256484 0.3935555581021636 267.5135416454702 2.5510470580693914e-07
12.751124048098944 0.39441489991029244 267.52894269999445 4.3240795544031884e-07
12.751036177409606 0.3821597995748321 267.5232710934639 5.583251622668626e-07
12.750661775007428 0.38262145105585943 267.50926567119524 2.8716852223913994e-07
12.751337087011645 0.3479374748370234 267.5299811626463 4.3452269676925864e-07
12.751255044258981 0.35953382238412274 267.5280748891427 4.6632514535288985e-07
12.750833445706537 0.34530776168636246 267.5107736850576 3.279825252331206e-07
12.750894534508411 0.36151493183284017 267.51471890028483 3.8428676588593767e-07
12.750964073484507 0.31862304445568945 267.51416272208644 3.1163546861715686e-07
12.75129345872173 0.3240618258888711 267.5267792301675 6.163602928168051e-07
12.750992095948481 0.3325102140148525 267.51580266494227 4.365754932126685e-07
12.75126014592348 0.3118480792577833 267.5251182781752 5.621772636602443e-07
12.750809246576852 0.2976471606271846 267.5083936218433 3.3815012315643075e-07
12.751338438595514 0.2752370871495847 267.5293952148759 5.351561897650635e-07
12.751306949174515 0.2893387066753192 267.5272335874274 5.454337483244593e-07
12.751057568003839 0.2805947707514628 267.5182054303104 4.5685778256892866e-07
12.750963320074007 0.2573247125646062 267.5169003189655 2.1119409106499047e-06
12.748330133420701 0.5478439715037244 267.48545356432794 0.0666650532229831
12.748847193114708 0.5361780541530183 267.4973427817786 0.04387320980497138
12.748711077456367 0.5253025387153141 267.48726331184326 0.010250965438071401
12.748880146719184 0.5119359971879214 267.4868865012751 3.577196859163725e-05
12.749184768235253 0.5289063277630954 267.505750272999 0.017699229984115335
12.74938723395663 0.5077860219576315 267.5028035338523 3.0877067912718793e-07
12.74927169445052 0.4894599372356964 267.490904019826 4.309045757323945e-07
12.749757369070007 0.4716109472851069 267.50112762692544 2.0935034660389046e-07
12.749947123372916 0.4588710744651525 267.5031811035207 2.634440776448423e-07
12.74963798122739 0.4505796991784813 267.48963336889994 1.2793888100014298e-05
12.750018521333978 0.4148712927046696 267.4929880693843 2.3289605324965676e-06
12.750253373697234 0.426197394195769 267.50419923657466 3.4435344573863564e-07
12.74994300689658 0.436039495829567 267.4958950437353 2.2263660841613081e-07
12.750251998159444 0.4012303563870812 267.49820947494266 2.1312355449264878e-07
12.750039375858936 0.3880647775373237 267.4881144769746 1.1130952523228266e-06
12.750284017020615 0.37960104978901843 267.49531772524193 2.751647160724703e-07
12.750480594843017 0.36550082956340235 267.5001409515701 2.624907642752166e-07
12.750322572575996 0.3187332766596538 267.4911714323115 1.5345497766671624e-05
12.75012262356949 0.3356332548618329 267.48482245525184 9.087967617778459e-05
12.750463667549019 0.3378718058668834 267.49687470070415 2.1010380536688003e-07
12.750419085157517 0.2954869356792423 267.4946750217532 2.9504948890875204e-07
12.750569719351876 0.3061351842314567 267.4997865648243 1.7034940341245154e-07
12.75061266980783 0.2771262941408959 267.50226921709185 1.8304212672782887e-07
12.750672065540446 0.26463003144983865 267.505417900282 4.285635924774219e-07
12.750189566255191 0.2810846524665454 267.48720333406385 9.084330432278184e-05
12.75041483430896 0.25273372357916346 267.4975885728843 3.900203504554451e-06
12.750316702668119 0.2641687610064471 267.4928917072083 4.147038141566046e-07
12.7475818377344 0.5572447437327093 267.4650932324774 0.0761568860325634
12.751196839042171 0.5535642046761846 267.63559333578326 0.10648337336700045
12.751059492297824 0.5560096903265483 267.6208769394421 0.0754174856509267
12.751445401663966 0.5378258129152915 267.6391764770636 0.11299654045782181
12.75160153542738 0.5214438182383235 267.6257876546692 0.024527960737689248
12.750950898741761 0.5540813659725512 267.6071325632229 0.07416161538963727
12.75008649077862 0.5524300254303327 267.5553878888422 0.08208050948904774
12.749742371529209 0.5584427927624871 267.5445087092148 0.05390891970868016
12.749541394283348 0.5548958786863519 267.5338485085405 0.08211947924396218
12.751915008395818 0.4960845477738202 267.62421419939335 0.04166907915070712
12.751783954643859 0.5076284486418194 267.62607561951717 0.043868594894570755
12.75203903676357 0.49380056127736816 267.6431671385438 0.06840498111585304
12.75214618892159 0.4785195741012723 267.62989174093707 0.05970153972180286
12.752247064516956 0.47652532085467625 267.64559717593716 0.0815061159549761
12.752426291457057 0.44864074736793125 267.6266275945964 0.046553136968166486
12.752516999734166 0.44810854445376136 267.6432779784045 0.07328388286730238
12.752329198676819 0.46174995363716625 267.6311123552582 0.05484273354267381
12.752579022783344 0.4331783072228978 267.63041591369324 0.050238217955672695
12.752717272912491 0.42417740150645145 267.6441777126307 0.06748380176457809
12.752785514066847 0.4128687171901297 267.6419184705387 0.0773260306492559
12.752839160254794 0.3999122549024221 267.6365378238105 0.08928586237963786
12.752920111258312 0.3828925909959675 267.6345170760287 0.05016993073705568
12.752954808940556 0.3641921562762537 267.62577173094695 0.04886656635463251
12.752987435431336 0.36965896458967984 267.6366943267874 0.06763716052541088
12.753050731748864 0.344801566363597 267.6337596466818 0.06200260027804782
12.753039249453852 0.3578684942288397 267.63866379696054 0.08882070842737579
12.753097919551394 0.30072544622733743 267.63548427449547 0.06788020236228928
12.753140334150375 0.3114896452503811 267.64330429391947 0.0667304600380998
12.753066180498573 0.3213830549658658 267.6298340559938 0.06612616185872866
12.75302186447377 0.33582127062814937 267.6244220361668 0.035453138180624295
12.75300039895825 0.2576927871590754 267.63225192050663 0.06047731135481783
12.752996958148774 0.24617494781346566 267.63832716857416 0.07590451225065506
12.753061430067694 0.285109929465336 267.6312161612954 0.04998262380781954
12.753101529802858 0.332678385469348 267.6390951329996 0.07045781007420868
12.752868997792742 0.24728062688844846 267.61808441787923 0.015856427102016374
12.752829696589433 0.25827062073138285 267.61115957103857 0.00015209942734859395
12.75273711611809 0.24195686919776208 267.60731089229733 8.669147315993815e-06
12.752565514677311 0.24757639222857736 267.59280719557535 1.1501635807885984e-05
12.752218842166698 0.24585518423544073 267.5727579108341 1.1136752661797033e-05
12.748463526422182 0.5561933081217052 267.4945733258046 0.07233825721969968
12.74833605911165 0.5313910907816854 267.4773308579866 0.018665386893084713
12.74805851990454 0.5271508431422707 267.4659639964589 0.02002420046414269
12.748475506928123 0.5174742971402682 267.4755354908788 0.0004930614846993417
12.74859345810938 0.5063147798097953 267.47460395370376 0.0013709845261869675
12.748701408634979 0.4886039769466479 267.47101054218973 0.002172817195999555
12.747999105649466 0.5444893776070059 267.4724733059945 0.052363815843095796
12.748805893835375 0.4697618920507872 267.4676078744158 0.0018781205528984718
12.749195537308337 0.4607302601093207 267.4776222295096 0.0011741500204319679
12.749101130728578 0.4462933051830498 267.4699434231757 0.0016265150986287473
12.749157972614837 0.473945577101333 267.4808992172432 1.3489057623413998e-05
12.749196952585148 0.43229301395405595 267.46921410894765 0.0017543198593585397
12.749662248934603 0.3988227260221939 267.47714921087396 0.0005186420796288602
12.749357471735582 0.37872786619807813 267.463416791591 0.0030000396375582735
12.749720559616152 0.3809918302350558 267.4759975559873 0.0009313958774120922
12.74928912156302 0.41035317826573403 267.46696391022147 0.0033301512656173904
12.749952254452207 0.3219227265447178 267.47847399982743 7.312430241989657e-05
12.749971959642288 0.35214991543750807 267.4810176244303 9.294443195108389e-05
12.749414620936275 0.3480319733857654 267.4617055936382 0.00331556811422106
12.749776097064174 0.33803047805253356 267.47316216569095 0.0019940787292455514
12.749948606451454 0.37056708241983727 267.48218106583704 9.276626884383111e-05
12.74964181224522 0.3643592354227239 267.47104287104014 0.002038144497702893
12.749725419430444 0.27532744244353696 267.4717270527927 0.0026352680196834294
12.749539142639692 0.31998175503961557 267.46439515492375 0.004284532092715873
12.750025424309497 0.29482004138638424 267.4809470209391 0.00012298347900547345
12.749769594747676 0.3066526509388026 267.4720780022574 0.002176029693019175
12.74965614868257 0.4208875848843333 267.4817918424347 0.000652696480224569
12.74975856042101 0.26337497383685265 267.4738464807505 0.0014187163609539082
12.749570387214886 0.2525616189649841 267.46868163176254 0.0023957252951530153
12.748115912044682 0.4978319063316169 267.45699242479054 0.0041196315113945295
12.748392155148162 0.4768716247737753 267.4575770937277 0.005431463183487543
12.747740518647165 0.5208763719187472 267.4557957306203 0.004662576640154831
12.74870103162838 0.42541208835105526 267.45537275966467 0.0054683239063791494
12.74899169449487 0.3876695417668596 267.45593254244716 0.005217968859679893
12.74729276699433 0.5340758926868441 267.4533931825049 0.02182662024970492
12.7479586438667 0.4608070153587155 267.4522216998249 0.004928595633684654
12.746973298597695 0.5087993319291217 267.45023814732997 0.00570920469833196
12.747043912450016 0.4454268476998074 267.4483034778929 0.004430429955495812
12.746316109581176 0.4324360214519263 267.44609467350784 0.006410713741840518
12.746489280894776 0.3988230432764467 267.44601548289023 0.0050137709122245475
12.747618628742941 0.544844704279647 267.4600268269624 0.06874988978297232
12.744426346965794 0.5273519236461954 267.4438847512664 0.012552849693874484
12.743424955658217 0.5490379175074626 267.44225255829963 0.062346240398652254
12.74545370249622 0.4188188820316423 267.44383181999785 0.005905880127512935
12.749117321744198 0.33820601420932395 267.4555398371758 0.005146001272414418
12.748640679011729 0.31862469060074516 267.45211414297927 0.005548093670610912
12.747592382058237 0.35207097433421614 267.44844901393213 0.005564802114181931
12.747876014631924 0.3015497319793148 267.44919755816744 0.005934211069568853
12.747731429610898 0.28406950414553794 267.4488909555798 0.005953955009157602
12.747098208312543 0.2711859684701134 267.4472872292156 0.004421349776025113
12.74935158941136 0.308784589503531 267.4585657868926 0.00434475777137799
12.749411108566246 0.2879143507276233 267.4604330056858 0.0042413678867451714
12.747367024440019 0.25090286160417746 267.4485825931084 0.0057181933870628
12.388422144686501 0.3601371811827858 267.42759768011695 0.0009940758038277262
12.4240571944096 0.3623217287275739 267.3713436121167 0.0040614443874478975
12.419879585422905 0.35287115059584717 267.37675913797267 0.0022527230927314673
12.391179279196319 0.3217887288601313 267.4222396257943 0.0002988718003572906
12.387275921632352 0.3304855340781847 267.42982691661547 0.0025887471745898493
12.398443261482736 0.32756653710932365 267.4093501096836 0.0002570365509984688
12.415443870758716 0.3397733946050299 267.38282390830034 0.000381902669317656
12.407815412996854 0.3307858270818788 267.39405251792914 0.00030606114148847653
12.432197219099832 0.33903735388619755 267.36119823537973 0.015672789100743618
12.386040639101015 0.3158394672672996 267.43226203415117 0.0026959653825180557
12.382261632362177 0.3081396920240095 267.44009138457136 0.005284763686374061
12.403969426460515 0.316503159297757 267.4001860328583 0.0003669390290717158
12.396842044207581 0.31034809754797327 267.41217219720426 0.0002451518677052977
12.416534821851037 0.3269552085362432 267.381375211142 0.00029339035245940073
12.4249966084449 0.3242113951234679 267.3701542159977 0.00523265087639019
12.390842211284532 0.29542985459705257 267.42321231845665 0.0009691263711595252
12.385259327102222 0.29620528480568914 267.4339950807076 0.00461376826173403
12.414854381893171 0.3118923258351476 267.38391669367473 0.0004685932762880778
12.412293060451116 0.29900379393615145 267.3879249679535 0.0005023190917759062
12.428799716082564 0.31372414588792596 267.36564429238786 0.014553955341201732
12.400845232210385 0.2832893387299077 267.4064164981306 0.00032281642013154486
12.393953057633084 0.2847246896333655 267.41787597807814 0.0002816447609893514
12.418967315690775 0.2920882797455287 267.3790617320801 0.001753882139286188
12.409152142733411 0.2872084897790096 267.39300798558367 0.0003920228493167342
12.423368476384843 0.30559623124234325 267.3726635292552 0.005190442782917663
12.388314518238484 0.25416269655666 267.4290440981127 0.0010137878468618811
12.405940827016778 0.2730504157371189 267.39850550330885 0.0004524101493573936
12.420906210339947 0.27474444529800696 267.3777969996895 0.0015360217992829578
12.413575626588683 0.275639538317009 267.3872868745265 0.0008848735127182931
12.427513662838312 0.28746671647198063 267.368686527263 0.006875071191645936
12.401958240218939 0.24776937470096339 267.4067001335446 0.0005966836962255531
12.388652386856439 0.2265850360826966 267.4300682662597 0.0022634241762614898
12.38521730639734 0.21046272353158635 267.43776948096655 0.0026111173818784677
12.434442126544957 0.2672670979724863 267.36336821520354 0.01289352200555437
12.39242164892909 0.2098486558947444 267.42576106107316 0.0017541417319980037
12.411425905161435 0.22313663448775647 267.39672143224925 0.0012780953380262985
12.40292458638035 0.22837349517169153 267.40717429670923 0.0015379067185022815
12.395761687523647 0.21900772264044185 267.41915717739033 0.0011550966919412183
12.421848715047188 0.23511281524989688 267.38231941480024 0.00176206437567287
12.419323945767168 0.247337335116575 267.3829994197285 0.0009340180375439053
12.39680610158857 0.18805286425592 267.4236930162211 0.0014726197700669773
12.401877470985081 0.20959183408683316 267.4119275619424 0.001888111936546618
12.3974426617324 0.2014150068064542 267.4197306937426 0.0019009641069357873
12.42052656525184 0.2149994237517632 267.38860171154624 0.0016256904333775653
12.395336419037204 0.16981475060394313 267.43063813138565 0.006737972919266213
12.399978450485316 0.17657785383663702 267.4225439340535 0.0013435139084610702
12.413876502152448 0.19643896839998964 267.40036876832744 0.0015242889003923578
12.407228588770481 0.18630016340636502 267.4108150653092 0.0017563027910149067
12.429386440454678 0.22169006307693065 267.3779543596272 0.0016864667364526193
12.442874774951491 0.23489779585394163 267.362732288787 0.01045434175704693
12.402072999688809 0.15772138913045336 267.42613827976123 0.002250830689522676
12.39496257972926 0.15476395787597969 267.4359660877957 0.005987101034577684
12.399497780234 0.14302699905219482 267.43481305415037 0.006053202345479251
12.418974531857295 0.1772356897317141 267.40130004061643 0.00237953058474321
