x y z curv
0.10507193399008241 8.757216563756616 0.272818185214481 0.05478463190836187
0.13623549262504503 8.757216571327543 0.28606045371357464 0.07185035319527276
0.17885453007098956 8.75721658304192 0.2557232582776279 0.006266553405229406
0.22615731838602773 8.757216597374374 0.07304142124723358 0.006926858940279559
0.1293924641511825 8.75721656748163 0.049727514046897826 0.07384673197162804
0.20369126785140365 8.757216590563347 0.07153777060652267 0.00354687407352437
0.08799545989481589 8.757216557121813 0.1132237342876179 -1.9755177701882156e-11
0.04649220895797142 8.757216545068676 0.1264609910939007 0.02414327473405223
0.04088111613657176 8.757216542825159 0.10967662135960801 0.048779095394621955
0.1383036560311207 8.757216571250668 0.08261593838417529 -5.0119834026865886e-14
0.024547905554748485 8.757216538825373 0.13738178701840245 0.08247686910206753
0.19389122943277254 8.757216587336877 0.06315562768134152 0.042544433608015325
0.09827425957299868 8.75721656052921 0.12272037499146574 -5.894567315431618e-11
0.15839434643545913 8.757216577754114 0.09644133881029848 -1.6998620398382902e-11
0.08582576223019436 8.757216556073303 0.10125834488443236 4.8924091814023194e-11
0.25281336302016916 8.757216604913838 0.05843378845867386 0.041983013426550295
0.07024557153624919 8.75721655091196 0.086968127084692 -3.493528509907622e-11
0.27059715549872393 8.75721661039706 0.06239866660306492 0.0412706096860844
0.21459003203993696 8.757216594000294 0.07628378169543737 0.00010125009287720293
0.1272131141167695 8.757216567235066 0.062110454698127524 0.033469527281048024
0.09735010043067457 8.757216557539925 0.04070264357081869 0.060472652463048136
0.24028872109274743 8.757216601493056 0.06897961118054619 0.026629225823137592
0.15686926446915492 8.757216575577743 0.044487023205293436 0.057842219906691514
0.03067498406563097 8.757216539100595 0.08992351924613262 0.06209348228129831
0.0775795621957393 8.757216554833764 0.1388377877313108 -4.2961342844868186e-14
0.0930367016003046 8.757216556703057 0.0546573265343171 0.05897419203429374
0.1158666639486106 8.75721656589953 0.12501218702746175 1.8753190591538285e-11
0.10481255857583979 8.757216560733363 0.06936816906939071 0.009592803422659653
0.19396087478703916 8.757216586716082 0.043741226834223844 0.06291428735695867
0.14674202793067184 8.757216574307462 0.0982623819303204 -1.7839958588123553e-11
0.12535654347929956 8.757216568116155 0.10566834702125044 -4.4349272361249095e-14
0.045476832704920755 8.757216542795915 0.06695007153149421 0.05668946698115908
0.08177926189208594 8.757216553112215 0.04852119675424396 0.07560794828020087
0.051176193489415704 8.757216543751243 0.043960481119081636 0.08117006055237126
0.20449158766577688 8.757216590369685 0.058392503849827054 0.04129146267817512
0.13998355871826917 8.75721657136762 0.07085917531005623 0.014614563384890492
0.13988313962688498 8.757216570917793 0.05816534600138712 0.060790982551351916
0.17692623932972876 8.75721658258971 0.07400303489638727 0.005543127114302321
0.2845038569040062 8.757216614354187 0.0554953042516608 0.051542440654040296
0.10510992989913308 8.757216560366642 0.05556660730740228 0.05436733257797806
0.1173407127796109 8.757216564670523 0.07441175662432692 0.0011315694120079074
0.15294512690853726 8.757216576554612 0.10976664500706357 -4.149739210901253e-14
0.23887615166819334 8.757216600500552 0.051815265863860274 0.05949744880941231
0.04197974742760651 8.75721654222625 0.08155592966522598 0.05239730209768823
0.10402761546507978 8.757216561182522 0.09010263758056805 -3.122499927556481e-11
0.05136726986225425 8.757216544250008 0.057309459941800096 0.05914629807457504
0.059139266850726645 8.757216547004223 0.06986927660072897 0.015256840102242993
0.16577857977403238 8.757216579039179 0.06808693367497867 0.018793591913301478
0.069815558736146 8.757216549292693 0.041897246458070754 0.06741628123462014
0.020390015330928293 8.757216538148178 0.15475103553056851 0.07970361954508118
0.05200624127450627 8.757216545624956 0.09308679453905386 0.02682906425151377
0.0714547750569192 8.75721655204952 0.11037239612734376 -4.4887160968249123e-14
0.19138477857477942 8.757216587432204 0.08885959235305592 -5.194683620439614e-11
0.03223649580394409 8.757216540806542 0.12731492551610893 0.08689912248306804
0.04085605461114393 8.757216544048847 0.14692379911387504 0.05208074653048009
0.2932423482433533 8.757216616738267 0.048058375719148456 0.06148747362478592
0.023217378243271945 8.757216537875857 0.12077091073325247 0.08509602415294432
0.21796153674097743 8.757216594250655 0.05316169579489902 0.047568161625490886
0.1822415755898572 8.75721658351499 0.05360083621598155 0.04854113215813467
0.08830376579265195 8.757216555880804 0.07287376387962283 0.017701823662726372
0.16237525684337623 8.757216577559937 0.05432270061177513 0.035274172276274676
0.05911822706972244 8.757216548431558 0.11324061073578807 -1.6280403052115675e-11
0.062448118977781936 8.757216549025898 0.10090343159817813 -3.562915965913223e-11
0.10820913816549378 8.757216563227844 0.11390675809230079 -2.0039030185353622e-11
0.13191498883533218 8.757216569694947 0.0937182247402922 -5.2501345545631604e-11
0.058352297178547875 8.757216547144946 0.08129149246310449 0.015995629867469455
0.0625487706369777 8.757216550101884 0.13253764823818182 -3.6530238864374534e-11
0.03783421602329304 8.757216539867873 0.0479535744964661 0.09721871954988066
0.1121523150239053 8.757216563942514 0.0996260881258135 1.8830714175513638e-11
0.022335672782798764 8.757216537071475 0.10446433773781158 0.07014253470945168
0.23108316186427708 8.757216598484801 0.061786458681659856 0.032334934405858835
0.16175019786335681 8.757216578213363 0.0797809818156595 7.365169054038389e-11
0.07536583468230218 8.75721655208578 0.07586082255481931 0.008126595726507852
0.07040980445327215 8.757216549915606 0.055331280393779506 0.03153975330745872
0.09212620385911989 8.757216557552987 0.08865901431855469 -1.6440009456463742e-11
0.0497619564298392 8.757216546428708 0.13783509148625392 0.019937620897147755
0.1525201659547037 8.757216574976583 0.06589728865851122 0.035712452388862004
0.08604192238857203 8.757216556943892 0.12562730871235572 -1.6133031569406882e-11
0.035430916168697785 8.757216539549312 0.06019747675801361 0.07790312456411731
0.2520123760313236 8.75721660426123 0.04598376592559611 0.05751978925442084
0.17466860427836559 8.75721658237834 0.08816345526776186 -5.1014819535292256e-11
0.1917021286077818 8.757216587095215 0.07577567136249419 0.0036257173982823304
0.2210416284767843 8.75721659540045 0.10953264249612703 -3.3479924487132186e-11
0.16840288596027686 8.757216579882606 0.1420648502654948 -3.0861049534687333e-11
0.06877445973048146 8.757216552047133 0.1531636538530813 -1.8281106974882838e-11
0.16303148711800164 8.757216579004607 0.12218476953611926 -3.6549382640817626e-11
0.31157881413687194 8.757216619148583 0.15032974164137392 0.01695724936111437
0.17541077994686072 8.757216582901332 0.10640084483207214 -5.159254292100438e-11
0.12582828848326463 8.757216568199041 0.13985341957061262 -3.9060061256526044e-14
0.2846127971090499 8.757216611978379 0.14136672572700548 -3.275866418684021e-14
0.1996694583542037 8.75721658855908 0.1405279290872292 -1.8285624389881494e-11
0.2397157210088549 8.757216599914932 0.1305679867760228 -1.8045197774246383e-11
0.30224473093014237 8.757216617892652 0.10691112981438303 0.005292827784206403
0.1862180005092067 8.757216586082235 0.0998879322387076 -6.775725070172297e-11
0.26389943322269177 8.757216607060627 0.11508369800403934 -4.18093174495871e-14
0.2411027717427086 8.757216601817285 0.08059883008441662 -3.6803433600107026e-11
0.11469301068245198 8.757216565008896 0.14369273854651046 -3.340645848001875e-11
0.31215754641756166 8.757216621393455 0.08176032304048197 0.04650972882866832
0.29119819272581704 8.757216615718463 0.07814629699114979 1.6526586411953294e-11
0.207924443981985 8.757216590223639 0.16071466679148047 -1.84599186915305e-11
0.3211296041840275 8.75721662464156 0.05638081529040577 0.07914276525831847
0.3143792738038337 8.757216620923296 0.11738666504000139 0.04800328334499339
0.2857284275237359 8.757216612716485 0.12722014553861352 -3.601005126416027e-14
0.2865145078817301 8.757216611838453 0.16322883428175952 -1.7150589432326572e-11
0.2198364360265533 8.757216593690488 0.15482572214413587 -1.8224066720805936e-11
0.12074470068395846 8.757216566178073 0.1601720101512647 -3.7873422270545057e-14
0.05799458489017598 8.757216548826324 0.16123704117688215 -1.8321515218098835e-11
0.24226702929947574 8.757216601590615 0.09862008368613134 -3.8501661033022163e-14
0.3108642101603343 8.757216619455622 0.1337467815247518 0.021022648277919907
0.3277805976158103 8.757216625739787 0.08063281717976842 0.07291458868337729
0.2869741623786344 8.75721661375721 0.10430282738610379 3.245533258917959e-11
0.25602137826997917 8.757216603993331 0.14444690479071576 -4.560159530175756e-11
0.27470034976373725 8.757216611159157 0.07833751806733336 0.0002386833218417387
0.25851862354975924 8.75721660432117 0.15633192892604156 -5.0182469795451016e-11
0.057324773164677156 8.757216549032231 0.1483864264474566 -1.717103821422702e-11
0.2570350940764776 8.757216604831264 0.12609255631518274 -4.062813397038501e-14
0.2247579813521587 8.757216595520115 0.1393285668237075 -3.437140958420279e-11
0.08922027940307099 8.757216558107157 0.13945496256324239 1.612844256607131e-11
0.27191156855098375 8.757216608767125 0.13168702631849305 -4.186264204921462e-14
0.2529604254102128 8.757216605006121 0.08335910566569586 -4.115507969870247e-14
0.1384844370175988 8.757216570922985 0.1651490482910909 5.1106458862717225e-11
0.2201840113454084 8.757216595640303 0.093861130230944 -3.518556166778592e-11
0.330333372546087 8.75721662423502 0.15328673497904918 0.06360087641350866
0.127503282302009 8.757216569225754 0.12129306497748223 6.963627032905798e-11
0.10719250008702813 8.757216562676547 0.152314143602443 -3.276512076062459e-14
0.3022044386274108 8.75721661740063 0.12272544588858147 -4.1318370346924994e-14
0.30009926160460426 8.757216618479823 0.06812891992544222 0.020205022257055772
0.2754370485984615 8.757216609014826 0.1555400232489578 -5.092102559877695e-11
0.1848869874698137 8.757216584325818 0.14556657995208716 -4.832613560127296e-11
0.16250830836936586 8.757216577838756 0.15577501431404972 -1.7392262480905222e-11
0.21190952040755828 8.75721659179412 0.14523972242658462 -3.9156179575728584e-11
0.2728499780542432 8.757216609733899 0.10841223070652606 -1.6347430524645158e-11
0.13862478048911994 8.75721657164659 0.1426273080578999 -1.8757787606316785e-11
0.23194890423555836 8.757216596937017 0.15800161109487773 -4.6614578367305286e-14
0.18600253987855353 8.75721658559575 0.11393032336108141 -3.2468764147102785e-11
0.21194551216886712 8.757216592655489 0.11724040610879036 -1.6684533023877157e-11
0.29618815539757726 8.757216614727236 0.15603348089229394 -5.354208669160136e-11
0.2534303051345105 8.757216605503896 0.07125470517877003 0.014619877051578615
0.31496520163716835 8.757216621507434 0.10349552029648615 0.03660255207923852
0.24746176433083777 8.757216602613527 0.11213124553134927 -3.778419674290703e-14
0.2054160652006807 8.757216591545184 0.0944888358383551 -5.0361229547612726e-11
0.33841663737515437 8.757216627217481 0.12857584161055988 0.06238024529671633
0.2203608663713488 8.757216594675016 0.12720959371475984 -4.82583822262028e-11
0.13976453340946074 8.757216572674636 0.11916500939910951 1.7599829737129412e-11
0.23700350708833 8.75721659957162 0.11724063579644382 -6.72645365202178e-11
0.03188509054121639 8.757216541657327 0.16000846921848066 0.07929408084261344
0.2309052906965735 8.757216598319088 0.10308016163522843 -5.3030575689468184e-11
0.3305822124224579 8.757216625780693 0.10471612147685568 0.056128709167097064
0.15070722913683593 8.757216575475633 0.12637484173811311 -1.5900942370694573e-11
0.1849825835689323 8.757216583906589 0.1602205642216885 -5.369129736216728e-11
0.26493184802240766 8.757216608245564 0.0854878180745739 -1.922437368280702e-11
0.19916254980414635 8.757216589455929 0.10643427817391805 -3.515367838445166e-11
0.30742944685536816 8.757216619754704 0.09273630101331391 0.029087221213850753
0.18466800779316628 8.757216584862583 0.1259276655201437 -3.0095079626376187e-11
0.261359478193818 8.757216606923738 0.09653169076302569 1.7838839790848438e-11
0.3338814729459869 8.757216627133458 0.09017604392371348 0.051999016974658224
0.13142883942314945 8.757216569326697 0.15360341582819795 1.8527611500212405e-11
0.28299624717875815 8.757216613000905 0.09306873082812664 -1.6803478776202477e-11
0.33989529235611293 8.757216627197682 0.1426478200326372 0.07894714289036829
0.2468498846759576 8.757216600975562 0.16044181875782465 3.1709082208836066e-11
0.3211108831558838 8.75721662349061 0.09405967518485148 0.055803390208215675
0.2970562359162282 8.757216615637901 0.13396536170732554 1.7872636779739153e-11
0.19486650218684054 8.757216586871035 0.15244549483494516 -7.142846727101346e-11
0.08964106700657745 8.757216557682082 0.15725273432079487 1.731744614075017e-11
0.14957859521827796 8.757216574071009 0.16232169560651943 -1.612191076407193e-11
0.10580544992302879 8.75721656292433 0.13157639448952124 -3.8037934925736696e-11
0.20497399689171458 8.757216590450343 0.12648011579240287 -3.465867107064692e-14
0.2315729284566944 8.757216598973963 0.08760443914172308 -3.8888189945994604e-14
0.15264817115553392 8.75721657545742 0.14459043101560387 -1.6925430104774356e-11
0.32558891266766254 8.75721662337293 0.13857390629777097 0.07013022437480129
0.16895565949450325 8.57769188245221 0.1401901855468708 0.008957555777760742
0.15446840351372626 8.577920339254616 0.1401901855468708 0.00670407237992121
0.195785040787672 8.574057969981324 0.1401901855468708 0.0061497718001416015
0.1820063865211664 8.577346811278975 0.1401901855468708 0.008205725428134388
0.19453373215881584 8.526675544683657 0.1401901855468708 0.0038137376372996547
0.1710307883567858 8.524905178245863 0.1401901855468708 0.0039461963433435904
0.1875530930538093 8.539524587843083 0.1401901855468708 0.004200882597614345
0.14259424508842428 8.549373235202728 0.1401901855468708 0.004055655548520539
0.15524502148171404 8.55525741136784 0.1401901855468708 0.004192746254003215
0.19010116174227049 8.586183437960099 0.1401901855468708 0.008476004697182597
0.21096785671297424 8.572158232366814 0.1401901855468708 0.0037281571384933715
0.21224099859027054 8.55344923055866 0.1401901855468708 0.0018713911332611012
0.2115037857382318 8.537411120360929 0.1401901855468708 0.0022066257834622203
0.1039227721159758 8.64041934025623 0.229910868942381 -5.746694818091301e-12
0.10633097069852467 8.642870085243148 0.25279027662628817 0.000511852592425312
0.10196095712423134 8.636780461694453 0.1959388591973994 3.9709098245418415e-05
0.11502216335915852 8.63834389735054 0.21053371770327678 3.1948712091914846e-11
0.11614027170975878 8.636960479937859 0.19761838648427066 9.585404011503697e-12
0.10243425986050957 8.638904326602658 0.21576705983249223 1.9534675218160525e-05
0.16951313893975056 8.6434189386417 0.2579050167695959 0.017219450855529884
0.13122436349714195 8.646843635097671 0.28988191588351186 0.053722401052990594
0.16000199370390694 8.644194768286498 0.265149222428499 0.046799235748090966
0.16502878138909233 8.646591430511892 0.287520785460757 0.08836543313943447
0.1597577070438149 8.645524335387453 0.2775606345077431 0.0634255575906272
0.14408757011232262 8.64499989862832 0.2726682403062347 0.0545182370790539
0.12045466013244449 8.643398692865356 0.2577233270371234 0.019199243617258874
0.1513510330430745 8.64280631344727 0.2521890510011668 3.1836995275635515e-06
0.11815150474712086 8.645383609131363 0.27625427747638265 0.06473356990148547
0.1632813329299556 8.642364833058375 0.24806597055007726 -1.7847177708039253e-11
0.12830193439809795 8.644302133105167 0.2661565960109254 0.021758953444731
0.10350871064961555 8.644127549265754 0.26453012061307757 0.044838927780204034
0.0911521492281263 8.644317744652557 0.26630776398731404 0.015690414415294205
0.10521275642234656 8.645899745439257 0.2810747682158651 0.04779063201381463
0.08706449626782067 8.646042825885702 0.28241391176736524 0.07500728414087053
0.1312244313146384 8.6411220494937 0.23646787134981448 9.137611582265588e-12
0.12216075106312853 8.640188279484377 0.2277516511892272 9.215484706867576e-12
0.14058481948900614 8.642233641034517 0.24684414117350414 4.571887737101828e-11
0.12488549185837586 8.642101955492613 0.2456167993509708 3.1517721102220415e-11
0.1228344025202587 8.63493340172116 0.1786938897099666 0.02262807542901496
0.1424004846206767 8.634028140922059 0.17024296555843127 0.035699586576029056
0.1480324573467697 8.632850965955186 0.15925326684051738 0.040107568430013917
0.14706690158317268 8.636054587118494 0.18916018690906203 2.2625881034358747e-05
0.1554548437254994 8.634077884245318 0.1707072917839142 0.03272842072127931
0.12758352925593816 8.636429400576667 0.19265972289969768 0.0007928609838508825
0.13607765356314488 8.635467797642459 0.1836828342309272 0.008374330199590416
0.15970803212044132 8.635571008819777 0.18464554792062338 0.0012597094065867037
0.1269992539993529 8.639035182158482 0.21698669332626508 4.654396317327695e-11
0.12932050660181782 8.637658174626269 0.20413116036192253 1.7616937213661853e-11
0.1424080143769243 8.638021753265413 0.2075247968341162 8.94287801469606e-11
0.1489904311250255 8.6396933061318 0.22312850967629327 3.402302815262018e-11
0.161442903381294 8.638296947080672 0.21009255224498746 6.0152304106896e-11
0.15428203410534777 8.641084549447283 0.23611508746620946 -2.961806001334178e-11
0.09102591566517373 8.641851773759784 0.24328560000315652 0.00041619245295541294
0.09033205319687303 8.640665797038864 0.23221352780425494 0.00023380064638952965
0.0856200557293013 8.64319287186102 0.25580683701588264 0.012102361640819957
0.06939832589107438 8.64173418463894 0.24219100946367858 0.04015975545246724
0.06727975101694589 8.644995312338619 0.2726375388633178 0.0801785752534822
0.07824514294554955 8.644139662897903 0.26464732394979174 0.034593981106588456
0.07539868754331179 8.639601861890439 0.22228274866999267 0.03272531084245753
0.08267504788168556 8.638221049520945 0.20939029874879356 0.016978128705042783
0.09107670590664052 8.639259775368554 0.21908680947966375 5.689498586545162e-05
0.08826373288060382 8.637042755399364 0.19838909188949747 0.010967034625775732
0.07347315394892993 8.635301234545942 0.18213155955837873 0.04532399652878639
0.08350511182238873 8.635897589770487 0.18769821447096124 0.022177821688223878
0.11022279606624545 8.633663240679859 0.16683659763640404 0.03563843292136677
0.09630767165827814 8.634571231344633 0.17531412578773373 0.0412594854001127
0.09139837442560127 8.63282176663689 0.1589813607706821 0.04273004419448307
0.08021861077794651 8.633281625482663 0.1632750333089147 0.05172133574066592
0.0691848040103478 8.636602593572531 0.19502584847047216 0.055907278308661434
0.06292218720863658 8.638710815722776 0.22008043978853653 0.06326728026380905
0.06947001666795197 8.633722401887635 0.1707978669431582 0.0506686555273969
0.0634173589501411 8.636840140026745 0.20537662780691707 0.05360815867450237
0.054199360758058854 8.641000715086466 0.25812503603748554 0.08628231583146724
0.05612006800069531 8.638951027794674 0.23980617937379387 0.06692076291186368
0.0493428185150631 8.643557694701274 0.2895053232601771 0.0812217648687352
0.05070435215502142 8.641654094997705 0.274528976753592 0.12017914277011488
0.05823985020544629 8.630764939979388 0.19228127476138757 0.04518652431563819
0.045958432062743304 8.633896592319624 0.2652396683811652 0.09850314757435125
0.04238921938126129 8.629992745842332 0.2774660938138982 0.09407520057587491
0.04937376169757312 8.62991897778706 0.23584431941591194 0.0299149984107302
0.05688709248833072 8.62557046471628 0.18242092636727641 0.054549867199208076
0.04645767469137019 8.626484489229167 0.24795986718632695 0.03489633011276004
0.05044343775412472 8.623961731821229 0.21914801772128234 0.04738829700713337
0.05243779430475313 8.62118660627891 0.20400284803415814 0.05890890044764208
0.05791708996899576 8.62027226582981 0.166187286283263 0.048878774778633824
0.05161035458724063 8.58895931036807 0.20906240122283284 3.5090691127167053e-06
0.04912536040412928 8.602024182985296 0.2265942870707917 0.009311372849893765
0.049204283219716254 8.589675999838375 0.22604238719446706 2.939395495922631e-06
0.04510105931687196 8.594983324030142 0.25499976442165895 0.000534206086350811
0.042994003687827936 8.619242436281038 0.2698510563790941 0.07687800909877432
0.04511439938936176 8.614406947972197 0.25489306348539353 0.025924264475076578
0.04889398273756752 8.613443920990655 0.2282141188142123 0.03717106289551555
0.042207747334815186 8.607098525917278 0.2754169398040354 0.055700753430918334
0.053535455984021485 8.607379898015537 0.1954611452306531 0.018138106119178876
0.055646366293416454 8.61346926925465 0.18055428318503622 0.0459056374594368
0.058579548940397366 8.609437344080225 0.15985611498586275 0.03909128660545996
0.04224380586630306 8.568495702020996 0.27515041677961233 0.05170960625549192
0.04304199628086506 8.58810649431724 0.26952827266787754 0.0371174539589934
0.046223303563386595 8.606424106971104 0.24707493247162976 0.005740576151081762
0.041779642925673946 8.483073671575184 0.27872894461463044 0.046333435252357155
0.04126184238205943 8.47251772451975 0.28244021061654767 0.06357135957317887
0.04143708971891116 8.496041717761164 0.28107938504556135 0.0509104288766079
0.04057019182865584 8.5190718086052 0.2870790310729122 0.05700879702549109
0.050525165440241895 8.561250101237071 0.21673454720823432 1.2345502841023988e-09
0.0572388187294814 8.555367890103739 0.1693881278287305 0.03378736861139285
0.04952146116780047 8.550386460596018 0.22381664934184808 8.624791041919635e-09
0.04763044823384911 8.577251288661627 0.23714457613345 1.0759054964885789e-09
0.04265269509766604 8.554253715471681 0.27225764552824666 0.046282522026514464
0.04622530909561265 8.563945319421592 0.24705858587630825 3.6202087717785284e-09
0.055937399094632564 8.56309178753972 0.17856399008896023 0.03097534491365558
0.052644502674733494 8.562347492250998 0.201787497032545 1.2234460632256265e-09
0.05459849900174306 8.55509799113826 0.1880091637545246 0.010196136710487108
0.045203567766830946 8.552839928366476 0.2542679715852115 1.0859847135648709e-08
0.05031857460201739 8.578968498365208 0.21818592366070513 8.411189133594005e-10
0.04819233361798904 8.56077787034541 0.23318707764899893 5.501420574740333e-09
0.05176015136297047 8.573660778548513 0.20802083278956818 9.164370931658846e-10
0.04404626627733502 8.504024543798764 0.26261591839038734 0.025327692754569496
0.04221638655317497 8.516637757406285 0.27546918006052373 0.053050685977348355
0.045626240220926755 8.485363419896325 0.25155881139034386 7.884782294109828e-06
0.044089064235204256 8.475939331860067 0.2624611851878381 0.028707335845506502
0.04666863120591766 8.498031496103632 0.24413266985268453 7.684750446658425e-07
0.0441945110479805 8.565421723767576 0.261382816421618 0.01511075089228433
0.044330264682353494 8.57922733654373 0.26043525054837074 0.007404864503170756
0.040426823639010914 8.557358396542618 0.28796202787541353 0.06408051506355661
0.04031577562096713 8.572669324869127 0.2887459854576872 0.045989049115322866
0.04079103603004347 8.599569279831798 0.2854000157481398 0.08342470789661573
0.040638765215832345 8.61407865255822 0.286474345967204 0.08347839329571523
0.054620590941875186 8.596840045325369 0.18781219373733243 0.011055539632477074
0.057466893512658296 8.590458983439234 0.16773129629263012 0.0424330522536338
0.05531650006225584 8.580454367210848 0.182920048407673 0.012917440621095979
0.05358314122343028 8.57453371172263 0.19516082226498924 1.0469222717954242e-09
0.05878930885730395 8.573447819000902 0.15842351472562474 0.03864870113607453
0.056723014455926535 8.60272041547517 0.172968166627871 0.045252377205770924
0.05725895764290159 8.513459219188954 0.16932404757121589 0.042297816888311995
0.05560608209748765 8.502118944124526 0.18102131388206363 0.027021241803278473
0.05623153692002607 8.539441572860172 0.17651048012830478 0.018628801298199164
0.04792614107969877 8.546333601900411 0.23507098358823 7.865253894119735e-09
0.0542553022987592 8.537653911403865 0.19044952895082937 0.007823570033255699
0.05012716562007512 8.53879718349853 0.21955981073198347 6.4161410560460025e-09
0.05762566903849147 8.534174103774806 0.16668637525213942 0.04173953801754748
0.05137983982634141 8.547327038102747 0.21071387800743757 7.75903590152672e-09
0.0428806956153021 8.539268866123212 0.2706717050410369 0.027580815945623702
0.047189059617234796 8.535905789497964 0.24029421472119236 9.634438059246781e-09
0.04520561586955125 8.515531844041732 0.2543723892556791 0.00427707394614832
0.05206850195950081 8.531255727946462 0.20589373410483763 5.49044963607538e-09
0.05027839699109522 8.519592186898347 0.218571009300777 5.113464045112877e-07
0.050573519606474535 8.492436940103184 0.21660471233603562 0.00021827317603821507
0.05367124446249222 8.509130949111434 0.19468190099803584 0.0014278426090730137
0.04319250592899535 8.5281341108141 0.2685195273901946 0.026173154676306338
0.047041022237726444 8.522338614655677 0.24139621607013595 6.4954451146837786e-09
0.054443498565110375 8.522577713061755 0.18917710031149115 0.0017259519697092778
0.05189892046509252 8.512737069262883 0.2071687780124557 2.5591093942704614e-05
0.0451830596719871 8.529808805402826 0.25447075877538816 0.0022421599235667
0.04486033501033396 8.54080476060247 0.2567005183171299 0.012343097274743978
0.04828306453844292 8.512626296149303 0.23267600036615782 3.2228187813026047e-07
0.051364563694358434 8.60573701470897 0.21078598537988003 0.01286483686672761
0.04660167359351101 8.470984498958234 0.24551449258724437 0.00024943157326527064
0.05399229321183411 8.491130362401252 0.19320424469124797 0.0012052845716229628
0.05614419853969493 8.49102115662262 0.1789120894452756 0.02508595073432578
0.0576854275757729 8.501284058471759 0.1667959408072513 0.036761296354759804
0.0489179815331776 8.479557849125912 0.22892520761956478 0.00023429613626702535
0.04192093028617195 8.457190755632393 0.2784755096327729 0.040888988145397404
0.04349777155785335 8.460942564294886 0.2674701995717017 0.03926275621414743
0.052311287428845006 8.477607385720802 0.20742470452763387 0.0005966420100142113
0.0555703458708173 8.481741248393426 0.18652286895199155 0.0165190967215121
0.05942109924120052 8.490941446013165 0.16023392162997008 0.0388095678367192
0.04436277682073955 8.444332135633248 0.2643847167147008 0.025694072719482805
0.045757468542613325 8.453673130923523 0.25395761056197386 0.00036125883248329523
0.04280406423740709 8.436633954533505 0.2747664654104582 0.041233690164515835
0.0512303908277507 8.459101401209104 0.22098700789518383 0.0015107736907242143
0.05263084716823852 8.46563409399102 0.2105135715296007 0.0018918818827823808
0.05830820220745977 8.473064958676291 0.17776287189881554 0.022398586781586842
0.05702860735884003 8.465892074297424 0.18898539174162057 0.00671735819636175
0.06089920327605909 8.476761526345355 0.16360701034850128 0.03074507530502234
0.04830752130412664 8.443902893839859 0.2424137000678661 0.0020942480658960754
0.05005331576064896 8.448396471889167 0.2317956504120824 0.0018588567618376664
0.04183291098194243 8.41484058059366 0.28566979662816805 0.053272434489165396
0.054300335936466285 8.449727448615494 0.2115884740759979 0.0027051835775513964
0.048323096934877754 8.43090105750247 0.2487604023748614 0.0018937009929818175
0.051139250435895504 8.43309950802512 0.23626348549983792 0.0022228377057560236
0.06054185131958697 8.459998228635255 0.17978039674774635 0.019937332414643617
0.06366886390523176 8.462967467769523 0.16667166138253425 0.03056920731967706
0.05811190892533914 8.4548323164492 0.1931316556825038 0.003049675719063469
0.0443775017860426 8.418909124476754 0.27264008430944064 0.034635452678704014
0.04742550840860752 8.421114592054684 0.2587656798843595 0.007384597984367238
0.0438063109429816 8.403686302595583 0.28287484406319474 0.037282368352184535
0.05613147009169069 8.435728201662371 0.21606094040173743 0.0029751633060386682
0.05940520043753995 8.437177472570685 0.20423415129875935 0.003595650189553908
0.06459596231570273 8.44846803655796 0.17811125792274482 0.017012765493408726
0.04887939136044995 8.408754383557682 0.26086029212238687 0.010493697253502974
0.05362731619768026 8.413594627857123 0.24134201944979602 0.005429446280508207
0.05542201812642099 8.421579385549094 0.22970215557336443 0.0030290898161926473
0.06535733682138917 8.438449753705019 0.18626208432162794 0.006450128753831888
0.051027457842361214 8.39594178632845 0.264232640587107 0.016842539921880284
0.04686713399190741 8.392611486568814 0.2784717487590077 0.10311999817505933
0.06019410261709225 8.420317603336345 0.21755579369599587 0.004162542730250037
0.055405747952488545 8.401217463792818 0.24811949509119746 0.0033837751999418286
0.06742703708976457 8.427669815798243 0.1927785134539638 0.0040878414196100915
0.06059492243074219 8.411122304892903 0.2255880319932018 0.00529557121624825
0.0722453001357231 8.442621363372812 0.1659344668747585 0.028452432587068616
0.0493965544470596 8.37940377339151 0.28293063336796304 0.09021664000406869
0.06680754350268889 8.419620356854374 0.20251924033385366 0.00427267693207544
0.07376355119908398 8.433071603059672 0.17373115718920995 0.02017032624416288
0.05094202185357589 8.366586477113142 0.29010201759001203 0.04986269535237282
0.06209978520176166 8.392407353748746 0.24056679763207112 0.004398629852305655
0.07145801710408482 8.408357848527931 0.205490655000447 0.0943494383258106
0.07426249647238209 8.414846787812925 0.19324674464556585 0.004016977338200846
0.08059618646727616 8.421269452494037 0.17506693798977171 0.11178537350404781
0.0808183803852143 8.4344502105779 0.15915763688581505 0.10014096394978744
0.05916181236664659 8.377247073307544 0.2624246180742922 0.014232376514971105
0.0688070276167929 8.3969778667377 0.2230539002391062 0.0039330363976727584
0.06102417162981399 8.361058714745388 0.2755355771274138 0.1512118675403421
0.05809780090387299 8.352499125709986 0.28977554468734507 0.08418102396916098
0.06471553856951712 8.367623943562727 0.2618840906025362 0.08029012155493215
0.07862413080071563 8.39614931004888 0.2071027938931126 0.09721479470768707
0.07332699501796745 8.387099833445747 0.2258769370917157 0.10155662494948459
0.0676241572539578 8.375240805166676 0.24862286374874665 0.08796004219188563
0.07125671733624361 8.349803002842343 0.270908750564839 0.08194440395696456
0.08339293877938111 8.38497903582894 0.21355803570031745 0.074788144472062
0.0859540765584017 8.408264346562635 0.18241476991513364 0.08715917985822132
0.07668871697076879 8.370333703081574 0.2398452408670062 0.08930990687697651
0.0965025861292761 8.416958548109385 0.15859118643272802 0.16311230750792333
0.0891502709805467 8.414057439106111 0.17117747876292572 0.10615874151762093
0.0699637804133522 8.34127982647988 0.2822646039657078 0.10083068512942568
0.07725311504136759 8.361065133623242 0.24957357771547903 0.1687858156532267
0.07463902980610337 8.354527697978938 0.26070975100787386 0.21541547698296107
0.08400576138859554 8.361230055975907 0.24017665968619473 0.14225893049515698
0.08726780417521607 8.375866887311247 0.2190871744005334 0.0956813507038341
0.0976088170913292 8.402885265231127 0.17468831619922692 0.10110406424265093
0.09179169153695714 8.399377220366576 0.1856546017026161 0.08154554969705398
0.07811693907557672 8.33211398218601 0.2810759435436105 0.10327897388450911
0.08481315165122814 8.3495705591784 0.2527902096578047 0.2037986665183858
0.08133658130128697 8.343180469751717 0.2643183418153941 0.1246632438659917
0.1029247476983661 8.407640504299863 0.16318062114677634 0.18063253977405122
0.09801715006797589 8.37241690194778 0.2113964803251027 0.08769760619240484
0.10249557482194821 8.387550917301684 0.188522717507618 0.13742819638862852
0.08892392216502529 8.36597327297595 0.2287005333631186 0.1453220070122502
0.10250126965131395 8.377402892880722 0.20088899138270871 0.08892516424022795
0.09363704100506792 8.352009004308316 0.2403951842445134 0.1520009201069358
0.09308774690873178 8.341686833156206 0.253221642864347 0.16752194458581202
0.11431534130756796 8.396990621364525 0.1665717479854124 0.17701024868480042
0.11407619646700254 8.38922489670094 0.1762691625371346 0.00990383473969204
0.08806321035293226 8.326821567965993 0.27598158299771564 0.1450386614113494
0.0947645549877686 8.330103779159934 0.26502610943351257 0.1855435407924228
0.09547925816090924 8.316103426738083 0.2810639842277013 0.1710010160412211
0.10397966034323061 8.337711962397371 0.2477722105089726 0.18780995051141267
0.10881867349607995 8.36876144878329 0.20566866190377572 0.17511931822700372
0.10800286802063752 8.357066278237951 0.22086319166758012 0.22933269677124976
0.11533724007671955 8.372693971253618 0.195950423056139 0.20696593881168135
0.11385944927049146 8.380690971989095 0.18706268312864005 0.17625515494152882
0.12417981798788855 8.397603501464946 0.15865034246585213 0.09813506480137343
0.11141894205233491 8.345483524461303 0.23246277131576898 0.13905630040833875
0.1081208001803125 8.312447928914771 0.2750986459109424 0.18910578540079315
0.10176802227948574 8.305288067902502 0.2888782515123499 0.1302235227839838
0.1067606861653567 8.323677847701514 0.2626570778569961 0.12252838618735443
0.1235663236985323 8.381363399638543 0.1794614027880374 0.16039920140441669
0.12532532117250322 8.389763928247772 0.1677443377777022 0.17729575350545382
0.12496105295689139 8.364892325132654 0.19909133468741083 0.21208618802745197
0.11380385871578932 8.332327453500033 0.24676882460891292 0.1618086045585263
0.12040043669574303 8.336268770734335 0.23723234696116527 0.26290827736985234
0.1197504191722501 8.32072654825443 0.2569616780877231 0.19313056460068492
0.14150097752220758 8.383714535408114 0.16709901279696965 0.1682966880533224
0.13489558604996438 8.36622213072766 0.19219129364940118 0.18523336610182273
0.1338028878452451 8.374430308115965 0.18235142559734185 0.1359685472843308
0.1294118785563082 8.349778022095279 0.21557761571612116 0.1946840322160361
0.1308576058326154 8.34018504312287 0.22679015125471141 0.23241045929798868
0.12207070526674627 8.296307482559111 0.28583376472150757 0.15567545248359926
0.12476731240239967 8.303819740900318 0.27506579636333495 0.23628456217794436
0.13239160273041595 8.307801472801916 0.2660030514543574 0.2160841970038542
0.1425803560106748 8.35201539024195 0.2065762409661715 0.16313375738868102
0.13670964163788865 8.327537508460809 0.23963748108631389 0.1943531118096361
0.1342927056873666 8.319418050245382 0.2508663766922707 0.18347477514196425
0.14428125293989189 8.31065414429649 0.25784173987024656 0.164084220988212
0.15542179138857928 8.3681993167147 0.18210646974964098 0.21027999117575777
0.14155675215041366 8.300224504712673 0.27182732053389885 0.2009443878888521
0.1427640169380648 8.292800219762299 0.2806904802443269 0.2003074601503483
0.13290606193045912 8.28896841423297 0.2889837250008655 0.1390755522497332
0.14855722526815549 8.356845755135389 0.19840043778344346 0.18628130304999121
0.15198156714308692 8.379785393720526 0.16834492236712817 0.1500291992130715
0.14407343805888365 8.339156658330603 0.22211102368056743 0.22569437315452526
0.14904875408789256 8.331211670121403 0.23048888610983473 0.20248517659279458
0.151731963207113 8.286338682485095 0.28557668441568396 0.16154222724031794
0.15536037443672923 8.339563368167546 0.2180080232718126 0.20177822553213606
0.1567741398363816 8.311795385591793 0.25249788849718263 0.2251996677351058
0.16383813184271562 8.34631891155146 0.2079437570798246 0.07211546095512703
0.1677936601397893 8.369674388310951 0.17789209337696488 0.14773647606966764
0.1625597955301369 8.357111899143398 0.1944806905709696 0.18879878581631687
0.1560181450223822 8.319850107557464 0.24241681991578964 0.18578695864121997
0.16426013960020722 8.326506291107469 0.23292928400928553 0.23419808143161683
0.16370244834873246 8.293058136083621 0.27530147369128694 0.18720112697527735
0.1666886743550423 8.299969238457159 0.2662313648131308 0.2764228490565625
0.1713609122932842 8.376038628912553 0.16947357598735463 0.18087162300015638
0.17516384460545845 8.360211978234911 0.18930824150525127 0.1660659915167481
0.1720025863035456 8.318325757290337 0.24248912955814003 0.17022011396534303
0.17944688117855756 8.299632135394997 0.2653607558945694 0.17053069074783772
0.1785873246513197 8.308787829749772 0.2539663893195428 0.2388330296392492
0.17780902486788475 8.339090964433982 0.21589073857576024 0.1267871404629989
0.1754067631760563 8.327859154286285 0.23017947564589916 0.14707419748249392
0.1716480888101769 8.286220411889756 0.282999351969421 0.1263733715933217
0.18450208029091583 8.350153692099092 0.2018567653429654 0.1831878932580933
0.18632491910657376 8.358096014419814 0.1918842964210113 0.15574965977697913
0.18196733871625012 8.292175069056572 0.2747304607904181 0.18321503925242838
0.19204154066357662 8.289472394701592 0.2794109122454886 0.1516063927640003
0.19030970020253057 8.32962381329961 0.22843847523636668 0.16375384292483128
0.18488640104437717 8.32300948049782 0.23609818059200888 0.1839098010041323
0.19089832592852332 8.312587962624574 0.2500493434815414 0.21477184314557174
0.19041909744989444 8.383644603961462 0.16010311362741705 0.15730857932484346
0.19556508892252444 8.367987189820951 0.18062756801118013 0.16076730647422946
0.194305906110998 8.305352352610953 0.2596298424515656 0.24153366877895507
0.19874652890379874 8.296442736916028 0.27143848739186277 0.17119186961181881
0.20610470977420955 8.284500060632768 0.2874546847611279 0.09289811621480044
0.20567020550570353 8.34659748889047 0.2094803716671491 0.2761906659462272
0.20150132592210468 8.355125961651202 0.19795668510644288 0.21722962824576733
0.19909715244410703 8.378906154882689 0.16742895377989864 0.08417902352195719
0.19841389741150764 8.318298731170934 0.24384236740700976 0.2453713342446657
0.2049511032255915 8.311851537704637 0.2529541562088975 0.1810086189661408
0.19874821520360042 8.335808568301909 0.2218704507174881 0.16575170924257981
0.2156100950579266 8.294950114864713 0.2776388813637068 0.18339935136691166
0.21065325503352272 8.322497312317825 0.24130659549949893 0.22210336795849409
0.20880465258249942 8.33154100292875 0.22931107069794066 0.21856445021529097
0.2094781897713371 8.369269804015683 0.18219372995540845 0.17703401401511584
0.20936525375299608 8.38656225888937 0.16045993280448925 0.17753777517312866
0.21508330435452205 8.30892002444567 0.25990297155460473 0.21420387838733607
0.21794778646065638 8.337035907682155 0.2256621266546524 0.19446982255346412
0.21621926003877226 8.363500737869575 0.19174824906614285 0.14201322248647072
0.2179997115232154 8.347950410148865 0.21198071390444523 0.19632819193299386
0.22708734672710967 8.308201474936642 0.265208869220495 0.21094894555494154
0.22307894019128474 8.373242405853107 0.18240519311557257 0.15576485558356032
0.2209382224738748 8.380454201538978 0.17249697220759294 0.23094515959518375
0.21992615510530367 8.327965200992526 0.23778553982553488 0.22962574466607327
0.23015647459518457 8.298598554459847 0.27880699319005303 0.21141349731969097
0.2276940913321856 8.32124666822019 0.24927206872343627 0.20831387008413071
0.23747670262380977 8.314259780835572 0.2636185189514503 0.18487047936978412
0.23450515737862532 8.291501855876083 0.2901762752025466 0.14647709268506448
0.23140127897193538 8.369347471584335 0.19160097446153251 0.14139758737660837
0.229191044992285 8.388603136883884 0.16640661976222038 0.1443846566776121
0.22949492739024602 8.347418209656666 0.21778893130217652 0.22624867017727066
0.2300504573705066 8.338804304601686 0.2288140284527024 0.22851201727168305
0.2401472526653739 8.305677482866399 0.275881529262083 0.1928040784315824
0.23835491522237556 8.32601501080416 0.24952709712783422 0.16437045713450144
0.23579790233272885 8.37963090748574 0.18140527574355264 0.19801954459091534
0.23517324866366673 8.356611225195506 0.20957433208172335 0.12051822679686514
0.24651204088851747 8.30056761988237 0.2859979700073984 0.16162205853412379
0.2435249640879434 8.334885385924025 0.24168058844606244 0.17803852833764652
0.23908060353470195 8.388216539161311 0.17290281180044548 0.15318995368208765
0.24872940211439049 8.315042588104296 0.2695755862009444 0.20276481781205857
0.24429447006284366 8.377338492464848 0.18990113187551766 0.2095748600382532
0.25368886582791705 8.32368399252159 0.2631879285040081 0.2147948106650942
0.25696635353437025 8.313064661084661 0.27893675319245914 0.1651097820190315
0.2496393733601503 8.356291526747182 0.219960746436472 0.18095652716481325
0.24767358702540837 8.36543103996691 0.20717991102331465 0.19254106215418124
0.24706252777185778 8.39868707049565 0.1658978311036932 0.1623792775162288
0.24763568621915877 8.3464497505746 0.23035105801754785 0.2554541103526254
0.26372548905324655 8.321779330730138 0.27406656801631496 0.19534101533363157
0.2585333206224671 8.366033078074626 0.21562671359020266 0.2009318873271035
0.2598509466971637 8.347629082603767 0.2392053395927391 0.08031912314713421
0.262574402919976 8.333134414134747 0.259223203358731 0.21819909979334257
0.26021698854946 8.339683665254544 0.24921313864296424 0.1897805989123495
0.25508170629701266 8.380280742709497 0.19524122083523476 0.1406108493200828
0.26016228738218733 8.37581249862202 0.20515465754010864 0.10541094111364605
0.27040318246062517 8.343938121039344 0.2545381756707674 0.24202554944182805
0.27502997130029766 8.339083675240875 0.2656264079795553 0.17753400035496517
0.2632292276041368 8.392380588581442 0.18876109851399064 0.13889043259651002
0.26691115805072757 8.384998753878332 0.20166296672931572 0.09041211585712024
0.27335144637958364 8.32933966554862 0.27526463859711586 0.1877013744408957
0.2657286990974464 8.364832482039146 0.22442513803843436 0.18675239708143937
0.25802456770749177 8.398716634221527 0.17556264067614136 0.09416548805043477
0.2690096554918133 8.37705907516074 0.2135122687840469 0.1834604297874922
0.2589488389618596 8.40786417310968 0.1656046128812606 0.1035572987472703
0.28321558467814734 8.340680308778781 0.27378991955409665 0.12383615676892203
0.2759906782162909 8.3745953896438 0.22507139747771032 0.1674211460019646
0.2687215591800708 8.413752621380405 0.16976081232467788 0.18664832078529658
0.2827942536514221 8.353079081779299 0.25913201022991705 0.1468382259235755
0.29132025504248543 8.338873900642017 0.2880046541671948 0.09789473405443562
0.2867657105838188 8.364460151434589 0.25212261473680525 0.1511003657462352
0.2748126747357998 8.408507614487645 0.18391380882827935 0.09251876394111071
0.286644107306025 8.372115859465717 0.24315772184767226 0.08741034882938659
0.2775307813886079 8.402657291528605 0.19457743649810394 0.09358399928807519
0.280195834206383 8.394215172275306 0.20821462588250503 0.08691321401264208
0.2848135566323248 8.378660817581947 0.23292080393581482 0.09206208294611726
0.2952450540380605 8.357370517761781 0.27311507450145034 0.18800440025886647
0.29925640297221623 8.35301428806861 0.28556475091822475 0.11252976082126803
0.29520290729200527 8.375993775781598 0.2534608799017928 0.09872672432349112
0.2858731932829617 8.390465603245058 0.2208990705895477 0.0850015127019578
0.2834105285691058 8.418529691356827 0.18554368702614693 0.08753873119476739
0.27867883561170914 8.424260234739307 0.1713133638657643 0.10167558430387558
0.27667774587449706 8.432479840584271 0.15876153222008493 0.1401297372088872
0.2988776641024792 8.368447387489349 0.26867293199165126 0.09712469121678416
0.29200520905331967 8.390289884494834 0.23200189627933393 0.10937638679819595
0.28617830715968795 8.413988029291533 0.19539114436905833 0.08649702021187972
0.2973223452551217 8.387351617153803 0.245491024142878 0.10914338408317394
0.30423197518363626 8.364287769158496 0.2839580301401022 0.13268036477963085
0.2915412773611631 8.400647933528614 0.21993366417977234 0.14012671553256112
0.28528375172423326 8.437677113057415 0.1674683209857167 0.10402133176144804
0.29288128144123066 8.415073823073284 0.20690328791756754 0.0028013750679096866
0.30448314184768505 8.37900813791661 0.26897254363106404 0.1089133533620512
0.2915759861782008 8.425072983412615 0.19356324327821162 0.09073250462959433
0.2874919149225953 8.449443351497134 0.15915710280912024 0.03690276508067877
0.299686407624555 8.40791466509428 0.2290336320634001 0.002942097883568691
0.30959876223741095 8.380736927764135 0.2808194391335592 0.10767081956879877
0.304575109328836 8.397235642997009 0.2518892553835436 0.093871028416819
0.29859510556825386 8.417358070697222 0.2173147513738007 0.10499017296091598
0.3147207018984846 8.386755156476116 0.29008747974628163 0.03755957601369043
0.29818282135882135 8.432413055765274 0.20177651049981732 0.09274030585959112
0.30428607141164815 8.406320835082086 0.2427718570613267 0.004258903103674227
0.2954024401556049 8.44651869025943 0.18101872471598288 0.008754126327482036
0.29566184549737873 8.437752133984494 0.1900662494361998 0.0048930979810677625
0.3097471951282122 8.395812546074652 0.26760704202678964 0.01953961086262362
0.30954119884807907 8.415539506233092 0.25118009968529975 0.004055506070742207
0.29572434013753224 8.457114565154006 0.17165426480568477 0.02503035106865104
0.3151609454882875 8.405531040741597 0.2809473597896656 0.06347180310584546
0.3123656383781365 8.4099940027364 0.266402046826972 0.02232787174774423
0.30181579453458224 8.44408207003594 0.20253063649577574 0.004932530387301625
0.306815335792488 8.433094205736083 0.2294028746357689 0.0033872125648078443
0.3000799528634702 8.450282131818131 0.19150128486241214 0.006361561998977676
0.29977051219771444 8.459086806538245 0.18308006695398776 0.01302125835672429
0.3153254885306513 8.425594254347114 0.2701842228780956 0.04787901956729539
0.31047558665625064 8.428159150775333 0.24733488172900464 0.0016573679909151994
0.30592064234430216 8.447317722975916 0.21594385834621121 0.0028480778351135027
0.29754918325310337 8.467982966007325 0.1679526675071522 0.0312668333371214
0.31783296387824245 8.424202171269094 0.2838886675976463 0.051726280291349055
0.3040413914335012 8.46339389352644 0.19681417323302325 0.0013711547588850725
0.30175199027642596 8.471018530924887 0.1819690893260935 0.021461962564655507
0.3135868028201535 8.435819081357113 0.2570811193499507 0.010843778137253377
0.3162821650251665 8.439172514809533 0.2728230575932187 0.03755614443985434
0.3072866715363791 8.462221222490719 0.2140419095877267 0.0018988127732072584
0.31032710935919894 8.453933400036565 0.233871383850619 0.000503490839100995
0.29991354670054665 8.482633139552552 0.16588073562880234 0.03322718986597674
0.3135276578789526 8.450351320789588 0.25389409395123436 0.003564015806396877
0.3125015699959157 8.460708065183113 0.24547118021394834 0.00046661960998587733
0.30521176872542766 8.476863478278867 0.19649169240437545 0.0014219235264152973
0.3107234473284608 8.467222200617252 0.2327987926007228 0.0006281850749400289
0.3032720819406549 8.487178532521714 0.18114108949116325 0.00999035719411816
0.3004802750669723 8.493701230523788 0.1624087424679412 0.04126352405321831
0.31575029237724545 8.454157283233048 0.26788118992420656 0.02486509876354834
0.31852976308088465 8.452865579250373 0.2871202085862849 0.04927497403130903
0.3085528461221261 8.475295349703917 0.2173584750437488 0.0009034653486782769
0.3135726393949499 8.471688532104176 0.25187819484618545 0.0003721495629643198
0.3069816366845057 8.48585525271128 0.2056572220452905 0.0008475659784488469
0.30309914623586637 8.500554929508278 0.17760827997429807 0.02060870535367951
0.30881273026301925 8.486791080869397 0.21796621940635985 0.00023347553715851084
0.3055479684163157 8.594608779843579 0.19462807891739786 0.00060209975844634
0.30873597416635556 8.600595541969962 0.2171277587880652 0.002370461623315696
0.30688296853764335 8.606409678949094 0.20406153886570658 0.024880948424261775
