x y z curv
0.0265749650536026 0.38660482406004126 562.658538320459 0.07582643494315572
0.01772715770338569 0.3993046444783246 562.6593230014182 0.04572828655818796
0.02291801395821651 0.3715473680051383 562.6587270790267 0.15459650634619382
0.08122647624433277 0.416901891866722 562.6549562679378 0.15973547814360897
0.06363489574213693 0.43203126615997706 562.6565907331797 0.009339191292472519
0.07854963538444008 0.43887940998508507 562.6558205912327 0.011882587607864075
0.10622343029507149 0.43435762446827286 562.6540241647009 0.06640315440173969
0.09280099167299954 0.43436169406373115 562.6547469539076 0.04160495055979324
0.11816888590570428 0.4314804029890821 562.6532730329678 0.07322474408570365
0.10523775293660656 0.4544602764664498 562.6548608087103 0.03594529688847861
0.11658894520504177 0.44452625433915294 562.6538638923431 0.07349277172242188
0.05996749793965665 0.4082393834592055 562.656302029249 0.18099723133339857
0.0260563362066242 0.44073611916271804 562.6588897095025 0.029510968237964126
0.030073515854710787 0.4608952763452195 562.6589552621414 0.028670569162928088
0.0397884227838098 0.44398021166838036 562.6581505374247 0.002219608510590729
0.03728525030420001 0.5064221025808818 562.65908250064 0.07174232880269994
0.014797302262498962 0.529089960708265 562.6599081004027 0.08295567362670804
0.03070661125959414 0.5200693057990043 562.6593845815787 0.07414108261496638
0.022184270524473138 0.5061578521756085 562.6595547138654 0.07731683105566495
0.01837263472840199 0.5175987374558441 562.6597293209263 0.09321130306762769
0.029406908718055017 0.4932191194793921 562.6592691588768 0.010699863774729847
0.024528278735037073 0.4817333594741777 562.6593572022824 0.030088301669677957
0.014200734039166118 0.4180187152530271 562.6595729120423 0.053011046520085536
0.003894653358359104 0.5291793146118299 562.6767219278237 0.08956425530058192
0.0027339061171020268 0.5146732831395732 562.6837983655555 0.10780277074831113
0.0016608137574788994 0.49359927999986003 562.6908129805059 0.08875781718235072
0.0020961176060943533 0.48066289783594524 562.6863581585806 0.08286782670140229
0.004013639574192494 0.3976741021235501 562.6696378817134 0.07406287875601145
0.002414876657956556 0.32414800421534645 562.676728440773 0.05983041198093704
0.0011228694524406482 0.3367729892248429 562.6872965074066 0.0754278621204006
0.001121936890336227 0.4157400523385989 562.6899959217074 0.1163348735872726
0.001595679114765104 0.40485956841291176 562.6856086370865 0.15060733952022137
0.0012314397032322187 0.25333149877369693 562.6857181868306 0.05639550070563062
0.0006178545577779871 0.31035817238551044 562.6904859069882 0.058762031349290235
0.0008714273608689163 0.28539588735481153 562.6884653013442 0.08676961536158145
0.0009958422169737712 0.29822398869534184 562.687228457493 0.08061350641762936
0.0018990389439703544 0.22405344009645112 562.6819409504327 0.04842790346141092
0.0021186399952736025 0.2442116686682201 562.6785072110766 0.048797537769351994
0.0015427134792880283 0.20964510169289735 562.6858256407124 0.07434354577925183
0.00626245276636543 0.5004156331326934 562.6627023476558 0.06264171403865083
0.0016091457543709717 0.5050788783885954 562.6926160515545 0.11004994035036594
0.0012686916700470883 0.47172445639532723 562.6931109849323 0.10815702358480717
0.005371855089948365 0.4095587953441965 562.6634392568099 0.051117034825888225
0.004659962619124233 0.33408016786848577 562.6647970061531 0.011048838288448899
0.0034859137691329338 0.3020152295669889 562.6699669895438 0.02975624197755153
0.0007297087053990052 0.3641947046862563 562.6914283559848 0.09442427520939739
0.0008962609243999436 0.3891064030684833 562.6908728048102 0.09263294519109391
0.0009306227248442578 0.4850408363871053 562.6998177386862 0.07286341444746303
0.0009585731343289711 0.4292822909819894 562.6930239624849 0.1097700990224367
0.004992781837179938 0.32117413796976313 562.6629691888643 0.008172148977277752
0.005705115680362143 0.352537854843083 562.6602805630998 0.019682617942414743
0.005146010641899004 0.2924804351904509 562.6617379939422 0.002491128087868444
0.005120584915378127 0.23620477891697134 562.6618059263099 0.0005977077546583437
0.004993108841997876 0.25150577208805086 562.6619687349167 0.0006475963186143651
0.004792272577051268 0.26402222503952355 562.6629127147625 0.0011406991865370785
0.0003313135086072443 0.27134490152724 562.6951852153295 0.06515894296791476
0.0005083182100443155 0.3240840626936004 562.6921688827774 0.0691621872739208
0.00017013270896226268 0.3542326856684436 562.699397931764 0.07935823595329426
0.001507447485033731 0.5251577750736037 562.7019899741717 0.07994513746623373
0.001831391774624884 0.36636486371430976 562.7037336634162 0.08741019643875897
0.003995201570717674 0.4731723230898882 562.7047019440672 0.11349400102668647
0.0030162704893121122 0.4458786525203343 562.7042793043373 0.08742272814959043
0.11245038758311993 0.4707547288718873 562.7039705143968 5.702944891690149e-06
0.1474088874510741 0.4425456983109244 562.7028754968744 3.5969217927124755e-06
0.11968901065707085 0.45351123375616514 562.7034656507763 5.396532466570121e-06
0.1522876504229407 0.40263969246656545 562.7018453255221 0.06121221888364862
0.12469500061356695 0.43316351163922073 562.702911059495 3.6756124436712303e-06
0.1267874209601872 0.4697530195662637 562.7037791845528 3.2695737349515795e-06
0.14277630806235253 0.4654436103237443 562.7034879449492 3.528988636423795e-06
0.1384769056133676 0.4548287610817148 562.7032790790507 3.7182205442593986e-06
0.1497676372508492 0.4284011900406208 562.7025030292775 0.006470248660225665
0.13762207400316379 0.4835259260792004 562.703989004664 3.317895940077026e-06
0.13345276166885128 0.4439768936738637 562.7030728685244 2.5526917777798673e-06
0.13657193954876806 0.43222587701598747 562.7027499303297 2.4529943558344147e-06
0.05825779202323787 0.48042811219658144 562.7047068268657 4.9298475325781235e-06
0.04186171653629408 0.4736031680425511 562.7047873673059 1.6304759015568464e-05
0.0645637423685603 0.4939594604215201 562.7047780712211 0.0010937706984466443
0.05382534600556353 0.4678899019331458 562.7046283785071 8.780364983258469e-06
0.0512019748376175 0.49130376537675186 562.7048709448509 0.00044573620307163645
0.05416087914603556 0.4372081299893107 562.7043140000085 1.1977980559046089e-05
0.039588392644222634 0.4294518818450785 562.7046075007745 2.2141806455577723e-05
0.06393604030267343 0.43005189063831073 562.7039412646299 9.721770380108963e-06
0.044962593334649484 0.5167993242204652 562.7050208657072 0.05354543756702841
0.034962272748698106 0.48738867998433416 562.7049619242557 0.02376123137619372
0.053150212632939134 0.5035240169459634 562.704919768411 0.023590668211493315
0.03564234136095113 0.43994969897925945 562.7047349275633 0.008141565513489915
0.03059551921988621 0.45584424689583725 562.7048756060169 0.02766738768024299
0.05267958068051345 0.4504028783970201 562.7045178922123 8.161173285437081e-06
0.17412252178088222 0.48425483744633424 562.7039149683901 3.749438175823759e-07
0.14975101374342786 0.479657278677579 562.7038404018425 4.379121258633623e-06
0.16700825121783228 0.473613625558674 562.7036514985334 6.682852950363551e-07
0.18120845758629464 0.5043269226253961 562.7044236176416 0.028382690776766487
0.18012700777378723 0.45010767360470044 562.7030163453607 7.070016508181242e-07
0.18386507609289857 0.4752522995836353 562.7036630124178 6.449039411574734e-07
0.1889849973985718 0.4068196082416602 562.7018748711853 0.07385628657128111
0.1571808965958673 0.46689786143494016 562.703495060918 3.1094556440635555e-06
0.18235399822602297 0.41719039333225116 562.702156653927 0.03760895335623527
0.16657811755339375 0.458099899391182 562.7032490589606 1.813200124864849e-06
0.16502771169381303 0.4911014660394256 562.7041096937626 7.396111725967488e-05
0.1784193956100037 0.43049951466929937 562.7025098385922 0.005440956091996945
0.08947115407687202 0.3929489335677191 562.7025886836601 0.06223481085332516
0.08955118556464489 0.40489617491921814 562.702876742629 0.0777263366503865
0.10537377584121149 0.39600493386439384 562.7023068094425 0.06470738793628485
0.07780654940460519 0.40238654990369516 562.703094925858 0.07123323673843379
0.03990680683634435 0.5278015730787464 562.7050931633795 0.05941700065584287
0.029167655627181537 0.5087868194045273 562.7050366919922 0.06436546260725376
0.01926672710007609 0.5197328483188796 562.7050687003518 0.09415128910780897
0.02354269664342267 0.4331440807585543 562.7048801384346 0.073225884302331
0.05903920528741353 0.3964774795330513 562.7036960023995 0.07106276861149495
0.011484754683484939 0.4939224322818463 562.705057522082 0.10090466399975684
0.01389843515285101 0.4637916856701487 562.7050365979386 0.09580570291030818
0.006150408403323848 0.5115598235807272 562.7050874363355 0.09372197880094336
0.01695126708294877 0.47726039588669444 562.7050273377719 0.11136712739059997
0.012809303947163259 0.43961030066426326 562.7050334383242 0.08365161059540017
0.00817669806072975 0.4089953892415816 562.7050109380722 0.09916099815938155
0.017832710577994838 0.3724031630650525 562.7048574138543 0.08753329829147155
0.020980495570250588 0.40825519385418224 562.7048437157688 0.05974787792012696
0.016695938614421382 0.34307893740849604 562.7048499018916 0.10105711673646019
0.014640642466290769 0.3899506702210206 562.7049123124502 0.08942878218974624
0.013689967986187086 0.3590733356898492 562.7049011966311 0.08248773349907267
0.04478620073483445 0.3647711868285131 562.7036957070023 0.04860842192542279
0.02794462344483454 0.39071539343386325 562.7046242083028 0.07204364426932086
0.0267085055760303 0.35818568107031545 562.7045459628807 0.09279934967090221
0.029340938699265372 0.37091711182781617 562.704486921875 0.07609980291705196
0.23531580858221718 0.4847270389063621 562.7041374021562 3.4972101065372677e-06
0.2556892577934749 0.46797984105736806 562.7039389478259 5.72899489709444e-06
0.25705649958915283 0.4814263286659055 562.7042354039476 5.429106478404486e-06
0.27507737718034314 0.48476133905763535 562.7044457099206 8.220954269456324e-06
0.2780638978182813 0.44063970304537414 562.7037858999311 1.1690439163555717e-05
0.287002026188405 0.45436982234986545 562.7041391295162 9.620287077274775e-06
0.31797843722853675 0.45630596400956613 562.7047060395385 1.1752362160246207e-05
0.3309343699711462 0.4549204109770566 562.7048290410984 0.046028967619318274
0.3342767861815877 0.4420421483342797 562.7048416989013 0.04523724709311764
0.3223699378197266 0.4403527870253473 562.7047241436865 0.0034727178975284137
0.34318478464139857 0.45417278124188154 562.7049462014693 0.10081376467303306
0.30927732103556405 0.4157297622046058 562.7041793922723 0.007671179427898435
0.2167234542666962 0.4097527333830205 562.7021051533075 0.0521963310392775
0.22713701514741363 0.4459110515920745 562.7030946537602 3.751694646184759e-06
0.21256708894421394 0.4559067172670199 562.7032247559314 1.9875146689045925e-06
0.2282562795262111 0.39550182765252995 562.7018437109431 0.06424613554635046
0.2155639668812097 0.3976269123253677 562.7017924970943 0.06301232953193754
0.22771234890398803 0.4164529601652491 562.7023629817689 0.025335360697254956
0.2103718654147949 0.4306735071703718 562.7025759232954 0.004506622916162887
0.1841068088866082 0.5272070563609799 562.7050232189795 0.08259758020631341
0.1516139305530364 0.5214243930194772 562.7048690308816 0.07495939266231172
0.21850155951793734 0.5225186324069806 562.7048987037324 0.10065348980622389
0.18578375435545333 0.515270639146677 562.7047055097178 0.0902319662165009
0.2144935337259286 0.48517666068943444 562.7040038312898 1.879445326555915e-06
0.20354657212576766 0.4450222340899137 562.7029071879588 2.7042490245044753e-06
0.19120354823706118 0.49205831415730406 562.7041110530283 7.202487587137236e-05
0.19571071447529942 0.4797706493917598 562.7038006705997 1.6292883678058217e-06
0.19081970474985346 0.45594580423876374 562.7031551440493 2.149911198983525e-06
0.19181855667793793 0.4372135937921672 562.7026631392902 1.8645159147576742e-06
0.20404188938213777 0.466535490797123 562.7034775056096 2.880723207252794e-06
0.19847307602096492 0.417530947730398 562.7021641492805 0.020093894756268365
0.2836648407406521 0.4277687682574035 562.7036591511171 0.00015608193860139485
0.2676193856482435 0.4230471738731896 562.7032038425414 0.025603409526952132
0.2779728582615635 0.40489768921497654 562.703019050013 0.05194197689358238
0.26487924752049685 0.4417917386629699 562.7035675245465 9.947172127847457e-06
0.3238692058297578 0.510143422246988 562.7050280382548 0.056369154747786955
0.33587890003149123 0.513633708719538 562.7050411495597 0.0746897587212683
0.3466198252969998 0.49505882441076 562.7050610397517 0.09485483290786934
0.3503624819954778 0.5102442569007539 562.7050689385944 0.10390754296608082
0.34643501896211837 0.4799076486101913 562.705060005956 0.07535877527089839
0.3344472132661789 0.4990491883723607 562.7050377357142 0.04072683594041552
0.29030018467376406 0.41600780209028204 562.7036379169018 0.02167192105141274
0.30996279280173694 0.40127374164315105 562.7039799179585 0.025845421439401807
0.3097187758765229 0.38504755772250276 562.7037480420281 0.058509943749048415
0.3179986427822704 0.3646079982901632 562.7038745433506 0.05893877918297993
0.34694989647587055 0.4287853142400184 562.7049582475946 0.0532579226712039
0.3488796271667781 0.40357126622541994 562.7049659932377 0.1227062533427269
0.34572226685596436 0.3677269563164624 562.7049088233069 0.09856474463104294
0.34360269902545487 0.3880595984416923 562.7048960668731 0.10747921404363939
0.3369195484370885 0.4055615244747711 562.7048289453421 0.07454540295874695
0.34571260061444153 0.41529246535640274 562.704936163595 0.09383070548546622
0.3284325337242211 0.3952427433833645 562.7045040886325 0.0473887885890525
0.32194708974887243 0.3757405951161714 562.7041984979883 0.04057289880549962
0.3312093430467348 0.382746730196151 562.7044953611764 0.08140510835915382
0.32355112554887894 0.41013835894028944 562.7044720863021 0.00546399648944616
0.332629341587749 0.34122362596414535 562.7043955131732 0.0861222868802364
0.34197396153174364 0.334395688582921 562.7047589542167 0.10738649993902327
0.33787899809022826 0.35352687956579354 562.7046930425206 0.11993076412847177
0.3018823486007133 0.35099635387108524 562.644555979685 0.2613407460627809
0.258620165451927 0.35087048466099324 562.5690094540948 0.17892142480163858
0.29297769217661884 0.3657711277226997 562.6383490183009 0.2447515470889445
0.283366659763626 0.35929782826879403 562.6071440855098 0.21653114465278758
0.24513363849534914 0.3514135188174581 562.5597767764881 0.1433368700558447
0.284849134237997 0.3780896645454736 562.6505625971309 0.2811378103020166
0.284131485738366 0.3821721050438762 562.6625237236165 0.21443795873511587
0.26343814709372465 0.37792987656052524 562.6208619249715 0.21850787400934538
0.25902175266854444 0.3734419554617312 562.6003946334175 0.21972077385868408
0.27854355274230086 0.39204508368531554 562.7013318394206 0.05923410505995657
0.2749551790055186 0.3894262118951223 562.6843805561813 0.06179048207589659
0.2411087864203938 0.36558185746973804 562.5699959599533 0.15409331216103545
0.26351197170467716 0.3820276402789022 562.6367798619217 0.2333862500691932
0.2668241345300437 0.3843262367467715 562.6512335168503 0.22767171091685942
0.26214031565775125 0.3908811390415936 562.6846301967473 0.06343621119579831
0.24992905788398287 0.3788422260267088 562.609560823339 0.2287168999764492
0.24460316765921897 0.3748284972663056 562.590920939137 0.18072122417595265
0.23299675487090482 0.3772340054186493 562.5890707242686 0.10483709752152179
0.22518632818412432 0.3605531039290546 562.554535729068 0.025151952603211007
0.24960625633006714 0.38360550974756374 562.6321210080769 0.22852879812855936
0.23883843076270622 0.38258410918777863 562.6175999792439 0.18093437645124757
0.21072232799415697 0.35876048975448505 562.5477707819135 0.012661096868519654
0.22725684189838796 0.38586355685121243 562.6285640288093 0.09980867808026511
0.24508648484992487 0.3876663367214904 562.6532635930554 0.23691525877451453
0.2403476448754497 0.38645390618578457 562.641759995585 0.2500095726012026
0.22773059520667688 0.38348901295735194 562.613820861782 0.0811391184740242
0.2526026643110709 0.38532427715028306 562.6441028593896 0.2538500140824952
0.21986411918452364 0.3830435136962552 562.6050219291571 0.0011554332570438027
0.2351476084099791 0.3796898075941275 562.6003790815176 0.15418638461719764
0.2121775975186346 0.3762320375139616 562.5708332202233 0.008994891006752354
0.21641578535257522 0.3700328324657389 562.5597856567314 0.02269463246294029
0.23504469238573295 0.393183870535185 562.692524900449 0.08147038436749102
0.2262487492830898 0.3885913878775132 562.648025762424 0.17419182639284567
0.2127473895775713 0.38874179418976873 562.6423856347452 0.0002617237210920293
0.19835988712379968 0.361166860755581 562.5462676251904 0.014427009641537723
0.193072648725123 0.37357413518756033 562.5545361908527 0.020817789064698236
0.18022115775977335 0.3874355274851283 562.6213353768716 0.0001327708717776395
0.18707159238016455 0.3807018618586945 562.5755149680397 0.007268092798446118
0.3107132972450462 0.34340542114927824 562.6815699711478 0.05029628667830089
0.307361346966866 0.3609826204564803 562.6810194138134 0.11281666592660784
0.277386900490635 0.34466234499763004 562.5854109699424 0.2275350915775191
0.24098280267696193 0.34011849756304935 562.5529934053257 0.093178869872838
0.2696042784327562 0.34849068086246326 562.5783982626186 0.23867566784831953
0.26182470506136696 0.3932180223817594 562.7020009384966 0.0639498709356079
0.2530947222131832 0.3925777769880858 562.6933770720448 0.08272524744650746
0.1939905837283357 0.39347988553362734 562.6845251114687 0.049573918879635366
0.18887858340184743 0.39230682873206646 562.6699874543702 0.011218685108543987
0.1829630859029043 0.38887169533094434 562.6343768819127 0.00012659500741324525
0.054030570743315756 0.37351158600697 562.6952518790189 0.07061467422902556
0.06365637434613317 0.3823994024951541 562.6878286972043 0.06626288821836013
0.06839531461419748 0.38002272532772846 562.6697082012397 0.2126808584197645
0.1186589384224799 0.3926506918912146 562.690033681964 0.03150921427911286
0.05364216442982875 0.35995901461160035 562.6752450990446 0.1695659288202035
0.06048364928177187 0.3754024678984678 562.6777747267428 0.1826942764075977
0.07690816757381902 0.3818523220469721 562.6598251128855 0.2521393714926612
0.08169880053273448 0.3858315067289828 562.6701737971237 0.16889370623186067
0.10469940513958949 0.3890924693771289 562.6698310802403 0.14094162725600126
0.10723239118488105 0.3910867466711004 562.6824071846768 0.035897449374643085
0.14138999767130944 0.3927471983327354 562.6833078301877 0.025290721111180636
0.1265488073233344 0.39170357436196324 562.6792194980446 0.017974965722213763
0.12477191879990461 0.38977864609038904 562.6630973511845 0.12264053316548032
0.05832449547118679 0.36553936523826835 562.6648894929133 0.2453198611270948
0.05744546821354525 0.35727866821376403 562.655746535408 0.25207490787142295
0.068955100795387 0.37148047224998926 562.6456858544528 0.25526554106654215
0.07470290117718044 0.37156651740257374 562.6332375566044 0.23656481905204924
0.08010804843964259 0.3783500454276709 562.6431395247328 0.23938533451694782
0.09582710120300736 0.3850394905332265 562.6522979408977 0.25299175132323837
0.12893878288283334 0.3872438625122084 562.6411672091898 0.13508188350217856
0.13871593013775288 0.38957249869327304 562.6542869241306 0.06345425363576297
0.15056625367516407 0.39036422209018984 562.6552186839149 0.00013171826131577367
0.14064917260589013 0.38793797158474647 562.6387491016509 0.0611801618621693
0.10846999433736353 0.3875419730886754 562.6573562127014 0.20058399922623865
0.13853699989446613 0.3844029425784452 562.6144565768786 0.0007457863428685693
0.1168942177939492 0.3852061711470982 562.6361387970055 0.19857075228266297
0.10153588082241745 0.3768073218018708 562.6103095931117 0.19260354552378528
0.11040301383321201 0.3816925226641382 562.6222752612873 0.19118673399775082
0.13680493023040938 0.3822733345567034 562.6033646974506 0.0010254608596420478
0.16248563149876344 0.3861709392107334 562.6153525123875 0.00022832782450124574
0.15221737143883096 0.3840550270577996 562.6041629921305 0.0012563655500497277
0.07752779053293926 0.3613658214116836 562.608815162246 0.1935759214573292
0.09473286034515598 0.3712437799457492 562.6022210800229 0.19918323127053872
0.1146338802211117 0.37964170912360934 562.6087178790344 0.18346679677778518
0.09991748829462925 0.36582011292040617 562.5857046777012 0.21244235201390188
0.10730703928994159 0.3723536760602245 562.5919058716264 0.2508192476433826
0.1291311121904814 0.37738600659576227 562.5880972114905 0.11513109194863642
0.1618773978452799 0.3830473000166499 562.5929835174048 0.0015489065830008588
0.09379273357848873 0.3569786521039538 562.5813929206342 0.2260352404859714
0.10587051423995647 0.3618031745728387 562.5752262007459 0.20817912018609766
0.11695043492607564 0.3651751519446761 562.5709340202034 0.15456024953647135
0.14093580633762792 0.37238546893195 562.565855791834 0.017713413403918375
0.16058660014675058 0.377695608117246 562.5676365634611 0.018219164344721192
0.11279283792123994 0.3554128855217877 562.5637543201088 0.19987406915181088
0.15141659715901126 0.3721572670093559 562.5587500474135 0.024140233409020915
0.170535545787894 0.37649849970575766 562.5597442420158 0.02165115546495649
0.11669982942253632 0.34740045098087013 562.5565477282303 0.14353420335795247
0.13732250991288414 0.362926236231389 562.5553479146845 0.016952986324924212
0.15261273486823246 0.3604464080601243 562.5476672600355 0.01591585347977949
0.15119194288157564 0.34902739095156327 562.5452257212753 0.036141502949312024
0.059992109716745054 0.3492859593126769 562.6371275247484 0.2884049316366255
0.1746032784981503 0.394077613037182 562.6917340368652 0.07243789148132374
0.15637893754219864 0.3937304571721107 562.6892591724834 0.0562982918688353
0.1556811923659997 0.3924454977143533 562.6742200738726 0.01923673113548665
0.17434674668086317 0.3929035000806633 562.6761824674819 0.0406661449836697
0.16040570705356144 0.3894116846214259 562.6442785559811 0.00017485768359522545
0.08523055153376108 0.3420156370726775 562.5809345183682 0.23174747102941218
0.07203511458068565 0.35081610949176 562.6070308127325 0.2206998601574477
0.09529370910013654 0.3459929869604166 562.5721544421737 0.19637671035644755
0.1751144382585162 0.38022674432043657 562.5728476991383 0.015672249194933766
0.16657672219869651 0.357730974230701 562.5450205514368 0.05175565871443891
0.04845742806738993 0.33148918939842825 562.6824218873089 0.030489960987058935
0.054907385629329786 0.32657905670633536 562.6433158398794 0.17837455277994888
0.055715617205051235 0.3431408097755416 562.6478729048529 0.24591731286942586
0.06181131080047006 0.3386252904178845 562.6234275729962 0.2507260624483338
0.07312793011903701 0.3413613217689436 562.598961184177 0.2206027371398748
0.08678330010549087 0.330942624144015 562.5759433473454 0.20872370442381305
0.09863398440561218 0.3352854489712157 562.5652296399905 0.20384913932833315
0.11365354903128676 0.33197941250561697 562.554440912184 0.12189837677234858
0.08309345956413694 0.07190474717601518 562.7034533712189 0.05351050920612185
0.1232482816746297 0.05334427857434977 562.6937834357369 0.05012628215867571
0.11069587088500837 0.060724510316193234 562.6782890500775 0.03760694861838802
0.04721140967654793 0.17467914063283663 562.6941464636781 0.06718557989784305
0.04674714110155995 0.22647638490049282 562.6913656510548 0.04592171660303763
0.047722616877224275 0.2333304747963905 562.68152072147 0.028527677945890468
0.04720445657352697 0.2601920024709857 562.6859968509497 0.0464263238743904
0.04874087736740891 0.2624762223122615 562.6731222888716 0.005394458106927509
0.04872995545907296 0.27584458111463994 562.6747730562242 0.006072803520085897
0.04768800616083438 0.24887228635060724 562.6805424625292 0.03181146180116572
0.05088093704542846 0.149874293771873 562.6759789993855 0.01775487602506214
0.05187847657984066 0.1706310181620953 562.6659132433828 0.000512541381013263
0.08507130356747453 0.07902067528518802 562.6739993868734 0.005766887216951912
0.08158956299686657 0.08555176139763476 562.6643129552292 0.002710601680761398
0.057454304416559646 0.11215464884380945 562.6816284881188 0.028171124056412488
0.050177244794945945 0.19812287490121822 562.6693855420602 0.006548521207813614
0.1490658804539496 0.05196119506485407 562.6601448392403 0.08864289415160322
0.06706041041316517 0.1113146248502164 562.6539373776416 0.0032485823399709115
0.05279876929034596 0.15428106387437435 562.6657947029653 0.0011976567899435015
0.05510546088205518 0.19156194137691854 562.6480787304516 0.0007543598496526987
0.054281519952295534 0.20583996422932016 562.6492916955281 0.0007251292190177185
0.0512917052137749 0.2469917574441991 562.6587313651448 0.0004068982421020124
0.0511427944057192 0.2643080300780128 562.659185800931 0.0005326720919001822
0.13131031714991442 0.05807715572092301 562.6521909057573 0.08172886609476344
0.11504948309898785 0.06502894508910669 562.6521374001793 0.003235018505932419
0.08293106884702424 0.09057151142779743 562.650628020408 0.003794095928096701
0.053864043031953746 0.22374962467387366 562.6493981187099 0.0006901672732102073
0.054390904232545306 0.2347146133177263 562.6457828787599 0.0008563074126171687
0.1587914443124143 0.05423058453209609 562.6424887662007 0.18504812540260454
0.09003949984345498 0.08990366318106204 562.6373571101099 0.00422016178145252
0.07398343490619361 0.10812383958019137 562.6421112456134 0.002352043840583566
0.06011696429309421 0.13449842961551864 562.6495379774976 0.0018775157581314124
0.055184989448200536 0.16865191937138097 562.6518673130033 0.000801270137163832
0.059179661275591704 0.17621224367960225 562.637479466762 0.0007553197526431845
0.055177675265495336 0.2489219986139479 562.6411384575347 0.0006563575553375237
0.06685258756551526 0.13465007743038634 562.6321050989964 0.002009783901669256
0.06177424715960922 0.227039726554091 562.6226482213409 0.001029953837792399
0.05956921080500409 0.19946455222367382 562.6316643429184 0.000848914487979195
0.10401548124051802 0.08314793008950114 562.6260364782868 0.2524248746296869
0.06575239485511543 0.1669586005359705 562.6221764719375 0.0013825049129809553
0.06334526935150456 0.24981603686930545 562.6160387702413 0.0007269523203716807
0.05921295099250391 0.2547880089072885 562.627194162963 0.0008057638548854148
0.153450868806975 0.060917032681119004 562.6227958669721 0.19816034714540678
0.1421795283606922 0.06715556290592142 562.6148360055863 0.22606131032495186
0.12989710190713627 0.06837366193405414 562.6229885830861 0.24806723213262868
0.10359304020008608 0.09091007032733978 562.6142075668469 0.2322105802909381
0.06901531559842188 0.1496894115461632 562.6199714160325 0.0016843249047743336
0.0711896230015494 0.16537221088803428 562.6100679239657 0.0012917491108605272
0.06424658219414062 0.19277425979813378 562.6204393881399 0.0006407851054005402
0.06315037836662285 0.2822055074516533 562.6151449812435 0.12350218207684734
0.15514014344095617 0.06841069678763732 562.6059303924379 0.262196101369446
0.12999699392533168 0.07358941980010197 562.6123156874869 0.25197126800878045
0.07782672911921992 0.14001871706004157 562.6075936248632 0.0027877052147875143
0.07012838598552418 0.24463720052992 562.6018243990818 0.0017374637328614311
0.07089706130001963 0.22352526568403863 562.6015880006224 0.0012984018621211423
0.07645952336683616 0.1696601724315121 562.5989891602012 0.0016123339916386207
0.06782626366413602 0.28222475784785955 562.6039767238792 0.17876589140576832
0.1266075289246126 0.08503980217395121 562.5978487265584 0.21227722861631348
0.10470871609898594 0.11052117372663484 562.5919518849832 0.11184633680446084
0.09077218583407348 0.12740308699304642 562.5957031337061 0.004581150461913925
0.08243709250984434 0.15649185912839156 562.5929328355257 0.004654242377288949
0.07486612330705777 0.19889647063911203 562.5968856685779 0.002237268324953552
0.08672150755912983 0.1645334245343542 562.5842765821945 0.005954009996287375
0.07812522344816948 0.2233363576196234 562.5883484162625 0.004813070947754624
0.07974372190385409 0.2671840850527945 562.5832953630678 0.15896998588436745
0.09871812494688216 0.13166427164892142 562.5842620072614 0.0032739830486178565
0.0812002721475405 0.20817745109792263 562.585063986007 0.007174740202427856
0.15893482067140316 0.09529774986942996 562.5765765847807 0.22943046036332604
0.09074698226922451 0.17967619701120877 562.5761112687148 0.006706908792416398
0.08383545836700829 0.29564768992687684 562.5775369938001 0.21318254740585174
0.12406583315553361 0.11716523359936967 562.5747722935508 0.006167529242203005
0.16287778043937934 0.10947683970106947 562.5693595782901 0.003743134429127321
0.09360567854703933 0.1904714590508793 562.5720415831743 0.010558472522445383
0.09062672918396339 0.21600514871705256 562.5724643747448 0.010380511027160614
0.0873712815090182 0.2285577234165414 562.5749971130775 0.005180768700179669
0.09236631390393565 0.2967386082804418 562.5685023776259 0.15344255346558983
0.1645476319305245 0.12169609147332054 562.5656418696883 0.0028505701088247628
0.15334406738862189 0.11908024091701076 562.5672709167094 0.002382175941303767
0.14539742512903447 0.130289822094059 562.5649866879816 0.002649969042138099
0.1094415292199979 0.15147789123901215 562.5695241746974 0.009610700139237077
0.09776825495745811 0.2043162782448713 562.5674108522762 0.010978221077545569
0.10315486597560815 0.1828694511255575 562.5665169415475 0.009163837991983734
0.11379156028713472 0.17247311417247263 562.56367778564 0.005136271315613109
0.1457887180997418 0.15694775277616455 562.5598316437053 0.000989470894058059
0.1396843387016226 0.16744002477426276 562.5589137757046 0.0014011305790637492
0.10580053656144218 0.22554627619434095 562.5612672718651 0.008323681925948762
0.1632203922388552 0.14131636576265752 562.5612663402699 0.0006404507749540779
0.1521196195877149 0.18452849035031957 562.5553343288265 0.0007967496126764486
0.10805711241393767 0.31285076691307695 562.5569780622844 0.18438761680031598
0.17354293237343646 0.17151617061677416 562.5561922707869 0.00024247444491891468
0.15988966080874742 0.1680123849559274 562.5571292233896 0.0004345078292644879
0.10799945893263689 0.24175190521788015 562.5593019252484 0.005939537872042144
0.1355414749507629 0.22825054863148136 562.5523366705834 0.0017525554256197229
0.12979155775685194 0.21272682922727115 562.5546872272131 0.002588642231553431
0.1065508479199924 0.28477634910671945 562.5583703710215 0.006614085787412362
0.14908812039121733 0.20881028789772388 562.5527546602232 0.0006019295417538243
0.14678166362899164 0.19638648747076604 562.5543187781464 0.0005391188722991521
0.16173643180973382 0.22588089573853487 562.5502370402854 0.0004436622618955549
0.12246567536260593 0.23845476004913158 562.5542396848815 0.0021694650970090212
0.14497952257699492 0.268329621964342 562.5477567842956 0.0036255531156599245
0.17538167187657494 0.2378126370822975 562.5486890457087 0.00019161413891918824
0.14917906577733636 0.25488095318052956 562.5484733410378 0.0010203753942237001
0.14335130073294405 0.24290082184118922 562.5501273516204 0.0016960145231715372
0.14907518185445776 0.2272812319725473 562.5507956257368 0.0006108387131154558
0.1600935078592648 0.24378776215145964 562.548536646946 0.0006258183369967787
0.15616287575269888 0.04654490388362746 562.6908179597001 0.07066305132508503
0.17912178493340733 0.045691950200249055 562.6869669912259 0.05817406150310766
0.1721508511534935 0.045031558294342855 562.6965273888311 0.06359754958123606
0.11195234576842669 0.05683754671521572 562.6982049481581 0.05341301076754756
0.17233926142219663 0.053144122958807015 562.6416523579073 0.24346783108650952
0.1699881829906202 0.05747529896318711 562.6267951543643 0.24110081746029122
0.17086716788894837 0.04830127727765015 562.6677596092142 0.00819400869621956
0.04564600781520466 0.21434087259969356 562.7029511585403 0.04601964404819003
0.04607292143555053 0.19036589769011372 562.7018288578888 0.06548145946435942
0.046355083188650226 0.2918613842987272 562.6952085640912 0.07560881036634319
0.04742411324510892 0.3192732476354275 562.6877341754569 0.0689666786392276
0.04603632464253991 0.30406566799904616 562.7011760616854 0.051657321276752585
0.05176559801078007 0.302305331731694 562.6560914836111 0.0006378584422365201
0.051347765185510014 0.2891865699364892 562.6574932621606 0.0005500542336327893
0.04989866227949359 0.30946730003775935 562.6673374525433 0.0014919326322189333
0.04793496028801437 0.2951719093216017 562.6795694646632 0.035444456815544124
0.047243597190841466 0.3061295497609514 562.6875807703506 0.049022163441733234
0.05927995866567048 0.31928935363767263 562.6262788210956 0.2295683363788687
0.17567186108717964 0.14674237385830424 562.5600764743936 0.0003267852336732533
0.1768231993910223 0.11552731589434778 562.5669669551384 0.002714573426165094
0.18206554669804992 0.21321292123854793 562.5511854476795 0.00027867386465957057
0.1758144319974293 0.2729591215873026 562.5454509179971 0.043363784205278214
0.07768397587137754 0.31032024421418664 562.5859460647515 0.258122270599328
0.08073141231354954 0.322043323027621 562.5821682306484 0.2394179888654352
0.07017011300665668 0.30240693026197907 562.5989577817588 0.22707820869529047
0.170455466937742 0.25050762339463906 562.5475981631485 0.00048296232105399727
0.1914478093057633 0.08501566337024631 562.5828092871261 0.1841232621133291
0.20106600910875624 0.05162828934387885 562.6532929335432 0.2492093614348011
0.20097707263215195 0.06258071037798552 562.6162990280474 0.1992772595842559
0.1866944923549262 0.13114295321022862 562.5629630542494 0.0007677114461393255
0.19995107837335901 0.13414541340073496 562.5629361860736 0.0011146243708760504
0.1988359179266898 0.1551115917556131 562.5590889223009 0.0003093640797441812
0.2124164026539337 0.05306397833212733 562.6555675596857 0.15949173029623315
0.2176066999366692 0.06630508686781904 562.6167927373815 0.22995852894277985
0.2047310897384959 0.10238407664817811 562.5732912196228 0.2350432873298351
0.20968943970087062 0.11658581352833577 562.5682935833271 0.0027637004970458724
0.22922288165637003 0.06586039693900629 562.6280353075324 0.18837473310690647
0.2140624223660525 0.09528177487638273 562.5792273366968 0.23752301532982864
0.2215608783416722 0.05054647734760811 562.6815189479681 0.04401348855218007
0.2239088158501799 0.055304444691495175 562.6577311662533 0.09039043914028062
0.23631790675448017 0.061253183262767914 562.6510947944482 0.14171190351934762
0.23261929755615662 0.07173919315079365 562.6179618063779 0.26315993507187396
0.2265134991527288 0.10296254809246522 562.5782884410589 0.23785123433304753
0.25244191885377093 0.07636088042531732 562.6333736144146 0.2107057054133583
0.23868689132152185 0.07942425884542173 562.6104589800989 0.23408733342012136
0.23135469145608684 0.08909408813283656 562.5917788698395 0.29318982783644876
0.2208626136515599 0.1364409034918746 562.5645029648431 0.0012594228206255086
0.2309317964078609 0.13217987036670498 562.5675548888092 0.004438242700317477
0.22831322424379033 0.17164400575932917 562.5593185996453 0.0021955668102473236
0.22388276194179013 0.19364505779693197 562.5558173979962 0.0014407949041923243
0.21425319574802443 0.21748256636270907 562.5522722641077 0.0007208916277347821
0.2577441199232897 0.0629039822579246 562.6902603301328 0.06433373533308481
0.24955640124828601 0.08016291223235272 562.621886283353 0.16021613936963025
0.23298923162293925 0.11799255117746532 562.5731068630396 0.0059532107391693425
0.20281468747174705 0.27676311225732475 562.5457555043713 0.06340952647355
0.2007512480683965 0.26571003321593734 562.54663852609 0.006887677193928065
0.27124352976122523 0.07468188677311498 562.676446320713 0.023531545848962335
0.272008747228548 0.08277909822895443 562.6554597699669 0.0026942729737717283
0.2498298376242493 0.11000530668401691 562.5873453820005 0.21461418533174967
0.2426957169807178 0.1324725842601701 562.5714547980223 0.006074683071816945
0.2717319813300406 0.09201690034704982 562.6367436128833 0.0025260508758168172
0.23726536700970013 0.1462568212623971 562.5657850528909 0.0069719145343508215
0.24225707639425237 0.16849145522537626 562.5629140042122 0.005091456183303983
0.2371139411250539 0.18136839070307498 562.5596456918747 0.002126050014312511
0.23585495496495296 0.19321213933611125 562.5578876140165 0.0023875062792053665
0.22690760540705857 0.21371204241516756 562.5540823099631 0.0021846812694968176
0.28155264745648706 0.0882514617226851 562.6654624643855 0.0034247963395146095
0.2818919729533964 0.09360061962805355 562.6549353856533 0.0029326733515563554
0.24645338131998284 0.1578151645370761 562.5661768014471 0.007023366053984624
0.29263676505083736 0.09041750469986709 562.6925798776779 0.052993078414273156
0.2841204875385499 0.10697744200273332 562.6390579985149 0.0016936934130803185
0.27894853910384876 0.11317944791288587 562.6219693486997 0.0026035111105694913
0.26935627261860007 0.12769798212626152 562.5954581331175 0.003883863770884625
0.25899209595318773 0.12850713431476632 562.5834357741824 0.005125871047655064
0.29820450607048893 0.11571097291130508 562.6621428211307 0.0038644062888896053
0.2896551724756237 0.1182825905268569 562.6380310391179 0.0038597525654226767
0.25255313744286234 0.17990474256463118 562.5647016429798 0.009340228611933891
0.21151731908655197 0.25718610157128097 562.548221734663 0.0015391451270836346
0.21823974662949963 0.24189688770639178 562.5503126054136 0.001417922310213276
0.28327685989493157 0.14557189304283352 562.6061846210558 0.002175779272217356
0.22901780802082805 0.2270665000612415 562.5532172821067 0.002817351158208555
0.22771105532330613 0.24968869715632172 562.5512599332346 0.0026994310767256627
0.21462893203724825 0.2806026418276486 562.5467409049652 0.009234357637747293
0.30749928346694766 0.11637164138990565 562.6946481274708 0.07263764459782965
0.30797771079669894 0.12926978374664283 562.6820526246383 0.019994105370938882
0.30423003213390487 0.13915742478149407 562.6596341449276 0.003017842829108234
0.29600222988334923 0.14504511647366877 562.632974769011 0.0025372063439345386
0.2932069080770795 0.15214721303632264 562.6231939562587 0.0015784936419628106
0.279788918283736 0.15521894295267344 562.5963779715158 0.0028412865327345693
0.2850301279764307 0.1669608074659998 562.6021169818952 0.0010747625561229452
0.26333281258921953 0.18446574651035197 562.5702188773695 0.011468808376653377
0.24308808039618796 0.23042562525905202 562.5565372896779 0.007079209424785182
0.303596707571887 0.16758029662367682 562.6473797998141 0.0007250369488929663
0.2860768122364547 0.17927845361531403 562.6012000464966 0.0014636491997323166
0.3056467553414952 0.1786461676705916 562.6528340082182 0.0007621806782967145
0.3016783399553655 0.1787020404039683 562.6390206598178 0.0006102534029234658
0.2906220645294747 0.19278523289314858 562.6083208978671 0.0008615097164912367
0.2802861659539779 0.19522233554050888 562.5884576683444 0.005343055572050654
0.23485892777394862 0.28180738735949895 562.5508429051165 0.004724151664327116
0.238334423778102 0.2468977394055673 562.5539090842221 0.002969887822827214
0.23728589161401228 0.2637678730351831 562.5526038792266 0.003935195319260884
0.27701150778947903 0.2127632801849286 562.5815895875932 0.003600413994389196
0.2488752408597678 0.2628298199065965 562.5567716566901 0.007888721229821122
0.2523933830666931 0.2498780482169088 562.559018282786 0.007729323765693876
0.29360502911729836 0.22174668584662716 562.6113419706567 0.0012212591663750582
0.31315696320177433 0.1999025480571739 562.6907430637013 0.06128175659258372
0.3126658891885718 0.21271505170689983 562.6852725905871 0.03470150135429131
0.30811141955332816 0.2227081679202831 562.6571775552188 0.0005901243278288379
0.3054665176186142 0.2057524634570337 562.6477297946617 0.0007920629506154328
0.3079920721114472 0.2004565209263953 562.6587006695087 0.0002930810740591033
0.28680617289261845 0.21448056978122215 562.5975605431395 0.000541461481057296
0.2846147858269115 0.23721955808023798 562.5915231759212 0.004125346831835369
0.31075131119840077 0.1870819568666086 562.6750851699929 0.010221906599546277
0.2975668515580396 0.2394297732262916 562.6188884600336 0.0008715792430907931
0.3035204230196823 0.23847650052893718 562.6368520984715 0.0011082288680841572
0.30278505168646297 0.25230272118512864 562.6329306768525 0.0007285391154286774
0.304624045065916 0.21726295792789369 562.642780730473 0.0005989734612980634
0.2903348361084801 0.25354741582916285 562.6009719896027 0.15086288624238353
0.2788254331248955 0.2531093758438487 562.5814555276008 0.10460188727561587
0.27460530332046 0.24235166869154262 562.5764013707353 0.0068501298968892755
0.3136967657817072 0.2605874436237186 562.6920231330804 0.05439530963764914
0.3138174097225668 0.24484113620247977 562.6934076452519 0.04510449321789594
0.31033546064444273 0.26492663984599735 562.6660183904501 0.0007863132458315934
0.3062275850180073 0.24747593595131306 562.6462910700639 0.0005805393095980651
0.29845047493642984 0.2510578201701201 562.6204832195101 0.0010877566722877756
0.2979298713959288 0.2780273241026873 562.6174308248545 0.15626484235889648
0.29782450574142344 0.26677496787850563 562.6177915086469 0.09716742049157955
0.26749836488951917 0.26581650613178587 562.568411450033 0.13377665989688137
0.29444754535826434 0.28942498720086285 562.6084254317869 0.24761279746137102
0.2933787400250771 0.2715454285072169 562.6069688041835 0.13904853066637152
0.27352727021307316 0.3115205570601448 562.5745401410535 0.24829540965263672
0.2677329159558253 0.29435179951083734 562.5683272614152 0.20517871252009764
0.25304299012039994 0.2902918615948899 562.5579248743213 0.005119867220598037
0.27894938142948866 0.2980461264469834 562.5809482371037 0.17481251009447885
0.246458932979446 0.30331491167549 562.5541932378235 0.005650669489161962
0.18347100363214525 0.04849923460829696 562.6650477310782 0.09719844574913428
0.18537050546454253 0.05041746330132654 562.6536601593308 0.1335953878150541
0.1827779418620396 0.05855844211775722 562.6226311079678 0.23615398799546802
0.24563457776129 0.056462239268012165 562.6936555008941 0.0566308152580036
0.2383554779174649 0.05245094070881982 562.7031505445335 0.0572739642146196
0.21031109963715924 0.048870750105383054 562.6784751407279 0.023149143038696036
0.21871412005759872 0.048449311621479745 562.696129194328 0.0624562983393156
0.1869449367896092 0.22757471302741739 562.5497303485577 0.00029900120469472977
0.19200394946402644 0.14591047716290895 562.5602709883743 0.0003740860193271498
0.183350189590874 0.19793529599485654 562.5529254785232 0.00029246788756553895
0.19356278728657092 0.20701224176676086 562.5519630937049 0.00027561440652246086
0.18989201713552128 0.18706364621726432 562.554258397564 0.00027686377106381997
0.17741403080503731 0.18416098544295084 562.5544999237986 0.00021399793508866089
0.18223894308302796 0.25917680244861535 562.5466332451798 0.0012436800178499553
0.18866537698877647 0.2732677153220241 562.5454473852595 0.00946408640313547
0.3144697560783556 0.21198124409247399 562.7027149774527 0.050174527290999964
0.31367393298048474 0.1884073533229647 562.6974988451085 0.07323873825068328
0.31318739757680264 0.2827567600955737 562.6874739128467 0.06567272248557868
0.3142167979883622 0.27675892300909233 562.6985897777209 0.07061200972368148
0.31443141058269874 0.28770766896311456 562.7016026406505 0.06301490427076285
0.31317641037780447 0.32997284074469 562.6946959656559 0.06715333988964023
0.31387272598495286 0.3168544347790411 562.7009584779862 0.06219291601179063
0.31156559694304414 0.3185807133214057 562.6767952679402 0.009594440967952722
0.30830402760212944 0.28660139418497343 562.6546199037513 0.000682450083204819
0.30902543306824487 0.2989007272767394 562.6592121996705 0.00036218782199942066
0.3070374688131626 0.3043763964735671 562.6488969547379 0.09155030581447474
0.29101204561291816 0.3106702469430401 562.6009946692147 0.25644024115471936
0.29873149552725825 0.3036763465961574 562.6193892906816 0.28286393651771
0.28219195189134005 0.31802063159235106 562.5858061550682 0.2362246169643567
0.25600985469869175 0.04732783423096702 562.7041413386368 0.11538619199598717
0.32972320305847413 0.1239884627930863 562.7044386212162 0.12461354086575545
0.3183742758651528 0.13348521759435708 562.7037129042083 0.04808276123863548
0.3272094684445795 0.24512710318033645 562.7038793274013 0.09590819945552981
0.33457206462175854 0.27352114498477553 562.7043998266772 0.10417907952870843
0.33123255599143997 0.21452498097377704 562.7043062363329 0.06870030470694628
0.3266386140022918 0.22985461138574048 562.7038793584569 0.11009394050423499
0.3155284430474544 0.23616206771661472 562.7029420441536 0.04552617225861804
0.327319578939013 0.1948577233708731 562.7040437497409 0.0971622622483595
0.33078551961691216 0.25966730331434373 562.7041298220802 0.07113991586983646
0.21006919232978205 0.01566476859144645 562.7046837414413 0.15133221566838437
0.20659283011626337 0.03584453073358831 562.7037187510122 0.1000177729382876
0.198940299298622 0.025071278976557712 562.7043184708479 0.12740228354325903
0.3083692721643635 0.07260485047950682 562.7045590249322 0.1199222909992268
0.299650660902517 0.054864356809590745 562.7048434443873 0.14054338910481862
0.3120562318885541 0.051929328753831654 562.7050200968049 0.10585761983653261
0.3130296610381974 0.09642647994785158 562.7043159732674 0.11209232704520247
0.3280425803110948 0.09575177990422123 562.7048753263298 0.12575456258130716
0.34310823180523314 0.2958838317229425 562.7047761722382 0.12040238013103624
0.33783012833846515 0.2851944232002908 562.7045479863864 0.12710414714041607
0.33953630172787597 0.22239827231531784 562.7047425039589 0.10802234621801886
0.3418569040995503 0.19257414421124103 562.7049057555078 0.07738406399611335
0.3442262761882154 0.31363233095869264 562.7047962854192 0.11734621512574026
0.2786445710184624 0.06473050009102621 562.7039353671881 0.06133236467637335
0.290652134391078 0.07206001213546269 562.7041350280382 0.10147920083446407
0.29888968304336133 0.09206279948960441 562.7036399155171 0.06201291506019227
0.31627835366994295 0.16221715177228507 562.7033682216479 0.07381169383014585
0.32216569404528245 0.15122223833851445 562.7038822468783 0.06472667998034123
0.31766180587109677 0.30050592571227974 562.7031716098129 0.07641773805985126
0.3144996603316284 0.3388647219064691 562.7032863177275 0.06165813883363678
0.31393545138404083 0.11782567284053778 562.703735427858 0.05411462613922406
0.322788075231364 0.18244730868649384 562.7037321319424 0.08336992309901442
0.31486623386114704 0.19961238579025098 562.703050992708 0.056527171585442494
0.32566162959605016 0.17103844387965772 562.7040025562861 0.10632415605294994
0.19330935194765478 0.008131947452241627 562.7049936442343 0.08748749681631751
0.16846625723007888 0.011600296426700326 562.7049024447742 0.12641754013973505
0.3443493969732821 0.10997718260515862 562.7051118680251 0.10828355207350662
0.29170866512889665 0.045533741149012444 562.7049477806842 0.11147685784821848
0.33347845538861814 0.07813909696499893 562.7051070751003 0.125520520964599
0.3463884861175798 0.20327453176626556 562.7050450764879 0.08606271198957825
0.34595123172261855 0.26673952067364065 562.7049596286168 0.1271393565395502
0.3480285967217878 0.27923376680568823 562.7049751545218 0.10927668398092971
0.3492666340881262 0.1754592084547808 562.7051126165926 0.08209655932110925
0.3527954569876086 0.3440018328038896 562.7050295338167 0.0810861701140662
0.17211471941335338 0.03150479974306575 562.7039374332053 0.12993779265987146
0.1578742707119779 0.035590702456707354 562.7037687297445 0.09140673100837969
0.1269538354308859 0.025489870416993063 562.7046413982606 0.09979909813324792
0.16130817987663543 0.024020807888335452 562.7045658123963 0.09136034354669809
