x y z curv
0.8464697767419516 0.18709024677459812 433.1667923512343 0.00013452688373322586
0.848022273984922 0.18690983348360268 433.19351888176817 0.00022017938550086098
0.8468926939093638 0.19626962997441835 433.1736902091309 8.811514232072582e-05
0.8476285158164586 0.19688261436789484 433.18664445503236 0.00013768836760223542
0.847246913288442 0.17853151748376356 433.1801924326782 9.163790887674939e-05
0.8459616629314333 0.17232140404049492 433.1586074227676 0.0002485374759496528
0.8481109951647026 0.17507457524003178 433.193681502074 0.00018354314855096218
0.848034718331288 0.19626365745593383 433.2009084101046 0.0002187649708784777
0.8480097219168468 0.18711044138623095 433.2111961628366 0.00015151926057861557
0.8481498338426916 0.1742655054639774 433.2146519885706 0.0007742421930805087
0.815980671310368 0.17098267301070277 433.02249333936015 1.8337726117938818e-05
0.8213400327666682 0.17243077691324987 433.03909666553136 8.060660935065494e-05
0.8184149031432583 0.15645294665874784 433.0307904740574 0.00021924659929836897
0.8256264311636284 0.16886316896454767 433.05281720549993 0.00010791369076455666
0.8287031289641351 0.17299228404723277 433.064549610501 0.00010765315129035879
0.8278334281619373 0.15817167087240225 433.0622366245816 0.00010594455283844782
0.8320830348889273 0.15315512858851515 433.0795637473267 0.00014271968764909327
0.8368933122731849 0.16100751911845917 433.0979238414519 0.00020923899244602433
0.8396323111968196 0.17402394929541276 433.11204984218585 0.00014958400730567548
0.8416454837429322 0.17213758871614504 433.1247238922176 0.0001739841997096981
0.838988856369917 0.15825319602862573 433.11036702980834 0.00029363157973696957
0.8430749263950109 0.1646970495977862 433.13456336662864 0.00028771533073947695
0.8430706976431058 0.15235160605052384 433.1360113236241 0.00029446501403778476
0.841363355257314 0.15839091810277697 433.1248980354269 0.00018321515579450628
0.8397944041092398 0.14834887988022116 433.116546774674 0.0003291897845340536
0.8449638511399765 0.15067579714858126 433.1493736479812 0.0003043464764345205
0.8465864436943759 0.1600714263719834 433.1723582762571 0.0001533445432591994
0.8453788441949944 0.16293439767129955 433.15219483088754 0.00035872372311237854
0.8457151573912818 0.15086249393071466 433.16086919260755 0.0003397926477038584
0.8474501649865428 0.15485301549421793 433.18565820591255 0.00022343497441758777
0.8160528038934176 0.1460577028998442 433.0247879036693 0.00023696013819566057
0.8190727118782244 0.1321692214096915 433.03745338429803 0.0008136836720705353
0.8227967870314851 0.14924011952502272 433.04550069221966 0.00024898668192806125
0.8345168035715324 0.1475085367895097 433.0901670067147 0.00048523226277724646
0.8285462114179187 0.14380311703632218 433.06791614077844 0.00045120630956680004
0.8308222033401925 0.13648222525969728 433.0790858110345 0.0006738642239019581
0.8341659860191252 0.12512794859713178 433.09660218008673 0.0007651025705482981
0.8251491039903667 0.13024596068470395 433.0585261259015 0.0005530798952240491
0.8361074752953532 0.1376045056723693 433.10009645674626 0.0005416636470916658
0.8380090158382739 0.13607093984493956 433.1121724877789 0.0006268726344040153
0.8432983894575529 0.1332315166582835 433.1454381111244 0.000562432787347183
0.8403378410702258 0.13115245712985932 433.12877997603437 0.0005922008374301425
0.8473942645826193 0.1418198039995145 433.1892758651669 0.0004207262726503465
0.8461502512851324 0.13772346026868565 433.17739692449254 0.00047819888143723455
0.8447606777847668 0.13952280209732118 433.15572363689785 0.0006062044333147883
0.8441591620843818 0.12614224146810402 433.1648959984483 0.0007194497431124931
0.8451616136355912 0.11778485875585537 433.1888330628777 0.0010067263744382977
0.8148843992134008 0.12804349667490572 433.0257872123426 0.0008507147093782342
0.8109017123722659 0.12217318842944919 433.01589012924035 0.0013885278454873968
0.814429530634359 0.11741587402637213 433.0293991609782 0.0016505168563189158
0.8189016043731949 0.11785588935706522 433.0439037737831 0.0016508638015995884
0.8223446659003768 0.11585455693940776 433.0570369937303 0.0009190869126807536
0.8227377768790944 0.10672715511823208 433.06530925698723 0.0016461217964069965
0.8295205467966379 0.10821393637971485 433.0914589596596 0.0012689076916306385
0.826254506326357 0.11019611951246555 433.0765131448933 0.0012638543350443393
0.835401543527164 0.11110889497159328 433.1180194707758 0.0014237487550410558
0.8358746289977994 0.11977727751662486 433.1100995445561 0.0013010968803979664
0.8393133666673898 0.11867934051497803 433.130990538577 0.0010462089818479448
0.8339303036992272 0.09767515331742785 433.12741653181 0.0013911445670518501
0.8373619330694788 0.10550368466104335 433.1369757613036 0.0017199743373371187
0.8421716902445309 0.1172154030803181 433.15142748648174 0.0010342701396903432
0.8389251772334118 0.10296216224419835 433.1523099952111 0.0018360044778586136
0.8407262931180295 0.10659951913476028 433.16266657048266 0.00135462441551236
0.8426315743078239 0.10439049085371414 433.18900633349926 0.0011782272046314424
0.8374022974477242 0.0931159714549035 433.16260358694666 0.0016265077387905777
0.8394097535435265 0.0938021851141202 433.185080555299 0.0017336665585701442
0.8397679379690308 0.0983081337204405 433.17349096656136 0.001198346061506219
0.8443833180383375 0.11058482918578971 433.19900387892073 0.0016439572966342442
0.8437407061417876 0.10599160125159646 433.21230852485326 0.001997305167480812
0.8407611368299727 0.09442974990695889 433.2131780086056 0.0019392305266647397
0.8039361644720073 0.0999018168471098 433.01040523392305 0.0024052188247088344
0.8148495167430684 0.10632896713078546 433.0377282981561 0.002033888525766052
0.8091702087228481 0.10516708582696155 433.02138205654717 0.0027736457054895014
0.8023586703071175 0.08993024331580622 433.01563711395465 0.0038119090990671196
0.8095431617795413 0.09636774049207988 433.0312245306154 0.0027279786446027486
0.8109126285568778 0.08757791915440957 433.0463362400519 0.003413809637667973
0.8150393146389431 0.09842909243144857 433.04661933135634 0.0027835336841531043
0.8187553214741565 0.08945532561301267 433.0719235217566 0.0013930055162065583
0.8184097022566442 0.09721259510716265 433.05989098073263 0.0023040126745367292
0.8237750781630051 0.09802880873911009 433.0787338405148 0.0028549203015086166
0.8159243094215647 0.07928548346685543 433.0771276590745 0.0030366317548637394
0.8278766167511132 0.0949950991079849 433.09858018786343 0.001853354852734728
0.8213362744977138 0.07920701167153797 433.0986618286517 0.003092218529056953
0.8222103361295692 0.08919701928506335 433.0856990250995 0.002953052626758871
0.829777369543846 0.09436797629278104 433.1097871721999 0.0014746034296189523
0.825527460525903 0.08258211421928813 433.11324953199744 0.002400051782955247
0.8248342158414066 0.07332459417637037 433.1323877328647 0.0020458083283488586
0.830360851737982 0.0823303049983841 433.1411327055023 0.002868715896057315
0.8355010518465399 0.09120494018388363 433.14874084663063 0.002726457589505485
0.8305117084054496 0.07855875178367788 433.15490378725224 0.002065072869996132
0.8346945086609023 0.08188643111220714 433.18132306652114 0.00229894657804163
0.832252176972111 0.07397950182242595 433.19415922214614 0.0025270783585857196
0.836028601123582 0.08149943012971791 433.2075319275253 0.002655700049027882
0.8305445305028296 0.06994158935741564 433.2079952936291 0.0021479459190988474
0.8058882928205237 0.08262986420928456 433.03703642293755 0.0036049787527213766
0.7973457243723381 0.07833950660811126 433.02027056886095 0.004506744810834547
0.800797183262763 0.072604407123468 433.0408573334428 0.004633701871460403
0.7950358356624105 0.06922995063472112 433.0305191878478 0.005739089811462863
0.8055103389879205 0.06662732607292245 433.0686859186844 0.004071288292547001
0.8123086415768264 0.06962035950807359 433.0851195472744 0.0023521638334113152
0.8069249694638954 0.0751301315568337 433.0540395625459 0.004537364127642094
0.801362320707952 0.06515228876165771 433.0578537373249 0.0069585335464420525
0.8059369283728646 0.056085642183657664 433.09685157113006 0.0034395505642287644
0.8184640836480983 0.06767595632087764 433.11661789805726 0.0017823209302025363
0.8129406690576605 0.0630908629290061 433.1055658336628 0.003922107665419
0.8082425398362809 0.047741445486053996 433.1386691921476 0.001508749619694299
0.8164862101438104 0.058944141126579704 433.1383392114093 0.003337128947757806
0.8246819108076187 0.067832805579457 433.146597435916 0.0029019522405862495
0.8098906243694141 0.05378615453797467 433.12407518898846 0.003717613914884319
0.8260381231475441 0.06374410512438848 433.1889373526285 0.002204844614667657
0.8252593175235579 0.06549744973663064 433.16870874768597 0.002589637326597551
0.8170215515990575 0.05673766161092424 433.1517191060564 0.0033952237126227266
0.8131083606865546 0.050138203103444315 433.1615104178743 0.00272489578037981
0.8123358678119682 0.04528874416255337 433.1912253008021 0.0026338929882097927
0.8182674887248661 0.05393121290276454 433.18510436906064 0.003217861082720198
0.7843477735085904 0.0645328942442681 433.0138880904448 0.005220009369947643
0.7904906022585906 0.06016465055849048 433.03932725439563 0.0057564087437931115
0.7822645077901279 0.0505222882202413 433.04665276671426 0.004110185451225826
0.7749142409288536 0.0533422299235911 433.02224142647265 0.006844798761084977
0.7925284739254042 0.05506669804063533 433.0586432449975 0.006367587881801322
0.7976281393448337 0.0525676867676559 433.08112293210274 0.003556227971752954
0.7823380478323548 0.046028207054594 433.060221060666 0.005620381460310487
0.7911244918179324 0.050606037227689214 433.0695153617752 0.00611520971571012
0.7857369012004756 0.03917818260764788 433.09286616442023 0.004161827263594379
0.7811168352916581 0.04057175621049032 433.0752068234254 0.005425429933553834
0.7879837543783175 0.037650664837425324 433.1060899258124 0.00293810817633562
0.7998257750229087 0.04656090139884497 433.1105238088272 0.00398459724778034
0.7936033679977281 0.03520585155843067 433.1400498250732 0.0030306646460742295
0.8096054707919402 0.04347635616222364 433.1795545722681 0.002194044971133338
0.8030763353594963 0.04082585125879594 433.15420300889093 0.0027658362075276407
0.8017914723929371 0.03779033252188309 433.1720980205197 0.0029098305761285307
0.7946229642769536 0.03279965588471506 433.1630558561175 0.0032926645505867835
0.7926692946466527 0.028878125075054786 433.18261999063714 0.004115868629149923
0.7995103748957608 0.033372644420397224 433.1937382025706 0.0013376035728713794
0.7703317092789095 0.04241334816643719 433.0487158211183 0.005911597266184019
0.7688741423086294 0.04717482237578355 433.03082914877865 0.0039470287730714775
0.759561383688914 0.045031433739532806 433.0241307179364 0.004906697428078854
0.7632159146673363 0.050356635419879406 433.01203186196324 0.005226703974696664
0.7578231427159422 0.03870444731766991 433.0422921026269 0.005043688171288483
0.7717734783609521 0.032680958900438 433.0894722373122 0.003428858485793165
0.7598697336520546 0.03326720887578382 433.0652914161414 0.004593050700013892
0.756792260285011 0.03458568575171811 433.05443712239133 0.0026671833760370236
0.7623388328127214 0.03128545750425091 433.0776961131787 0.0036554472542944167
0.7842328663968254 0.03076569788749775 433.1283283958565 0.003790873036286809
0.7662802051980725 0.020139379218010012 433.1401465731026 0.002549368743072106
0.7685002575685065 0.026889683416620846 433.1090691885777 0.0036089786241982487
0.7718553383696146 0.02553253199748015 433.12485684747867 0.003173225015315392
0.776553284214055 0.023330504014355123 433.1503883663936 0.004132871811712104
0.7847273922344707 0.025635395831521066 433.1625352603005 0.004201541924641958
0.7792411441667878 0.021070395672586954 433.1776379106178 0.0037804837132650294
0.783477758971842 0.021938379379237365 433.19002422350195 0.004090786553655196
0.7655875273131606 0.014472725267379385 433.1827637722581 0.002756841661315579
0.7679484407723314 0.017467478467035703 433.1645540438792 0.0036282458573571
0.7899163643475636 0.02493054901471154 433.19877087461225 0.0034575741582805668
0.7804764054543045 0.018828353400268866 433.2097633819816 0.0036739668784525155
0.7669762535695064 0.012722843218814176 433.21030019168853 0.0034790948066551527
0.7413968886705169 0.037970115512465645 433.02971063635255 0.002458759091959068
0.744977319602468 0.03350396233960448 433.04870289525456 0.0017522746465057477
0.7322309578954043 0.031211195589490818 433.04829349134553 0.0015414806067184535
0.7319741396855279 0.04227817477694309 433.00793196368244 0.0017104503939650935
0.7436845696349516 0.04182573697790221 433.0171411633507 0.0019050228927493648
0.7438939854049367 0.02427066407348817 433.08777110113226 0.0010073510336004675
0.7514317584064085 0.028366256024788473 433.0760719544189 0.0029332606980330715
0.7459049049252799 0.029850790703571373 433.0646362422636 0.0026598120489187845
0.735913536179924 0.02600080079102436 433.0732906369627 0.001258593852519603
0.7331906993436487 0.028206082876907065 433.0612636647581 0.0006818072111066336
0.7551152241121559 0.016650030388370908 433.14256772715635 0.001882956666112324
0.7386771614768214 0.01285089106033071 433.14484556096727 0.001180322774192983
0.7605644336855404 0.021180795675866095 433.122114331834 0.001464882754254822
0.7381884651815057 0.01652186557731506 433.12274888308644 0.0010581497640950658
0.7478890012516041 0.022264210627980834 433.10040516737513 0.00118600233031144
0.7493766947071581 0.020079851690780838 433.114934774738 0.0023156815169381715
0.7593163416542712 0.01383151288168433 433.1719094917234 0.0030471320447911757
0.7493875271083776 0.010276345531812872 433.18318334479636 0.0020772011006382216
0.7479957124262875 0.0131537482125317 433.1573183765681 0.0023372598052783526
0.7620350842703232 0.012103439173355436 433.1949836530206 0.002864091990928073
0.7551449728819519 0.009692973507497309 433.2034261256054 0.0026545631333139423
0.7416051752578428 0.006778375305479261 433.20722431897445 0.0006616991997027643
0.7233239228211465 0.032203385015779226 433.0412616811551 0.0005397894745624169
0.720815403499473 0.03526483168397456 433.02899797519444 0.0005598530703072393
0.7097947263327128 0.03029703393375214 433.04465634248356 0.0002181110483763991
0.7230755622871748 0.038267884194634644 433.01829513590724 0.0010073835633703126
0.7124942672401829 0.040099426502628634 433.00875734930287 0.00022218188674865482
0.704540445720743 0.03293107643662986 433.0335058562905 0.00019921354169935503
0.7241465621622972 0.025675603869414466 433.068681331985 0.0008261431498252109
0.7194495575452867 0.019880358062873874 433.09362157533235 0.00029742017119183974
0.7306608466849844 0.02126759077882289 433.0913476742102 0.0006400653937956443
0.7073656704565003 0.027139704202379163 433.0563162401874 0.0002494590300199203
0.7112661641258746 0.024856890579481955 433.0680228189829 0.0002801027751681634
0.7160508996150092 0.022042148317940873 433.0824488473857 0.00026897774850190656
0.7317125021470635 0.017501627886535556 433.1117742446348 0.0008871229390646651
0.7229798439685884 0.01137983874831337 433.1444890297554 0.00024973579273339695
0.7194930388407863 0.01500449097210662 433.1208039339921 0.00022264656642541884
0.7101919325260702 0.01582911054555816 433.11142155220085 0.000290025681687798
0.7354177935893615 0.00994922344573575 433.16547835078575 0.0008100942773873498
0.7360607204499732 0.008440305366453738 433.17996716398125 0.0005901040198631152
0.7219925609907908 0.007745256555803539 433.1742574019166 0.00036342267521750053
0.7110440930265107 0.009487180912325059 433.1509526420964 0.0001808610852515123
0.7186579176236616 0.008884273499824059 433.1618389376699 0.00023439831926065337
0.7154189183953139 0.005954631188030453 433.1857117476791 0.00014490362321194724
0.7367758993817753 0.006836039003301687 433.1957312907157 0.0007233063249745082
0.7284612550770806 0.005324248925152125 433.204806444617 0.0008359809077321442
0.733881905765192 0.0050973329463302585 433.21611526556694 0.013889004012808018
0.7172413702154701 0.0049233103381433885 433.19699125103546 0.000271113370696638
0.701808197121428 0.03611169497568371 433.0211067578698 7.013045891738621e-05
0.6914356528603094 0.028309937634525814 433.04864692815397 8.207889856004244e-05
0.6959363515828756 0.03911304153103383 433.0088737826599 7.203840805529541e-05
0.6848259612891123 0.03794175067417967 433.0114262516689 6.255119128369324e-05
0.6919122021149513 0.033470180009956475 433.02936631424177 4.7408666200643666e-05
0.6967769369584911 0.021294061038174068 433.0807296799112 5.270216732531075e-05
0.6985218513242488 0.018027183780947722 433.0960483353191 7.57472702074231e-05
0.6969235082818643 0.025542304087437195 433.06129662133935 7.351149482328423e-05
0.6826585179724699 0.01987645841878645 433.08434703330306 5.657396922560602e-05
0.6829759076155023 0.01751466046441692 433.0952343514097 7.347419715211731e-05
0.6996540695062337 0.011068760071510723 433.1369361733613 9.558565946530692e-05
0.6974648765850687 0.015634590536683396 433.10881244871985 7.461036949874908e-05
0.6839012523207125 0.012500452367346206 433.12408157155573 5.797906585332566e-05
0.6831954013243886 0.014353231691982937 433.11271480609906 8.130312569770575e-05
0.6980761097193465 0.0042926268209875764 433.1924928680687 8.59368486370777e-05
0.6844715933201535 0.0035245221786908525 433.19399329131494 6.620533191026706e-05
0.7030585931657298 0.006067261671197256 433.17839253988035 7.534930874974485e-05
0.6919921248475513 0.006405493158597234 433.1708699947878 4.998968778027957e-05
0.6949118683054476 0.00900751259388238 433.14842250226025 0.00011338915010018195
0.699878102390916 0.007762981541991708 433.1617249180426 7.008242325572995e-05
0.6742080544553847 0.026814625566106746 433.05204642484364 8.281860036097687e-05
0.674086467669377 0.0300293436274472 433.0399531431727 8.21544450990121e-05
0.662847851260525 0.028251274840722988 433.0459214961216 9.282447172334095e-05
0.6710362480743847 0.035051688259131415 433.02087373698885 8.655728748709705e-05
0.6592099661744191 0.035890179237142966 433.016937097423 0.00021731155456258786
0.669417305735497 0.020873013727908424 433.07857842960027 0.00010101761347915011
0.6683501089937369 0.016785128189699176 433.0972764403393 0.00011022541144429897
0.6781498740598042 0.023094170303894997 433.06904350801653 3.1963154985129465e-05
0.656619831120178 0.01873945569973251 433.08739233865896 0.00010108222251568657
0.6718042004436924 0.011701903174972664 433.12735417151316 7.076943895044693e-05
0.6793234968713563 0.01017467330274929 433.1373452936673 0.00010858709270782614
0.6714772585938157 0.01386823888562647 433.11422441842444 0.00010004084824372881
0.6602176335917102 0.014427709126703683 433.10970672697715 0.00010636074138511007
0.6727041585502427 0.008519881943310742 433.1466776611752 9.915181000495737e-05
0.6564588169984202 0.009111422772714428 433.1414570269341 0.00016944945110254284
0.6710001717008529 0.004829897868503213 433.1790077858003 6.308689143474278e-05
0.6579576687269956 0.007264780855380849 433.155302962206 0.00014642812443371313
0.671386001270679 0.003212670949684119 433.19366092257735 6.401708010891352e-05
0.6797104759245121 0.007501997902621462 433.156446146629 8.935249359488862e-05
0.6578499614838376 0.005951780206537657 433.16714999040994 0.0001352207607845756
0.6751827667575991 0.0015595900167172099 433.21733161137223 0.01062439876211352
0.6600528429817172 0.0018758965739289122 433.2094039990185 0.000496687679895569
0.638972533478476 0.038618186073692065 433.0085484075369 0.0002157311358553924
0.6435888968991192 0.03509214008795024 433.0212391649948 0.0002732172043587278
0.6506171472090025 0.030152248245717286 433.03895212945406 0.0001004292511265958
0.6379054209455904 0.03242322754956608 433.03192135639256 0.00043834256375571153
0.6321945963369646 0.02931519330073202 433.04424865898704 0.00035077725637735937
0.6504778906873278 0.024851201356821756 433.0599686631266 0.00017413324316270786
0.6371526843036941 0.02436010085706796 433.0641279255726 0.000388250211215412
0.6544491039622811 0.0218956820534796 433.0729515855945 0.0001975077137170852
0.6408069949482311 0.019918902339110856 433.08394069721703 0.00025323856247261653
0.6393713848258925 0.017100038113427966 433.0970318439321 0.0003243672828365882
0.6512581753339859 0.012752202779939457 433.11999816039304 0.00016893267676664585
0.6513894341028511 0.015789900605206415 433.10165924411535 0.0002690490610127679
0.6300566243054518 0.009677273851241983 433.14224643592917 0.0004976454346287197
0.6292762596541117 0.01627814738569671 433.10274451314365 0.00034581665804096074
0.6441334762493311 0.011268727932770069 433.1302340020958 0.00022641336220592103
0.6388247548893702 0.013310295438758162 433.11890058605513 0.00029882489793481835
0.6416524205507554 0.007702665906273742 433.1541015223087 0.00022265682672574955
0.6429979449769332 0.005660510683403509 433.17138338304255 0.00022538248313723252
0.6528681280396351 0.004198568894355946 433.182891625062 0.00012744194507199492
0.6375197081816917 0.003930211330092909 433.1878499911537 0.0001697687464471339
0.6268014488240647 0.0037016990820247634 433.1941785123522 0.00035917167991245553
0.6450885042823596 0.002310261785775189 433.2038672913102 0.00020610507068812424
0.6294041477756263 0.0021840787147829415 433.212934144415 0.0019859125863453523
0.629327715281333 0.03574713626849095 433.0214918727503 0.0002942326399153125
0.6198964745395988 0.03904440900752923 433.0132992179816 0.0006944805835253357
0.6099488993539615 0.030562712950666083 433.0489178245122 0.0005227762513764419
0.6217201370106294 0.032336885498444407 433.03729426812026 0.0005905762879947363
0.6219186360292424 0.028583508785494406 433.0511016990616 0.0005720357030304219
0.6162996043504908 0.024754225207184396 433.07067053942853 0.0007045141504191311
0.6275743436780373 0.01933329283092931 433.0891535535326 0.0003840116203978462
0.629873419704623 0.021691492618803057 433.0773504926626 0.00043752485381391834
0.6168133877774382 0.021811936123569874 433.0836475453823 0.0007534040012531774
0.616678719780654 0.017280407012527605 433.10531004930806 0.000594407971812878
0.6103610251440938 0.015862361299096902 433.11808384555343 0.0006858515666481036
0.6033425819585331 0.014149989274441156 433.1331860097466 0.0010257792850427796
0.6186988786603632 0.01223057360647872 433.13376744231755 0.0005823232760742065
0.6026514533945416 0.019321553804520577 433.10298225805764 0.0008155584555348088
0.6090045223262494 0.009641069318584739 433.15934361096475 0.0006829662377233909
0.6178207026464577 0.00991291151067988 433.1484254463627 0.0008197278301692196
0.6219102971833286 0.00677138981310087 433.17078942655644 0.0005764231271181001
0.6150881816977978 0.005207315844275039 433.19024933146676 0.0007272615718510929
0.6256191075727782 0.007812281733652495 433.15851210084975 0.0005021965923435569
0.6031108156357293 0.004808920112674872 433.21612171990597 0.0077714952391334125
0.6089797985866423 0.004883345576078448 433.203049074864 0.0007930147746711454
0.6027440089500972 0.037466364634617375 433.0289552462093 0.0009614398836249928
0.5911056215251091 0.03684159227570645 433.0411572250834 0.002620475873928735
0.5859006395884283 0.040754513228785365 433.0316280028958 0.001912661225117011
0.584819490272346 0.03519094991734099 433.05255098251814 0.0024997586614064825
0.5885343155135927 0.04517716343424336 433.0134531902577 0.004014808279440516
0.6003424249970555 0.028384450246852932 433.0654881430143 0.0008526660969799091
0.6004215395059584 0.024886054070202848 433.0805297223891 0.0007904372155498209
0.5874669672735945 0.031162509462105685 433.06696315336285 0.0021537140680219333
0.5867211533981463 0.028265404667599706 433.08044057184895 0.0013156815835777993
0.5873878700502692 0.024879056990466476 433.0945253804602 0.0016049065423405881
0.5894964650867243 0.022098476008382353 433.1056591170756 0.0014409091010504757
0.5883229110674839 0.0202167489054243 433.1180719979026 0.0013195755192734716
0.5928159029403928 0.01446958663817461 433.1447798139303 0.000842854567061385
0.5786237189979941 0.019417524105434236 433.1370608842878 0.0014275533159644894
0.5902403644724507 0.01766914594484494 433.1299608335439 0.001260995379337405
0.5942867465945905 0.009554528157576795 433.1815704638528 0.0004721492129484659
0.5819959034274444 0.013774856250730001 433.1716446017251 0.0019844513848558663
0.5940935847647784 0.012595432306098737 433.1562581195143 0.0009288899065660426
0.5826175357309876 0.01610015297398745 433.1516477965897 0.0013987369073263233
0.5839488772934145 0.010932400370783399 433.190761812066 0.0013567182265024162
0.5866193951127919 0.008897063128986442 433.2068437614359 0.0015397861218686701
0.5776198398750495 0.011145665963058306 433.2134403030206 0.0042013894527146165
0.5739937563190927 0.013026494308672129 433.20239983824325 0.0018591898699677008
0.5790400204390063 0.04633198877610858 433.0223059927448 0.0038858779664276595
0.5742695862115736 0.05238286269330339 433.0093557596189 0.006020103025662068
0.5765512096078507 0.04103936881318409 433.0433569878936 0.0028557611597653286
0.5751219979866549 0.028203284495477036 433.0952158962422 0.002010386624815466
0.5720720015548952 0.032630285649251474 433.08289793715113 0.0032685754422982806
0.5700361917014439 0.038247169383529026 433.063986480983 0.00279486215890501
0.5630735062543739 0.04349910351815023 433.05535939199325 0.003489646355365604
0.5573560348397809 0.037258012690943164 433.09088275905594 0.005455865289920687
0.5641254317309711 0.03215552200116246 433.09920459945835 0.002197015116040718
0.5558409692119353 0.041299799489027525 433.0773112681786 0.004192567915265183
0.5699943282482125 0.02434919458225798 433.12683950816506 0.0023250383846446956
0.575293370913977 0.024708596279683897 433.1120026874942 0.0025905848501358163
0.550264391592687 0.032125142147117335 433.13347775592655 0.003145995401346331
0.5530465941259006 0.0347906783439114 433.1117762893429 0.003914087305621998
0.5641641226729223 0.024778937661629478 433.13893681801926 0.002876697134537992
0.5559947850601286 0.03129294942550109 433.1236235325232 0.0031603586175715324
0.5561438324273467 0.022479044585428626 433.1875929762671 0.0016629433598638103
0.5702568475002326 0.018097856006990144 433.1681849231689 0.0020759293534896948
0.5722491730507623 0.01578643864201899 433.18005544875103 0.0009259137162351425
0.5696947208023891 0.020152549368163533 433.15263206508007 0.001843523376344293
0.5530698390342946 0.02834155324998148 433.14728838983297 0.002563138976668745
0.5536080118510561 0.026138732844537656 433.16523380221304 0.002100278032291123
0.5470178979229777 0.05687444877526119 433.0500043875528 0.005333368875369371
0.5619011347518518 0.05475906402173587 433.0222290332585 0.005119171498012819
0.558695582193776 0.0525103873628811 433.0356370218819 0.00628582362168856
0.56344440164211 0.057958122053624696 433.0101025728241 0.004923489694890849
0.5469196588015148 0.06640958092522704 433.02491895039174 0.007839745027692475
0.5540253064166951 0.06368132791782682 433.01618325422385 0.009903632080443888
0.5489293907554945 0.05987642262209608 433.037487655561 0.00853163948339379
0.5447469102259244 0.04461851933652444 433.0962295730865 0.004873770664476027
0.5473805618707697 0.04616555822245256 433.08377366173966 0.004646894475063468
0.5527063907642575 0.0489142662896995 433.0600706621944 0.005741466790755451
0.5394611394750959 0.05473338706768055 433.0766528190129 0.0048640651329361715
0.5417936474457586 0.03944342394200521 433.1301208286925 0.0026316624592869395
0.5403987535670467 0.0378813558846607 433.14280955509514 0.004143103005618513
0.534786815527544 0.05081415033636333 433.1031100907505 0.0035869107400195656
0.531734146813051 0.046957279150399905 433.1324304188206 0.003922390255989556
0.5430814450192034 0.0421109451122683 433.1127049350161 0.003916977969642244
0.5463348755956885 0.028453359093677005 433.17757975082634 0.0038493572015385895
0.5397871941837193 0.035251303807677645 433.1624504888749 0.004497849320139072
0.5368300483885121 0.034281841992553394 433.1854650126933 0.0028732577784983267
0.5361802031495182 0.03657689778395891 433.1730926308748 0.004421907229925453
0.5282778630533141 0.04166102743516459 433.1861272459224 0.00397158168256148
0.5269858480076359 0.045401912854369106 433.1654977347162 0.002723132812396289
0.5441092178812499 0.02707712006282976 433.2099149106955 0.00418026594832088
0.5406744797231654 0.030205796483839496 433.1976361997398 0.005184212359738107
0.5306651430581979 0.038234270495987335 433.19809801572694 0.003793858302494079
0.5325949712983984 0.07638073044086954 433.04613191499504 0.004945917007427315
0.5407250234778525 0.06678597396400224 433.0410830726828 0.003616251952015267
0.5416101860906632 0.07778730698978698 433.0177636274947 0.004924973848301349
0.5371728311516344 0.07728565135979784 433.03111211184256 0.0054369948396437995
0.5300388813294921 0.06299921027131947 433.08475952013555 0.004863501291770737
0.5280066932406519 0.06015655192447997 433.09904240784647 0.004372364404590298
0.5345326100954403 0.06562858532790498 433.062673191169 0.005183834989196216
0.5267484220991342 0.07107221902479868 433.07661895555304 0.004420959576954366
0.5248630256661179 0.05204434948875615 433.14290860858 0.0035895937097623737
0.5239081670535913 0.057205479990706375 433.12866449119537 0.0036926882631416755
0.5228791249661379 0.06240019537327353 433.11530912543634 0.0033744966365428126
0.5129064937911456 0.06768368733710392 433.1444453432138 0.0014025578431455291
0.5210871814512116 0.0694265786672455 433.100148825235 0.004056319020610036
0.5164904787843323 0.056495287299234455 433.18463143991073 0.0029421345007765764
0.5210528121853168 0.05202502462839487 433.1738499708762 0.0028525886819488113
0.5140008236994608 0.06415829649013348 433.1558631922729 0.004049981954589844
0.5202365678386607 0.054879424608170524 433.1617354932298 0.002633158783405548
0.5301420479497339 0.09235524129484395 433.029152783007 0.004129740062335145
0.5254388406075845 0.08899475079396929 433.0483802156103 0.0035216413919320717
0.5318588174915682 0.09720502428619082 433.01833568503423 0.0028581433491930703
0.5257698743689012 0.10477677896197995 433.02947217363464 0.002361303768038691
0.5145083735380684 0.08773394009178181 433.09066821987074 0.0024183474127496664
0.520291339184568 0.07946655812303943 433.0815701084763 0.0022438492878313673
0.5240771284256011 0.08067280501515399 433.0649221201662 0.0027887777129221997
0.5165570534948436 0.09466088211350811 433.0725055857419 0.0025686373665287183
0.5180268873657969 0.10054099218247645 433.0589687219941 0.0020651038880976098
0.5024194363157717 0.09033613700076587 433.14547751410413 0.0013366487130450813
0.5078600215263044 0.08177431012864797 433.13626494199855 0.0026073757391599935
0.5120868270924211 0.07663061517530814 433.12541821874754 0.002305781506599978
0.5148334555316456 0.07831868126606722 433.1062928585251 0.0017023419350608656
0.5100936535586756 0.08862068801251893 433.10868910988904 0.0030582940527706373
0.5049667580463378 0.09350678682337253 433.1249172172686 0.002541027087911538
0.5035260713750093 0.07596420651911037 433.192198172963 0.003123675428473008
0.5091091278415446 0.06612366043882381 433.18733598127545 0.0021981101117666832
0.5056193519299894 0.0764172714008772 433.1710558962666 0.003191324049693894
0.5044090305896913 0.08168411587235459 433.16103525444805 0.0023524197557007577
0.5035109564515561 0.07381652895337419 433.2182583087232 0.0038889955094780254
0.5064607226899746 0.06924677603851906 433.203018576458 0.0037441542944521315
0.4997320387072467 0.084265514415616 433.20015291085724 0.0022999987356649254
0.5250284496346065 0.11632126358596503 433.0230319776577 0.0011080354867891449
0.5203513710877657 0.11108518095833039 433.0416603541056 0.0017892536405597064
0.5283240326500378 0.11922680047914565 433.01108050062805 0.0013302018619218237
0.520162026528842 0.12590307214327814 433.03380722921827 0.0012190164222997445
0.5148136643493166 0.1279954375622827 433.0497551181361 0.0005714883649197398
0.5245507652246308 0.13120443253046105 433.0174748133808 0.0012050485513141025
0.5078541635165942 0.098165428017138 433.09969955183965 0.0018736333391904745
0.5072867373816299 0.10786734402576338 433.09374376541996 0.0010996071621162447
0.51240781543954 0.10637610470921315 433.0744016636149 0.0017964637807904515
0.5166673954988156 0.11162746213155414 433.0535252490887 0.002802122864883192
0.5132938350257638 0.12058738420269749 433.0601713398483 0.0010298219779486387
0.49787982236379535 0.10791240757099935 433.14538607385646 0.001695938678818831
0.5051038014230942 0.09974190851533576 433.11374561677894 0.0024181733824659712
0.499689368976869 0.11969287601751616 433.12029027182444 0.001076039293230868
0.4984027285023135 0.11345750326523951 433.13505291526684 0.0011639479308222635
0.497978361273108 0.0930343234614842 433.1816172150409 0.001602167756120334
0.4984501288433086 0.0963753826573822 433.1654743071359 0.0014486474892328857
0.49576257478162294 0.10382054456424174 433.175916918686 0.0015236829974588828
0.4948681303630187 0.11192100278912122 433.16637064564367 0.001997841294642284
0.49306039065429114 0.11373002618940124 433.18487176544005 0.001625817926928114
0.49651142540000337 0.09289986511663273 433.20882292412017 0.002360307207556991
0.49429128863625776 0.10216787384304725 433.19747436869534 0.0022788096923913133
0.4933795883232659 0.10521774410365634 433.2126879971707 0.0019542482711394364
0.49228995228534 0.11316007188823478 433.1990162247614 0.0013599420597795665
0.5194261212400896 0.13772613066176762 433.0324006711836 0.0004729574442698865
0.5207386264575289 0.149399548198911 433.02628361470096 0.00027819071025143296
0.5044304929628015 0.13460063399165176 433.0889029721204 0.000619965696945351
0.5098521216071873 0.12826028692299613 433.06884668152895 0.0007831388252501415
0.5071803200705668 0.12575220776497653 433.0805157895314 0.0009070604006313381
0.5028894601512048 0.12348103603674172 433.09869933435493 0.001311658136411703
0.5094076981610707 0.14753121234976949 433.06541446192114 0.000219653299766325
0.5120641867299872 0.1502393685216535 433.05422874398704 0.0002460862485383258
0.5060334211356949 0.14705887784055313 433.07888778392487 0.00021942011556476062
0.4941907287096029 0.13262718454175187 433.1465661567041 0.00032901565869444165
0.49734774067459725 0.12937743548604683 433.1289883423317 0.0008655956445826034
0.5016522775592472 0.13663417394643698 433.09956658772325 0.0007237317161371106
0.5001104169779323 0.12913999673004387 433.1123264216139 0.0007321252136953442
0.49546014466391614 0.14547907978632346 433.132652711698 0.0003110516031158356
0.49793876802649556 0.13823619510628504 433.12113514053357 0.0006387218441680731
0.4914007668331948 0.12624796680608888 433.1913765227256 0.0006640528643134371
0.4906134026727531 0.13815487084659056 433.19005320299806 0.00042873574102177467
0.49364153338437516 0.12469211313056067 433.1628835703684 0.0008250254268590309
0.49227565713149934 0.1436182827244209 433.1607195635649 0.0003372390063247945
0.49136222842271465 0.143675343057044 433.1735154415818 0.00018434743121840654
0.4949290072486662 0.12068230343737103 433.14953662127834 0.0007757547975804436
0.5190439973045524 0.16001061136670086 433.0307124267682 9.18621452728556e-05
0.524078882947251 0.16089827535204923 433.01455409519093 6.463418605526613e-05
0.5152419131140927 0.16103658417315442 433.04282896846814 0.0001233630977080421
0.5215703856627845 0.16953611183507203 433.0224231151701 6.197861189293334e-05
0.5129424880696376 0.1768776125295523 433.0494298431409 0.00010168959878107886
0.524903941374919 0.1809353764006197 433.0121071635187 2.0700607669098375e-05
0.5051782653748681 0.15939263383858654 433.08051595238373 0.00011365058896315967
0.5024131451606496 0.16161574980436982 433.0914027558921 0.00017772351314826815
0.5099688979073169 0.16219031445485804 433.06118280057296 0.00010319319546855567
0.507739673515041 0.17308736878086614 433.0693211767278 0.00010197852878186898
0.504882362798747 0.17135203606740948 433.08072169196527 0.00010367468522466193
0.49745742528286024 0.1513188816396422 433.11910763308646 0.00012116934689556432
0.4956396856457948 0.15735687153776748 433.1294252875458 0.00017030020783651077
0.49850927325859273 0.16184864395345605 433.11110699136657 0.00017709217816808275
0.4933673992439863 0.1708175595502 433.14147915019856 0.00023266268800199786
0.5005193500391336 0.1509852014314196 433.10032341333323 0.00020561848041204104
0.4898418168304943 0.1493685618515075 433.1933240278309 0.000165552608725072
0.4928272723729593 0.14887874842364937 433.1496076346095 0.0003651088316530006
0.4911977204109522 0.16032333080346123 433.16996700128595 0.00012905418190827867
0.49252384552376954 0.16022741311721186 433.15025375022606 0.00033776527604598676
0.4901204106964542 0.166123461540014 433.1851460164507 0.00014076957041649505
0.49167231299629355 0.16851311955408912 433.16014514521726 0.00016473079899697953
0.4896173763528058 0.1542801473036617 433.2054559433027 0.00016160173939716837
0.514620274756278 0.18962723473719284 433.04364060944647 8.93749558928931e-05
0.5176233997656425 0.1826996407479395 433.03465414174167 7.329919823015262e-05
0.5211814774439686 0.18169738035245445 433.0236443308414 1.4458546815084006e-05
0.5175967872713546 0.1991403413252867 433.03411778070733 4.431606962384702e-05
0.5228601481921287 0.19996675939464023 433.0180168183164 7.906476668682399e-06
0.5058196300714705 0.18243398087520052 433.07621750800695 7.452997416910852e-05
0.5030587796699212 0.1903067877086004 433.08648409229545 0.00013114109494145477
0.5090202287330727 0.18553309227475318 433.0633787972982 7.10159813766425e-05
0.5103148842275481 0.19960624064071303 433.05741924488103 8.332539111891505e-05
0.5051742459024278 0.19813545305502941 433.0776419049897 0.0001322960997465197
0.49921255758031113 0.17701571596450302 433.10462756729584 0.0001933006419744708
0.4970408833942207 0.17643473221069006 433.11810406978617 0.00014254740344845778
0.494634781160018 0.18077009762240515 433.1325001971398 7.057010588912806e-05
0.4961337176153421 0.1908477047191343 433.1220827243902 0.00012851815191190527
0.4981152666778073 0.18837722288964048 433.11004119473444 0.0001734266885397081
0.48981119058695144 0.17760491769234327 433.1882595070959 0.00012450384012464594
0.49197867978594595 0.18645670290222727 433.15096335326314 0.00032302758077942817
0.49051343294492566 0.18233358573294078 433.1761230694783 3.457402526102083e-05
0.4903725645023199 0.19608558451782537 433.17531445141435 7.661601472871041e-05
0.48945731139196896 0.17429613470827915 433.2027583073871 0.0001445885171743769
0.4893495541280799 0.18526493174476935 433.1967831724894 0.0001356224011577652
0.48924731261463633 0.19752435356894466 433.19525744361863 0.00014558128096910726
0.5184245090017549 0.21230501300721027 433.03122619629494 3.744619383751913e-05
0.5138228142074175 0.20573470979587433 433.0455012244004 0.00010570840514959613
0.5173415781358985 0.2250206288982495 433.03424083335904 4.81070166814622e-05
0.5211986825662852 0.22708925488462325 433.0225310215679 3.753619962220678e-06
0.5064489104185473 0.20811414682768345 433.07214233063775 2.4237989786735464e-05
0.5035338505662021 0.2103050374393027 433.0834663695784 0.000181969482152852
0.49993988812677725 0.2084667885985835 433.09763092485383 0.00018560162119906623
0.5009524835158555 0.22659253635678478 433.092857230981 0.00020366783305375514
0.5078202508896523 0.22081705303698718 433.06621862025156 6.511424382590365e-05
0.4925737709444076 0.20231392688464586 433.1430544252447 0.000305936177266122
0.4971732851829865 0.20090381854736158 433.11439045666924 0.00019119866786830933
0.4940278122149785 0.20944762142665876 433.1336408239009 0.00015929094346332393
0.49624486261661704 0.2135918018983905 433.1195483285951 0.00016267172540472669
0.4977400241735398 0.2198798703510909 433.1096196884507 0.0002021057628092582
0.49149435167111355 0.2012711684027669 433.1556065815444 0.0003307543185399113
0.49088042008658467 0.20868823894740912 433.16603857824634 8.31888591160956e-05
0.48940618323244683 0.22105218302843843 433.1911679700393 0.00017336796529791523
0.4896590750674711 0.20947644135843457 433.18699436686666 0.00016137462256616333
0.49151078463955505 0.21251126030016648 433.15414128698836 0.00033417295514593233
0.4901560406237487 0.21851293314060238 433.1781753783471 9.761618522583914e-05
0.513191450230884 0.22976828444841835 433.0468085909014 4.8475332419423476e-05
0.5152595719702376 0.2405835600284068 433.04067569789134 8.029049822008195e-05
0.5187158807666126 0.2489273369275625 433.0303113302955 3.0457180354726955e-05
0.508046096149009 0.24257972569666192 433.0652996246189 8.570134815855452e-05
0.505664035374948 0.22981918746940122 433.07444555417624 9.145987658996908e-05
0.5018054330524587 0.24292260788898426 433.0898680790466 0.00019274858183660016
0.49906238883023 0.23861043247690933 433.10122726966216 0.0002422150032960375
0.4964929550220915 0.23045108848319892 433.1171877132857 0.00010908236027904208
0.49446041467528634 0.22704472404070017 433.1299338406109 0.00012828120197769336
0.4953739342982406 0.24717721073182436 433.1251890912247 0.00019796349131346604
0.49352724777745965 0.2500017251957081 433.1372929905772 0.000302021639209779
0.4920356046453236 0.23852487225305102 433.14610263691094 0.00029946245513837774
0.49146926940106417 0.24499441280255868 433.15662408976516 0.00029548667829221414
0.49180908863862133 0.22660227498362617 433.14678434842375 0.0003767321052652614
0.49128267322453606 0.2312762174892225 433.15736585858684 0.0002268513714645423
0.4908484742886668 0.24556649443997747 433.1684688673805 7.011176155537081e-05
0.48999123863471583 0.2348946255465701 433.18189099928804 8.417566691636762e-05
0.5233711562588926 0.25640123870883774 433.01638966838345 2.617493314227971e-06
0.5221452372891007 0.2700959444282573 433.0205171357342 1.2757184787314387e-05
0.5152720896995682 0.2529912015052967 433.04079157370177 8.444450116354248e-05
0.5166883402062026 0.27927900227864066 433.0374198636215 7.47611812558295e-05
0.5161083741133048 0.2667445696233613 433.03871809844327 8.1479924069142e-05
0.5067749587630369 0.2550247930373727 433.07063201962245 0.00010249700990435116
0.51014183594907 0.25875868240268296 433.05753972225 7.616533935343931e-05
0.507050243815273 0.26792249392071993 433.0701472273365 0.00013648754331573978
0.5033111700519364 0.2583629910841569 433.0844350826916 0.0001308165371442825
0.5101745482136071 0.2713291620581481 433.0579954811658 0.00013878262071358814
0.5003096658252095 0.2709492226634899 433.09699131960105 0.00022745828372127888
0.5052622843421299 0.2792283417847291 433.07783734581795 8.907791954924308e-05
0.4983451055540695 0.2566208154655312 433.1067502711329 0.00024478174672149135
0.49669599856102764 0.26871170375571285 433.11844011170547 0.00011743647214634186
0.49346078030852264 0.2779987030898602 433.14018743058205 0.0002562999415953696
0.49811247041633017 0.28140239226338803 433.1104455722711 0.0002007555813185183
0.4948878816864788 0.2709972501835466 433.1303240177176 0.0001669115569292666
0.4922849548850442 0.26750548018778997 433.14682461873144 0.00034477319627573377
0.4914102037299827 0.261450054272308 433.1622870848315 0.00023655259434086123
0.4921843798337183 0.27897632103303116 433.1518732164178 0.0002904958854890849
0.4904100188899729 0.2566912049894847 433.1801893600699 7.828226460367272e-05
0.49196351293353047 0.25444127176626263 433.149573239133 0.0003856783901748207
0.48993125469835586 0.27324780044127084 433.193512706363 0.00010682885569387474
0.4898316255450331 0.2561298677041819 433.2154496303113 0.0056873862629189965
0.4897789203585578 0.25966869665046466 433.20378291286613 0.0001824291390765411
0.4899392906657465 0.28042786442048034 433.206787688903 0.00013290268043628868
0.5228188152373794 0.2958335442346508 433.01959729360624 6.33898835352545e-05
0.5206574814755273 0.2856754816592135 433.0256754902813 4.249442581401869e-05
0.5246700947710282 0.2813354887094982 433.01329251910084 1.756436421527023e-05
0.5122685280113413 0.2805931947742713 433.050893591241 0.00011675119603168953
0.5152091414809905 0.29893111263432637 433.04314082253643 0.00014879094625608696
0.5088295397037429 0.2811087441272448 433.0638298633773 0.00010404098929065355
0.5076521192059846 0.2943915085914359 433.06966213650026 0.00018306187570454337
0.5112451894030299 0.29508621064763874 433.0555087707067 0.00018162302245442943
0.5062905341518698 0.3041515616480038 433.0760412333125 0.0002425077650496126
0.5004039909898191 0.290904095759764 433.09813449108543 0.0001823956319188317
0.49537643379470586 0.28927883728960346 433.1293139186561 0.0001512043013346772
0.49573605324882225 0.3020398792317859 433.12884604879457 0.0004400076849298381
0.4984142498359805 0.30494961424177675 433.11215807200495 0.0003515319550697705
0.49280117990446404 0.2901254691693739 433.14592670212966 0.00033999349180866375
0.4920537044905827 0.2945735024129962 433.1580836756849 0.0003459673028829934
0.4906196645780545 0.2948543083072481 433.1815784381688 0.00035308580634791444
0.49102435631110136 0.2843331602927605 433.17391530008615 6.400342846724033e-05
0.49006959201227684 0.2886564804838427 433.19123761890074 0.00012200880366657666
0.4927017203460989 0.3094256252521381 433.15262896056646 0.0006648732936931026
0.48984480682582776 0.30016894585891307 433.2137781154911 0.0006383057170657
0.4900448021932202 0.3077236207744371 433.20092518672755 0.0004986737522776511
0.5274858182372499 0.3203014954648619 433.00860378619507 0.00019307593936749207
0.5249505040979864 0.30952574228808605 433.01460212282313 0.00023501970228146645
0.51704154045828 0.3114566484946134 433.03901539328933 0.00031694302364004996
0.5197085998350632 0.32146081062529147 433.03327131840854 0.0004066630477274902
0.5133687552299037 0.3141528004824101 433.05157077909826 0.0003907673999673376
0.5163557187062842 0.3264373733894929 433.04561193998904 0.0004008318537350919
0.5236345733099179 0.3213120431898169 433.0205315472235 0.00034970537112291144
0.5127169819687843 0.32626323972765947 433.05810918369025 0.0005446354752534253
0.5104334213063866 0.31560666938973114 433.0631985105162 0.0003504578647189643
0.5051794110008968 0.3187265391772053 433.08531938112947 0.0007788345374506622
0.5031520776443296 0.3284468709730246 433.0986891732221 0.0012505127108027485
0.5091659936116376 0.3267039282800851 433.07277198209033 0.0007299458505892344
0.5070112765422992 0.33083642354428994 433.08383738177974 0.001021199983243911
0.500148313973963 0.3163538458517187 433.1076217636218 0.0006548308204136828
0.4953437139860295 0.32102671522857407 433.14210751894916 0.0008770235790614034
0.4978278684272721 0.32398429583636157 433.1283591921781 0.0010109549158123492
0.4945664361289204 0.32972222079053987 433.1629873802235 0.0013257332073055043
0.49184789956642894 0.3122180176035434 433.1701366176578 0.0009799199389782958
0.4908879303348976 0.3127145766186187 433.18648331313926 0.0009278124944260171
0.4933573166024706 0.33225970101691404 433.188250923346 0.0023102325901359173
0.49145969493114033 0.32609589613035017 433.22492188357273 0.03879316687860376
0.49026910217297426 0.3152593831924409 433.2216862581346 0.027938321305973037
0.49114699156618696 0.32181052392541765 433.19644597676404 0.001953756629406953
0.4917836145326448 0.32757684503272816 433.20941692412356 0.0021616048211057165
0.5249349670878292 0.346939573654639 433.02582179215244 0.0007639095481363442
0.5224818062466465 0.34935034709971746 433.0367125294897 0.000707999628164549
0.5194245532804302 0.33851875315394286 433.04005429772656 0.0007034526852794366
0.5128323013021363 0.34048476037576525 433.06714185920214 0.0010398814499455945
0.5168627624572992 0.3443976661134007 433.0539159279651 0.000607248107025147
0.5104182167744052 0.3487228523551916 433.08580993583297 0.0008751865228050425
0.513918083879138 0.35432784410209334 433.0764777714369 0.0009817642827052789
0.5065269616719623 0.33950147694167077 433.0923317883541 0.001145230512229363
