x y z curv
0.001589272762623018 0.3193152266409015 0.4117965415696301 0.06907017232584196
0.001282434965332169 0.3049214556614376 0.41937778452650243 0.06336046964634887
0.00260757086591686 0.3334596453112347 0.41095566263766103 0.07779833258997013
0.0035334765988701495 0.34356179659196134 0.41799064820174214 0.07917441150319016
0.005333459401007235 0.35874563260997216 0.41264790052422384 0.09114278188566878
0.006071517888725757 0.3636647881819182 0.42291737262269846 0.11678019528513538
0.0072737936496602975 0.37004465628625416 0.43327086623165867 0.09800787902091818
0.013737581367890588 0.39460229146723325 0.4349979890112293 0.08273019825432529
0.014927903699765297 0.39822494120138585 0.42228452794182936 0.07349541332083044
0.0198562477384546 0.40681420412002917 0.4167180143362471 0.09783602442951658
0.3335441649391676 0.4048698494456445 0.40853918386703647 0.08552475212124312
0.3453880617565641 0.35741366097461197 0.4266863591165103 0.1276670089142192
0.3466883296617421 0.3456712723737025 0.42316450775746967 0.132408219171464
0.3487891508428922 0.31883402939184946 0.41821280021616614 0.11630785705013863
0.34977308458937445 0.28707035024487026 0.4125728206056297 0.120603475235347
0.3501667829363451 0.22815143901010262 0.425224446160911 0.11184433300778993
0.3500533322505053 0.22612232567240573 0.4116458695873013 0.12004671582842548
0.3496600546351875 0.21116327634990228 0.42060550293470933 0.11038865128865682
0.3490812867797796 0.19792839106587892 0.4258864782185767 0.11192854004768417
0.3469796239250967 0.15792347379169797 0.417401152340043 0.11243135086675213
0.34597447714694235 0.14416533312956317 0.42543258647607196 0.10986086498345574
0.34379857272615405 0.11925409698489947 0.4190283533142497 0.07912457040435641
0.34224465575329904 0.10472702427540802 0.42083421553829886 0.11153728448810123
0.3405601179571132 0.08908659909185859 0.42244451501128366 0.13136895498847365
0.33734048637637476 0.07688408761640846 0.42247606253831727 0.14235313469132807
0.3209133324991439 0.42120220319313 0.4084480851411864 0.15012708675178743
0.323436730787121 0.44266157377117743 0.41076762722959315 0.1159661396276345
0.32318278834147274 0.4670798829990526 0.41832351822717584 0.11438928808366844
0.3232162319402695 0.43706398559059073 0.4289088864862074 0.15277592985162727
0.3231576324157012 0.456802733751344 0.42469257069893945 0.11841479711727082
0.3229837721429238 0.49298887714833295 0.43482219949799683 0.1352450923704855
0.3230649252363613 0.4899714384600823 0.4218098407598808 0.13106393712945472
0.32294590935754314 0.5078372969470905 0.43286745135572335 0.17649916044682723
0.3230988786059852 0.513707184138311 0.4232256792455833 0.14130394858752282
0.00269891420529208 0.1971586103474393 0.40838234374914384 0.09706538947244395
0.0027824717688602783 0.2322200651151759 0.40839743372189186 0.0849764019236728
0.12909921695847995 0.002801691510597427 0.4083724028262443 0.09647272243687871
0.1559464587791361 0.00197973733755077 0.4083749638353976 0.08440120237937274
0.17605341785436332 0.0030833103431748485 0.4083819237568904 0.06391689372709596
0.24489061681001145 0.004973898821042034 0.40846405205705605 0.0688751199349451
0.24412183196012255 0.009000783987537734 0.41900232464800347 0.11283705979144093
0.2585153319214919 0.011183862416547357 0.4166206397029917 0.13394611269942977
0.26553675990530656 0.01252164551237759 0.42653766181093145 0.10676739371131057
0.1986919329511056 0.005031118850691918 0.4103062049086196 0.12242994772195984
0.21829023294618935 0.006333376356795174 0.41586690945763505 0.10002477183244067
0.18701716524020265 0.005049415391581186 0.41129404981686535 0.08363927410389457
0.1841739049930281 0.005231877976381788 0.4249348497518701 0.1231346416283406
0.17036748346636993 0.005174622352079611 0.4179544842754934 0.0956861927291389
0.170799276625909 0.005288747980456315 0.4295848834179099 0.12063793285815691
0.1385638838232658 0.006277190785147024 0.41935867441898067 0.10867921761250865
0.1256776872903943 0.007338491016095451 0.41943856867254325 0.1412385088141087
0.1084705687860788 0.009233049698278052 0.4127631256453382 0.1091730862018154
0.09396928446128032 0.011879335247015226 0.42738299568325144 0.11078154971534594
0.27649741909994546 0.015109890376978092 0.42327549633871225 0.09732710017376314
0.2782817203614075 0.015790177151379144 0.40895688157989796 0.07628227102772574
0.2870578330432393 0.01960012587262693 0.4279471595772095 0.1355322423114956
0.30627004330140456 0.03126619288908389 0.4195204187247721 0.13388491310632003
0.07220587769055231 0.017568323926188813 0.421131370441421 0.09714606662082757
0.008607825408522382 0.37073531892119715 0.4084565914308424 0.07496062022914267
0.010897618276655058 0.3825996460513744 0.4084994363236068 0.07132482560661867
0.0014172587491446194 0.2862443813191773 0.40838854754961323 0.10279284581575374
0.003857415877011899 0.1527532867081211 0.4083785517355458 0.06973190176044614
0.010930274782429018 0.10180524493784256 0.40856178555080525 0.0844652157497284
0.014750715905134928 0.3965243737057373 0.4083998134623581 0.0629223223994974
0.012537871171353214 0.37400616742174486 0.42183016697664394 0.140727715971865
0.009280734725753838 0.35292313215563986 0.4263916540688291 0.12260459679952349
0.006626131976147689 0.32473420018678734 0.421084578644499 0.1055813730514829
0.0061310877450203 0.3079714658533182 0.43027346557036306 0.12174845890925864
0.00506448079646291 0.2706403291811345 0.4099047000503792 0.11619674010581205
0.0056030894637217575 0.29053432212944413 0.42199533909137105 0.1353303093138206
0.005258341598182748 0.27818225489125115 0.4182980255435414 0.11031930381065465
0.005059061921626492 0.26971756129885505 0.43024896576782723 0.10749685514507547
0.005290306082982787 0.22421081458428752 0.42723442458631233 0.12092520126867844
0.005186367422533802 0.2443354002366554 0.42822992200863086 0.11388604319916928
0.005228522427529206 0.2342640663273649 0.42009849188426257 0.11145892800243948
0.008363672585797299 0.15653633746884593 0.4279232680955903 0.12939529963399563
0.007098023150300492 0.17934120743236637 0.41255662953761274 0.10874148173171502
0.01268505839322237 0.10834136035835398 0.41862437641968936 0.11556477367431092
0.01593551334563285 0.08337365379574242 0.4249596213066705 0.13559871608496013
0.29103385085375255 0.019251118765753673 0.4086197571624453 0.08934461281407656
0.31862401498594417 0.035820856171650366 0.40837104445424566 0.09391431560721812
0.0512940861494076 0.02406031398385026 0.4084411851326567 0.07110323452875832
0.03070916271677764 0.4192710420235194 0.408462512375955 0.1437787206610702
0.033582803769815414 0.4395585119795234 0.40844275660730184 0.14223317108507383
0.03196033350131742 0.4576473551838238 0.42036655816910584 0.08424573725686349
0.03186973166772142 0.46668056059812546 0.4099024924019963 0.08690378480726246
0.03190713328796803 0.4278614630812026 0.4259630004002039 0.1387443296706578
0.032004698717354854 0.4738042448377624 0.4186410064548689 0.0950821625426092
0.03221541607741903 0.4921727392378882 0.4318531684035369 0.13792269090445738
0.03577949670149168 0.4872047844143406 0.4088991585543226 0.15323688869971033
0.03509010442029058 0.5021707993738432 0.4088534312587497 0.12875616320442068
0.3191064843347395 0.04369938624443336 0.4254849986752601 0.1357158658464481
0.02544711369353089 0.05870933206041467 0.42509525214508903 0.12896176767133227
0.030620643640535978 0.41163325591521666 0.42984981509397197 0.15757980499826874
0.3506036122449943 0.1870877719077933 0.4084010197876258 0.09824647670200165
0.35325324820999826 0.2066808218654447 0.4083806453538691 0.07676762190580576
0.35463759519051935 0.2762653917545127 0.4083794432378563 0.08644860574726317
0.35101873957125296 0.15062652800807266 0.408379287231213 0.0627971879816456
0.34568048885597663 0.11776312856303826 0.40829371540699105 0.06795433651835335
0.3510841605049508 0.3358704678778739 0.4084072375215283 0.0968118167378834
0.3465512916691533 0.3617472482372432 0.4083373026952303 0.08479367997277541
0.3319852031847063 0.41153178085133874 0.42759983999217227 0.07782056036834724
0.32597100755541325 0.4171065938477544 0.4176817824091131 0.1226006133598903
0.31845584486501555 0.4602486280557908 0.40949388206040893 0.1196912698922699
0.31769872000221244 0.501991330456327 0.4227968755676954 0.18730318010044997
0.31782610727670646 0.4789918211678388 0.4185416254657795 0.16153309319502093
0.3181859766497468 0.42533655195239306 0.42520519871285767 0.17699725651186812
0.03765035982582317 0.504544099329063 0.42808735657186464 0.17578919961219022
0.037242478103382 0.4539291979059566 0.4110449675889112 0.14904275237486952
0.03751042756391049 0.49138998213187635 0.4205591607429233 0.1699074924277952
0.03713557910879406 0.429023041938505 0.4149863090526025 0.12850178426166622
0.03740107335426472 0.4678524259753435 0.42701306644157144 0.14593409209632385
0.03749051117612775 0.4802740623645992 0.42907313005160513 0.14137778501452503
0.03723392316443638 0.4453264933921259 0.4252448379075373 0.1287712057866469
0.00591297297435918 0.1653479744897184 0.4084664033416963 0.08277745268447612
0.35132834704663274 0.26470298866327185 0.40854595889448414 0.11296232191328397
0.03562681632133641 0.4185542081640917 0.4210368755352713 0.19863975417762103
0.3433413304042232 0.3827292952954081 0.40853737391356626 0.0808206949616713
0.31828953352879324 0.5071701922889504 0.4086686502863255 0.1879162051416158
0.004049707996344661 0.24447850248563646 0.4087051434143994 0.08266688926912028
0.005713638673359807 0.3041304352982204 0.4087681760583125 0.10358633859849321
0.032280879216641904 0.5145409359842911 0.4122608649897274 0.13556692543547152
0.34574430521184696 0.13539162244029007 0.4093854770223182 0.06165031379733114
0.04667311516539482 0.49344703196989276 0.41246331590795327 0.2535840788148104
0.011231115558834263 0.08793967771117907 0.43508535066451903 0.0777855868783364
0.02229049458757589 0.40498708348682827 0.43929344176710466 0.10052267127290397
0.2974132104960581 0.020720059591211946 0.43612112959433774 0.06236067766584725
0.06358243985811035 0.01828958052511472 0.43736650397994953 0.06475109243362101
0.3431606931003522 0.3898893193854575 0.4355279648621402 0.1100759946153136
0.3260774084028574 0.4112608850764307 0.43994511270821635 0.08518825520909011
0.009701087419275493 0.10083192635604657 0.43665403316242735 0.08327976823184373
0.2842346993252563 0.015702381168145065 0.43831424363698124 0.07468848371302225
0.009695039512635098 0.3813763666854158 0.43532582087991 0.10153291089014765
0.3072577210702711 0.03435744168109015 0.4398203183529297 0.08745628460165045
0.3509453064847458 0.34676548823267295 0.4360195797721053 0.07850590369956835
0.3484740415367341 0.35985534502506844 0.43743841470106487 0.08748167183310379
0.3452667994543298 0.11279221509926399 0.4387921837408914 0.07466687247628805
0.3462732054583084 0.13125949107046697 0.43962660625011557 0.08751380566433388
0.18130981462385842 0.0006536781399124779 0.435001539223969 0.0659239761139289
0.2245068849753083 0.003367003394474305 0.43750866880977096 0.10033145429361187
0.25163926714140944 0.009422678639444338 0.43971388432346525 0.057792177546720544
0.35233725800655974 0.1810954966418744 0.4367633817976877 0.06955405184757626
0.35271518823422443 0.19361865649651572 0.43683062897896957 0.09275412664881148
0.011228896904228918 0.12190961061111731 0.4398495316278725 0.0727045115394048
0.01897420550368556 0.06809585681741774 0.4376123662985747 0.1326266765309539
0.1564244333533463 0.0030460380968713083 0.438331932497461 0.052952224361595274
0.1315757395376426 0.007822362415684538 0.44034567060482965 0.07015278065667464
0.01066172694238857 0.3598992359522943 0.43998018746479184 0.08303227749253571
0.00259540427066746 0.20274874753190666 0.4372018145569327 0.0867343284825091
0.004652584475216691 0.34625670995374425 0.43580396163053364 0.08636819036542966
0.0038991967121201087 0.3198392026075554 0.43818904095455913 0.07714997319565056
0.033093713142242735 0.4405019535999263 0.43714505592338154 0.0953807922953645
0.03317093880526193 0.45561477662360905 0.4371479884377283 0.09634691708073341
0.03306578741329465 0.5155380537959969 0.4361302106807337 0.1400713711566645
0.06899302919194165 0.5156561481600385 0.4382543047254438 0.1334356461315002
0.03452640399050047 0.4219354865483483 0.43881659389556377 0.10017806718169409
0.002860196574964854 0.22388655102517893 0.43835132181536585 0.05888522034562306
0.005376526404492219 0.2794386955363037 0.43981594732346296 0.062026572637684775
0.004708687081608895 0.18809582263829708 0.43891490954750395 0.08197688862587793
0.005147812763490056 0.15704673313176915 0.4384568029732629 0.09772381809769128
0.006215419100089176 0.3319734270523445 0.4394468134849613 0.059687058686577255
0.3228798678203118 0.4659438063015056 0.4360145599910433 0.07538517042746401
0.2895350395397771 0.5158367153105613 0.4391582712690996 0.12127944544067626
0.317140988345551 0.5150960098662122 0.4400528732641754 0.15334305123229858
0.3515620619100043 0.2521560808999038 0.43892064614950416 0.06416667930004492
0.3519894974012905 0.2704335609446923 0.43871643750705214 0.06432586519836633
0.347471849012295 0.14805097883661894 0.43953004381614647 0.07146328984692327
0.3495883002518452 0.1610026877302803 0.43885440347699334 0.07270359929788821
0.11612630553693963 0.005487560716873358 0.4386747758972718 0.07952442666283205
0.02341071257201745 0.05434928745562575 0.4359183342393275 0.12355054044793365
0.2094678273099702 0.045589366970442066 0.4409237553258206 5.7267946424554204e-08
0.2285282818343559 0.09312215899556431 0.44152336191510855 1.3341582780279088e-06
0.22524430333972678 0.10438472121352899 0.4416858461502039 2.1309308740649363e-06
0.23221446111096927 0.12829823372729462 0.4419943588345474 2.42978044846991e-06
0.23518558632497566 0.02982582533154838 0.4406410652609184 0.049944153717751426
0.2284529338556353 0.08169758968397527 0.4413674547303959 6.347399729609293e-07
0.21109801233603734 0.07988255914290758 0.4413880687477752 2.447977169003117e-07
0.23239244769340528 0.047468706991809335 0.44088944521295065 5.102344120798322e-07
0.1890275323466204 0.034997616256005115 0.4408325187958953 0.013190302098993556
0.2474144874701042 0.03515815555315194 0.4406819251258194 0.03450838875075066
0.24001584552637334 0.07188926281144138 0.4412031766927037 9.970006127211143e-07
0.2205666101172883 0.04193271237746413 0.44084474775620064 0.0003868441559643246
0.21562223689048932 0.013879065307962065 0.440474363538207 0.06834185879193093
0.18402412536882806 0.015116608046805407 0.44057395930877497 0.07657839942172029
0.24037525953540878 0.09397175012772419 0.4415039694286497 1.3841878665688362e-06
0.24173021374547873 0.01663144178002463 0.44044365229952764 0.07233871187977259
0.20161071262928876 0.02808211812967102 0.44070509828343785 0.046230772890937626
0.2185360175172335 0.05316055856171178 0.44100347776807725 7.553272816684805e-08
0.2266486890563089 0.020941880081619898 0.44054201517298947 0.06633377262932924
0.23246573505805962 0.06378489899527381 0.4411121965115635 8.123841365234687e-07
0.21827050779480883 0.03016932141808208 0.44069002222161513 0.043119605674541914
0.22065660903502068 0.07180030798970778 0.44125262056483794 9.91823317972075e-08
0.1954953179241027 0.01257625484484108 0.44050923026399436 0.07411832100174874
0.23382792015445572 0.11565286943800437 0.44181735153142426 3.6140065697033156e-06
0.2023760458255463 0.0630745247537844 0.4411812288613777 2.4919927090521626e-07
0.19215450625674713 0.04799326602427685 0.4410019075825886 2.3756546439114074e-07
0.16679699271543863 0.011052774581604379 0.440563511473327 0.081701935157855
0.12980492691147677 0.09587086230787399 0.44159715668191385 1.7960949727496316e-06
0.16397722601239334 0.09527461938421693 0.4415918425183898 8.857976279436075e-09
0.20573507243925113 0.0973977653877238 0.44161997339596115 3.465975327563836e-07
0.18967618453359864 0.0750042708782649 0.44134717615851515 2.4700216199816044e-07
0.12303711622247883 0.12322247221412293 0.4419288673089297 3.8094267244466513e-06
0.17481547713246098 0.09047412018596898 0.44153416744407337 2.7055485103366487e-08
0.18046239469387665 0.1282695846679163 0.4419933824336174 1.923421465063749e-06
0.1906705243416143 0.116266510771356 0.44184822118453926 1.2684898206265676e-06
0.16524155684025704 0.11735228717872723 0.44185997163525237 9.629573252956787e-07
0.1632922367449353 0.08320694329623653 0.441445283208733 8.730285464374134e-09
0.21896838784644895 0.12572178067307568 0.4419646173728504 2.562539920293007e-06
0.17986798943614205 0.05494894571703195 0.4411031201501729 2.8289675278057114e-07
0.14604390773250847 0.11015774095352211 0.4417715368968105 9.597176157948607e-07
0.17258263850566147 0.1030573683448566 0.44168682223385375 4.869746506291947e-07
0.15723308254218535 0.10684920725110883 0.44173199641896277 6.533852919294133e-07
0.15378516319266666 0.12447381468881843 0.4419457928485312 1.5819703737590695e-06
0.14871844949526924 0.07887866236437582 0.4413919099703283 4.6368592351145144e-07
0.13696058423188398 0.08206287181000094 0.4414299089161861 5.266351814482056e-07
0.16083973117172135 0.023438472729635826 0.44071946105438886 0.05388076972229871
0.16917014161639835 0.07209853615279628 0.4413107406797697 6.6182269852241e-08
0.16576701746885225 0.0438399553372568 0.4409674449862958 4.777082145358652e-07
0.15088103927328594 0.09337466432364754 0.44156803624966856 2.0538963143558455e-07
0.186111383226648 0.10296958464286507 0.44168651857181496 1.0461633469633101e-07
0.20537774363124445 0.11781699604058297 0.4418678750969831 1.8575057166738937e-06
0.19777830205325886 0.08459487207274943 0.4414640777119737 2.0247717330224887e-07
0.168524151526433 0.060068936638409995 0.4411646458771849 8.889557051060588e-08
0.1570597699047194 0.06394681053289994 0.441211083543198 4.1580151010646286e-07
0.17688531792061513 0.04020517083864217 0.44092393931369667 0.014058748090782402
0.15422030063179334 0.04531780566200997 0.44098473792274195 6.206625047641592e-07
0.17927931220847237 0.11544768903120062 0.4418376376417657 8.898805186317805e-07
0.21169711251798778 0.1072429688198854 0.4417398456583014 1.2244836211781322e-06
0.13491148253102028 0.11313234924534125 0.44180702618789497 1.4580048257930084e-06
0.18257134194706262 0.16663250654790565 0.44216474901419833 6.1482629798699594e-09
0.15321156823152232 0.1856208477816297 0.4422430209471357 1.4099791492932202e-07
0.216152131768783 0.16227351732832976 0.4421503310658617 1.1514914359791255e-06
0.13827097160035426 0.1614102005633143 0.44213629444055935 5.721395638673716e-07
0.1787118115238953 0.20381066453285862 0.44232509432908884 2.422851963038581e-08
0.1489771249660166 0.15465894764653007 0.44210850043299155 2.948252297905194e-07
0.19934894389833602 0.1636561297125901 0.4421540905401446 8.546691286448743e-08
0.1918212080135296 0.13414755412306653 0.44202542240571674 1.8452048064143708e-06
0.1632098995140225 0.2566990615064231 0.442551871957746 0.005092370061641907
0.1902912148629568 0.18244105711717598 0.4422341677401568 6.431004758433784e-08
0.1714146335159632 0.17831359202441263 0.4422138129460663 3.366930472713864e-12
0.13441743496343683 0.13493278745898438 0.4420212269870425 2.1498645854520082e-06
0.1473140132280214 0.13995164069652907 0.4420446475021953 1.6101041092763295e-06
0.1953106555077515 0.19395363041818278 0.4422846422110457 1.122257850231601e-07
0.15274240116527044 0.2126461450584247 0.4423598871218768 1.983991342107134e-07
0.2021623701929769 0.1761793333995958 0.4422086458355364 2.441329114217583e-07
0.1711666508540861 0.1660990453651786 0.4421609324253277 1.0427212545046549e-09
0.16010790935921348 0.1746031931806456 0.44219626390860645 1.06568855794466e-08
0.18752111885365674 0.21581160364925883 0.44237818306158805 1.2197678263057594e-07
0.13624435832658463 0.18130804666833072 0.44222211682776413 8.303341381987717e-07
0.17863320976178956 0.25240475620324765 0.4425353321732254 0.00418456428739196
0.15591096222645984 0.23004417749340955 0.44243558092989704 2.57048307522872e-07
0.15666628761613338 0.16408096505742523 0.4421502829853406 6.819803444572368e-08
0.20279378665570208 0.14109316485015883 0.44205692478280784 1.515696670406271e-06
0.17348845207503144 0.26486250955601 0.4425885516567752 0.005415558699354522
0.1331821986447019 0.1477376128598011 0.4420764652343391 2.440209344669946e-06
0.14327762855018003 0.17158112265799583 0.44218096240361426 2.3545190765827077e-07
0.18729885911960506 0.1444945952888498 0.44206959196290563 6.339893149712279e-07
0.17907107752150864 0.19027323032296828 0.44226657049574497 2.2843726439313064e-08
0.18435974309300968 0.2291437761099681 0.4424354481685634 1.3749577443587381e-07
0.17190343511628034 0.14238363173705237 0.4420584222621397 1.430357686752853e-06
0.20717497668849943 0.1510862041354401 0.4421007403834532 8.364211435715308e-07
0.16234414389144652 0.20427049965341737 0.4423249189019234 1.2399861404040194e-07
0.17050831500932329 0.21689844845119036 0.4423806351354852 1.3157951116683366e-07
0.16940352485398824 0.24153672886589386 0.44248708951760973 0.00010608206043872091
0.21613320080320522 0.25132579038450187 0.4424667259003338 0.004594310950103408
0.1904012199852971 0.27257800185797854 0.44258776698285235 0.006637843553948345
0.2089136782308422 0.26217657444047937 0.4425178393241752 0.007050626115360926
0.21426978902732788 0.184076413101468 0.4422340996404824 3.9165893887969625e-07
0.19703245152493384 0.2630209203802308 0.44254225565786404 0.005876329297352044
0.20581012185404463 0.21033330518731957 0.4423415153151416 2.4013386698054e-07
0.20021635157077083 0.24067064891245252 0.4424580752626093 1.5668021392338678e-07
0.21375346185415744 0.19647565188709387 0.44227854324927307 2.7673237681770867e-07
0.22331933006082594 0.22258695524430677 0.4423529001790092 6.728341646124997e-07
0.224917666355469 0.14927710902285374 0.44209275586121116 2.8912770243135532e-06
0.1987175139582451 0.228627330350408 0.4424185193325619 1.6004158941513155e-07
0.21276510268729487 0.23211790092427675 0.44240540335423534 8.17630344975947e-08
0.2648416521808126 0.028927116118601576 0.44050523167798405 0.06066596362198563
0.27329057456200534 0.09342148674027796 0.44122571932877924 3.2280527368425535e-06
0.2642819065796259 0.10231696456467171 0.44140965452521264 2.2354083444849535e-06
0.2721375093441763 0.05194149713121956 0.4407267521131246 0.0072015356323108
0.2811310819220776 0.06912513277977268 0.44086267621983183 0.039360786160298034
0.26232806450483226 0.06658071101364602 0.44098776200976547 1.0282651857002847e-06
0.26908483681977513 0.07756400946993336 0.4410662601598513 8.724052553301335e-07
0.2904002783606127 0.08242514424315679 0.44094869567179584 0.04012979975819569
0.2511927693262433 0.061935232331184795 0.4410233584565534 9.067876044157813e-07
0.26324807162180075 0.042763687572202426 0.440688115119529 0.03455134649261311
0.24826717943934684 0.10610883446626315 0.4415892493993382 2.3832053710087177e-06
0.25689115830573006 0.11373837954447141 0.44161111079271476 2.351474505134551e-06
0.2763493864857009 0.1048733585844908 0.4413271186799698 3.2317895312421463e-06
0.2897034557289945 0.10063694793212309 0.44114149949102327 7.5946171402747224e-06
0.2629847310020756 0.15625501343380083 0.44181302176850445 9.252861159517372e-07
0.2788798171923386 0.13645322775312466 0.4414981155226458 3.758855058005606e-07
0.26887839216561965 0.19648050730403682 0.44199910700046285 1.975987524793002e-06
0.2587034754549157 0.13557158349873755 0.4417321988741135 8.677188988438458e-07
0.28783846714396916 0.12637185185904834 0.441327501296929 5.887705897264613e-06
0.2907006295326617 0.11338612689957654 0.44121082278398266 6.572071038878479e-06
0.27988250357928085 0.1504731891138734 0.4415754639757403 2.7834482105705865e-06
0.26022779949311714 0.18081196587126128 0.44200212029831853 1.912025378285716e-06
0.24559225386166303 0.12750785461488656 0.44183662210521574 3.7203461165676245e-06
0.2616010376039565 0.16881652934340408 0.44190943515806175 1.4363967090841654e-06
0.2771486557718956 0.1664402659044597 0.441709599379968 1.175343480352407e-06
0.2526055964187487 0.14632271199577013 0.4418730910145396 2.6631933204426947e-06
0.2909440768995199 0.1410083622526085 0.4413837922222553 4.975475858741501e-06
0.27322241945966635 0.1845242192522807 0.4418713779021145 1.8187422327094663e-06
0.24938213181636557 0.16260999956735 0.4420115637648372 2.1252709201953925e-06
0.24814797855659523 0.2835172058303317 0.4424650191998677 0.005323707650993396
0.2395845253731334 0.16992978851861718 0.4421066104909348 2.3731361551646303e-06
0.2745033812914242 0.20859709049667494 0.4420061274236273 2.633413466714935e-06
0.2420799274254067 0.18731092971778587 0.442153215804037 1.2755793549740993e-06
0.256255709526667 0.2534673987013544 0.4422980859979826 7.83527678279063e-07
0.25983116519248955 0.22502417096397448 0.442168572899335 6.337302155377882e-07
0.2383593336705188 0.14828038287852524 0.4420354695886011 2.2370263645163414e-06
0.2559561328817518 0.19462383974574465 0.44208365504837854 1.630320635906114e-06
0.26016423868319327 0.24006318846348282 0.4422215930932232 1.395299571481119e-06
0.2537235788928185 0.20883595831543678 0.4421514691257835 6.783424986445956e-07
0.23996841469974214 0.207573765428057 0.44224245187886024 6.754751197818098e-07
0.2523137239328784 0.26514567055545346 0.4423684609407316 0.0013492753618474364
0.27417128138816116 0.22941893282029321 0.44208504973591717 2.284690372519649e-06
0.1462130819021396 0.013971300416940044 0.44055306929884663 0.08440292486273389
0.12444393647290751 0.0658603853807387 0.44117035459946113 1.0388670897392682e-06
0.1397556500370019 0.04841562445577727 0.44099518394146864 8.476864441927138e-07
0.12239224493194935 0.10825372669562829 0.4417383672161991 2.606394330174603e-06
0.1252877538636325 0.04757970467139076 0.440925252971852 7.468035948685629e-07
0.11616127239453174 0.05727339669208311 0.44102008964695316 7.068153217466775e-07
0.11239248836553335 0.0436313391984816 0.44081937584824415 0.007429244777853653
0.1289647886597262 0.024372938718046466 0.4406246525340384 0.06928290117500094
0.13496623380641373 0.07033355117835757 0.44127376020650255 1.281848951073794e-06
0.1495092763486939 0.028854850805732538 0.440768747548571 0.03733404979808934
0.13254096615231958 0.03835714138597857 0.4408292379549277 0.03140185001024895
0.11803603745105626 0.09514069806292254 0.44154246739192216 2.1564409753270135e-06
0.14129566608201002 0.05985703393255539 0.4411569587373598 8.931085119879766e-07
0.11343580967671818 0.07546252892653067 0.44125632968730555 9.234821419488317e-07
0.1121382689384375 0.018427247974033237 0.44047570870728847 0.07520124892899722
0.2854825666544243 0.23850271435159842 0.4419966956155753 2.059456362793082e-06
0.28166302187676906 0.25033422034194475 0.4420604627578879 1.7656147890472677e-06
0.2555338868879073 0.2939672044631056 0.4424164400836154 0.002523868761675947
0.2836193072442122 0.3049493785591874 0.4421583210969628 0.0016823282096470515
0.2635655936715099 0.2668578483223425 0.4422775537466954 0.001445261542858096
0.26884551575628646 0.2911805219990458 0.4422769081607252 0.002132435195803901
0.2869520070979332 0.26275326870621857 0.44203412027323874 3.949102742868886e-06
0.26741880641175375 0.27837353605708226 0.4422636711886587 0.0015273705236909176
0.27169929240754775 0.255598061468997 0.44217173839441337 1.7245231543095006e-06
0.29239886763476686 0.2964172897025783 0.44205189426534686 7.185890261364838e-06
0.29233341220930353 0.284519666121925 0.44202695782042567 4.692812053519715e-06
0.29341502228854166 0.3127157768647863 0.44207676036957594 0.0013994102056379767
0.2806790953396139 0.28046724927885847 0.4421351525465093 9.004036707003852e-07
0.12387757385817372 0.1937647173217528 0.44222833861594474 1.5610139888863409e-06
0.13859586213719127 0.21719686268149288 0.44234971940364604 6.873185924265445e-07
0.14303329863977457 0.2466832831076275 0.44246123540716525 0.0027303023471782315
0.12722328523829585 0.22816383817521396 0.44235307425691406 9.100978442414952e-07
0.14402672142092723 0.20446615824002728 0.4423230782793173 4.282555178785934e-07
0.14131608756425906 0.23115460439299448 0.4424043208641133 1.8734103119449077e-07
0.11815389365246638 0.13390169521578674 0.4420115564794078 3.935990520190229e-06
0.14801594698143877 0.2579473734216012 0.44251345893307437 0.0026466624435322896
0.13181251823867723 0.20402553472513058 0.4422858519044752 8.736487067604248e-07
0.12422806750763199 0.16256011414374721 0.44212509692734914 2.763283062096016e-06
0.151179700854314 0.27637458145695093 0.44258429307597885 0.00435917415341262
0.13451707526499676 0.25456452637416804 0.44246264080465847 0.002337072129843445
0.0892814677273998 0.05473236937522103 0.44079798232252054 9.961996847704815e-07
0.08496483527160201 0.04356382947746376 0.44061648852723245 0.020494966836435587
0.07976482325345846 0.02576157221050196 0.4403398687728392 0.06828326813223141
0.06874450591402825 0.03325698584750308 0.44035670640638896 0.06817983536929886
0.10640217176391911 0.034524205310212684 0.4406576248687833 0.05258353211013843
0.10137725793512653 0.05864645675207317 0.440941406506582 6.923311023571759e-07
0.10060841398584863 0.011843560808704839 0.4403114716733898 0.05941073936131828
0.09340098239310538 0.027713143697048186 0.44046873967584244 0.06951180969648374
0.11352558755760372 0.11689497200103949 0.4418097991649761 4.323078404613951e-06
0.10867735190558812 0.10610830695287451 0.4416293884015708 3.852239898792463e-06
0.0964323756547282 0.07848464341488427 0.44116866196666094 5.274483873478049e-07
0.2900807059320922 0.1551755435364332 0.4414813189405279 3.313215476875927e-06
0.2984102116449533 0.2101935646718039 0.4416578990578302 1.9087043777055684e-06
0.2915886201687502 0.19525773665865592 0.44168600222493004 2.6457168565693286e-06
0.30784572575187324 0.18938090210351594 0.4413812339350441 6.679127412258653e-06
0.3069304011784396 0.170880064876449 0.44129041459054874 6.577238513872407e-06
0.30110975269121665 0.1327355326190671 0.44116875221550306 6.01703632359797e-06
0.28808802943147593 0.168400219192931 0.4415903734955253 3.015346386253308e-06
0.305253429737557 0.14730285802678772 0.44118318769173115 5.2644009188299315e-06
0.29050212471747966 0.18323536668846957 0.4416351837059472 2.0645803198131004e-06
0.31246957355145655 0.21075110843074316 0.44142666990255375 9.765859286015529e-06
0.037181903122085636 0.4785949527227199 0.44051462003849695 0.10126159873782947
0.05493912236045709 0.5095326447516296 0.4406532847798478 0.15461914583303366
0.08530187059944214 0.5139974344901516 0.4410157778555009 0.15178945722051948
0.05843740787258916 0.46106494317300345 0.4408218590550288 0.05772509238483924
0.05499829566893112 0.4811871270870608 0.440727397086819 0.0977106017729741
0.06769848820883559 0.4948501510269876 0.44084848426881884 0.12127381021283792
0.04153416705518527 0.448607299030205 0.4406458721008118 0.0768143293512441
0.04086373853251187 0.4659150507448187 0.4405928049970189 0.10001487172801755
0.041244853129215435 0.507950844784897 0.44048867421801535 0.2085079705614074
0.07251254935006266 0.39839315233665396 0.44153940094164146 0.004186375695376476
0.06956342382200933 0.3818460010456657 0.4415930038669738 0.005324508712539232
0.08278804574275805 0.43578556681659264 0.44149288121793706 0.00231697345023113
0.05195366180594306 0.4068138895076741 0.44105635872381144 0.042554249847355896
0.07811143138650505 0.36360408429479163 0.44189587388801677 0.005706585638552005
0.07315245525801001 0.4801439391420418 0.4409867726151852 0.10744316288181124
0.0638561671643569 0.4110199885068956 0.4412731573845188 0.02711352737759135
0.07770926225829526 0.41258787196753854 0.4415485169743865 0.003776023645170258
0.07447184525967211 0.44730723793486316 0.4412413155348194 0.002245804596084904
0.06958033276113905 0.4351102962629965 0.44122467720615727 0.013770801197712998
0.07893098374166733 0.45954943977091844 0.4412487075246651 0.01058462488405803
0.05746956005541658 0.39507661445924 0.44125156108712477 0.020968428949379503
0.06256802231008426 0.4507965133202892 0.4409712250796305 0.048191575126491915
0.048001925166483134 0.41982175967756125 0.4408846781298527 0.10737696024242578
0.058985181068246705 0.4241672487830513 0.4410815198273621 0.04797158937981465
0.08039009316307219 0.3749562084949136 0.4418643769257613 0.005529113200999189
0.08654741119220904 0.35104995864716737 0.44215706054550463 0.006290959734243185
0.06977951922903493 0.4679551448697818 0.44100145244625516 0.07890433041397878
0.07653926060725183 0.42368722515286866 0.4414475184812017 0.002818013492732433
0.05658788161326342 0.43637176673854083 0.44094751519762815 0.0690626916945633
0.3116886164443423 0.10711413718169968 0.44071845782579666 0.03064855284879146
0.3015060980026378 0.10263235019610321 0.44097769090007427 0.007822087231997022
0.3204397209305525 0.11950937532071784 0.4405635093177669 0.034500326570513086
0.3313434671275769 0.12843057005524944 0.4403186467553413 0.07962878910209324
0.3190362352538728 0.147885103375874 0.4408294736309014 0.027249060489340653
0.3196577966009852 0.160729167682685 0.4409134701861205 0.03130396310148014
0.3383630768094499 0.1421105676421373 0.44022403367799534 0.10719814037892138
0.3182864702470268 0.19961647502364624 0.4412619744989111 0.019536284136674777
0.3029030102495011 0.11564743692908044 0.4410405961847748 8.34137060589809e-06
0.31965220678077405 0.18763080151703684 0.4411272545348971 0.021510869287616766
0.3179810723192449 0.45116397296625677 0.4405919051825248 0.09394613149303391
0.299284726708888 0.4534397669810629 0.4408800596972042 0.0645990041309541
0.3147481184481948 0.42791241429495275 0.440694579064014 0.07763266812619392
0.2975372902652452 0.4763336410099896 0.4408562996501113 0.0960069409175153
0.3104296304776467 0.469174099873815 0.4406700925698912 0.0686909261929444
0.30394879872699365 0.49112912481283105 0.44072267128522913 0.1240728894778946
0.2893326781103283 0.4453000443630306 0.4410543437494552 0.02525448155100969
0.2803264546130054 0.45815168999971795 0.4411668776516657 0.0020409744253451476
0.3094847565164419 0.4394892776121925 0.4407512575666489 0.07476039102959489
0.31442104677174276 0.48363951492895985 0.4405751595883995 0.1007579909887222
0.26995509250027283 0.395471806732564 0.44177110195732205 0.00503457297918485
0.2731994727464526 0.37871840846237265 0.44184441664724977 0.00418497708189592
0.3083083892179368 0.41545904344650253 0.44087628359449565 0.06329567657979648
0.27883773916752874 0.3609930725127376 0.4418798107197655 0.0030916758209981487
0.29141787159715987 0.3962722469297243 0.44135425137521445 0.0033346748441519395
0.29031345365978906 0.40976428381284147 0.4412663673778552 0.014046143089907719
0.2990110623650177 0.42329860707440686 0.4409907199039233 0.060568434478441104
0.29274818743260406 0.38101816285253826 0.4414520515031939 0.0034221838746933426
0.3052959471282538 0.40314482490675296 0.44103336942086224 0.036615725013232216
0.2782982326935833 0.4419395836003198 0.44123616499801194 0.09738370775146282
0.2857762147034745 0.4304681162580475 0.44118585778790864 0.0199310792765691
0.27477681190880204 0.405857552787523 0.44159500143926383 0.003828289577780524
0.30500051293309716 0.27897385802309466 0.44181991090169453 1.4694199807670474e-05
0.29797761218409113 0.2590838009098953 0.44186335028467927 1.1125858519371352e-05
0.31270385225239317 0.2386875880793487 0.4415324925874342 8.320312712746861e-06
0.3019555208395837 0.22583449546912437 0.4416668793798406 7.465173214312033e-06
0.3099355594709385 0.25409336659967896 0.44163936437619705 1.1136634137325268e-05
0.3058380968664611 0.2982854896187295 0.441880130267864 1.4768722288513691e-05
0.2869093124522835 0.21789462504613763 0.44189381441534736 3.87153071347899e-06
0.3046162790829383 0.31402744205702227 0.44196182448092386 1.533430006581743e-05
0.2986115426575634 0.24261098955433133 0.44178889892398854 8.624678905233085e-06
0.3221129545807947 0.27362469657792887 0.44136660313424725 0.01732608625014074
0.3413201755022019 0.33410056388769943 0.44085852478273707 0.07043225825253147
0.31882150981069013 0.29675139683143326 0.441528969717553 0.005933165842369251
0.3225475646103459 0.31545616339229604 0.44144608437415517 0.028558248028444748
0.32800968140348663 0.3255164413380116 0.4412855492997238 0.03645969916511509
0.0970922719992169 0.09293672250473459 0.4413629110604803 9.54636908418525e-07
0.0801247310923553 0.09952287928110048 0.44128610687660486 1.9885199118439227e-06
0.06259779915524957 0.06736299853670329 0.4407233957892158 0.041916840072083766
0.0638775896401275 0.04879789187028423 0.44050503404671476 0.0556761877307611
0.06510022603907277 0.08073235466655385 0.44091263303113193 0.042041123461900615
0.07056896763488692 0.09209251783129022 0.4411046558114111 0.01528833520295681
0.08024674973223714 0.07514537102489743 0.4409848208596407 0.00746067672835118
0.08592674692258379 0.08877980694359773 0.4412070316936155 8.28776062464448e-07
0.09239797903423963 0.10451008215751009 0.44146263514357154 1.5022798041947104e-06
0.07439151981355725 0.0654754455838495 0.4408101564741881 0.04027321971830922
0.0651084575000514 0.1778891390556664 0.44162424300909814 5.876418312148858e-06
0.05539533539299411 0.1699218244342276 0.44145077218167245 8.876418016820202e-06
0.061133779048373235 0.14030846420839949 0.4413430973590754 5.78292264539169e-06
0.0641618038372798 0.11136658506002997 0.44120474185890857 6.8287820312042394e-06
0.047416873812728765 0.20320213617134686 0.4415521473564556 1.2772760331325753e-05
0.10584319176375609 0.1286467213787147 0.4418456023681743 3.1638447259511956e-06
0.06560476096778002 0.1644291167442968 0.4415481916980398 7.667445784666095e-06
0.08895105106022688 0.14776510121540387 0.4417458362201624 1.1611606375221217e-06
0.07734734123522241 0.13033281335459038 0.441490138183269 1.9647116021805035e-06
0.06168441376447866 0.1886327258163058 0.44164607815017143 7.439440183002403e-06
0.07966886441768381 0.1671656004200243 0.44174548331874586 1.126119453010081e-06
0.0869068512957348 0.11734694076874048 0.4415333307877547 2.490319179098775e-06
0.09670456633525504 0.239154409763771 0.44221690141424536 9.937424035777786e-07
0.0712584290932925 0.2215678195678635 0.4418853586668351 2.1127453431907204e-06
0.09844853956165064 0.25953500468753493 0.4423154641706655 0.000913751825690136
0.10874063788436208 0.22545620364394414 0.4422866435013254 1.8048332073351408e-06
0.1024695156370875 0.18013098890057103 0.44204281204212625 1.6488552273552013e-06
0.06131977111941174 0.20141753887694927 0.4417033367441841 8.109919209830353e-06
0.09772311454643579 0.2270283373116691 0.4421794282446455 8.80640387899599e-07
0.09842124988348035 0.2740448301154212 0.44237257103324834 0.003720470994270983
0.10767012617310455 0.1442881165216592 0.44195459381980595 3.7889542437523865e-06
0.10702527934417377 0.2830592191277135 0.4424968084308216 0.004033139840249931
0.05692432316118514 0.21514506064886965 0.44171237623387316 1.0631392792866931e-05
0.07811797165045409 0.19471807502901506 0.44184978905585115 3.81823145048965e-07
0.0859926977126609 0.18013533846395513 0.4418731887368872 3.678327397848839e-07
0.0923947795293211 0.19235267534525327 0.44198742350742903 5.714800027668231e-07
0.11161513431617322 0.16320122638103862 0.4420700137372455 3.1119545937451615e-06
0.09996322785069953 0.2078403548366752 0.44212660138332016 2.039029402742728e-06
0.1074554809433972 0.19363505339885562 0.44214755602845135 1.988596987048649e-06
0.08303125870749693 0.2507953549477873 0.44212216614700184 8.319286303433529e-07
0.0770304994159744 0.20669652245145037 0.44188596873188013 3.237176610836586e-07
0.09653639779506765 0.16150967255511628 0.4419080772004038 1.5607476356360627e-06
0.08798107807577318 0.21411070964640083 0.4420280365548534 3.489016406370297e-08
0.09064563920260779 0.28496806791855084 0.4423240826491408 0.0037197884260189765
0.05383854856455321 0.25915875152690215 0.4418261388125485 1.3642765902162155e-05
0.05787030738755053 0.24683639093891976 0.4418320370757262 1.1011594480747005e-05
0.05946306337423016 0.2854379682494243 0.44197394910168875 1.0896779959320486e-05
0.04932257137248343 0.30902898166860526 0.44193534728475187 1.813793845121484e-05
0.05378306775324024 0.29829462226137227 0.4419511794874672 1.0243486753450517e-05
0.0455115593297683 0.32039677377650805 0.44192887321337965 1.9030249476470863e-05
0.06960925405542145 0.24671643690891923 0.4419640306849842 5.139224759816389e-06
0.04896891326379535 0.2366907634678191 0.4416990791719507 1.488914424081893e-05
0.06270603376288002 0.2660991141494677 0.44194842213817026 7.3020985714994334e-06
0.09802726701906259 0.29431286981824667 0.4424373308464457 0.00479489141274481
0.07129968976361556 0.28162200223207656 0.44209517624103983 0.0024689413763964705
0.07020894866986496 0.3053206921820044 0.4421589732022239 0.0041353303222558
0.07858959148415663 0.26575373955925685 0.4421264302299517 4.656779082338974e-07
0.06141811816894083 0.23481490279779155 0.44183344402058145 1.069479271110598e-05
0.08125690133274627 0.29686093527808877 0.44225639521990456 0.004855520855169842
0.050025551761983755 0.1311635124939891 0.4410703964698661 7.859268297539081e-06
0.0247365368690567 0.09849300888359222 0.44011708078973866 0.0856080751680466
0.056467593644421915 0.0979516686559168 0.4409935375046475 0.03240183424934268
0.03088257351214226 0.13520397793660724 0.44057022735654056 0.052030439367944784
0.04005084091406104 0.14990734687936713 0.4409378488524019 0.008775950152191509
0.046801451078460635 0.18678454634416775 0.4414090535217122 1.4224594644570605e-05
0.03673830746550662 0.09639216529925672 0.4404339918132066 0.05945845190938617
0.04251277747554549 0.12228645730638416 0.4407935666217093 0.022422586471135406
0.030169495218667845 0.11380814764955399 0.4403857462519007 0.05926387436000155
0.04900695552659211 0.1588272056075803 0.44125506481564764 6.4639541365716066e-06
0.049510387499833726 0.10887197766334722 0.4408845134678894 0.009698323512437563
0.05050136490748158 0.14568504209838518 0.4411953789073343 7.087841187685718e-06
0.04328992251698726 0.17374098410138195 0.44121119811429266 8.944534836955176e-06
0.03984113843595147 0.291674032177746 0.4416601677056469 0.016497125195735783
0.027807608411558667 0.24279248732717057 0.4411011281766024 0.030571051043339396
0.0376407236001578 0.3033341629757201 0.44163096672681545 0.01629899323719799
0.04293068832073613 0.2668108833214987 0.44167106523446853 0.004312157225721459
0.04327349690382655 0.24719391921946632 0.4416125106029447 1.5805319248984692e-05
0.03663577326100944 0.23209793273091722 0.4413462132687169 0.020282740941523044
0.04565648106725079 0.22296514307761034 0.44160300716255746 1.1747180617578227e-05
0.01429406517536487 0.2231770048700673 0.4405983955920624 0.07080317815225302
0.03312548733934706 0.27758129510254276 0.44139492891080645 0.029091314190719593
0.027998652423313272 0.2653040473944738 0.4411870577289956 0.04829802250084328
0.026974422917672162 0.22614009263392576 0.441015385190268 0.031090973386924303
0.03103411177366945 0.25363876979036837 0.441243008889476 0.02830819923959258
0.236597261749007 0.28056326217979916 0.4425050608244955 0.004247322783371567
0.23664704794388486 0.22851987329486198 0.4423293320249183 6.250524969799598e-07
0.22919487253340265 0.18283032544569378 0.4421996742024289 1.3596591031324174e-06
0.22801104534465022 0.26741593373874734 0.4424889064831798 0.004664161336223822
0.24110875811520574 0.24390818114820742 0.44236659118154964 6.099053653268709e-07
0.22861539397591288 0.20010883050617312 0.4422598652444313 8.164811184512317e-07
0.22740201666311424 0.24798471762393454 0.4424253564913313 0.0031712001818793543
0.12075811016830038 0.257570308592697 0.44244561842267033 0.0015513581347092692
0.13097669831430467 0.27507933026387804 0.4425214290963424 0.0041459846925278945
0.1185346260721091 0.14691845860271582 0.4420569496025334 3.106797200615132e-06
0.1153404046746584 0.20988098013492726 0.4422716404388606 2.1763065142333922e-06
0.11928226201445216 0.23915019426437056 0.44237931348645576 1.4607329093741898e-06
0.1181923356802274 0.2765174879779747 0.44250789784462624 0.004231021483751971
0.11313814316522375 0.24877872997702824 0.4424039427817886 0.00041272741205280436
0.1150569592009214 0.1812044447131359 0.442171337652305 2.7313402471826186e-06
0.010888444328542482 0.2615989836320166 0.44060035098508044 0.07862622644539494
0.015062613053053694 0.31625056775530236 0.4408883434911775 0.07810107575686473
0.01647516413028169 0.2504795145556164 0.44076421204617305 0.07483506034844989
0.02089180102645821 0.2939105798710659 0.44103107918365364 0.07045898255671583
0.008192699113301087 0.2965109965048202 0.4405989809029868 0.06619558614459999
0.03241595382850482 0.316894728248409 0.4414898447457504 0.02209566670255295
0.020801157673879297 0.27466406427785894 0.4409773343963641 0.06707777992153492
0.3460831878955216 0.31863184664386845 0.44065967733978983 0.06232934050254594
0.3340773653419232 0.2619075339897248 0.44093447163946664 0.0679321861086795
0.34062860276814594 0.30519260651971014 0.4408161710115486 0.07477747446542832
0.32340267491617286 0.22523212703743933 0.44121410835353886 0.04004862657648139
0.34052171641690077 0.2776524950083681 0.44074924022366607 0.10738784928960249
0.3262359333759016 0.21214432939204017 0.44108132170886816 0.028216708074908007
0.34130651655098404 0.2352405081112352 0.44061292474630837 0.06743338032718418
0.3453431336120028 0.29112541910605083 0.44061500209394944 0.06337643633359795
0.33991924602989354 0.2230951989316099 0.44063033004672086 0.06947981387254587
0.33313919213837834 0.24770809498936436 0.44093088140958614 0.06019109171343164
0.014476413363279983 0.19870065689478006 0.44047774713495463 0.08149294695066739
0.0154815884605204 0.18531147139390913 0.44043758774246866 0.08807106186909888
0.009904014118901988 0.210891792279279 0.44039525083037623 0.07531790016602663
0.010166452553047411 0.1692056956620705 0.4401768773343575 0.07000085822727525
0.024461739649777825 0.20344457198997706 0.44082865166455626 0.05807628730473741
0.036411785644097514 0.19383157154898287 0.44116536780620763 0.0004307195807487798
0.028111618983875507 0.17593714135563804 0.44079774057906673 0.04043503179744489
0.30572911028768107 0.5094815641948045 0.44064075916692214 0.15483817892592186
0.28709739446778804 0.492599538305391 0.44096040322456226 0.12810693744180507
0.2842593099227385 0.4807964886768679 0.44104110926578044 0.11741900303768661
0.027865204949120523 0.14812313466584925 0.4405823376475815 0.027777411248562322
0.02598772679269486 0.16310110310574377 0.44064162338876495 0.06490316023740668
0.017225770154195602 0.14368300757603591 0.4402456168804528 0.0644727199127982
0.016206819079134148 0.11020161652483926 0.4399644121992986 0.06502138097491239
0.027038717289859085 0.358516854646282 0.4409937648716662 0.06256243365673363
0.02424296972150892 0.34156189611360344 0.44104222771649104 0.059252549418148295
0.019299940258959435 0.3295299680539708 0.4409659355353207 0.06998422536970292
0.33589722531145905 0.35018305919555065 0.44087034299426514 0.0763556357032629
0.32311365158130867 0.3508702097891725 0.4412606383755342 0.01971211169146281
0.3252028624435241 0.3716104431644537 0.4409473397699666 0.05340983387933962
0.33411441976707534 0.36291254981345467 0.44077360463214965 0.0718194330537022
0.3391139218436322 0.37286005724625304 0.44049872140316826 0.08194854147917882
0.33407176955873036 0.3850320797827159 0.44051026096763474 0.07820505034162333
0.31945917507253985 0.34001703335676886 0.4415044283880705 0.01719390894658371
0.3104119957971361 0.3758402082179607 0.4410586339258416 0.005073015152736136
0.2896722795214961 0.35598759279335856 0.4416852235159139 0.0027988768158896623
0.28034543310153537 0.34592809187603 0.44198933396232926 0.0028048095727579384
0.3139232068280306 0.3648052691994832 0.4412365964947649 0.009066090278801961
0.3023405866260164 0.35231772074803547 0.4416141613616397 0.0007714828120524207
0.29612722022718485 0.3411150803275846 0.441905565938005 0.0016270863190535865
0.30276388332060955 0.36732650877562223 0.441313232459286 0.0011642328844973851
