x y z curv
0.054329640666693865 0.11642984661717928 0.10328973165002829 0.012443942573798045
0.05431016074904198 0.11959350828134106 0.07088727447893207 0.010349405496127114
0.04914150623471855 0.12505239331770104 0.10950145020207332 0.012303139760217852
0.05965588872155856 0.10896968354440158 0.10951953182448959 0.013539005917812054
0.06083636641362927 0.10871750758065706 0.09582187322958907 0.010017144968948321
0.06132981733199616 0.10984637386925297 0.07384768417005365 0.012966521938979647
0.048071632685688245 0.13074894891062583 0.08609885994100035 0.01079902321064291
0.04580266245379622 0.14396022544735454 0.06471497501585698 0.0071481678029598735
0.04448305016767874 0.14150771938327947 0.09816983532919418 0.006427700325149182
0.04396353061133028 0.1482188089916393 0.09096335134569572 0.004200309903267047
0.044630382059080785 0.13829895448273338 0.10712657629050164 0.0076743547312385614
0.048497188506415996 0.13250602619363736 0.06685872889158485 0.009519729234633316
0.041951674695268754 0.15067887596200802 0.1255928103581711 0.0030490215932880006
0.04249238010292813 0.16434262281901824 0.10621010011349752 0.0014247182779233956
0.04135942237022676 0.16209873481880835 0.12921121961560827 0.06043627554518765
0.04240384792895411 0.17267048815109526 0.10272698194021096 0.00039416495686792985
0.04185185246009797 0.1697138583588782 0.11509065362998835 0.0007136890514839949
0.04321046746588529 0.15348748847416488 0.09925583013618539 0.004321636090060953
0.04132988703374738 0.15403359603684944 0.1347829577487133 0.08452484695084687
0.059740713909895674 0.10781730680534833 0.12304189434597088 0.011742615193304181
0.05742998117612967 0.1080564272344794 0.15231425677030375 0.0988796818918182
0.05489809078571446 0.11291842398886523 0.13285539365202362 0.022316985496366824
0.05502870421907722 0.11441614511719737 0.11409648068146287 0.009882620636258607
0.04919160954824283 0.12072918779547792 0.14502427844489346 0.08611940854154862
0.04824043516852941 0.12373743637828055 0.13554435966808165 0.026937047549632474
0.0457742365260213 0.13230523086545268 0.11708931767052147 0.008319225527045539
0.04063067413703331 0.14288249583482526 0.16553065110207832 0.11334335822549844
0.04212132959979735 0.1434621245148485 0.13572210532255244 0.06480939201543157
0.04392101416486911 0.1341869493465497 0.14069419740668984 0.10744993841688609
0.04361541942419928 0.13210575666392482 0.15760152175585615 0.11275360673114541
0.041899404251530166 0.1398390437879401 0.1519638547689675 0.12577586173872235
0.38205406887305016 0.1453527751227524 0.09609195831690998 0.004650431958688675
0.3838098957030793 0.16872658853714564 0.10925143382196115 0.0007484896586034258
0.3830374209306667 0.15749027796253529 0.10149773766337206 0.001570162804140508
0.377627927082432 0.13300289461689724 0.06613904615173885 0.008681637934275285
0.37965041361772056 0.13384185598589157 0.09877624505047833 0.009645489646135484
0.37898011099813184 0.13929106475202155 0.05908130450156174 0.0076504056669937865
0.3821288605072572 0.14236131942651414 0.10940809580652229 0.006288634842395055
0.37659879146097486 0.12690253668604684 0.08944667094715224 0.010674884154243681
0.36258679081181056 0.10682738072636412 0.08433227454484975 0.01268536510741637
0.36531590139346387 0.10884520402254722 0.09647273126099487 0.01115364082859301
0.372328622506965 0.12074176968810407 0.07042400353867861 0.011482291278482406
0.368838716318068 0.11385581536717516 0.08764601893953525 0.00933255300868312
0.3699717728148557 0.11383377812716258 0.10556603301097708 0.009670378589717898
0.37249506063957943 0.11855749306410918 0.09517120017228685 0.011832472383101011
0.369429017676647 0.11781559792216666 0.05275266712358689 0.013327476091298227
0.37519143138616123 0.12228149197032397 0.1045283514738275 0.013103071290140279
0.37848752381731576 0.12708634743413852 0.12153635921147041 0.008497192209026812
0.38189884069718905 0.13322452281531738 0.1424998107499539 0.05956335733468469
0.3827608960963397 0.13400835933235256 0.15386723311063635 0.08720567090129233
0.37788235209892007 0.12427124504794931 0.13310323784294567 0.02314836099036279
0.37977871516939793 0.12490784796439663 0.1605364797544868 0.09661277285338624
0.3851220924713925 0.145050104335729 0.15488415900121652 0.07980621085141835
0.37365238519334887 0.11862675593086103 0.11346776611616989 0.011284698907403048
0.3756190650820629 0.11731264207555998 0.1576062378123139 0.08894108978954147
0.36756925413670577 0.10606417198409583 0.16303947006931618 0.07885325007169715
0.35816293937049865 0.10221287526495129 0.09226103664763839 0.01078650751463623
0.3578063113726069 0.10090938325544892 0.10742812697915974 0.009785594620307715
0.35487703264067294 0.10179166833259001 0.05980898358247455 0.010743779922899684
0.3253402558663906 0.08738002570545335 0.09486660957873043 0.00641234314632234
0.32172649591256064 0.08776585022586339 0.07852552040415688 0.004651220475670228
0.3205216848493251 0.08849311447177823 0.0625521937558406 0.005834228660556879
0.335665221724482 0.0891392839218506 0.1059186205810914 0.008155528078860911
0.33447853805420263 0.08940275295943624 0.09492734607441752 0.00872411448268223
0.34277243692703585 0.09226134709008646 0.09878115010491223 0.01189069463179792
0.34388706461094865 0.0951213672595054 0.058106766722912415 0.008272424255511427
0.3420800182869103 0.09267254231278962 0.08600281695853715 0.010472352164573389
0.3495020392892698 0.09487388203288298 0.11343656627985016 0.011235707446514089
0.33688441316619266 0.08905437340095008 0.11505682885656193 0.010390727406485641
0.3412427617057203 0.08951135843191346 0.1354244306126589 0.03554125442583442
0.3588979301899896 0.10063943807164805 0.12415481105907646 0.01100264672645887
0.3587807126454482 0.0994984861430104 0.13988077505530702 0.04770405080292009
0.33318594491169984 0.08736861203302623 0.1259746240936337 0.008594597428371278
0.3238995689019355 0.08564884257622327 0.12306804406034594 0.00495011323560263
0.31857385123956755 0.08427407679000745 0.14096301937541716 0.05274633848483035
0.3206855451417863 0.0849413882122008 0.13121067518254756 0.010731789964021354
0.31985902586524717 0.08306995420331698 0.16481777855078597 0.09010754678195892
0.18325773855497157 0.08154764003100999 0.16592080536514314 0.06675802237975731
0.04494481158273197 0.4617607434470734 0.10159581372352897 0.008110199190909365
0.05082774358357757 0.46062037734425926 0.04437549274839125 0.021148537268230475
0.05664886434576829 0.45552460013304286 0.03432738997740788 0.02537239859860167
0.07426369456144907 0.4680951752635831 0.025524824550902388 0.0194824421540442
0.05570709388897786 0.474904584773058 0.04562026311129098 0.02192512710413645
0.06947314003213684 0.4756096403146877 0.030615707292209682 0.026172777055297348
0.07216668245417165 0.4926127770681226 0.04201786826645941 0.023206189708035525
0.08615298223783158 0.4786697494159406 0.02469009805353793 0.0176295611649681
0.07870090660274918 0.5007562653409745 0.048628987186656425 0.017562955795251918
0.08228055953964669 0.49730908997075673 0.038975741120550605 0.023537332206258258
0.09044015483745974 0.5021836861362324 0.0404851656807514 0.02055436501729954
0.09549784829129705 0.5083642324004106 0.05089609358416379 0.018732967320238176
0.10293458777187603 0.4813825660388542 0.022603113500616973 0.018200868127870407
0.10025011370494055 0.4903465409085348 0.026579819149739118 0.024497930161074166
0.05714512258793063 0.48327445523541096 0.05709790358316064 0.01518997689909869
0.0931050622434812 0.47102599185249916 0.02196586159243612 0.010287504359463233
0.10628853820289294 0.5091165075029151 0.04788159958672304 0.020032396263281082
0.1030636952113111 0.5109895441462124 0.058186666018668266 0.011592833244347034
0.15170728196876593 0.4831632367283542 0.019244517704066745 0.016237760892270258
0.13374696130469974 0.49965911359855314 0.03011945508725831 0.02767694083116265
0.15491862453525118 0.5014362054807874 0.03023704968662284 0.028382259048306886
0.14879343700839642 0.5111880073326074 0.049224781291478184 0.014340412304136171
0.16309561247045945 0.4845751970651868 0.018964485803575466 0.01991328593744013
0.18267153076465656 0.48606714107084725 0.018420755134904432 0.018962872555613675
0.17504601691499416 0.49280953540801276 0.02205608077090555 0.02671772309989787
0.16453956490881955 0.49758845367387616 0.02598753704468549 0.024786021134429917
0.1854033540634172 0.5010721952984445 0.02792422587361283 0.02654219639344441
0.1730442710474213 0.5014632416649354 0.029080557794826857 0.02840668802747903
0.16667438642979615 0.5072538266457184 0.03742378310710252 0.020229000794217904
0.17267771145616034 0.510305211124597 0.043864143392231617 0.01946680653820356
0.18619478497883016 0.5108206870996311 0.04447711022215501 0.01594311518387042
0.16097468954780617 0.511102051032995 0.04728768574171287 0.017482498693160833
0.19545966267544246 0.48738653656968745 0.01833789152990429 0.02379054937958969
0.2023231969977769 0.4941613914619264 0.02160565671481874 0.029999198162506926
0.19295254474796225 0.4959093841735332 0.023190769447980646 0.025861165372659287
0.1988307759036977 0.5029803771969865 0.029512447653889363 0.03225832090216136
0.2048627017819411 0.5119044506629097 0.04809587749701523 0.013762052042681222
0.2190713089859516 0.48520258537104743 0.016714501252850653 0.01738192171345703
0.2296870492386446 0.4897296787785308 0.01830423910488944 0.018903140283371988
0.21308739699398418 0.4924954814051735 0.020171676641061884 0.02665535671695409
0.22033257253271246 0.5011637135595297 0.026723008231868982 0.02910145819244532
0.2122978296887422 0.5058177689429731 0.03270814447898392 0.024879459474420086
0.22626294712988207 0.508255931192573 0.03658016359296118 0.025663989151046094
0.23266460965045518 0.5113763084708601 0.04510645347438931 0.016184257047647855
0.26017523451163427 0.480868003024013 0.014743574728440258 0.012063103511557566
0.2512587952338656 0.4860277641355669 0.01638407311838204 0.017197235772918477
0.2455373528422622 0.4982891051067242 0.023590477306676516 0.02730024826609868
0.2613067508874663 0.4988279233148559 0.02401918996684885 0.02871424925264941
0.26329183921657534 0.5057428353844834 0.03206987685486986 0.023240489844600667
0.2394723759249284 0.50882789176769 0.03765870602742021 0.02549985963628798
0.25196263688818593 0.5096040981398089 0.039561304307364466 0.0209275930007188
0.26251417145580347 0.5103608893228309 0.04198116680935824 0.018250013174165955
0.24540095884288457 0.5117272168275814 0.046994851305818486 0.01501442767290403
0.2853640572851452 0.4831135619634192 0.01529486463351495 0.017202069033850288
0.27729316450185204 0.4886453233010958 0.01740468266433413 0.02196248050683494
0.2798645018403274 0.505867252423803 0.03261432713486253 0.022880092711251507
0.288270931793971 0.5091508951610829 0.039478230297232825 0.020027719913632717
0.1284863603612903 0.47868151884764026 0.019846446649047056 0.013693833162497891
0.1177793080168577 0.48343571940910945 0.021885179856989203 0.018017503951261494
0.13275565573972925 0.4889653504674908 0.022804967545966472 0.022973268194995632
0.14091450741092437 0.47889414181388656 0.018984444587738944 0.016112624799396985
0.11209165681725514 0.497809056907853 0.030442268413578076 0.02355676246321533
0.17279366225698378 0.4797191980356148 0.01715374865830515 0.010336043224976152
0.1915125957989155 0.4772270518739317 0.01586407620801367 0.012512583765655234
0.20121045981167482 0.4794021618367956 0.01579777431971492 0.012379688524376776
0.1786379659567749 0.512217663832973 0.05189297492237349 0.009933631696326157
0.1551279973020311 0.5122626397155385 0.05562752270237785 0.010311043392531928
0.2622932434674958 0.4692242910678851 0.013288629735022409 0.005855876537239069
0.32366046374162727 0.5028855274532172 0.03057972389935335 0.02466052372174563
0.32346509824937697 0.5079220421992214 0.0396047559291364 0.021231466094951603
0.33376994726912546 0.5051783477632914 0.038474336578404045 0.022515554242422957
0.33921571156509633 0.5055931017988272 0.045560512959749416 0.018480316188080232
0.3408482291920964 0.4764520944150763 0.016525609403122445 0.017663736703870343
0.3528915401572181 0.49173691710441836 0.03279984966664207 0.022618718790606104
0.3586695094866398 0.4813178875573166 0.02807983085095167 0.029740991084078412
0.3634604806562698 0.4846672446140865 0.037682663617078116 0.024225576785645377
0.3522640591737595 0.47450135341249466 0.01981912756064261 0.025168822847722157
0.36207704177756317 0.46839567257094683 0.023584327487717903 0.028504428122557133
0.36783129534125814 0.4722639767956417 0.03165906258672407 0.026632731690511828
0.3714096393341469 0.4744345687636001 0.0405337797369447 0.02281389365833022
0.3576781411169433 0.461195697740719 0.018518432488031 0.022970207864342878
0.3742590589502295 0.4623004364765976 0.03604617382227637 0.01914802377704352
0.31850163434980516 0.49624823072537966 0.022964591926417723 0.021943124530271217
0.33585650611475387 0.4680297458426854 0.01404183369790912 0.012149521719580175
0.37904108010639476 0.45613296994647906 0.04720128816410243 0.009695339429270396
0.3063461600221907 0.47946070342485286 0.014665878785521409 0.014546445550945097
0.2912063557220249 0.4921122029227173 0.019339673608216767 0.028552427496454404
0.2920386713344368 0.49998003352582854 0.025470182629588646 0.028029042088330583
0.31497533471140116 0.5087680860547262 0.04024533780906928 0.022191529331093682
0.2957936448214836 0.5112900768767719 0.04847134864994584 0.011901143206487339
0.31929967605927323 0.511587383464664 0.06255809118541172 0.006607402412393356
0.32374698055952117 0.5132386942993193 0.1016603946354313 0.005105531100570762
0.3250962680171897 0.5120387761845879 0.0832002871991939 0.00727464569030949
0.3298961668545909 0.5099508975984441 0.060959370136980565 0.008116648784217622
0.317647160099329 0.5148556733556138 0.1234415971354283 0.0032696422502652865
0.340325175241615 0.506934706589172 0.0660394132933937 0.011344424700362125
0.33985930988093804 0.5065507987475327 0.05598167068074121 0.013074520323340768
0.33534226979959453 0.5099339393048756 0.08731833601830051 0.010459228941949752
0.32644305756076764 0.5142893394528704 0.13052187489871933 0.012211015636989685
0.32781969660648286 0.5127711712532513 0.1099034607996598 0.005831307843578729
0.3459552770603095 0.5059743227593336 0.09477803773307704 0.009493208152618947
0.34759883371734274 0.5037728386734778 0.07233321594781565 0.011057353425013308
0.3486145933327241 0.5024415514430952 0.05980515375481867 0.00928989521570976
0.35815356536025345 0.4954113057057161 0.05780074401970503 0.009834812429645462
0.35660652619724187 0.4990111752225093 0.09219512007337052 0.01015703885698361
0.35411282900185137 0.5014700147025083 0.10175352415372457 0.007363196890626233
0.36614769703591754 0.48917283663615596 0.08258446785936885 0.011402508795896644
0.3645778185426303 0.48957337975993775 0.06530884570726316 0.008713195150919763
0.31846781526880874 0.5155552642662272 0.13769263380427982 0.030797887133539113
0.32143024820245447 0.5163384517236985 0.1559300107492673 0.08408800581478447
0.34189369767894895 0.5109503702419853 0.1482082809086211 0.07803795054164134
0.34308896252168364 0.5099379890950371 0.13922668416663403 0.04199637730248562
0.346295535055334 0.5074693847084263 0.12329505507510827 0.011418094956738893
0.35010708699686405 0.5047152514231428 0.11271533793091948 0.010351026522544955
0.3524385630953992 0.505148601109557 0.14207742476495813 0.05640864582795852
0.3518066902914756 0.5048789929364559 0.13169729449108833 0.01762130760538094
0.3545426669131181 0.5052783710947861 0.16572040409484298 0.09752461860400084
0.3575992561457249 0.49982514541557027 0.11619941300538836 0.01109937925989442
0.3584069077239773 0.499888953794564 0.1262782684171342 0.010955150416472688
0.36172460811985063 0.49869752676023615 0.14982027057842695 0.0844131061531142
0.3686561858230347 0.4916389245504945 0.14971137775146684 0.08079068399156245
0.3603144301561877 0.4990898854247283 0.13784682590972408 0.039168574001691936
0.37523130230015533 0.4719666749173397 0.05693072845733964 0.011341934723591995
0.3773112981125549 0.4711508099285842 0.08832413115000054 0.011249991738935157
0.37761993756789947 0.46717731084550357 0.0667451563057075 0.010017696734271081
0.37104100174876836 0.48468098605364085 0.1046614498469295 0.011776888623555101
0.37319920146392516 0.47930616551249694 0.08508891482851819 0.01220832502056017
0.37248084489592026 0.4813564481889351 0.09406728507487207 0.012091464920677704
0.3698850993826045 0.48337079672547595 0.0726425977886452 0.014152773553674001
0.37556609088848536 0.4766619213947997 0.10188836420765235 0.012641650727815519
0.3793958914325598 0.4635438692730487 0.07973597441669555 0.008329626151795557
0.3799624826714883 0.46516771517439737 0.0989927214916132 0.007020348662306864
0.38055512812157577 0.4565493613683275 0.07313567212749131 0.005237924994469884
0.381533201016987 0.45603513173653587 0.09007588793522096 0.0064667165694203225
0.3691981262155035 0.48803275184352396 0.11528621081327672 0.012674727240513769
0.37290637176534325 0.48421366281113193 0.12955887193434706 0.008840669740518345
0.3758259335363085 0.4818479512565434 0.1528859535178443 0.08422414105993221
0.3759773827713398 0.4783181820480154 0.12281291620167423 0.01053616169179348
0.3796331290275915 0.4712658410328498 0.13043110677041142 0.01070068798083378
0.38363343497073493 0.4452567368002483 0.11457252958281026 0.0014377433894257974
0.3830005090140166 0.43521541828783894 0.09626447590949344 0.0007393320878479736
0.38382959343561973 0.42564955075401206 0.10613637956167059 0.0002636575509212081
0.38493490355727744 0.45114552231762867 0.1447628489325526 0.05032026144103088
0.38413847520423383 0.459911704027976 0.15171819858330537 0.08198415417977947
0.10441705991615964 0.5117256119358458 0.06852311016033243 0.007034318213089092
0.10118350493907768 0.512743445608886 0.0955316137945521 0.004838855243746081
0.09210443320674278 0.5089451061008833 0.06156524758172099 0.010635270600349491
0.09647359105485644 0.5120896209238375 0.10320169818727953 0.006496356923849715
0.07585722244436785 0.5020032979113668 0.06794115333980952 0.012593442593721266
0.07536748915969348 0.5024174536162881 0.07962271130431928 0.012359534977355912
0.07042189972211843 0.49957724190523256 0.0889694769929999 0.010086678713089424
0.06860581364341722 0.49895740203151007 0.10045962662449123 0.013131602227576105
0.06672468479993816 0.49816474201984656 0.11198311091058573 0.012625585569002068
0.10567599090055628 0.5151703552991149 0.13292269034350684 0.013610166437052956
0.08889328395039048 0.5114581956814725 0.12550590774183987 0.007933717645029509
0.09578184735460551 0.5136502593686756 0.13384148927872302 0.023705461656121602
0.09082628992361874 0.5138637963955328 0.1582548920473519 0.0914049527418249
0.1014088213251176 0.5159603447265481 0.15536258377895495 0.09458282240779525
0.0744684489276112 0.5038798015115885 0.11325614532988983 0.012777968818857365
0.06470362752315517 0.4994780959794167 0.1556682640687775 0.09832259573623818
0.06721473311609691 0.500005616436882 0.13245956412180393 0.026574173710602868
0.07263507105790443 0.5050674478485165 0.15024183189513207 0.08934456204598767
0.05506489856792993 0.48352452491479236 0.09080028839186037 0.010031346987049345
0.04993697956746261 0.47223175789089017 0.07394331116288458 0.009072751711839772
0.0622164838689579 0.4901062903022659 0.06055111139464277 0.015361725128636894
0.06356973505815716 0.4938445615534476 0.09112201097162026 0.012772658017832204
0.05882095664459659 0.49213780901960547 0.13504903499202447 0.0310289946064697
0.05928968866949076 0.49119593875507417 0.11679227175077388 0.01024343500254922
0.04470543225769039 0.4496180892786449 0.07301160301890453 0.004190802920180794
0.04696496687375819 0.4668656492885124 0.09071214925688335 0.008009541422063336
0.042668667677543626 0.4534019780205958 0.11852051325094541 0.0037106843673564574
0.04314831389144141 0.44982554382400775 0.10362876071241929 0.003291464592254053
0.04182921984400784 0.4368104564106904 0.11957322377128106 0.0018217583365123028
0.04164593047983127 0.4448389090162842 0.12805540565053886 0.05798566740501931
0.04259183794245913 0.44121164633902576 0.10776202722191075 0.002084071404415107
0.043608222428129874 0.4463737910746536 0.09158358727289043 0.002705034441096343
0.05538664399117424 0.49019474022737514 0.16117613734815278 0.09180223096361424
0.053243241752240794 0.48324159742876927 0.11773281308300662 0.009062107316593378
0.05443893224306932 0.4859407636060432 0.12682439784168936 0.01021968672306032
0.05288927380661855 0.48515109366325215 0.1425483294308153 0.05121247610148982
0.0500233762290612 0.47948412950099795 0.13287313733559653 0.02264628078810914
0.044207814382146646 0.4698288871217484 0.15909779530417764 0.12922208448026457
0.04165886125313505 0.45988839798962766 0.15573791636510126 0.1365685509263724
0.04514274752629196 0.4668273725075801 0.12390156257615723 0.007263499979710359
0.062272106717809944 0.496497191844003 0.14481368485435892 0.05954426872750265
0.3806504129077176 0.15910629852408603 0.05462837031945267 0.007727016070420765
0.3816821511917585 0.17440754074895257 0.06454058870980757 0.0009818638550699679
0.3810237819042846 0.16914625814393958 0.055150381813074634 0.006829827558718997
0.381288426302445 0.16031320657079737 0.0660101327402626 0.002887550541547716
0.3825533172855903 0.18605226357908097 0.07441764392618 0.0002472053066272278
0.38566362169509283 0.18359013187663714 0.13515862952297397 0.014896741867089055
0.3864849516777714 0.18777610915379964 0.1484096128938283 0.09793860694541902
0.38594095445338417 0.17698077030646403 0.1442594828170043 0.049412288560900075
0.3824022395681212 0.20044231989710315 0.06429492197527617 0.0015326089172869306
0.3838137025672593 0.19289654350331734 0.09495637802922864 0.0002881691517613247
0.3855677129812719 0.1559232131499137 0.15051885873327386 0.06453829022666026
0.38494673922144473 0.15234649274992051 0.14105794212290795 0.0495005568040055
0.38636763383415085 0.16160969295836258 0.1619882782562558 0.066943908701637
0.38539106584604094 0.16405124901508447 0.14201892458611273 0.040800392619619937
0.3861689351206537 0.1705169006499872 0.1525433471474846 0.058984166048216935
0.3864601433034478 0.19912451558567806 0.1423434085102202 0.13008275394049618
0.3852118972589299 0.1894928928499921 0.12323365711879294 0.04941688617819146
0.38707819122341147 0.20921249908876183 0.14985699369661598 0.13259857098383743
0.3873528465998627 0.24719089038505238 0.14205022895154198 0.16255530243087218
0.38547268326125156 0.21074257194290197 0.1200728642049651 0.13832673466221157
0.3863164889396538 0.2504892991449594 0.1219153705714142 0.1334141488710703
0.3864964454372465 0.22085232253123704 0.13516340616991102 0.15729098625710142
0.38674438418746426 0.24565638311744256 0.1312779177352884 0.17089200502781468
0.385526035760697 0.23234627927241527 0.11375043552322187 0.1172851270011092
0.38647087417946935 0.23190692698806345 0.13097277954734526 0.18259436265659687
0.3871519807705095 0.23332078211936008 0.1428041753271778 0.1664304895389786
0.3851379073841235 0.19807309851243307 0.11829633192079732 0.0934344353585456
0.3859724818652325 0.25504634341492394 0.11416181189757708 0.18161327692390722
0.38476008383600135 0.2036013778392378 0.1096040953987919 0.0002867599966731385
0.3854120971040745 0.24348317059649957 0.10793516927852424 0.07579569477821885
0.38358936488492723 0.2171466695288466 0.08119475179130914 0.00025892429653295135
0.3842360259083294 0.20494454763201178 0.09882140126561305 0.0002583679157969042
0.3835223311001659 0.2252384217055013 0.07680982816591118 0.00026547786501405124
0.384289682004895 0.2378015632089442 0.0875945774187285 0.0002690930059414531
0.38485315857625935 0.2357852469572987 0.09972569868175292 0.00024657545641773956
0.38357576287118444 0.20738473677587038 0.0845775086402602 0.0002389972446534484
0.38489119529671634 0.24523239057967955 0.09695417719939615 0.0002768516243605778
0.3824770912720125 0.219880555171195 0.05771544807891366 0.004107056864511768
0.38349773638172635 0.23588282008039224 0.07232531948750544 0.00028761741978678383
0.3822385430127354 0.23175261606780492 0.048676700240732125 0.0076560859542630574
0.3835141049490287 0.2469564104271501 0.06885148004758318 0.0006199584537360293
0.3833427877907359 0.2556932886099648 0.06325976323621632 0.0017129025086006168
0.38266872388256895 0.2557602266045125 0.05038291387982377 0.008289551902284028
0.38367951106273135 0.2658195536790086 0.06770295343137184 0.0005593229210490416
0.3830485567862385 0.276757836728959 0.054206473017209794 0.0039097755269501796
0.3831043135981036 0.26316040608741703 0.057081418882554184 0.0032306797216205235
0.38418537890572135 0.286479963508432 0.07523857586716542 0.0002569862831658369
0.38570470207476837 0.28346960042555225 0.10490236042582814 0.08572034321453695
0.3844860487721678 0.27077060277568094 0.08246721966240061 0.0002462807401742437
0.3830938741629688 0.2983430844381104 0.05370431880226091 0.0044835953998989715
0.38409313567784986 0.29930951019972923 0.07272888160112932 0.00032813820664429944
0.38460737414968027 0.292949429909713 0.08282193536674898 0.0003006091074961369
0.38725577314526805 0.29655909199539576 0.13319835793550186 0.19463976665590083
0.38784880401476607 0.2980834489182233 0.1444465514105822 0.20147007322992735
0.3857324217884113 0.2725553473287717 0.10640570766001602 0.08074858125174211
0.3863012205643883 0.27006481410981586 0.11732993979935119 0.15758621481923413
0.38770116659787046 0.28433663349455146 0.1424306411956681 0.1925147943267846
0.3863916710061747 0.2851172260551686 0.11771443818651732 0.2101301730718022
0.38724769806368 0.2597389066730593 0.13687072527895225 0.17359791055166848
0.3867061060762755 0.2607858868175183 0.12630418773301072 0.15834796460358863
0.38579415488696045 0.262495242353697 0.1085237755623647 0.1259482495823968
0.38726838952877707 0.26898264843206454 0.1357631173408227 0.17881923569687821
0.3846333869422022 0.30270248069726957 0.08312824202249289 0.00028863856758763707
0.3853088690878318 0.3000524310161637 0.09589853955795843 0.04522576648761354
0.383171668115489 0.31088493270534145 0.05560350582299833 0.003242105451777123
0.3835471467621476 0.302459209003373 0.06239045010448106 0.0019024319715727166
0.38428006561974604 0.3103376417050815 0.07679099729296346 0.00031010359283190195
0.3853112872139182 0.31877443762049223 0.09749896654746398 0.0002588308873036945
0.3843188931405035 0.32078129279817713 0.07848325924168621 0.0002913005766564002
0.3848401703829232 0.3121957002526128 0.08779294299842491 0.00032399023998500937
0.3856862978207481 0.30795370586088106 0.10377787982874855 0.12307517672193231
0.38372396118108265 0.3286526659661404 0.06782765160942442 0.0005010639407154764
0.3829196082522541 0.33568266992162993 0.05342046216657421 0.0032303158302248777
0.38653634627244815 0.301543616902491 0.11938657568021349 0.16427135562256412
0.38848394574471345 0.30107483046249056 0.15652857809200166 0.15901742409937492
0.3869203051292005 0.3062604277830395 0.12692231797060333 0.18499011655948036
0.38891614851986656 0.3157829435006071 0.16542821152235843 0.12701784096935276
0.38692312921244343 0.3274689023192726 0.12882507466394721 0.17817441161795403
0.385745439616048 0.3313902902425554 0.10700416354147138 0.08444874403398456
0.3873351022804921 0.3187776438579527 0.13581562480879392 0.18464095591156424
0.3882301226104351 0.3197488240256745 0.15274604491417915 0.148450900139891
0.38361256828433243 0.41549962539802093 0.09552896144269232 0.00027179062978132567
0.38310383746186233 0.4254074775469615 0.09205305552034419 0.00029329236662576735
0.3820652143023975 0.4227834267633644 0.07020761077631621 0.0006841131504753793
0.3814404203445787 0.41882025896294806 0.056006915113958666 0.005210505119853169
0.3857528814999326 0.42118077792192177 0.1396138272677379 0.029466922228403025
0.3854787500168334 0.41194462826899647 0.1290598772758082 0.05007709426766219
0.38245856911633624 0.4094666512640414 0.0702134040758386 0.0006704800999044833
0.38182432181423176 0.40654219123123725 0.05668932842144941 0.0032381493410129606
0.3861926249876178 0.41150734175044196 0.1424299282110401 0.13529044827298373
0.38364687748056503 0.4023067231249988 0.08955127824210768 0.0003084932556803986
0.3840743253796653 0.3898225645056229 0.09220738729122589 0.00030237668876827276
0.38297044461312046 0.3940524009819619 0.07275749241237177 0.0005637785631074224
0.38318179931870666 0.40229333983274435 0.08054975434395648 0.0003095082987359768
0.3810147408552912 0.4411676740950837 0.0617590787557534 0.0033670687525311225
0.38270456112817025 0.3868549385013605 0.06441233500854987 0.0006929983419507088
0.3841442488153443 0.3775203933135366 0.0881467915963453 0.0002949916710129886
0.381756374847076 0.3925029345526686 0.048581124259110896 0.009149375560813355
0.38770388349173057 0.38408308479804354 0.15866593774796692 0.15629207115305851
0.3870375926071493 0.3830562882816332 0.14554661895669244 0.17264640028524122
0.38256738359641806 0.36510330574195154 0.05392976096648257 0.005515928989349749
0.38358951625631843 0.3736087686766136 0.07607072579004732 0.00028856685654119233
0.38412793637807263 0.36619323241733626 0.08409512410341977 0.00024487593027349314
0.38299655603119453 0.3560913245566125 0.05948659707175988 0.0020680155344743193
0.3852121169474185 0.3430716212958165 0.09882676778407953 0.05416823244078641
0.38368887003366375 0.3636871136818234 0.07492661164748785 0.00030131735670305045
0.38752760527019847 0.37395098665865817 0.15129920600470614 0.15491763935028702
0.3880900591860931 0.3691290861447859 0.16053127621538824 0.14459693104542365
0.38570388623364527 0.3593093469292584 0.11254414158279816 0.13321756392850517
0.38556759689488296 0.37217767385230077 0.11336213621923649 0.11293297274166936
0.3860955194823673 0.3489515313071211 0.11719077160582772 0.1604083191496597
0.385777556166393 0.34224089443319317 0.10944383291095007 0.099401453291736
0.38634905500411776 0.3592897320338328 0.12467891748112091 0.18290608807293954
0.38740820985288665 0.34957752684168386 0.14205578730929982 0.16142979251120307
0.38753325907196573 0.33964035180823265 0.14218558846206095 0.1695160017913967
0.3846297992369554 0.4000999154855595 0.10755678703069918 0.0002917426749820849
0.3858447203797682 0.3797199479234035 0.12148855502276186 0.08622538282181794
0.38621656686789574 0.38926693206127794 0.13266282479175134 0.13884683376977625
0.38512559160781423 0.404636000481132 0.11886890659754741 0.049553555683233975
0.38514764347709485 0.3894349216559271 0.11262895604805534 0.12079446300975552
0.3865771933619014 0.39280253675779264 0.14099435973351984 0.14072873636819358
0.38564071972461744 0.394856923730447 0.12427782186960015 0.16030582251444453
0.3881337195376333 0.3340845639605139 0.15268597747029028 0.1773316469803393
0.3876323667238284 0.32770169552238415 0.14227145218560064 0.19132162368880806
0.38603225510467687 0.42865859322201655 0.14947060570727963 0.05696576657428144
0.3856484157685367 0.43880275604818 0.14861619165915035 0.06072812316266018
0.38535101526445686 0.43378967125228163 0.13992102148277433 0.03160189878903714
0.38507357748206744 0.4281210596744854 0.13119044232303972 0.006135660580787758
0.3862450378819347 0.4364659393310678 0.15837083385860765 0.07344898790808177
0.38634797231018714 0.44362828935348875 0.16509811712027703 0.08508883566018174
0.34844566653067677 0.442537217156726 0.01308926604311907 0.018561398021834513
0.34875666241311365 0.37555499096475686 0.009256310706145663 0.01294300345530581
0.3563094267045711 0.367980528443545 0.010988062845577285 0.01722028123998068
0.36428240417683866 0.3911503832437638 0.016392297574436443 0.029332219060543056
0.37139598215357583 0.3985548546196127 0.02310949334527388 0.03172046784247298
0.37361669803417674 0.3894720454352753 0.025175175867827 0.027714645098473118
0.3794141627810891 0.38056481635187644 0.0351003145944468 0.020846291364459167
0.37857035529759936 0.36848970396683656 0.03204344730304633 0.02330476123300702
0.38010945274670854 0.3901134848785962 0.038257970577093736 0.017270014700078284
0.36927295047736575 0.3533251020602739 0.0185006548878567 0.02509666671752929
0.372823583468179 0.3425477661773514 0.021879064886258695 0.029615624096601356
0.3732301058038271 0.32687981353080753 0.021854675318758284 0.026052754151725643
0.3752504463558649 0.3573836718104759 0.02556191727141482 0.024185314511582838
0.3775849921607781 0.34808872424713244 0.029066512452498344 0.025878344235981086
0.3793356727552016 0.33147828829242 0.0320464206535703 0.022500479978563394
0.38017883248177703 0.35807677882805744 0.035469510230673386 0.0209331871108798
0.38103638559553 0.34036196254537643 0.037310446896636526 0.022103398211718108
0.34833945294019597 0.30302719504520753 0.007685171013394368 0.009089863405911423
0.3524594698373339 0.3149353750048267 0.008533903341480483 0.012871769696366147
0.3551308992970392 0.293800273079941 0.009302238152720983 0.012221881192319501
0.3613944697176699 0.31523385527413417 0.01203937795356251 0.026014657319063394
0.3666284635827832 0.2805074402442011 0.015376539587554826 0.020743683314092765
0.37916100935327157 0.2990108063298466 0.03118987030488262 0.021876723068249903
0.38067419422238413 0.28886784490163164 0.03515561227391863 0.02074380751562116
0.35244698018487775 0.2610927046778819 0.008893725508372814 0.015310615559164121
0.36086655132779366 0.25535783803038464 0.012293206451603138 0.023980996909598786
0.36868100256201025 0.25008073832898353 0.01774138783528455 0.02508111767916418
0.3792426131284099 0.27665689962525936 0.03145664391535952 0.022933537308298616
0.38090941872448825 0.25552050810438354 0.036961529947976864 0.01657455705885268
0.3821620761107042 0.27804187526928625 0.04127685520082401 0.013617323415993384
0.3515180679457168 0.22005478520225344 0.009955772756461995 0.014848147847685466
0.3561379031218579 0.24444710438323988 0.010448511791472982 0.024612497720885345
0.3622256555794925 0.22623816665624813 0.014075105649017781 0.019713282156561165
0.3635393276450499 0.2158691284470265 0.015393803625504592 0.023642974458370342
0.37429863020077053 0.2399891008516635 0.02424927468238644 0.024134274134065846
0.37715066731983826 0.21475762913601987 0.030316115873438566 0.026678896962915904
0.38093811092907903 0.23826014373707566 0.038164007257115246 0.017358323559662915
0.34932084176604916 0.18466784719652363 0.01131314926047859 0.014670348978106432
0.35694891465192535 0.20881263114007337 0.012315057737817938 0.018297483810248115
0.3602683110557289 0.18846975246713984 0.015144658989863351 0.03257440055237959
0.366339435304626 0.1974927738971589 0.018601583475249123 0.03704964831593239
0.36937615603172597 0.18811767284983177 0.021969263695417282 0.03151584269216607
0.3712549048270733 0.20689467656409455 0.0224979854480586 0.029169218538792868
0.37476796278673574 0.1984240167889939 0.02773887096101781 0.030530042146220026
0.38044186266139884 0.21324670651910688 0.038729748511100844 0.015575360686948292
0.3807617971755993 0.18836424113454356 0.044058152139752414 0.013543365702506416
0.3432156494327908 0.40982666215335645 0.010167366226521656 0.012713564554819277
0.35052513706411287 0.4214538149495489 0.012059012723089069 0.01526183929554435
0.350861615676916 0.43274338677374125 0.01295965139347653 0.021043261579895722
0.35432772512867544 0.4103703080823934 0.012386590146708083 0.016629541115694313
0.3610549085117619 0.4251427894971618 0.016646195232499498 0.027113692977299472
0.36206067765107464 0.44918671656897713 0.019246592595626093 0.029346527650046715
0.3671638079499191 0.416755667575678 0.020318639683201384 0.028392454162806998
0.3766377205289242 0.41277916126782827 0.031920393551243695 0.027254697312703812
0.37435403172037934 0.4356594116916365 0.03049793748266376 0.016481871973994946
0.3693929866926748 0.44730489965253906 0.025293058182380628 0.026544319510961645
0.36811386060494067 0.43267362238532275 0.022601007554684777 0.02964678615815798
0.3801364893441764 0.44656437131784993 0.049273606581408495 0.00791073353425606
0.38242412027478245 0.3317068563292427 0.04444888014864097 0.012383850757261996
0.38244320776200563 0.34208712066635383 0.04568293563203844 0.010343239333285436
0.3824545509900444 0.30616304109055503 0.043578066215330905 0.015461777834566506
0.34378103788596953 0.2936195877019175 0.007133220892899322 0.006175935343996445
0.34758380123349053 0.27204907734173955 0.007677240497500793 0.010264796788812817
0.34581793812351325 0.24300905000615783 0.008130002514827693 0.009088334208243176
0.3530116197057918 0.17519616252305864 0.012939947327192995 0.015299395530051477
0.3560173285958356 0.15858334549778821 0.015368597931447146 0.021190981914592812
0.3617706147396864 0.17788617069758358 0.01674854468983033 0.026773792217721217
0.3662625513688239 0.16387898391303232 0.021211347307168345 0.023484029338309412
0.3658299754841929 0.1537412942763926 0.021791326669394668 0.027606624565375715
0.3820996694428088 0.26617298926242844 0.04169074373529545 0.015508629487405685
0.372245077823788 0.16044298170872745 0.027850584165198082 0.030340536690495204
0.37059662865257975 0.17481588169698695 0.024352750357672235 0.02634525374073376
0.37688272751923124 0.17325243671733154 0.03391913473712217 0.022781164097627815
0.3765609736205961 0.15326970037020018 0.035915650485927555 0.021457467160221264
0.3795778021964244 0.1631188106511321 0.043216319663248313 0.014385857046257304
0.3805572181553666 0.17437257436621723 0.0460919569370995 0.012747054200623406
0.3800034736473794 0.15167746135733723 0.048489555362085414 0.009829568940966562
0.1360752777041508 0.5163221283152062 0.13890676346392603 0.03198033703353598
0.13539198185988616 0.5150238403971841 0.11444454990981794 0.0003610537207397931
0.1269375824333042 0.5129719742990062 0.07866021450260394 0.0010380400073458297
0.13169264752082505 0.5137675709929439 0.09195920187673821 0.0004413232088811969
0.20602548305820065 0.5160433818834108 0.11973438755016975 0.00030524171770320073
0.20940784735072762 0.5165455716209219 0.12913763762396077 0.00030761875918999224
0.20994104555312856 0.5173486337411145 0.1444782830539137 0.042454209569123595
0.18703929231582755 0.5158753293021204 0.11787230123041756 0.00032627045405473595
0.19163388177332583 0.5168196233985788 0.13550253110161908 0.018913391670704365
0.19314447276550073 0.5147421206378299 0.09574888467499279 0.0003234520864705019
0.18904346304878922 0.5152222451901225 0.1052481791501016 0.00033378464902993445
0.1929925650148 0.5135673303614047 0.07335257327489261 0.000978147672068662
0.16967943173455452 0.5139037627509697 0.08318259679814621 0.00029228030137211396
0.17083478188601722 0.5180711111124939 0.16275462549049585 0.07863362084210265
0.1806060501098027 0.5166815323246926 0.13432361303921342 0.01815256952470354
0.1691544461749581 0.5145315186112737 0.09529971127135689 0.0003098581409504635
0.1762466257366413 0.5171053272956035 0.1432523221249723 0.043396881958239146
0.17777791674643104 0.5160260452928274 0.12230222850619084 0.0003166260197476783
0.18399843917913436 0.5130558098091302 0.06458247133659917 0.004070092420539792
0.18199760600651788 0.5143474087170679 0.08955105437854687 0.0003041071661214197
0.17267592600200693 0.513275255134165 0.07063894427368189 0.001257121925026228
0.18545347420474978 0.517348581004323 0.14622940155501632 0.057841301000763436
0.15222559231086355 0.5142460653170015 0.09416138057268647 0.0003215250896103688
0.16125485678977017 0.5134080023651104 0.07571876839524513 0.0009154773577395807
0.14642885203238318 0.5123810006066483 0.060236819319536256 0.004888189000779377
0.11792796124764052 0.5157958722997775 0.13666064774039785 0.02240377192056743
0.12569165987129818 0.5144278525753764 0.10699345836402989 0.0009373884430616888
0.11586039660528902 0.5147352847898187 0.11728082344591675 0.0013433200770384794
0.12973806306661578 0.5170099533692591 0.15468641293164437 0.07486085809271209
0.12635524248801522 0.5164392414064388 0.1452571146289094 0.05402648415213126
0.12542395139018958 0.5151271122549866 0.12051856198905701 0.0007338332236217657
0.11696131973827044 0.5131497619573935 0.08639285882748596 0.0019235634938971696
0.14074978432989554 0.514219496681917 0.09711365866124802 0.0003195500004083925
0.14930817883225886 0.5166017561607873 0.14008053740190723 0.030310622505585902
0.14359895687876423 0.5160072340222229 0.1304712561198279 0.001224897569301559
0.15228779222544211 0.5175190212655452 0.1567228932423786 0.07137691913623086
0.14514615558478483 0.5147449212887896 0.10580846819396894 0.0003356231292459247
0.14113171829374124 0.5169374153009076 0.14905852917873064 0.0634825333876938
0.14531174816612716 0.5153717877647409 0.1177649890930355 0.00032950198562496923
0.21924184236146543 0.5167592686886643 0.13339520413102846 0.01302649512944525
0.22484771662097472 0.5177843873362233 0.15336843868224795 0.0812682437990227
0.22123883526449423 0.5152714735052251 0.10503843338315902 0.0003011131662343616
0.22771213933583084 0.5148949143939343 0.09823310117312209 0.00026022014987738863
0.23892317756822576 0.5126004750917091 0.0555297852655226 0.006111763393556941
0.23764739768495113 0.5170184415906294 0.13957115013330756 0.03412812028480374
0.23024427744499287 0.514098354819598 0.08317420387525126 0.00022785052351350404
0.2822752908519781 0.5164825106503356 0.1395514928951248 0.03578889254701439
0.27029536958433853 0.5161863444654446 0.1301680376456422 0.0018895580356280354
0.2768337031270621 0.5137972629334149 0.08648531973998883 0.0002991962662309767
0.26580114170387503 0.5132112669294068 0.07211894425509553 0.00046413427772883906
0.2768173630349259 0.5132082513444662 0.07524506793879435 0.00046681172020449486
0.30286376703992063 0.5116985519381866 0.05587592968980522 0.006749257003132465
0.29054967010112615 0.5151957421783556 0.11767998443438293 0.0003135453659204725
0.2932321699890585 0.5164811063675063 0.14322189363603127 0.03990927633715394
0.29912634070359667 0.5133581306946742 0.08603061949286875 0.0006576614672088813
0.2872245101862271 0.5118182048491522 0.05202376518035824 0.010108829414342754
0.2894473728329987 0.5124000076726659 0.06398044969213841 0.002143037023747188
0.2988177378919881 0.5122695557387467 0.06516892019321555 0.0019049863418708654
0.30319543732574605 0.514181962476262 0.10358695824819955 0.001292652020286247
0.29807548753421476 0.5154661660497222 0.12591191721420036 0.000914838619951972
0.3140685003010823 0.5141783963624493 0.10837771012602271 0.002762849268265387
0.2511588827251657 0.5154014879748249 0.1108997818819056 0.00024106207030623265
0.2552091671358394 0.5182214863083442 0.16564186148536467 0.07492572080085948
0.25458697426764393 0.517557625522102 0.1528168361145905 0.07511494124665162
0.2518048676682019 0.517032899485831 0.14225177192001212 0.03416820734911443
0.2544348068921947 0.5139990207506484 0.08473010686704706 0.00025958297097138886
0.26133418836724664 0.5128811274174475 0.06482912338168771 0.0021085652783983666
0.26288201512555687 0.5151163865251044 0.10779083804645834 0.0002517683061660431
0.25496335783286583 0.5133542668327196 0.07253931468169808 0.0004504331773453026
0.31703505940122456 0.5122919153177914 0.07373539660059227 0.0031743333342070016
0.313288971052301 0.5112080530094878 0.05136152178051562 0.010513490524168738
0.31558678581372335 0.5131141667930488 0.08872480575382084 0.003389702366566237
0.3094871837166423 0.5166807740664296 0.1541561413481519 0.06540168614149462
0.2986502824397933 0.5167789372409137 0.1513197628420994 0.06074609286203567
0.30628108719848784 0.516169752812415 0.1430146559276223 0.04477087991496622
0.21231593932847057 0.5149221683580985 0.0981524621944218 0.0002666404299180225
0.21428763610278237 0.515626586490512 0.11161121438644817 0.00029346887412989555
0.040612321700949965 0.1570004316688613 0.1463877294151384 0.11587878025941557
0.03978843950997215 0.17757526452701822 0.14907882110910498 0.1360871955322226
0.04321061510829918 0.18160922427381124 0.08148629776939717 0.00035552127258499426
0.04258991055020386 0.18328307906962577 0.09235907265253175 0.00022176128228056853
0.038602906750162994 0.1925809023551251 0.16340823148662842 0.1308347214178307
0.04258717316815387 0.19644698458980836 0.08552941981690962 0.00025738673750364986
0.04379806380262859 0.19729313413650143 0.062020817480034976 0.0052378806233266744
0.04356578384446462 0.18848595138370905 0.07074820254978464 0.00242110946800918
0.038770667237014035 0.25489951788459897 0.13759806004204383 0.11678064084195085
0.03788406501022774 0.25350264783261817 0.15482268707610614 0.135789085879773
0.038187698967171 0.2725915069627885 0.1456652302335445 0.15260551733895122
0.03831672750815403 0.2633894723939009 0.144428273906231 0.11093662099931162
0.03849102189215155 0.24782198004809655 0.14480572330630925 0.11752002880290607
0.03844471116240384 0.23844074445927757 0.1484932380099856 0.14646800798681064
0.03963167097497951 0.2228657729065902 0.13231168459721596 0.07680482839334808
0.04051318275674918 0.23251396963776452 0.11320893155212548 0.00026487588125774985
0.040191850248502546 0.24410446602697353 0.11509870881266485 0.0003386949939377252
0.04008097598475856 0.22774177439639695 0.12258903829386184 0.026701632932528314
0.03990444722593477 0.25653984252405176 0.11609419397713641 0.00029635472207331767
0.03823817685564655 0.22710280576526273 0.15596424782340096 0.14739582157156628
0.04104341649793446 0.20293660060138152 0.1136006774345816 0.00023103178368529166
0.04280516947621157 0.21588748640542815 0.07329378833184036 0.0012719665218991732
0.041894408295015104 0.22662149544824803 0.08772279190786064 0.0002717881196653775
0.04125538908981885 0.24180069695125606 0.09496991030846577 0.0002694025800350163
0.04240836650161063 0.2305394660370112 0.0758280480013975 0.0008041632610018423
0.04095737620141986 0.23696026353347313 0.10283313308424984 0.0003023433598234403
0.03830979529796008 0.21883135452851665 0.15749571211753755 0.14640511737826217
0.03938235697616546 0.20095865111639005 0.14456496910291294 0.1427943191825034
0.03982721153609453 0.2904851708723614 0.11318218709580405 0.0003177800350276852
0.03872249354852347 0.2902495625304506 0.13397276084396506 0.08567808019877149
0.03926431997062828 0.2719686242473969 0.12538896608039377 0.023887926053229105
0.03928372888756771 0.28425462979233895 0.12394664222092813 0.05853404292441844
0.037576272716725874 0.2912733548014731 0.15571901880568892 0.15042831826358652
0.04476709548504697 0.16678899409358977 0.06062591697416991 0.005319084590386993
0.04498165381042161 0.15315124997812513 0.0656071701254256 0.006490267000487285
0.04410942092766841 0.16369121867044004 0.07539064661789768 0.001664482128698919
0.04405253992767535 0.17332413272635555 0.07025553087682605 0.002196105347062408
0.04348931456444692 0.17079109308329812 0.0828595652510734 0.0004617094480532802
0.043746459151416374 0.15787288862774634 0.08622566723491391 0.002490891730068146
0.04298885952522351 0.2453984182490594 0.059267708557458235 0.008247102255883895
0.0428002985718208 0.23608325035286626 0.06594711489739627 0.00185464058890569
0.04155960688917254 0.2504988382233622 0.08573025020196556 0.00031420150778454494
0.04225550321406608 0.243782814576482 0.07419683539657708 0.0006277319561252103
0.04101230702405392 0.25381687115706464 0.09542778766182257 0.0003116188585087984
0.04335080589556539 0.20679254249856518 0.06619867906843008 0.002774883846454773
0.040382902584870366 0.2807894871745371 0.10338679465749066 0.00028717468545014875
0.04093084988926318 0.2927299345553867 0.09169932207558432 0.00028608779866313744
0.04257380231518456 0.28050186206542893 0.06098757639932911 0.005610705148841843
0.04064310812344955 0.26975534133994755 0.09934324620857429 0.00027987530313602985
0.04141757596310879 0.2733133634941285 0.08402535887024284 0.00033123839958134477
0.04040804094705541 0.29482632297395245 0.10163406423855306 0.0003180599839957445
0.04117115514502112 0.2643187614908006 0.08984575276253512 0.00024634731304911534
0.04298657623157667 0.26044286780999776 0.055938050755397525 0.009280188395111546
