x y z curv
0.16429344704758936 0.03572669188863806 0.23846325119601033 0.014480120943718202
0.46017831167896306 0.040256811648500895 0.18668464211054786 0.014080517069630294
0.13463125736186005 0.04065605623316315 0.18212087284369588 0.01452291793990382
0.2087855325042025 0.037434546354997905 0.2189426353089837 0.015020320884962435
0.39929459405089673 0.039868971513220074 0.19111755167882727 0.014813799544377107
0.16476994772715167 0.03752970495694033 0.2178549203762602 0.01547923035916906
0.3128656792641858 0.03798107302399779 0.21269600489168033 0.01411521531405066
0.12860673660593203 0.03316473726104744 0.26774619236567687 0.062125711077835856
0.5065583028145072 0.04133902376339215 0.17431508333048926 0.015564039570488384
0.22935364170978126 0.03540419123441767 0.24214949981724562 0.015467589545646102
0.27355254154494596 0.03796095654298684 0.21292588343298552 0.01418934380262247
0.2512896152769975 0.0441824158025183 0.1418149472625667 0.04141695743750524
0.5038617477736056 0.0428583693951201 0.15694905016357863 0.015971982180777833
0.2824062841017831 0.037078043952111575 0.2230175331253261 0.01590418219118449
0.15999453451163154 0.04269510896769353 0.15881465545329945 0.011965267131200477
0.6042535906210172 0.04364448771703192 0.14796389665092743 0.024266947381448162
0.05972436288111541 0.03944757532077681 0.19593363895465293 0.07464194497734927
0.3300750742637838 0.04411913778342861 0.14253831470714642 0.019331884603397673
0.5963341848805223 0.04464128133526866 0.1365705948596849 0.04709029859644475
0.2802025262138339 0.040071447027830956 0.18880311225524835 0.012094062295789585
0.4037792099016637 0.043158739204755596 0.15351570977410334 0.016313539681365116
0.2482309757683615 0.0425287069896349 0.16071673598867203 0.015052411011533689
0.14291843216341296 0.043408182187341646 0.15066424880884288 0.020511702827510126
0.13101270934779993 0.041576706756288724 0.17159788772038254 0.014749462258542491
0.33358836580349716 0.04032131760687992 0.1859471766086358 0.013229440582406701
0.11247988594484137 0.03424855891730835 0.25535815452978616 0.020057467156084776
0.2851744220094323 0.04149313397357717 0.17255332209491314 0.012546901919502246
0.22728408984066376 0.040329584318353894 0.18585254897496434 0.015006838981316502
0.10104340570103001 0.03839913790225957 0.2079172701577232 0.016500762695489543
0.25449175820291975 0.04000362402709927 0.18957829132621618 0.015109671476370953
0.41557656594255465 0.03959837294026065 0.1942104985543867 0.014324607588022339
0.43367378401071116 0.041387360593494626 0.173762500531771 0.01391161191800327
0.21140408963757074 0.04143721263789646 0.1731924027269932 0.01273259955438836
0.407104411563757 0.041983717555381286 0.16694614125897 0.01445214855227288
0.18478567319854539 0.04334165563449974 0.15142469831265032 0.01995464941273353
0.10615094834816027 0.0393964796581558 0.19651772029498596 0.014113587002568324
0.1132947308091107 0.03827748296546462 0.2093077948937095 0.013947994615739449
0.25827222534922006 0.03694987444800706 0.2244824711884072 0.013539952084159802
0.6169169251407809 0.04418347367913248 0.14180333599843511 0.03944275833269615
0.13731599748602616 0.037901291840450664 0.21360766848319343 0.013734179733576221
0.3588712762493335 0.04298623992234647 0.1554873072660175 0.014814948201843838
0.18913005364084945 0.03965554784025216 0.19355669546286397 0.01500016851207287
0.5377437463639875 0.04225940617585058 0.1637952084064097 0.015650461108063014
0.2479211888468627 0.03826956811379354 0.20939843798826852 0.014582821433060715
0.15054628119348354 0.03942865529551748 0.19615001299321047 0.013749886461774254
0.2460137874512634 0.04163924115141546 0.17088327436571366 0.014502958866536965
0.09608524873715005 0.03313630727027967 0.2680711027457884 0.061856666376025445
0.4217049509332707 0.04244402390286588 0.1616848864361755 0.014315072046860455
0.22145206887370628 0.03669116051636857 0.22743950758256543 0.014848237628394548
0.19645881399846862 0.03749594918052805 0.21824078849915185 0.014489507073802836
0.20225060084901267 0.04067113264444203 0.18194863917412912 0.014076730360995928
0.3129205823769358 0.04312253589829841 0.15392939206926942 0.015292526090674372
0.07902027579584718 0.03543982050292305 0.24174206196829684 0.017119413664292208
0.20223358317588747 0.035812143912507866 0.2374865895074439 0.014702556914219563
0.35183228219150614 0.040938885943772346 0.17888843144541527 0.014591108195477015
0.45505018292708493 0.044706391986781134 0.13582619845278882 0.04466040042178524
0.2021237010602088 0.04314153995014733 0.15371203137739795 0.015440337596287624
0.1355267951215521 0.044201452858615244 0.14159720281202387 0.038482542053107575
0.15367725818526456 0.0410871533927089 0.17719348312914796 0.013984389656063996
0.07090362452432472 0.034312339275562376 0.2546290942478986 0.027755548369010005
0.2947402940877528 0.03894320668815255 0.20169885089673215 0.015009978773397378
0.4577152679847318 0.04244604017797021 0.1616618878271268 0.013847464381145959
0.2628605102851878 0.043305374864973406 0.15183948787742152 0.01870407704818655
0.21913096739998858 0.044345857024011844 0.13994678164813917 0.03880069876475614
0.16393336688049118 0.03883485321211564 0.2029371528447015 0.01581658194931624
0.3764808873019709 0.03910773610822898 0.19981839682895847 0.01494167501076947
0.07648710228045974 0.0323565842967587 0.27698326392078887 0.07613502793961466
0.47461288505882365 0.04074143787646962 0.18114541229159015 0.015382658635094871
0.208052237242683 0.03468407830898358 0.25038031947376327 0.01725477793939514
0.06855501204267023 0.04121122107205478 0.17577528518408297 0.045488999719904284
0.29082456858589395 0.04374160756303527 0.14685341097770632 0.0232656916137922
0.14632077917547165 0.03727399048667406 0.22077769723429547 0.014153296893721566
0.284926747122001 0.04283955728055384 0.15716378396536415 0.014800512618793222
0.21710008502839015 0.04322276945279301 0.1527836026938741 0.013491108064369324
0.2589664209289747 0.041108742025842124 0.17694686462783177 0.013737942837012846
0.5124937778967342 0.04222989448586012 0.16413249209404987 0.015559945543135762
0.355173615178794 0.038205285856991136 0.21013332119732187 0.015510374724539137
0.24355367726930877 0.037294920161021775 0.22053860001163464 0.013435532567683556
0.08519807577385599 0.03795090637975007 0.213040508818965 0.013505862419812805
0.2073016952281802 0.04450994682955732 0.13807122945671918 0.035927445463271104
0.22812012533063417 0.03745068259248433 0.21875822447378468 0.014199275070940135
0.06850049603086461 0.03737958571835366 0.21957064785047392 0.015520145963562122
0.18990142434120136 0.035308397720530973 0.24324436213176684 0.014024278219028545
0.26715494290520037 0.0387527226876372 0.20387603539094742 0.013190292463683277
0.10410497729886327 0.04208176533077347 0.165825063106238 0.014995139092411833
0.09965265423590361 0.04102784914952935 0.17787125612480081 0.014515535308769445
0.46332742863959303 0.04157251792201866 0.17164620229599648 0.014797203737571414
0.28090789154580365 0.04472942866043084 0.13556266193945232 0.052481510509700714
0.40374831113628334 0.04436711967712007 0.13970399326588184 0.02940765410945309
0.3224826698668521 0.03849464754032739 0.20682589154230405 0.012498474536813601
0.058151017639806984 0.037810075985760874 0.21465015626973752 0.05919735683496897
0.3692752208389831 0.04496969468947159 0.13281468752789735 0.0483733406973978
0.1557705443228482 0.04489425459332772 0.13367739862387865 0.05351587459528942
0.5711166845796933 0.044852992903742214 0.13414981001704884 0.05370351362275725
0.5020996672948825 0.0448222905484704 0.1345009318935502 0.05112603304362688
0.34915844505293236 0.045157187435006935 0.13067000070871285 0.051980564473975435
0.41284571990073216 0.04513283825018204 0.13094858915039517 0.053649826006412715
0.18670719556563997 0.045215676304726 0.13104294716836887 0.04872420612167689
0.30684484924933403 0.04534861885603146 0.12887085570413603 0.048135522341320375
0.27107570383643037 0.04527763669634907 0.12970564575000357 0.06604744196132101
0.07449770767798757 0.04494326199093626 0.1340055988280766 0.07108280467785996
0.12510332741336438 0.045222098019137916 0.13174083367000294 0.06729499788630929
0.17610192419901666 0.04587378779540941 0.1279404306584215 0.06911210943195507
0.5328264808944431 0.0453235635735446 0.13035609889843633 0.06768590060237918
0.5859759191911349 0.04533259774913592 0.13111929198535596 0.06256738942640476
0.5551022297184001 0.04603285287887238 0.12761705288097439 0.07398959353754869
0.6074305997606319 0.04568478832529273 0.12961043051926896 0.0621068934574556
0.4395160004664308 0.04577198539323473 0.12706334725535987 0.06530209028900195
0.38406848000265587 0.04564010001239263 0.12751069209428764 0.05619243596037212
0.3982949633233016 0.045732149881178866 0.12707925666257786 0.06254224410699102
0.057826494334012636 0.041541542957207245 0.17435732222948638 0.07068709447709702
0.0605160294950566 0.0433105647674651 0.15316471955400113 0.04732207398663009
0.052185618532337136 0.03175400231242231 0.28437016143985633 0.12373678053072211
0.05115856884734084 0.03591364222587166 0.2394352632523705 0.06531778866363543
0.056642826283435345 0.04527891767314857 0.13903481395343906 0.08012170003068847
0.05312812927912814 0.03896900226663336 0.20528922791206058 0.06821322599850145
0.04884094525639834 0.03761000238769584 0.22701444465660015 0.07847141851421947
0.043673719342762665 0.03537152328640686 0.26050153880089105 0.09957893381145039
0.04261211827555478 0.0343631823905754 0.2722852533728495 0.1379697093208549
0.05075572242319912 0.04629927473794138 0.14948992658698249 0.08503116927966323
0.04449939718713154 0.04387868969952506 0.19591906072379986 0.09703127392839583
0.03912566666751277 0.042316600400900725 0.23722874820535214 0.07615300466786264
0.03379075698216749 0.03948035255132394 0.28739937641287394 0.10756086954934858
0.05616965708911832 0.07910218910057093 0.11854160693220793 0.08142471366165588
0.0552410027576512 0.12587772257280644 0.11794325535852224 0.07253065191136253
0.05573516149487065 0.20596796922348348 0.11614969986608477 0.07369045671694824
0.05384391222740503 0.18916834815249098 0.11762526006099377 0.08775302722468024
0.05139004671340998 0.16654023337595963 0.1199343397777781 0.06935795252673597
0.05270772975002922 0.2927935922736728 0.11732423928820816 0.07365725524583464
0.04977760419798733 0.21502838525526227 0.12079089893874219 0.07373811839744106
0.04905732586479125 0.2528985775610648 0.12150209990937605 0.06503043380722405
0.047756808402262 0.19805470646178658 0.12383237139395718 0.08152533865469533
0.055597932030911804 0.2297398780235389 0.11602722317538436 0.05735481162967154
0.055972928942797616 0.28042090564715594 0.11537325352156735 0.07267018106883526
0.05348396273224316 0.2424726949892891 0.11723645878314275 0.07131791385706102
0.05384467182678372 0.2668152950237307 0.11681141110388696 0.08012525402559897
0.05931168454235245 0.17951162164497916 0.1152101728881967 0.06255501435810784
0.05238894803517396 0.34612517036713114 0.11770320641056012 0.07287970823103333
0.05070740865950098 0.3339245752792489 0.1192753366127847 0.07288885220863776
0.05170622846355935 0.3220106090354363 0.11828016407189754 0.07547766936444894
0.05197590869242172 0.3940148890254553 0.11827531197649875 0.07834849774781098
0.05039285979713452 0.3698947036711274 0.11980195497721893 0.07410422955595526
0.05191053586259654 0.13989397108768814 0.11995216174717716 0.07486740962767721
0.05160446042004713 0.11578158938376532 0.12074902316045133 0.06739338775004608
0.060751236563805176 0.16625866559269298 0.11507750185832745 0.06487286409396868
0.06359186307215679 0.21722185705142888 0.1137933071595142 0.05503098706301489
0.05370973324531355 0.3817424647384129 0.11696635256076518 0.08201538851266037
0.059080955020982366 0.3672807438256196 0.11430871549283461 0.0814857028391952
0.08743412706193442 0.3240122523186421 0.11202698432673516 0.027699664339289002
0.12576334528494346 0.337845655566806 0.11036919349628765 0.02483157801392869
0.10988732154689473 0.3093633938976897 0.1110226584308153 0.024605784214861044
0.06909411079740527 0.3036238169564314 0.11280012619735375 0.050618278399683275
0.1877314167916429 0.32490727740775577 0.1076374843605662 0.023674070440667324
0.07565852809869036 0.3400873295123076 0.11256594818519097 0.04113080841459605
0.16529082091958153 0.3165156766296068 0.10860764382580042 0.024202964801447624
0.11360989582092633 0.336511750749947 0.11089930001689927 0.02366289744886845
0.1988846536822791 0.3189149238875022 0.10714047640802633 0.026987243012129753
0.174673256952592 0.32820194327861 0.10821395006649034 0.023362856403704176
0.14949216796751177 0.31057311868468335 0.10929060594127421 0.02500566355094252
0.07270934965700501 0.3293068829746153 0.11267932891678159 0.05123474899345356
0.08113465486713278 0.3034722255241984 0.11227279517346463 0.02723529556040621
0.09631782598869709 0.3367473389301345 0.11165665441219821 0.02493555751883751
0.13633412515985174 0.31720727955330796 0.10987631647278485 0.023630922506802512
0.15470244180090267 0.33116078412381295 0.10909254742524704 0.025846553839596487
0.07699562013141233 0.3169619586305521 0.1124736743182997 0.03074750399525019
0.09183973537764892 0.3075063750200232 0.11181003474248648 0.024700994528088105
0.25525785128215034 0.32662483142304655 0.10468382398789615 0.024534806661663293
0.1458337678959165 0.322872288605242 0.10946870693207733 0.02343486731201444
0.13676870132843716 0.340286434949792 0.10989096298178903 0.025874969568784215
0.24485710791136117 0.32210295974840725 0.10513254961231658 0.0233947146510172
0.11356913234029278 0.3260581400366176 0.11088583325620258 0.023134659438507833
0.206354238434174 0.3326697695377986 0.10683354123510827 0.024233799121937714
0.06419186422000629 0.34423140183660966 0.1130739807655349 0.06495018650781273
0.23401396162246452 0.3106772916004921 0.10558910560236172 0.023664993780932314
0.18663685756855766 0.31051382959739204 0.10766375824942051 0.02738357502483629
0.2566689329899434 0.31571044231351786 0.10460510736413187 0.025081263428768118
0.27981963204958427 0.3113756812544779 0.10358414610289131 0.029617927220099836
0.13798037816873662 0.30592215762830044 0.10978723245579589 0.025908027319437647
0.20774474632523823 0.3134735796407309 0.10674413997540846 0.025696263214896025
0.21950949774763556 0.3106991209548786 0.10622437592969583 0.02344118386986792
0.2745759264876785 0.3214341047668967 0.10383017492276315 0.029850422070975276
0.26297790980901004 0.2978045956827233 0.10439378030967651 0.02205327940227433
0.183460933011677 0.298510266261041 0.10784488985164184 0.02720670762825097
0.2104566866392653 0.28884542015267006 0.10672490628793793 0.02604579932645708
0.18398069095535474 0.28723103995741855 0.10788412435376976 0.02467419776515893
0.07165527642161548 0.26991574871049545 0.11285951284858706 0.04886831301674012
0.0913114600726688 0.26062060726988834 0.11205640408858537 0.02540662951892962
0.13745547060977154 0.2942314009499163 0.10986725768717184 0.024849927592147047
0.12060887651506375 0.2661159270767325 0.11075332639077894 0.026010545857745926
0.10705440026688348 0.2888646120015119 0.111217584217917 0.025070608659229318
0.08437209475457452 0.28738257872218376 0.11221124279167495 0.026017944338781133
0.10465905755056082 0.2686647451419889 0.11143236965535348 0.023705751878050366
0.19720620296560978 0.2927064825113398 0.10727947265890746 0.02466410113054813
0.08030453939695886 0.26061216608604093 0.11253469613438748 0.026146568195379413
0.08731797453821184 0.2747872225468139 0.11215227666212646 0.026694085700401143
0.06939776819576235 0.2556109557877048 0.11303600046577336 0.058687697220466295
0.2739563434507526 0.29620645152056424 0.10392553118188427 0.024321693549052874
0.1627597158136554 0.2913840564047191 0.108783404910687 0.023380120310448158
0.14865485836501624 0.2875852981866611 0.10941707441294386 0.024704697137003778
0.12501693658193216 0.277158863234487 0.11050127542825137 0.02553298030584197
0.13853875081776792 0.2725828741090282 0.10993883814557348 0.024196654098755953
0.10009874959020827 0.278051461179864 0.11157906747515994 0.02459080475717689
0.07347778779221067 0.2905303207412873 0.1126673438135388 0.04626589666157529
0.2274931464237139 0.29516522808433654 0.10595004292544036 0.023746340916233417
0.16077792101678257 0.27985425049035806 0.10893270410594517 0.02397696577782335
0.09702808685128832 0.2919183812724787 0.11163648634214725 0.02551293878860803
0.11252764418215615 0.27633936286680816 0.1110484210129988 0.02495927353471529
0.18902742752553853 0.2776332596906726 0.10772718002798395 0.02406447413258304
0.271045782956723 0.2865731262276567 0.1041764582022576 0.02824136004044139
0.243032227628325 0.28873627436825683 0.10531582894076516 0.024965748125516135
0.2897983240865297 0.29094000833124345 0.1033319488976886 0.048799278249632025
0.03501188943590218 0.05198528059409887 0.2482040222652948 0.0579735818100508
0.042824950969204974 0.0547293370440491 0.1656927044668985 0.07857288481849466
0.311960692135161 0.29786103228284494 0.0996335013102624 0.10152888090563637
0.30242786684122935 0.300060547142464 0.10112305196946392 0.05620543310291512
0.2919121851248674 0.3082687676980457 0.10272470931174715 0.0573835145980905
0.3086843715900093 0.3102667797331624 0.09973612675516055 0.09647048263648707
0.2975622817575729 0.3172328617493513 0.1016716465762684 0.06489447488678836
0.3155090987437618 0.3196539985288681 0.09853833528579599 0.11938937063201022
0.2955859715273531 0.3332676078979001 0.10243696029273215 0.050762545696598764
0.30506323118337714 0.3276684589477266 0.10058268197512021 0.06586983638872489
0.3014762560408609 0.34455847557668584 0.1021750729630943 0.05155955076875415
0.24160670917487148 0.3673686949483708 0.10572881210896681 0.025200337631982515
0.22790779483310816 0.3694426364580938 0.10631439341010326 0.024760353373381713
0.26483788692213694 0.3529125169535333 0.10455659516838019 0.02259826770935812
0.2544284270808419 0.36160127263430464 0.10511805977875635 0.023873928564981533
0.28953901065781995 0.3507044960543233 0.1035257923771234 0.0347622606615741
0.27543201685899615 0.3510532019203537 0.10409954931154353 0.023734563446763408
0.1988066549436805 0.3940857501243878 0.10793118249773903 0.06031118380310719
0.2661763818913725 0.3680159622737448 0.10477895553673038 0.02449553199505959
0.2789791029503546 0.36103748692750504 0.10413737905703531 0.023788432471730885
0.21537917322307987 0.3934151593190188 0.10727642562519853 0.05468172417147394
0.1859467343762061 0.3966692905488198 0.10848261531944146 0.06472396075383893
0.2240559343886528 0.3828054342653997 0.10671804481630856 0.03722049884199345
0.23547048081102417 0.3766217843675598 0.10614683519919216 0.02521895775803572
0.20478979808162517 0.38534161588821536 0.10751613575058216 0.038642048904823624
0.23698547286432625 0.38919205680532626 0.10635241913999252 0.0506355230741209
0.21573637513722554 0.3669024463298613 0.10677677285540879 0.026871726075746023
0.1645159023604457 0.3733111816331265 0.10898823143554763 0.023893246485682945
0.11397633681012742 0.39061732603089044 0.11132355082060155 0.046184968332675796
0.2472950513919939 0.35283275462631136 0.10527298152914137 0.02457105277879343
0.20324892412207476 0.3709356942364309 0.10735040160105948 0.024203006410143228
0.1464616075071674 0.39112090274115174 0.10998473724545234 0.044227133425234544
0.19500578046300449 0.36401298958853495 0.10759530457035558 0.023522519919629236
0.12505335368741793 0.3853682978416472 0.11079138944969166 0.039740094932657316
0.15950987294721886 0.3933342821311298 0.10947504430442997 0.05148645023868421
0.17038578889540243 0.3827119587490292 0.10887623156836815 0.027702630676632554
0.14899138871636486 0.3787876483522701 0.1097078231638892 0.025009613670347607
0.193956819328815 0.3750530873641841 0.1077928237283583 0.025394389695682407
0.186778059300192 0.38519901856426547 0.10823181809738755 0.04054304007435839
0.23192241622726475 0.3558371927835919 0.10595178457809863 0.02349550209858037
0.13226075693799347 0.3931870356225997 0.1106019003341974 0.06723056992694647
0.09851909933873246 0.39681685344660955 0.1120504454560292 0.058864695758570056
0.10914886744070124 0.40093554517455365 0.1120801192891088 0.07156906372292458
0.10115723264078469 0.3734195195520156 0.11169826143084638 0.023884342536862082
0.20918453430659192 0.3515035961718532 0.10687402947686142 0.02477113762086047
0.22156716952336064 0.35154113930879927 0.10634222113336886 0.02491768444073928
0.19011128981516495 0.35219445419304113 0.1076994017833257 0.024112638616362272
0.08681594762963987 0.39015308058919734 0.11245348750253084 0.051782193636147084
0.09312613709431966 0.3813948185160103 0.11210960036483983 0.03152855911125121
0.28398439872353415 0.3378844744377105 0.10354657043830455 0.030415042868134238
0.15293351846911968 0.36631278179409155 0.10941426819288261 0.025372212908595974
0.0763879430356853 0.38604097477433363 0.11286746872089341 0.0441636984395084
0.06618271162535065 0.39104048127031565 0.11334752933043375 0.06627447981882051
0.11757268552828862 0.3463453847699404 0.11076804539824843 0.02386184599314256
0.13168135274462034 0.36972294657879584 0.11035585355432757 0.025185618031138855
0.14512826348238725 0.3553451989578381 0.10965862154704577 0.024443605809473884
0.10107095642024619 0.3630479114467041 0.11161585474730554 0.023759817606619514
0.12983862659956957 0.3541834939374949 0.11030601894231626 0.02344850554100063
0.09387109324218407 0.3525883890970206 0.11183841091295016 0.023040066619872394
0.06566710488410063 0.3798071288533812 0.11327641734328439 0.06011788284697697
0.16488536085361613 0.350666652385433 0.10877075266351464 0.02439224948144921
0.17818233382645826 0.36472837542495234 0.10831609351612109 0.02574081706678264
0.07629285562057755 0.3674159642870961 0.11271691365485598 0.04015196493642196
0.08673538873036701 0.36456156854619515 0.11224446606039931 0.026380613551982672
0.1205912146719178 0.3743253480464173 0.11087064421858128 0.025373922686186004
0.07121324020047426 0.3576723564568728 0.11285430038309457 0.047766969139148324
0.22711392209135972 0.3972700481567499 0.10694338940071188 0.05985794494260192
0.2442605296221248 0.3992098773991788 0.10661282488997267 0.06916364630618296
0.20781749140566363 0.4029021477635641 0.10882736714585903 0.07672458627265925
0.26691539189815916 0.40117266354996434 0.10613300050843116 0.05697382857794953
0.19567757519158777 0.40754255544119605 0.11151368307218969 0.07623440888447007
0.21879326206158362 0.40682932910616587 0.11028306650713944 0.08472152069204628
0.0627745157762996 0.41025995346244254 0.11863174106232975 0.07866828310259993
0.11870795227269565 0.4096527759179389 0.115996625283519 0.07866041182543619
0.14190783158417183 0.4102655581320772 0.11578305548930642 0.08093878730564256
0.18559240092707052 0.41161305883648636 0.11534841301247553 0.08230059847165083
0.2299698386497238 0.4113938184455971 0.11366648480574215 0.07781065071414439
0.2864064114899434 0.41257184102720357 0.11352472638134928 0.07491483239637181
0.08837961830684837 0.41284403842284423 0.12042102594094467 0.07622490316725834
0.5767027310002004 0.41115863624012206 0.11644203507973318 0.06448389648892791
0.5909913161905604 0.4115995909472322 0.11737364471466974 0.08738206063018199
0.4722920662192921 0.40917607912249915 0.11081173334451809 0.07524726946680561
0.5177744409055314 0.4124348096906163 0.11590513787293322 0.11219657552204132
0.5320058858990453 0.41264995631688933 0.11670304862378196 0.1179806997239692
0.4230636634183288 0.4083472180691593 0.10868815581879665 0.07138704481487577
0.5050360807925214 0.4084311033478374 0.11134991834171493 0.11357273768833151
0.6027548749702701 0.4087656759001356 0.11516846466609014 0.08759038287472243
0.3891778083898426 0.40543836780956244 0.1062356791821936 0.0708065687121342
0.37069555219794703 0.40430108933792114 0.10549703434557509 0.06722752985328996
0.3567304406527525 0.4037249518248326 0.10523009662497324 0.07098453654030518
0.33174283068670635 0.40707974340933134 0.10730759653847581 0.08704432351644824
0.3184689755087092 0.40651285854639113 0.10708619035044226 0.08413748073153164
0.3045246813085345 0.39972724914309227 0.10482315304920609 0.05966128970835516
0.290274295552259 0.3983500933629468 0.10500591926846496 0.06542338752609059
0.3393233142537698 0.3988866859003607 0.10411460564375663 0.0701278678127659
0.06682233059043242 0.4160995290187541 0.1276962922204311 0.08521819643801207
0.11690931257038689 0.4158680178581839 0.12540975770446272 0.06616963431517003
0.1768136442536033 0.4149948537280435 0.12126161846493297 0.06485990600135058
0.20533024109251802 0.4145925348137917 0.11947579884933217 0.08167957210758564
0.6644313471446959 0.4041185230619971 0.11628790286623816 0.10008056200874108
0.48636521060957766 0.40066086274996393 0.10709575770480172 0.08539846539993443
0.52367339036713 0.39905889832317865 0.10828676302096807 0.11226699664911456
0.3487391672188149 0.3901564728120156 0.10338908885575983 0.053621068763928685
0.32633504122938994 0.3948264855003081 0.10386879099454702 0.057577193818707566
0.36092844299422966 0.3930832038165829 0.103432660347844 0.05906521029865941
0.3233617879798578 0.3820697061606547 0.10339118231416965 0.03514623217313596
0.2986144805789267 0.3856158434665802 0.10418249790810741 0.032196905408089685
0.30702903636641726 0.378219911864543 0.1036929647872382 0.031058565799852885
0.31139733407631004 0.3897344511582739 0.10399105120684324 0.05158513738469172
0.29808130147030826 0.35931781158550025 0.10341431630585377 0.0326205231570263
0.29477859655760075 0.3707992528004666 0.10383783477483488 0.0265071109077794
0.28740717000169536 0.38175888416689174 0.10438804185909828 0.03272929562168474
0.6300385335302319 0.3940211297584615 0.11228332525364469 0.059872835756396035
0.45744568200607955 0.3425770399128245 0.10441557415222508 0.06541247134034134
0.6207533624602316 0.3883578416073584 0.111822448778298 0.06077794336042331
0.5807770059867184 0.3878788459482668 0.1101486287592275 0.054041053979712275
0.49956497690935375 0.359938482047169 0.10639803776246164 0.026495854290362577
0.5946184390047979 0.39498164135264313 0.11081826288728745 0.06078284808261347
0.47839013921286355 0.35068858118351376 0.1053946089215199 0.0453433332406846
0.5451310487499871 0.372424290447409 0.10846096276336188 0.039181665565036564
0.5642013147941685 0.3786558739079773 0.10933740138283092 0.028140736989969054
0.5801455819544694 0.3763794501524148 0.10997294692013179 0.028008648769063546
0.5353707140046936 0.3624810710248033 0.10792468170279756 0.03794474005578864
0.6101055171797125 0.3947874290112197 0.11146177855053271 0.06149154244620054
0.4674991373668386 0.357317190317382 0.10506496626769818 0.024850702819377585
0.48371669260333017 0.37595280582233614 0.10602914073690917 0.029263090628932138
0.5263477593274049 0.38660293443891003 0.10792140546148928 0.08426833804507619
0.4900935741974529 0.36432355618561285 0.10609067943860967 0.026392683832854157
0.4983152645145007 0.38505590417256724 0.10676853222339709 0.05878478058647553
0.5262979347740641 0.3755715539542933 0.1077345951905544 0.058158181706781456
0.499263927381363 0.37165739933475206 0.10658220680270075 0.03899947017638573
0.5122864984764699 0.3695985447126662 0.10707124556025367 0.0427613476351145
0.5446419480567062 0.3894994200843752 0.10870538875468154 0.061993195767349026
0.5363454443341381 0.39674126710011187 0.1084931762694121 0.1036705700661731
0.5365376733370116 0.37992061221684437 0.10821911004472194 0.05937610669587632
0.5152179115590731 0.3848265182055093 0.10744420576370395 0.07018225340714536
0.3833952657515053 0.3907245573322991 0.10352787212210422 0.05173714965864959
0.3716270224971927 0.3914121302367653 0.10343735210040396 0.04967510308390115
0.41259866083906904 0.39130318137700343 0.10410076733414025 0.053533761757130593
0.42694601654008657 0.39646827423633446 0.10466646725815237 0.0680927864474435
0.42365393287041864 0.3822955164228234 0.1040693939346149 0.02947483161518589
0.39717545960385603 0.3839698842297672 0.10343902093329727 0.04030844474690091
0.35540749111874986 0.38176874671073724 0.10227877178481681 0.056712567099395615
0.34423708371632394 0.378896464759108 0.10207899723064563 0.05075260891763543
0.3333486124077339 0.37508156869346687 0.10213432000095779 0.054939157866007934
0.3119572029528885 0.353424067090797 0.1014678060411412 0.06203633128145906
0.3105279957735538 0.36595045265884335 0.1030347834751377 0.050595781901633025
0.045056488858522876 0.18777411358999935 0.1322198009925305 0.06013381617182005
0.04539476813317183 0.16334718648408375 0.13068549288699277 0.06693595139609702
0.04678931084696086 0.07789450247425868 0.1277700039996756 0.05960139418175344
0.04745684242994957 0.1527411572254819 0.12510439905009957 0.06331761552753334
0.045594164458226644 0.23495378943073278 0.1290618652722097 0.07040442918656527
0.033700249935159785 0.08443824106563273 0.2616695806038351 0.042669727060784354
0.03735229927465616 0.13618584638190193 0.21992523626033691 0.01447831786973889
0.04148056736014365 0.1528653425899884 0.17274576987138135 0.013680157696136789
0.04426634787409635 0.09175678640157384 0.1409230434288453 0.043600200302543586
0.043616976615546095 0.20048595323157625 0.14832236108072827 0.02084027177703264
0.03908350908566019 0.06469876169530768 0.20015576334048477 0.044534426784522144
0.0448768805864807 0.20991182766369954 0.1339228298091375 0.0435292764792564
0.03759167575464916 0.10314828814041131 0.21719625155830297 0.014333754324055018
0.04322703124688154 0.18628310424772007 0.15278129896432624 0.018208778182406418
0.03996843930424339 0.08787932527702827 0.19003856892333568 0.012356571914453244
0.036336253747243155 0.08927780661772083 0.23154544095760807 0.012220449337215568
0.04140129861921183 0.09382407371465867 0.17366326017865974 0.013623293595479691
0.044732851190506843 0.11289878478145979 0.1355878643177777 0.06692519950280666
0.043137675954431534 0.16591068297015582 0.15380643126067978 0.015428574491904063
0.04448961128517648 0.174754436668811 0.13835531758300057 0.043714189509701275
0.03895367752603242 0.12569652222816002 0.20162740101394655 0.014436961240016272
0.033201397012486346 0.06311046920686664 0.2673744745561605 0.06785361183115732
0.04337941763353062 0.11836727733203088 0.1510532776522724 0.026600725272098887
0.036077534881200385 0.10418233411688271 0.23449903730847063 0.013994388194790746
0.04443804877828123 0.07939207765109678 0.13896335246582792 0.05706946312548987
0.041266661933339076 0.13912207165689072 0.1751929038885614 0.015276650241687357
0.041111654160621895 0.18320295472332077 0.1769555800788723 0.014487176988411793
0.036045154998533044 0.11542562652339042 0.23486684504974387 0.014076054409818378
0.03204210293819557 0.06493839898356579 0.2806220580785272 0.09750583414287216
0.042527063424389014 0.1519198658239938 0.16078702242969906 0.01549359313352388
0.042201745149604994 0.13012979712744685 0.1645089237372112 0.014063183268964061
0.04447877292042007 0.0646130544728501 0.13850088692337534 0.07382933778109729
0.044055556436883844 0.19028915405701005 0.14331245840145088 0.033035740020468225
0.04024481348006488 0.1175944419608948 0.18687441866973528 0.0140411365186353
0.039962209440265455 0.1659651771367719 0.19009436771501642 0.01465460677667158
0.042619939278794976 0.2006606037284159 0.15971606614324146 0.014577814269783837
0.041929803893768165 0.07672541747963678 0.1676270863931627 0.028314214479202533
0.03593850730717231 0.05782879571649158 0.23609692617923014 0.05039154636122646
0.043416932884989934 0.06633405723746882 0.1506348261782981 0.06136622582587291
0.04226853641706743 0.18595569293293818 0.16373465481849392 0.01473837156107527
0.042290546244114255 0.11136870215477102 0.163497839236757 0.01464813449140956
0.04306561288715051 0.08911746073904736 0.1546450776020205 0.01996118155493846
0.03815623842400321 0.11415328614174763 0.21074248818918206 0.014086510347198256
0.04132129313808379 0.12242693796391431 0.1745718917939203 0.014040549626847138
0.038098613140118344 0.06606918070267587 0.21141048576444976 0.03960060337936488
0.04035951181521911 0.06751005168375124 0.18557356594179447 0.04972727567714592
0.03861736896694036 0.14369980038917066 0.20546705012350372 0.014517278687358595
0.03986911489966095 0.13234601162369983 0.1911648420444742 0.014401002865176024
0.03795513482761197 0.08580048233153145 0.21304620813807515 0.015707897652269386
0.03744877791439245 0.07472055695771541 0.21883483443483648 0.020429687868393172
0.03777838372627279 0.1271417935359349 0.21505789836480904 0.015637415402122254
0.041158471020200864 0.16863893868609597 0.1764234470395841 0.014562060813208223
0.043121578165259994 0.21710791216103584 0.1539802974409893 0.013253180550316854
0.039702777970238606 0.14734832732005865 0.19306271570433886 0.013904004724678202
0.04133666540495468 0.10817191206127291 0.17439903393097697 0.0142550938506142
0.043845474779533045 0.1337174324237222 0.14572433898014048 0.03750259049405489
0.04319577854511343 0.10602414356443415 0.15315426417557007 0.02198492979890826
0.044633256553554226 0.15078417451784104 0.13671852295919784 0.05455202214234268
0.03921704766701349 0.10525294722422723 0.1986217437226713 0.014324347505025176
0.03388239758330731 0.05598987186290205 0.25959367915252357 0.0715150514771483
0.04038500503930702 0.09878441789320698 0.18527607436581398 0.014255558036824488
0.04024897846413954 0.20206177597423053 0.18681517044702037 0.01344395142769947
0.032978559645938044 0.1547618544374326 0.2699200390139126 0.0520715610816076
0.04224125665024334 0.22501939897021697 0.164042661208792 0.01403599798869387
0.03418648510633607 0.13969705388994247 0.25611205235471357 0.021787003577999724
0.032773306427152135 0.08920862725324026 0.27226413062605553 0.06763009135399942
0.03756153357071304 0.2503643186400253 0.21753625281943334 0.014720438651970568
0.03980253187727895 0.2900893731067097 0.19192122356097052 0.014846199768961357
0.03679567963761704 0.15720218675330788 0.2262875470484314 0.014156470886443796
0.03633327883476126 0.23805564812045688 0.23157573822434743 0.014438770620230482
0.035570623731183235 0.2996172394862642 0.24029544292442212 0.014572236851199709
0.03168913337303897 0.11710900486884618 0.28465794637994557 0.06961559684910655
0.03201124066059251 0.09986924970155886 0.2809754619148974 0.06767792087225823
0.03771945689150795 0.30425311121582854 0.21573280266436706 0.014947421189171757
0.034986592512646825 0.21271762834772845 0.2469685673023727 0.014432345726727497
0.04105550329566083 0.19354902071051056 0.17759570746726352 0.015059416265816663
0.04114125274440808 0.21119520620931914 0.17661609382531523 0.015249627198153974
0.033230459206866014 0.3204801884100945 0.2670459654573588 0.060065556631923804
0.03424800528131554 0.36565531136492446 0.2554160964252273 0.028513274619724232
0.037757440823798886 0.22923551519458307 0.21529620519942924 0.014727345672612337
0.036716670586296754 0.32902202164411487 0.2271962055819945 0.014164732945835841
0.03162812838022486 0.08388809643782402 0.2853542113203974 0.07339446862686774
0.03158326656200211 0.1711100755303543 0.28586982068826156 0.08298697970760413
0.04217607339256917 0.2605954208932019 0.16478889920962086 0.013581304066931097
0.03307525488107264 0.3591435719213535 0.2688213116795487 0.06723449855942507
0.03330853594352624 0.21889373662825992 0.26615022250932685 0.05820351360274734
0.036707036113026656 0.2769767070512161 0.22730466126092325 0.014673846283646682
0.033787690231031675 0.17887861639733293 0.26067183957930046 0.02844587010556992
0.03351744318233095 0.37442772243976646 0.2637672562305859 0.05127278847886815
0.03180574895507933 0.14809911144625482 0.28332593857972055 0.0815295391444788
0.031703076524519924 0.2838406016724804 0.28450392726134643 0.0719974514078333
0.031023191579270235 0.3343644681201693 0.29227715146366734 0.07990038299589576
0.03601878275883959 0.21179102542694112 0.2351698217920959 0.01557785727509261
0.0393710253933887 0.2777405123411504 0.19685327214433004 0.014600136795303255
0.033092514416963065 0.1854923952669144 0.26861843795043056 0.06327442081780824
0.03864295732987807 0.23211200189812012 0.20517417384416975 0.013943630719828935
0.032923603274717994 0.2870381897968568 0.27055248559364997 0.0603426974788202
0.03257555711934486 0.07484494800775514 0.27452409297951347 0.06337070941463357
0.035804386424796546 0.1528829981033574 0.23761863982385475 0.015032252805112743
0.033524584718972364 0.3094634036732946 0.26368353397787964 0.054696460335284844
0.032822131342446895 0.34866810547524496 0.27171436843532926 0.08153439294866173
0.034894095128461505 0.18470557570210727 0.2480249816140715 0.014709710596097209
0.03184116907101284 0.19699141144330487 0.2829226320968682 0.07276531419882172
0.03488651312579319 0.24554735606818462 0.2481136061566882 0.014002485317247071
0.04165036066455455 0.2740780061588498 0.17079862713431257 0.01462041570293613
0.03885023806231002 0.16117983952249298 0.20280251720058468 0.014401212179597585
0.03512918622319006 0.1307773749518987 0.24533597828482526 0.013835124580321743
0.032093004535391316 0.3808350684886412 0.28004987407574355 0.07854368483177661
0.03134144969926102 0.2653259268417152 0.2886370001824995 0.07887067696355728
0.0319278120515534 0.2961395581723835 0.2819354256018543 0.08229797324250661
0.0325168117667295 0.171092201505668 0.2751986918824551 0.07215492542756266
0.0424986871638708 0.23858680909082297 0.1611004718979517 0.014594037833804231
0.040119790162522796 0.26011192910016123 0.18829375725120262 0.01521127043857774
0.04161336191212032 0.2871679655498305 0.17122197181576623 0.01395723910826728
0.038756538793097865 0.17188459315548674 0.20387391499979685 0.014705595172617127
0.04058079113996853 0.26987382336624616 0.18302448109386782 0.01449866554528789
0.03913780108289081 0.2669299673495635 0.19951885488689255 0.015196847537662907
0.03193901749188875 0.3315750998579896 0.28180847845320744 0.0910489254082318
0.044084455897567806 0.2572115577850496 0.14297453402788843 0.03636470909365639
0.032015234250471376 0.31662847822831164 0.28093678257442334 0.09281783289066145
0.03994138512436539 0.3061615260544272 0.19033454269631528 0.013681883903568748
0.03729234162154603 0.3385559438440316 0.22061615654650146 0.015153525091232951
0.0369644570635848 0.19497424327985807 0.22435950798404639 0.01527622510701547
0.032518074325352586 0.3698080534220055 0.27519065006800614 0.0817350816250277
0.03643768301088847 0.22613050940488125 0.23038193599281542 0.014671861578115324
0.0326631607581717 0.259337554190744 0.2735286498895877 0.05992408651264354
0.038845240604197036 0.2976202470394492 0.2028640294985401 0.013106850734408378
0.03814749704963062 0.26507834613388637 0.21083871994186032 0.01582761454948477
0.034001571192533206 0.19604839565601917 0.2582275704519897 0.023803777895565148
0.039778079295389714 0.22096276416643817 0.19219851214619688 0.013957774454951619
0.03961939862687863 0.18541993295498418 0.19401120931736004 0.014883121389131521
0.033853665298064835 0.23326645759001075 0.25991944360262487 0.026909797147200765
0.036674707271986844 0.1450217038240802 0.22766996105114928 0.014180511368550327
0.03729048434707474 0.2631807315692546 0.22063496272812053 0.01322138220706295
0.033462405089188615 0.20680205083990671 0.2643909928833968 0.03436902713087316
0.03574535246426718 0.17491971271816437 0.23829415131531584 0.014851347437975676
0.03565991824796409 0.2527584569309875 0.23927323215942015 0.014791508496498617
0.031304632390082944 0.37471614961160693 0.2890613675967995 0.0872851251596637
0.03483235201835367 0.11524864700584828 0.24872851853743927 0.015614134309555511
0.032158686530415245 0.3938874768974153 0.27929949889368116 0.07098990937564262
0.03344477482971197 0.25266298874671544 0.2645939948611985 0.05313490411840566
0.0417072088917159 0.2507162552606282 0.17014805761976187 0.01405560010965686
0.03746685754736736 0.3150557908500345 0.21862055173041772 0.013781390936193681
0.03390218631875354 0.15662018406750447 0.25936234686840615 0.022677112969015322
0.03848374274099936 0.28655903981840203 0.20699586796990785 0.016120839885218185
0.03861976946487632 0.2181458543940823 0.20543877957549597 0.01564481032938805
0.032526875279193054 0.20806860252445755 0.27508484738367334 0.0632369458101563
0.03546337650909562 0.3197913180361911 0.24152200858750258 0.01570463915268747
0.03301071518543093 0.11985809760020646 0.2695513544467757 0.05461754897333925
0.031156317499977396 0.305980792179605 0.29075450869007485 0.07919791319217959
0.03703195363326094 0.1706314075744153 0.22358718830635682 0.014388410244875277
0.035049922435661345 0.33244201446890875 0.24624850837751883 0.01528703205593035
0.0316608536479253 0.35982738456906943 0.28498901023439777 0.09638768888845002
0.032866878609005105 0.33700202074922747 0.2712024981611957 0.07488967951825919
0.03336616276526533 0.2689604690308031 0.26549311433897205 0.04138818274516312
0.03120442977544863 0.16122695547569468 0.2901998940605408 0.08580522714721633
0.03833376728117915 0.18154587541813832 0.20870682403166418 0.01508507143463707
0.03763957660627391 0.21234084936348824 0.21664293912105528 0.015192172549643869
0.03488317317215542 0.30729965127435377 0.24815377014814344 0.017079176800918056
0.03389189135465703 0.33227421248763167 0.25948567467739403 0.03007373835159631
0.03551652928153029 0.2680335729904567 0.24091276777584347 0.014784680198385474
0.03304255638980031 0.14154194964048364 0.2691880826786669 0.06809601646074893
0.036523028043439806 0.307227478691113 0.2294089855466259 0.01330215733803652
0.034291483433237485 0.2218483420773005 0.2549144837839342 0.021513724365206793
0.039466038506386296 0.23942961807605778 0.1957659683744361 0.014406099212653015
0.03156575354026856 0.21134170837128574 0.28607130152608623 0.07572915628326117
0.03172849934286345 0.34623025199586277 0.2842153314960294 0.09593132917104955
0.03544674076130629 0.35110398565362694 0.2417131747094135 0.014038734106218734
0.035857861625270646 0.19323719368626877 0.2370086754966752 0.014821376342989145
0.06293363359026732 0.14996665851826974 0.11505483694945742 0.06799962899994239
0.07218660896804209 0.09020096477656356 0.11603473174111927 0.053096604961745716
0.13558628537280415 0.12365858224317351 0.11295142119812712 0.023963648442628004
0.12348010377274217 0.12165222430466992 0.11342233194953838 0.025380909345196975
0.08935324111566127 0.08948760488866822 0.11546266744021715 0.026068006986045295
0.14659652072767748 0.15634068212955826 0.11169334524105808 0.024263673401163068
0.17668680092261815 0.16435806516113624 0.11044138763905456 0.024107927395961508
0.20340895291636565 0.18898155559211866 0.10885887372622852 0.025840122728043036
0.07742695013419351 0.101572082995636 0.11554846117011619 0.03958277528790315
0.14329301950883336 0.13408011560380587 0.11240573952957846 0.024891546223387854
0.09210377705144326 0.11053197134077955 0.11480202343459674 0.024625017982817656
0.12474304591064328 0.13364222822037336 0.11305640698900202 0.024777994690675133
0.17066140372208627 0.15397807067237443 0.11092804421874455 0.023644963599558286
0.1072014840673248 0.10301853917350612 0.11448407934350817 0.023676103320276618
0.152531599139244 0.14098039531539172 0.11190198972798417 0.025851175902939425
0.23005467921624742 0.20246640987899445 0.1075785247553853 0.024443019986820844
0.16105190148914006 0.16151150820323523 0.11105642739594025 0.02548833377166576
0.11672666859941218 0.11264693733670139 0.11389709566323582 0.023328648020788337
0.11074377570581528 0.12569947283382166 0.11375215648361323 0.02418908669406315
0.07621068279629287 0.07788728814877258 0.11622726702650062 0.050059628401322026
0.18965411155754297 0.17561914628819175 0.1096919463718421 0.023634335602700347
0.12197012780502772 0.07454681968224491 0.11486900718311803 0.03969260826335906
0.14380602404683016 0.08515034066516396 0.11385749385012744 0.02781170593604922
0.16626534995954248 0.14271590484396374 0.11140358676020734 0.024963716090308855
0.18140369240293297 0.130691920952419 0.11128928560948458 0.023931361267792883
0.1394993930195235 0.11106399352738276 0.11320859919298087 0.026035518835313704
0.13460890245576485 0.07844260063907182 0.11435144422989292 0.03798013651496923
0.244413976123029 0.2062027839040215 0.10700982156648459 0.024009419966391977
0.25003384858804434 0.21801576516739876 0.10647429674149839 0.023358613209229936
0.15740942239860967 0.11659356937176642 0.11247490413809597 0.025642675117067668
0.2267674997391672 0.17998609491726533 0.10836188816799755 0.02448297598143656
0.26360137799573924 0.21919454225977925 0.10600968349503183 0.024543314255252583
0.28015856963759395 0.23886644586456882 0.10489032202415413 0.0237472839487569
0.19026026044227756 0.1589098811542229 0.11015446234905382 0.025349399310395426
0.14876235989087983 0.10448432842539865 0.11311510087801213 0.025949412455539302
0.12077988151238432 0.09434750458500696 0.11430678447510995 0.02337265773727412
0.1744092612671282 0.12016356273569184 0.1118293467621449 0.024119378650938255
0.21790258587999176 0.16947516669558868 0.10896055184381176 0.024964728119623435
0.11085679302605156 0.08287745915886677 0.11496795550392647 0.02975434152029134
0.2109012977597629 0.18080014915264014 0.10883879652749526 0.025716424095068184
0.21040195045656 0.15787484371997382 0.10954908985688237 0.024135142142514412
0.13175048675046025 0.0998955256067025 0.11379190287963446 0.02360649563688704
0.08782529639485456 0.07561923151938768 0.11591592114083757 0.04716058123254816
0.20469952586465098 0.17173302964845283 0.10930953246495374 0.023735815548575536
0.15465280663201414 0.1296146962166378 0.11216758067192067 0.023563182600163192
0.18590801924835873 0.14126380018288945 0.11082662432884254 0.024556251123547836
0.24228819698962303 0.19520070498874148 0.10741032374016385 0.024985894197607206
0.22030141697713954 0.19126269448126282 0.10822467942489157 0.025959942296316797
0.0795684445804461 0.06459079565362921 0.11651104005081295 0.06165753744868542
0.10612142220498574 0.06439147683501475 0.11567767343656768 0.05934481981083065
0.2030599117883417 0.11241513201665616 0.11129986017524288 0.023218603713888338
0.24980468739513614 0.1860109747037093 0.10751079056054216 0.022893231464296337
0.2670284400700369 0.19986845053320454 0.10656869429362788 0.02513952680217053
0.18177813468866935 0.06956410550234407 0.11334490514569047 0.06236501229761137
0.17504312277990908 0.08169258693618853 0.1131124534743196 0.033948919061918596
0.21905027177394373 0.13849172617145394 0.10997284871047242 0.0243540531733905
0.19055508848153757 0.11347430543064181 0.11160307815236717 0.02432244981218529
0.15604650687499116 0.07778151831122804 0.11376210111447871 0.03658323443046806
0.2007661158008021 0.08919269634676531 0.11215730185759852 0.024149952475339943
0.20016208889090584 0.13668040832977807 0.110547654150628 0.026360780160742406
0.1708170823927677 0.10484517847698435 0.11243440628065793 0.024669119118239543
0.274853127602121 0.21048439037127903 0.10599276207264847 0.023443119681318986
0.24078616743995757 0.17505052201168336 0.10813092999005361 0.023308230966800545
0.22152980115662235 0.11847913378561359 0.11059079284267935 0.02546900846360037
0.1650648140960661 0.09352741948158873 0.11297810697341867 0.025241756903080698
0.2168303328033187 0.10845788175755722 0.11106151751130698 0.025460796382180097
0.16738465272441377 0.06492367279939082 0.11389455965634851 0.0649916879057649
0.20770208718846178 0.12761960432520536 0.11065321016395274 0.024672194226049875
0.23026138496874432 0.1402331750251739 0.10960885560789504 0.024698727858505055
0.19313573942965656 0.09922354068157452 0.11202098391628709 0.024128699591377735
0.17717252095627622 0.09293298753270476 0.11266975665889792 0.027838430552877998
0.2769833622109745 0.22351639895750366 0.10548869537187153 0.02399185116731147
0.2288912957238881 0.15302887995048234 0.10920790836245933 0.024059731982657546
0.1402837423148943 0.06716882923525824 0.11455342787366891 0.06675273858936782
0.18871479310705763 0.08436625790105959 0.11264973966103596 0.02878349783534213
