x y z curv
0.8032853599986656 0.3691740488945035 0.2802279614615637 0.08200498245040698
0.8037289772242042 0.3780288615723823 0.28022842438688345 0.08169561784979969
0.8139691005703604 0.4093581248139506 0.2802390553282551 0.04416417897565296
0.8529327719811148 0.4177727315540481 0.2802794709327759 0.00026972307096850324
0.8310259096520233 0.207937058937766 0.2802566827051014 0.00029492032020768025
0.862959769088705 0.43666363869385705 0.2802898768767488 0.00026327934508802033
0.8511149785286689 0.29896792811209616 0.2802775478561629 0.0003331600214535291
0.8309067062412148 0.2361601563908172 0.2802565680166697 0.00030199544587674525
0.8119403781830244 0.3861326940847021 0.2802369437827909 0.06056833666675263
0.7986216151215708 0.16182519861083625 0.2802230588336637 0.09238957848248307
0.8193541808079603 0.11271372799552296 0.28024454688024913 0.03838314242056621
0.8119367503049358 0.09226188135075741 0.28023684716625935 0.06003294486678252
0.7973391311487867 0.24962941797551577 0.2802217563632892 0.07762203245781547
0.8100512285123322 0.30190026561727706 0.2802349576756047 0.06575265109488229
0.8409879023291615 0.08987570971602639 0.2802669778838563 0.04080076397588291
0.801759156557293 0.2908215904603015 0.28022635375260785 0.0826038538094661
0.8008138442368726 0.20644698087889826 0.28022534666429383 0.07724626550029888
0.8107647930890505 0.20347081119299842 0.28023566671770794 0.056718181545983036
0.8225866387745441 0.05909867672445794 0.2802478826256241 0.14656850502904933
0.8139101995947515 0.23936295817571193 0.2802389404168376 0.03988691501336699
0.8470903458488054 0.09862734377152216 0.2802733100189547 0.002679867143443602
0.8028390844366677 0.09638439798407215 0.28022741248837557 0.08243103316524521
0.8151014866003452 0.12421917387116846 0.2802401396724189 0.04891541870221415
0.8332723922515641 0.11707151198644104 0.2802589840400297 0.0003184590327442221
0.7919985873562503 0.4127286918584441 0.28021626868495403 0.12314159663864287
0.8393729807246791 0.03606270489954948 0.2802652859288141 0.1425680615090507
0.7990611791740361 0.34576572310997916 0.28022357278278986 0.07804660097251308
0.8283680316163988 0.1280172868365335 0.2802539007558087 0.002022772535036639
0.8409901785511278 0.046718145275818954 0.2802669666271344 0.1747214688334011
0.8308098040798089 0.1392065190074055 0.2802564368604611 0.00028552986748922067
0.8415418552653648 0.020743572223024656 0.2802675306231165 0.0811292950326368
0.8074658489724937 0.2703564590846657 0.2802322662010747 0.06080401967914239
0.8318045062673013 0.10677761301241642 0.28025745832005433 0.00030119202945049184
0.8302489660678528 0.07624318591174958 0.2802558352997541 0.06441444396619653
0.8421171490421698 0.1083221838359779 0.2802681549440576 0.00031808239748151685
0.8082511695834249 0.07353352369118057 0.28023301862130345 0.12114481770850916
0.8039229703916533 0.14254406043236964 0.28022855124539425 0.08257011631087285
0.8485979127147861 0.02848915791364732 0.2802748515165254 0.09682302090267919
0.8194926317094704 0.20861173761466661 0.2802447207385754 0.026603078041174212
0.8091467408867783 0.24761745290272527 0.2802340024250465 0.07476560637758864
0.8117136811625438 0.18357553526110662 0.28023664461426867 0.05851655543849815
0.8242645410822879 0.026594569888893655 0.2802496126676146 0.09879013144241741
0.8152868847841328 0.051703867136288134 0.2802403090840682 0.1452320445458717
0.8198101050626007 0.10330026072111809 0.2802450167886044 0.03268947024059817
0.8070223202620495 0.15390091512289045 0.28023176943352324 0.0737913506096935
0.8214201818969313 0.1582300616571878 0.2802467040710999 0.03354933004243902
0.8465918455190322 0.06249879159377219 0.2802727815812968 0.11574787038503521
0.8208815631869676 0.041240190049180184 0.28024610850886156 0.13828366921874238
0.8043023684692909 0.325903686188296 0.28022900260787525 0.07957886314488592
0.8447357533083439 0.12104180531436276 0.2802708749392029 0.0003439809784631785
0.8295982552993324 0.08794263736977292 0.2802551640827048 0.03582605004405719
0.8131051806153566 0.25723150257966504 0.28023811109989927 0.03532909530225431
0.8148814985127859 0.21803404784892816 0.2802399411052723 0.04761619783261925
0.8474156940974282 0.07174795322805487 0.2802736389845479 0.09100943939531976
0.8389061078689846 0.13009371966242006 0.28026483136425184 0.0003386063542621743
0.7955158204040058 0.26935413402908037 0.2802198714732861 0.080855836684414
0.4651254760249569 0.4402865281498567 0.280281483014459 0.06818213619238553
0.526119213587954 0.43864923950768553 0.28026914124621066 0.07965083685223674
0.4773364901249652 0.4376584542745655 0.28027784812286455 0.06976864831099192
0.5804028990367607 0.4345899613739243 0.2802571473618593 0.101572118238275
0.569840286975954 0.43446982698351955 0.2802589889024223 0.09767415312646058
0.5927271329871675 0.43262022500400743 0.28025363961127037 0.11198160860577017
0.4318946277919301 0.4403906714899007 0.2802878635443305 0.09683043301069362
0.4683982037544243 0.43152931211823164 0.280280828661708 0.08761048282592225
0.6770511788116892 0.4273237116806565 0.2802380386984941 0.06731608207837858
0.42822470791265405 0.4278410172421074 0.2802919431858908 0.09596622671057783
0.4824378792043642 0.4271346770467136 0.2802805782672932 0.07665404485166452
0.34661935659878274 0.42678957849281746 0.28008347425000363 0.07284631721980009
0.20052214319989992 0.4264381826002386 0.27987837506634416 0.09755911380615301
0.19088070129372842 0.42640882641707956 0.27986071964563325 0.1051267115123046
0.39647647779974704 0.036382967167098726 0.2797915537049941 0.15115447634871668
0.3354783168809419 0.023937236825258418 0.27957117363272244 0.052558663578815175
0.023267557110932403 0.20740867367826984 0.2801716436191617 0.05121355567957028
0.02327813220426679 0.1319975778601597 0.28017948774280255 0.053838432437325286
0.023958391108788765 0.156929561965583 0.27971688357013824 0.054169736468357994
0.04878447648414229 0.023954668249135398 0.24169354646595959 0.041474846120693874
0.13709837233259128 0.024016388930184953 0.20616638225807432 0.0002937686922532579
0.24105570656899097 0.024054425748372618 0.24275328537691498 0.003587142249345005
0.11005260942726261 0.024021325065109875 0.16305354182254622 0.00028144097020982984
0.0413944777558945 0.023954599461323337 0.23312410999641153 0.05168430753153626
0.15468775315907776 0.02400550549863349 0.2515849123189098 0.03935454171204572
0.178070757628638 0.024038851976060926 0.20366278131731963 0.0002739467019239635
0.2499297508757146 0.024052840405739098 0.25682152675954867 0.036665098577906355
0.0683783934238625 0.023995186720434825 0.17305308418875548 0.00038754373508898107
0.044885018917063986 0.023974425726403382 0.1923386846950891 0.055857443893817485
0.13706961337091528 0.024035854220433323 0.1620433920793718 0.00029210018219377775
0.22335602753816108 0.024051682868752755 0.2280682297721914 0.0002781833475335899
0.05666207978111898 0.0240115603727832 0.12213338802415005 0.04065560046083531
0.09573812625391273 0.023993185670015724 0.20988863397669266 0.0002996806093121466
0.11686667267366585 0.023990406486351812 0.2411296095637987 0.00030128297405014365
0.15163369178980057 0.02403817297384736 0.17398694842192233 0.0002778125187211501
0.15510102010120408 0.024010475581380232 0.24081557294599631 0.00029285730997746947
0.06201920637374893 0.023954320997555997 0.25810608660810846 0.05007288460897477
0.197344410882521 0.024029624558555854 0.247319017388123 0.009355444079700079
0.28275869919552316 0.024079979472709567 0.23411188871102243 0.00027117734817173406
0.1947559697778388 0.024014508708781013 0.2785004087594458 0.05439855238186755
0.17724878223831864 0.024034395292707424 0.2127867121707973 0.0002849097838742537
0.17622023492289868 0.024007462581204522 0.2725751271114024 0.05859783883476434
0.06713964913468873 0.02401400002936123 0.12897822843916576 0.012266131588118344
0.165571700238899 0.024025528781051988 0.21908250541452973 0.00029977455988820534
0.3558605828959287 0.024100735196681156 0.2734101184155844 0.05446355337469372
0.21009919051313655 0.0240371187179486 0.24540403139679398 0.0058809379543960285
0.23221661664335105 0.024065407072706123 0.20744434182174698 0.0002543933790546532
0.16137677287867322 0.02401798579994696 0.2312145398526537 0.0002862561226994581
0.07120553561062853 0.02399129283193549 0.18521072916971698 0.0003195814192675476
0.05972940743479096 0.024005536041521048 0.1394000853135039 0.012891336381506736
0.04330122192107452 0.02394738126050752 0.2517246506885614 0.07697467294525112
0.054791041805643204 0.02394552966499896 0.269484357095995 0.08426707573111453
0.33182411923276006 0.024092195615054823 0.2643729082282911 0.042108780480289425
0.26588732961881045 0.024058157003830523 0.26362022271235025 0.044123592321450134
0.03920787121343388 0.023941022970566276 0.26129328012078556 0.12405271903226653
0.10657898220856167 0.023987036800458016 0.23661547949938988 0.0003087015533601263
0.18471362961807222 0.024017647903084083 0.25953329481968634 0.04632404414806448
0.0360220848899163 0.02398965346472132 0.1473834278714635 0.07249334746048984
0.1376120537890606 0.024031623930566914 0.17226548163568584 0.00030182695326693023
0.13229869785900836 0.024024376274126763 0.18240809446985612 0.00031592022503663616
0.09236216175395125 0.024004592005582668 0.18006725266245355 0.000299798452059742
0.2614882613381687 0.02406602208306089 0.24061185413348124 0.0002768345610372173
0.08044806002280509 0.024014359591811717 0.1438768231215421 0.0002973349779495659
0.05644472876086076 0.023966876499576094 0.22308608854121892 0.0205704635172809
0.10600447424713495 0.024002194203064625 0.20160553235743497 0.00031058465826836596
0.2603989266018369 0.024060821553236182 0.25110493660126 0.0298402607616555
0.03664442313073068 0.0239356044567123 0.27053963844599466 0.13016538709891087
0.04099567804482468 0.023977957375966787 0.17974739445446575 0.061575616181071775
0.2883854014978083 0.024074229515486916 0.253778935242135 0.028374668040594003
0.09420140195129002 0.023973880833738772 0.25179985612152794 0.027757829295751
0.06615730248866891 0.02395176751139497 0.2687755300115063 0.05075659689980687
0.27562303055894416 0.02407316231316643 0.2411278501671465 0.0003000945466117355
0.2702528807833359 0.024056132242022688 0.2733606534845838 0.052084369045080674
0.07902498247168024 0.023998130022248473 0.17895672277511476 0.0003090117084719427
0.1572886107265036 0.024026085228909894 0.20804244868535385 0.00030886744420861845
0.09808709915210592 0.024001755375220396 0.19325157546888094 0.00032091284458796306
0.09056701758508721 0.024003750135569744 0.17985459972219883 0.0002962266874486662
0.04547522591309949 0.02396194681326556 0.2213003677703814 0.043746302050062344
0.05501932695979343 0.023975075727823286 0.20283182548348194 0.024012311540502148
0.23127069342218068 0.024040786458566322 0.2620933909265497 0.04091768672075656
0.1140803385457322 0.02398113886916071 0.2588310594864938 0.049118262751669736
0.2352690496633053 0.02406232730087899 0.2180240030799003 0.00025094972036593903
0.31120434957284737 0.024089724678964607 0.24562419879773417 0.010724123319057064
0.2245692239361228 0.02403389630773261 0.2697873295211949 0.04902928906325972
0.06679834723982633 0.023976930453521585 0.21253813912349157 0.0005487755721927771
0.04983947239773825 0.023990835580077287 0.16101987351059077 0.03533758429185169
0.11722538109496694 0.024007539539668648 0.2027466302328057 0.000296837330340189
0.13131204959050263 0.023995048072112807 0.24767178366061948 0.017768537745708354
0.20232981759362867 0.02402383606659657 0.26631617898476634 0.046438683321030315
0.1881620050330299 0.024044658001299384 0.2024266468068255 0.00023770835685269588
0.273145583237324 0.024077123837217364 0.22922988870286404 0.00021488140864229705
0.08121691748621801 0.02396525033317728 0.2560174553122918 0.0432683803972168
0.2712818537674424 0.02406642684500408 0.2512581873320336 0.02635487417929812
0.13002122706105382 0.024016847712572297 0.19677137572063536 0.0002954737246228118
0.03565981933048404 0.023947070032707417 0.24340751457765097 0.06367672496916968
0.06649137683481973 0.02398275842525452 0.19897530291631044 0.0004539265599294465
0.28494419314415803 0.024066986146468503 0.26612224871816925 0.04280696299163271
0.10303349198998188 0.024022315198332554 0.152523533920789 0.0002875968233785367
0.19911887540461176 0.024051331793696038 0.20024703868027885 0.00028064675275311154
0.18591661882812127 0.02401455206837641 0.2679657328798907 0.04926903757926902
0.059560066013149025 0.023994016696950195 0.16529155261817877 0.004553552577634816
0.2399332218852991 0.024058892653157745 0.23131041312205958 0.0002474654498690729
0.07688273604855497 0.023981612700846373 0.21383927257231444 0.0003051399844876812
0.1638900086460527 0.02401410864111312 0.24296366822687343 0.0038306451520348232
0.09088600764111958 0.02397789871576379 0.23878489414626475 0.00033695526441889645
0.04127889008747035 0.02398879879002193 0.15552589011902457 0.05917328665658136
0.23878006784286368 0.024041101872526963 0.27024516201508497 0.040371910897651464
0.1233214203944232 0.023982209694637192 0.26731641404565787 0.05501219653140333
0.06269689541705248 0.02395967652037358 0.24677592097361561 0.01293429452501161
0.11338096562883003 0.02397631798467871 0.268924663332625 0.049051221906114016
0.25196900256679805 0.02405953408644429 0.2440679960702536 0.003399927297109249
0.09746018902678415 0.023984920908886924 0.2306415919118316 0.00030722003201099957
0.059793120004632654 0.023962811698895286 0.23624628053820687 0.007095268895637776
0.3240565937191553 0.024090719835695166 0.2585445794124601 0.04101721700783593
0.27743090507256574 0.02406505901537532 0.26161640878852754 0.037651160633663694
0.14252095179170662 0.024030669466337837 0.18022320004974204 0.0003056436767692528
0.18685453530754506 0.02402288521456792 0.2501984729179569 0.03061453355244742
0.18760115090871046 0.024039059286233892 0.2144455897209762 0.00029915410110763777
0.06998146401857125 0.024002218800855426 0.15901808414988003 0.00032867285180596605
0.13638222692594876 0.02401134089787066 0.2167546747413423 0.00031358073193204567
0.24803852414868868 0.02404535096854406 0.2715522226045541 0.051527524676597256
0.2879160347273861 0.02407918972253039 0.24198985432823367 0.000257989890225559
0.151936369174007 0.02402799277325251 0.1974025484194433 0.00030727235313220396
0.12129660243542273 0.023975868499816984 0.2792886030961014 0.052315054719196855
0.0433165897702711 0.023967649514889305 0.20583504020292012 0.0511371938764687
0.25021304593375715 0.02406352514774779 0.23295498385210484 0.00023279683492269233
0.23510703917821085 0.02406776152435239 0.12146306005740883 0.04231435266937229
0.22620097987953786 0.024065054212183214 0.163682554590315 0.0002796612450828173
0.3412562097772902 0.024100048851063996 0.15062884494804568 0.00027971210726919336
0.2889777040859169 0.024084146428153933 0.1116566241018126 0.06170789935184844
0.24442142624199137 0.024070597760934186 0.2081395384223886 0.0002617817042157411
0.3845752965745511 0.024113223286081117 0.11060809323002549 0.0959731476848021
0.2718065324925339 0.02407892529286453 0.15626478014569226 0.00029756087080456305
0.38024754382532233 0.024111908804093286 0.1608891366988081 0.06130630400755142
0.2110835737223105 0.024060454417973855 0.11748119764124564 0.048479882977901435
0.2609019028781049 0.024075608379076015 0.15164827802742809 0.00025870125687901607
0.19119897966251062 0.024054408660455624 0.18091331483598302 0.00029411826555602265
0.36043131076507406 0.02410588083108397 0.14230824390616545 0.012154808299429751
0.36825244521477435 0.024108258803421764 0.11781423277953844 0.05789625738812734
0.24326241891399847 0.024070242719210908 0.1394654595872398 0.00028897561598211885
0.18965257031700858 0.024053935821358056 0.1131812135778159 0.05169755461201779
0.07944672008955751 0.024020415490973147 0.10782070004526066 0.06410499894955438
0.2855773687810117 0.024083115933408165 0.21386451763080355 0.0003268151637749646
0.38222077240789776 0.024112508268635292 0.1414970911961376 0.06112621623914031
0.16408435460222354 0.024046159586002442 0.12886130442339866 0.013244625966192854
0.09193609821840285 0.024024215191596882 0.13345335141896814 0.0033542227661156154
0.11803434312793074 0.024032152923984272 0.12550869993988617 0.024539147297108436
0.29959548533353186 0.024087379398033845 0.20634434461060225 0.00028896009409839195
0.30684292209532593 0.024089582956771948 0.18408283016849433 0.00030356761175807093
0.26506624913389465 0.024076874422103954 0.13579175245545075 0.0003069565035284071
0.36253206235925217 0.024106521121698483 0.17850069911908623 0.012414255088373747
0.3339047455194602 0.024097814291166555 0.1903329585061971 0.00027119939664847927
0.3243079297801539 0.02409489457154686 0.16964229601300945 0.0002804837225184927
0.24289804731188103 0.02407013353551197 0.18426841528104898 0.00029132702304246694
0.38380917611340604 0.024112994399552667 0.2233748926577296 0.06801943499460737
0.3823595193877107 0.024112554920937515 0.26285165164117646 0.1331189887313854
0.24363285128885434 0.02407035584287236 0.15182173675080768 0.00029572898883833645
0.221131735048688 0.024063511935438226 0.15226423287596963 0.00028557073228891914
0.15462376915521575 0.024043281962305138 0.12617057044925997 0.015883200912540953
0.25453124067470095 0.024073672660675713 0.20556871462076698 0.0002816111607733713
0.11250084684490559 0.024030470372685252 0.13949592630368682 0.0002765444978949188
0.29731683832095723 0.024086686747234562 0.21781889715801253 0.0002915752309215419
0.28601718178733215 0.024083248120520068 0.17062128798211995 0.00029101262002541426
0.3565255674012199 0.02410469204462018 0.1199978743138967 0.02944135735375618
0.2959173170680907 0.024086257469758118 0.1196669639017548 0.04031862364801573
0.34663545481007724 0.024101685407902706 0.16179226872539482 0.00029300097817668637
0.3034099573671917 0.02408853924138015 0.19642629939668504 0.00029212331620972565
0.33091368953139544 0.02409690410206583 0.17856538320267984 0.00026175421138308796
0.3619371413865931 0.024106342579048007 0.24415456076243713 0.015285308212438944
0.3157554229341334 0.02409229535924699 0.22722780700727108 0.00027533942655400033
0.3795614619112599 0.024111699799649416 0.15199425048757906 0.05783475809013308
0.38131960645890534 0.024112237587752293 0.23466080897577965 0.07070335526063883
0.33495914114984326 0.02409813412605529 0.16663132370362188 0.000286610443965947
0.18732174419887943 0.024053228071217774 0.14568760576597925 0.00030097623289008693
0.1666782160527116 0.024046948081714835 0.11655552484264131 0.039001816798237346
0.31450240715214306 0.02409191382708431 0.21589245498533535 0.00024612037514804935
0.34583481182367193 0.024101440441629284 0.12244328402032482 0.04202351139341767
0.29694971685786425 0.024086572289597444 0.14163743129333065 0.00022547437906032453
0.27557801725851816 0.024080074362060368 0.20907609020332563 0.000294090413581732
0.17585864845981383 0.024049741456624158 0.14548397195924925 0.0002876448597090762
0.30460214300526667 0.024088900548314227 0.1607812965606424 0.00028853427750338156
0.22206705745757105 0.02406379510132959 0.11624560981451153 0.04285539615603291
0.3289638507962774 0.024096308579234702 0.11146213271967449 0.06560061631783459
0.2123117253271472 0.024060829223040408 0.1515975139712296 0.0003029320965911437
0.3478552780352633 0.024102055382361563 0.1332711900570801 0.002649496841172477
0.2808403768450842 0.024081675486715543 0.22350058038028883 0.0002811715824355981
0.30231266901899834 0.02408820388566717 0.15266070193995912 0.0002672878286727756
0.286504262671676 0.024083395295386754 0.1440305439207318 0.00027746523127589683
0.21240474685013044 0.02406085717724049 0.14235068954783883 0.00029929126316166144
0.18459425541905733 0.024052397808693813 0.12738108267842457 0.01692351899305311
0.36936734286213446 0.024108601094972724 0.20465139833433077 0.03846347231538989
0.326284782573668 0.024095498770345496 0.24927029396437209 0.018833280372013667
0.09719070972544938 0.024025812575942527 0.11015398834980776 0.06325415956202922
0.2502542426621492 0.02407237007821434 0.15939035275789915 0.0002933331308706968
0.23330865789459315 0.024067216818700318 0.18386267734563289 0.00028656510934892647
0.29669730263354477 0.02408649688292054 0.1789195184919742 0.0002627861214728099
0.3082672099306783 0.024090015754414978 0.17282991136651948 0.00029058435909946765
0.18101506580857615 0.024051311001814422 0.17746232320699595 0.00028643322174495513
0.15579263639050803 0.02404363887082518 0.16397692584635476 0.00029954457920253246
0.2778771637772571 0.0240807724429421 0.1756532537257536 0.00029835111134711645
0.32787080705946203 0.024095976755378206 0.12878983928191112 0.018365143139898975
0.3707886995252182 0.024109035410265617 0.25908232296723344 0.1007941246197025
0.27164469257110074 0.024078876467560597 0.16716520359686454 0.00026757500672664104
0.3571697616975819 0.02410488832482233 0.12933624977976413 0.01715657679017656
0.35720547100691213 0.024104901877988687 0.20272634779689325 0.0020105002527592503
0.24957047238594143 0.02407216259537396 0.17281084267571026 0.00028761396652553976
0.3696363000114272 0.024108680838534916 0.14842642280186474 0.02164615499326908
0.3218876617945052 0.02409415759578456 0.1470472081118966 0.00027990787310031235
0.3220036928398071 0.024094194427931842 0.18903968250437703 0.00029820435852113974
0.37161350263037846 0.02410928298792099 0.1692786315355661 0.04126250040181604
0.2690136391943302 0.024078078153996936 0.22021457080266277 0.00025747528547962384
0.24289547866730626 0.024070130777051363 0.13036281204876116 0.013556024382312952
0.2004451700785984 0.024057220743611704 0.17459881366459956 0.0002805167088251372
0.075336220547121 0.024019165896572627 0.12560338860581444 0.02670011247060106
0.35639919222082184 0.024104656993530274 0.21234309741899687 0.0002914407104080474
0.3141325168315467 0.024091799127947254 0.15608766039756558 0.00027252325769008194
0.1078760347696162 0.02402906254590993 0.10821905886496568 0.06471669132324871
0.37774755686739986 0.02411115162012931 0.2484144422460683 0.09240414943398231
0.3768580016110635 0.024110881073759666 0.24896327580219088 0.08905794801120813
0.37534989110790296 0.02411042032309238 0.19321312210485947 0.04962161365245319
0.15518059333599138 0.024043452343196745 0.15391536753652763 0.0002722022552991757
0.3359385122936236 0.024098435090233013 0.25058595518323273 0.028597244672245503
0.17506581373765073 0.024049499479883742 0.12289070896529505 0.02889697676615119
0.33404108168691876 0.024097856802634925 0.21878428891693474 0.0002831551021057257
0.35078603786868173 0.024102948281295177 0.17365130922827857 0.00029698469668103944
0.3702428004624054 0.024108865632334216 0.15717946040678904 0.02872865157727465
0.13289881506411166 0.024036673703818234 0.1149445475926669 0.05617325798586822
0.2535880170676836 0.02407338297323519 0.12930597098796964 0.009686204254193906
0.1557264168418938 0.0240436168968932 0.11401211247620427 0.05893227333689101
0.1903138703825735 0.02405413857288142 0.15710219541415865 0.00028530199449997587
0.31951074614440317 0.024093435786428405 0.1784451536960738 0.0002946489086698046
0.12012992943431895 0.024032789847286004 0.11272869723917658 0.06636210332113912
0.17605966411910373 0.02404980303743253 0.15748079667886045 0.0002950604778372403
0.23658781739611676 0.024068213892417655 0.17532564592817362 0.0002974044688219359
0.20732947884200068 0.024059314423222115 0.1678675560695573 0.00031602466126708653
0.1649037965055341 0.024046410324859095 0.16970210905773891 0.0003033225993832798
0.19881887602135812 0.024056724868076532 0.14125295226486473 0.0003216400517779241
0.1238341422443119 0.024033917726913472 0.14568709296962867 0.0002909112771995658
0.18544218422457617 0.024052657086262412 0.16479089291241328 0.0003090503265925782
0.37508277747572893 0.02411033682412711 0.13176395381525907 0.04384004841209206
0.13762158560329535 0.024038111038758695 0.13840181384729522 0.0003465420732328774
0.3907560486635659 0.025732343229729164 0.2162119499867093 0.09465667162022848
0.38986761995734265 0.02530363071910373 0.24864011308121617 0.1087297149837731
0.3861942428378491 0.02425398396950609 0.13032226411452208 0.09488425252279896
0.3872003629469649 0.024422253510406812 0.1878613242063379 0.0846165247621734
0.3941222814071722 0.028792686754296574 0.26624493743140465 0.17340879873044582
0.394312136077813 0.029125574967528274 0.2405007559434526 0.14643614954178008
0.39455060509260986 0.02950051937850429 0.17989791958915613 0.14540452245713736
0.3943247221798293 0.029147544739119492 0.13407059884190756 0.13435937812729976
0.3933196007760069 0.027825698263213003 0.14695668442374682 0.1333834021304575
0.3948551142048447 0.03005952384045428 0.12082506153473929 0.1273778841906361
0.3960958922309318 0.034688233714447805 0.10730885302662986 0.20364918241550534
0.3956948846623386 0.03211960070354328 0.20233802010301694 0.1844738220578258
0.3960591472489029 0.03455334183584021 0.18853265332632016 0.2048744080966016
0.3959826611335608 0.03411721618889221 0.2566255488384792 0.18009180873570418
0.3927867903478467 0.02727470728792757 0.16947455201600767 0.11131309843593327
0.3929082531501713 0.027462775786677378 0.22926595666852062 0.14287112790524908
0.39613309983777556 0.05256058921003373 0.23122449886018637 0.186461834092377
0.39610163892809014 0.15597348359086552 0.16987733134053007 0.16758706713620716
0.3961107886631252 0.1258972640376585 0.17181283940013298 0.15894305033049935
0.39613081468960676 0.060070554259932185 0.19872224602982422 0.16547534256683477
0.39613456377766765 0.04775077431049776 0.27868396050991767 0.14852868808111555
0.39610643702810394 0.1402036621623062 0.21310673144358455 0.16582487605034454
0.3960455069533807 0.34049038408931775 0.2537728265707364 0.1593561326692985
0.39610577148764486 0.14239260047833466 0.23796511024576467 0.1594346760048561
0.3960997710500821 0.16211576585192627 0.21729871853277122 0.1733881270719484
0.3961335083746389 0.051216523325586835 0.20778160396140546 0.19342013589578141
0.3961048938081424 0.1452743256904227 0.17062619148547079 0.16767430845305878
0.396077079003756 0.23670768330934697 0.22428963453901013 0.16594676541037698
0.39607968595921883 0.2281374798551519 0.20769522680699692 0.17033255824433374
0.3960423689248729 0.350806371053311 0.2720015534656611 0.1800950167544151
0.39607147859071634 0.25511705584352007 0.22671941537893645 0.16337400785426906
0.3961154025585312 0.11073274043286002 0.2108676232887544 0.17021841161670184
0.3960990262733193 0.16456236507413102 0.18532845841398576 0.16857121317972906
0.39611369184826606 0.11635567375967537 0.20307683878526991 0.1609712314548002
0.39612065243280553 0.09347392724409971 0.1738148575356694 0.18560539210340374
0.39611826275393025 0.10133232136176316 0.23926018452557724 0.16719248559726085
0.396039643064449 0.35976623133240293 0.2642587682852723 0.15263279635328877
0.3961264671871484 0.07436391943803329 0.2512106604587446 0.13709157443397885
0.39607562651883366 0.24148308163152601 0.24256628844852876 0.16320727857517886
0.39611779899597244 0.10285364538325291 0.17619173149122944 0.1674919768566704
0.39611720812299994 0.10479729052497326 0.20405784338475808 0.1591919348422039
0.39612903363762864 0.06592812284988585 0.260241180534435 0.14500030470573885
0.3960494370901645 0.3275723386969035 0.2700597349913483 0.16507380009920566
0.39610828066726356 0.13414540102723926 0.2539138833923078 0.15651849488783903
0.39611967502836437 0.0966895015524177 0.22913923059416988 0.16039701379026072
0.3961260672082403 0.07567369817304154 0.14965013931200566 0.16917820665961641
0.3961341590300784 0.04907821340889978 0.2174325353028131 0.169350815701648
0.3961249328815139 0.07940602743711624 0.22389785023684428 0.1621527334889359
0.3961280824676702 0.06905133055401799 0.1910796362554798 0.1587183112850489
0.39608532967348503 0.2095854738511094 0.19923542055657054 0.16525896081298258
0.3960608254186699 0.2901358131898115 0.23602727780245908 0.17730114959945126
0.3960682943961531 0.26558594804477187 0.2683338051666844 0.16155365771487062
0.3960680158517755 0.26649999467519603 0.2365896381230092 0.16151936867765004
0.39609623872139577 0.17372932732786486 0.26519153548274876 0.15069392432646764
0.3961319692758709 0.056271273132242956 0.11724068818574931 0.21879516530914042
0.39612369713329765 0.08346567735398584 0.17500445185956615 0.17302097981033862
0.39612008362601847 0.09534545978632111 0.21024369150929495 0.15602791456242043
0.3960791035810815 0.230053358735955 0.23875575920865288 0.15968691427087453
0.39611253398130264 0.12016502714496732 0.2701046688163651 0.15084504109225783
0.3960712005214468 0.2560331835743841 0.26894549987476607 0.159445921035241
0.3961280618449251 0.06911996761941207 0.20828953765009994 0.15649786937319812
0.39612727901945516 0.0716896986171385 0.1369456375887523 0.1667910665534452
0.3961285590619285 0.06748612719795895 0.2199366850948047 0.16333090294732264
0.39612116485203913 0.09178994439967594 0.1819936970384698 0.1675601619839958
0.39610694622790354 0.13853285896789014 0.2740187677305457 0.13517898599364092
0.3961218198009845 0.08963463455458821 0.13302946784813469 0.16640040401493744
0.3960486418601418 0.33018574056641087 0.2575122276556986 0.16705843190777833
0.3961214188652018 0.09095928893830393 0.26966004618320016 0.15546111818843936
0.39612264198382235 0.08693706046750149 0.23543015352423743 0.15479483487006254
0.39611579187668494 0.10945414339094933 0.2340172449479349 0.15681369805549297
0.39609615566110346 0.17399863573160027 0.18963240049221303 0.16656450428773267
0.3960913182089719 0.18990317003130747 0.25519208927948733 0.14032366503795324
0.3960780522267837 0.2335112311557747 0.27815547545171315 0.13833974727418225
0.3960955830849386 0.17588025092567555 0.17920063558835017 0.16186397682391962
0.39612477859509776 0.07991567799515242 0.27449864658985745 0.15957791647934724
0.39611993947842383 0.09581842108851882 0.1925831466307379 0.16739757685639517
0.39605224264139305 0.31835004985127385 0.268157348367207 0.14884011137936673
0.39607479519206074 0.24421519122615387 0.23109957085254174 0.16767556392100677
0.39612985363259645 0.06323120368902309 0.22990633965443924 0.1619412071779591
0.39609016433418776 0.19369398281623826 0.2122076948013012 0.16081710116364598
0.3961355374054245 0.04454253564565814 0.12023149620682905 0.22231589360546072
0.3960801661751436 0.22656109680862477 0.25127746455191613 0.1519425688439905
0.39607957960417284 0.2284875914768964 0.21803858727347425 0.16542891076033406
0.3961052749832839 0.14402305416809208 0.20511504854821888 0.15839042686355018
0.3960990604999577 0.16444928099506426 0.17361474093085325 0.1684381786203352
0.39609297900419826 0.18444453716158682 0.2675217575659758 0.15588306648488665
0.396041840055201 0.35254400748391257 0.25527308569311824 0.15378919382154124
0.39606903410690036 0.2631534266940588 0.24802205794414028 0.1544791427245044
0.39609207078795944 0.18742594164947624 0.1859939096025381 0.1628591076868924
0.3960663144760034 0.2720932845441094 0.24992038578651446 0.1542096054746207
0.3960832401634073 0.21645444986768203 0.20932749066329673 0.16689254171991003
0.3961035132951466 0.14981275327174112 0.180981930309302 0.1677184574752989
0.3960816874840509 0.22156100861439007 0.2643346790758849 0.1691513969977354
0.3961216313636057 0.09025975553271998 0.24885135141646697 0.1462428871966084
0.39608219527797994 0.21989077402528456 0.24295466919017827 0.16311091171787184
0.39606935375674523 0.26210325985732685 0.25943146733908085 0.16125020025839557
0.39613517716574487 0.04573337058936841 0.25592197088178514 0.20689717084150017
0.39612399011314703 0.08250450988632241 0.21345659500817024 0.15299247166965332
0.39612504735337134 0.07902685842252463 0.16529960168861974 0.16859159708755922
0.39612440492940315 0.08114240221424006 0.24279533221090815 0.15695510553084946
0.3961189900125627 0.09894299037572339 0.2648131818756546 0.16206420824098222
0.3960754295289023 0.24213188789693627 0.2684744213673785 0.162217275455763
0.39608691506818394 0.20437773069574133 0.2732703412180688 0.15752407544384792
0.39604674739816986 0.33641406929618123 0.27775812458844656 0.1740469227443024
0.3961161161583564 0.10838574975918515 0.18448113508219496 0.16307405065224553
0.39609507301623204 0.17755847460323423 0.21096926550241832 0.1705824303642218
0.3960640272848635 0.2796106778303793 0.2318907299800788 0.17291768605389235
0.39613638584083355 0.041756576366551675 0.18019880744962177 0.17394466892919866
0.3961020190748722 0.15472733692301943 0.2397896064891546 0.16173933048617647
0.3961308978749683 0.05979919550424767 0.24099565764679862 0.17139673116949894
0.39608482556512564 0.21124573272128508 0.2640534075148489 0.1539828113288195
0.3961268900006724 0.07297322158018986 0.23380225938645674 0.15992843789099964
0.39610581342033435 0.14225605662689852 0.2642427476428647 0.1622782219735798
0.3960853670585872 0.20946467196420032 0.24162520089773426 0.17022898130630404
0.39612369463059544 0.08347284934688791 0.15358807458535828 0.1645352003940875
0.39613814533539193 0.03597502134241828 0.22328752811672792 0.20111489556486034
0.39613102613168905 0.059373824205425085 0.16433091562766117 0.1730846502714038
0.3961370253408903 0.03965718958721211 0.23561887172208015 0.1906265559083926
0.39613215805784646 0.05565777021789775 0.2603320872362047 0.17520558380529638
0.3960514578144808 0.32092933494924825 0.2572250248579167 0.15668289825992304
0.3961295143106143 0.06434240189478962 0.1447185977376176 0.16320492056257427
0.39612765639379754 0.07045024746315907 0.15776208577306408 0.16746125814165472
0.3961161889760981 0.10814691559405179 0.19517798005619327 0.16053229124389715
0.3961232042026142 0.08508667435971586 0.1886632323639548 0.15487824640288544
0.3961335033572656 0.05123606629935928 0.26971882854841295 0.19817125123191023
0.3961314316470879 0.05804371597330232 0.2226329784335102 0.176974591504802
0.3961354114597605 0.04496177081876809 0.22655477811854902 0.18798907187115915
0.39607251945209526 0.25169730621320274 0.26105486939420014 0.16412150620366778
0.3961155021023255 0.11040737636747719 0.2484075709955098 0.15527114706803188
0.39613524920120236 0.04549145928416354 0.15192016973979358 0.22497676484140428
0.3960360180639584 0.3716819945373008 0.26297137332773535 0.16173096094308081
0.39610763335124316 0.13626887738418245 0.1659547086595967 0.1642002977035642
0.39610481639509704 0.14553275433784474 0.25108446233072157 0.14387593618243408
0.39608838392483453 0.19954517992795565 0.1872430073551778 0.16143111864240592
0.3961079134176037 0.13534771467925877 0.15479042590465097 0.1720912408841491
0.3961365025113426 0.04137115253393394 0.1413462339204985 0.21603854576861034
0.39610326077973956 0.15064458693348545 0.21721072767277094 0.18167758189844924
0.39612439219158746 0.0811851500428489 0.26060435157025386 0.15039576589054762
0.3960809234531477 0.22407292004073373 0.2734113832374284 0.15614217957709947
0.3961267288378403 0.07350034017826927 0.18012146985041344 0.1589358507938432
0.39609823698301777 0.16716029771237279 0.2551278943985399 0.14987720652111525
0.3961356914089565 0.044035542202885955 0.11025495296907975 0.1842512366162164
0.3960425962199106 0.35005625243677546 0.24415029449109246 0.1586118214708378
0.3961179311442956 0.10240713685768923 0.10662069170631916 0.19834989572017309
0.39606271952618244 0.2839057067372542 0.21034296052554283 0.1697826842099557
0.3961088020665264 0.13241759038252096 0.1243838066132818 0.18411057664559016
0.39610947635568566 0.13020890064807253 0.1471718280399097 0.16126389912442685
0.3961272615566744 0.07174111112085726 0.10755775189432054 0.17515967350750203
0.39612133193704346 0.0912306556806325 0.10944307637718627 0.18722916591265754
0.3961113630498446 0.12399484870112906 0.10755653667006286 0.19604436202042383
0.39609774360013644 0.16875974408162003 0.11287585622450182 0.2224584332158293
0.3961154762891345 0.11048539353086179 0.13659330821480148 0.15237057180241328
0.3960822837051696 0.21959391016626578 0.1797600604645341 0.16267733461245695
0.39610722470500337 0.1376059715531829 0.13670409524531282 0.16142193563483428
0.39607613389829105 0.23980998601803688 0.19027370192555776 0.1679674337455969
0.3960674081397546 0.2684917340893612 0.19857936364631165 0.1704700622411946
0.3960718020423407 0.2540405551810651 0.1690898687599619 0.1647868265934919
0.39605368374771843 0.3136067089433521 0.21958848971354722 0.15748469813407587
0.39608964977457345 0.1953825874948962 0.1760878676715289 0.1588829670261623
0.39607964211862856 0.22828044427927394 0.1931643733906236 0.16939241235659483
0.39606147044860096 0.28800707394016006 0.19823659810359417 0.173808692273034
0.3960693713365562 0.26203529384295293 0.18646728757609504 0.16475031373352633
0.3960486008055599 0.3303173180265085 0.23315597723735013 0.17251477999952547
0.3961272938459639 0.07163489066274845 0.10726910771882464 0.17515216866535974
0.3960562223858064 0.30525968913245094 0.20968643923474506 0.16629035504563497
0.39609236260666425 0.1864649121870211 0.1718641750858212 0.17167378871639694
0.39610113076035164 0.15763882460480227 0.14837208380616565 0.16145822227108864
0.396097551075945 0.16940383635177006 0.14726929000629763 0.15906340493226553
0.39612374325458444 0.08330610961479412 0.11171790487141535 0.20332720411146774
0.39609748189356764 0.16962464801898797 0.12730888198869217 0.17266231451294517
0.396089795801209 0.19489225455962517 0.1445362875872386 0.16458815271507302
0.39609315481016616 0.1838547502213376 0.1523582269997497 0.15630088041112583
0.3960858463103814 0.20788337930029394 0.17583996084907336 0.15824221458381216
0.3961086490706437 0.13291720105450172 0.11453505005601572 0.21236001929511988
0.3960860496584234 0.20721385351725646 0.1722543932489943 0.16340391945270602
0.39612717823032934 0.0720193957171928 0.12097077882007592 0.18968750380893443
0.3960817376919498 0.2213883021102367 0.17917170269124308 0.16261377019700102
0.3961111780204776 0.12461287960218116 0.1376116826952984 0.155232065159254
0.3961165623632963 0.10690934201479865 0.11701835063232496 0.19532838353883766
0.39602775936437895 0.3988297355760214 0.27174071570403496 0.1992157981261089
0.3960722076995867 0.25271723673655366 0.19934138082542527 0.16117052654384445
0.39609425970736817 0.1802196669439011 0.14139274469191068 0.16254392360336822
0.3960826056464806 0.2185272059083832 0.15370311306305817 0.1546303565240733
0.3961054662822976 0.14338885346176197 0.14721878013584144 0.1709129358869707
0.3960735821005327 0.2481936361759182 0.1800601645144719 0.15975613797728214
0.3960701557092149 0.2594989946232387 0.10391745920567858 0.19523910841925013
0.39603296903848384 0.38171088935054753 0.24328328921233772 0.15318458178138009
0.39608014630980415 0.22663153879068115 0.11656308193529566 0.21421446238001954
0.39607224744392966 0.25258470880098827 0.1550384214140464 0.1663425966620002
0.3960569948859873 0.3027265592857503 0.1897800723073766 0.17059442456212656
0.3960510551683321 0.3222489951162552 0.20925048346987885 0.16307204970760905
0.3960688580614586 0.26376097041200863 0.11272489413417819 0.18975842192620412
0.396074725048871 0.24443151021248816 0.16154227340085345 0.1619612919409023
0.3960350207786533 0.37495766519234935 0.2508013754353575 0.15650068296866476
0.39607297508551076 0.2502217787711906 0.11032945470604293 0.21616342854576986
0.3960722454961616 0.25260727624181334 0.13116752007559868 0.17220880364110647
0.39604845224653895 0.33082112606103503 0.19275055250632891 0.16385105170945374
0.3960613297483907 0.2885141678706053 0.12347826867283633 0.17609047172548625
0.3960693988523897 0.26197364373178095 0.12553919974248082 0.18934658758219305
0.39608794323396757 0.20097713800090813 0.13202217018688162 0.17509221510524717
0.39603819025622583 0.36454748719962954 0.22986698925039983 0.16697791096426096
0.39605724365830763 0.30193385881985974 0.1521052049719403 0.1621125240310279
0.3960485679138211 0.3304333428119247 0.203615344744135 0.16743518334794832
0.39609089534549596 0.19128048126370586 0.11314310393116891 0.22569096670401662
0.3960615708152105 0.28769716437339343 0.1591331214225161 0.1731652787893704
0.39605250172712997 0.31751398921243035 0.17572404994485996 0.16285182187451244
0.396064804680074 0.2770915979887343 0.11400449619851383 0.2121271687141436
0.39604073851091315 0.3561655197714587 0.23105817384857236 0.1730909166507828
0.39608687321474023 0.20451023437330168 0.11160413155193737 0.205818412589781
0.3960666192584978 0.27109850250454726 0.15090360366116914 0.16950655862052647
0.3960418938867991 0.35239098600314966 0.1934298371730389 0.15575810995991568
0.39604381242167097 0.34607494707624326 0.20231337104172664 0.16677195232691072
0.3960616712379973 0.28739838514701566 0.11259235906788474 0.20683447391652082
0.3960794234066799 0.2290017793530375 0.1274547978318344 0.16952723510988094
0.39608017986721034 0.22650026659279685 0.14743703347919404 0.15870731531241486
0.39606968212088334 0.26102965496595 0.1437424403243634 0.17176736662037748
0.39607943601776063 0.22895286179561075 0.13844393515987363 0.15903511742054097
0.3960685425793524 0.2647840720508545 0.13416119838955998 0.17648574420559462
0.3960574251351898 0.30131843115134194 0.17950978950237684 0.15841855546796157
0.3960421410929176 0.351557911798053 0.22299730789756272 0.17242179934276253
0.39607189455957487 0.25376954229788196 0.1192886477840909 0.20323344204397045
0.39605833834533166 0.2983246478085142 0.16511251267383353 0.1688939830262061
0.39608800910551567 0.20076791653707965 0.12104950938951771 0.21671764917459727
0.39605861653742774 0.2974433199066432 0.1108143173197732 0.20713866821511764
0.39604836971506474 0.33111386551919436 0.1465727780306454 0.1671672310383186
0.3960453844774403 0.34092552964022993 0.11644811813268095 0.21813557177974588
0.3960279474133028 0.39822180910286264 0.1954671717858343 0.1971851093701783
0.3960388984669809 0.3622353198446295 0.18997581574961778 0.16382931522042324
0.39603888837451595 0.36226914065282334 0.17853469685219317 0.15694747411774815
0.3960256191061982 0.4058760368780603 0.14202565004073936 0.22854608989677597
0.39602875178373875 0.39557726687079886 0.21746792534637346 0.19387960849711197
0.39604010512277066 0.35827427503502696 0.11654201970596914 0.18385806983156602
0.3960404043977661 0.35728813966043843 0.1631977331148008 0.16676731849916374
0.3960291757636516 0.39418772349122033 0.15256655111376716 0.1773203681590013
0.3960522249330243 0.31844664275803436 0.11862142452058277 0.21337312016605547
0.3960233007202964 0.41349628221069623 0.11267028945072 0.20204653547544768
0.39603068332837327 0.3892294874105385 0.2250481897603959 0.1716109747744768
0.3960471218561224 0.33521328729178057 0.1680384225045537 0.16591642531273645
0.39602592620818744 0.4048604958918263 0.25300273354044867 0.21393977097825825
0.3960377085058051 0.3661482375768228 0.14586747033719905 0.15631817025832084
0.3960276777724638 0.3991115116004773 0.13223942730429183 0.2101610449630325
0.3960348862969457 0.3754197327626664 0.19310392051146 0.16294796207984336
0.39603691849213707 0.3687457847088976 0.12066558352370987 0.18845461421547352
0.3960318267306142 0.3854736202578805 0.19844648621507505 0.16799309095146983
0.39602600656324116 0.40459594965005685 0.2615119910699782 0.21217845586404246
0.39602718007629545 0.40074398918378495 0.18506984336336996 0.1942347062675072
0.3960398206120373 0.3592066549063093 0.16131542094387302 0.17521236295740653
0.3960428250845067 0.34933560587055923 0.12469711365983126 0.1712027690088887
0.39605365743395565 0.31373872009420956 0.1275215579957416 0.17352603362162242
0.396032984261481 0.38167525450243256 0.10324265647859227 0.19910063445944626
0.39603625784953556 0.37091476172407256 0.15546426850347095 0.1649418839871235
0.396024238501405 0.410408744513393 0.21475552904888143 0.2110276883449261
0.3960461084144658 0.3385473438367025 0.10283699264186316 0.1809838663483812
0.39602840309301757 0.3967237823520363 0.20585138206689035 0.18615078722175057
0.3960464824039953 0.3373155249389216 0.15229191310727302 0.16273023034607512
0.396048743957763 0.3298861253553126 0.1103106380189868 0.23224066384969946
0.3960326561513549 0.38275149822266985 0.1377225517283253 0.16110668658462618
0.3960339287282487 0.37856549293866315 0.20975782989738834 0.16469131772017898
0.3960254783950563 0.40633268411173673 0.24240484025019418 0.22157305984290684
0.3960332064507792 0.3809412376262231 0.1707862751922138 0.1580591347698326
0.3960360230040584 0.3716878130015164 0.13253093934554427 0.16783410107488206
0.3960328190287533 0.38221689341187004 0.12664313045427295 0.1724587285924841
0.39602704624115326 0.4011814311322908 0.22627094931309377 0.21375495652381782
0.39603180969457835 0.38552758333239856 0.23370415611781314 0.16640466564198092
0.39605189304281774 0.31953783843321615 0.10893886107663978 0.2049317388563951
0.396029468449282 0.39322044680026635 0.24800885418798116 0.16325246286872905
0.3960230000216406 0.41447782655239734 0.2278138527874352 0.19683047291881958
0.3960233699277385 0.41326767412327087 0.13330338523754523 0.21055051237529282
0.396024086623013 0.41090917292992163 0.19148327139939642 0.21705568779259857
0.39604276253393506 0.34954195967520496 0.11067619978167792 0.20688287117931853
0.3960334426240196 0.38016229707653865 0.22035702020929132 0.16135484981175566
0.3960302305137434 0.3907195945025164 0.1885607655743229 0.15856659873476706
0.39603733787612155 0.36736267163276337 0.20714642323422355 0.15558350596854817
0.39457888973757477 0.42048138838568655 0.15111994154713282 0.13564804455765955
0.39471198711013566 0.42015961537396984 0.1926807396880264 0.14664901354043064
0.39408326023469853 0.4212729752556674 0.16404011239196298 0.12684392159012303
0.3957412885277322 0.41714197007016596 0.17388316709800605 0.16542702956843477
0.39563257265502494 0.41765680441051645 0.23929870873235215 0.18141689939038488
0.39270432812751965 0.4229014007150309 0.18202153459709308 0.10740673152294015
0.3935942321050329 0.42192110493722007 0.26647929944997684 0.14008076185673718
0.3928399051762394 0.4227218469357132 0.22294054030018423 0.1320613166404746
0.3891775857084272 0.4252190147952305 0.24352561971235734 0.08374542636976182
0.38882980800669487 0.42538248864048084 0.2123813358944453 0.09210388013994121
0.38918513854872816 0.42522065402503284 0.17308537316518438 0.12758546826397632
0.18558286492000353 0.42610942729756174 0.27244540853427884 0.11064441127607816
0.22668424917011354 0.42613523540754966 0.277406840372058 0.1072828614855015
0.2872805420979815 0.42612456613662036 0.2665547119172507 0.07124114848072327
0.3237329335077616 0.4261578489495415 0.27483076442409343 0.08084706318548639
0.2759966712255252 0.4261252765633623 0.2680995896012236 0.07213950995640175
0.25966593830002827 0.4261073433815522 0.2632648600589985 0.06834708835382108
0.1630310684596473 0.42608558607504005 0.2661132807667741 0.10040033246861804
0.2748699818550721 0.42615209489859973 0.2782277874220123 0.08423839322443502
0.26594556609904707 0.4261432519852368 0.27594264252919204 0.08067411512489027
0.15400125841363932 0.42608551804416667 0.2671121913515399 0.0822958609501408
0.29984081773252 0.42612920832456325 0.2668615717390679 0.09187489180302764
0.11375662552226203 0.4260672722411811 0.2615326307790227 0.06320878884556569
0.08790397709905236 0.42607244077455625 0.26888543174618373 0.06600930466019651
0.05476289182897297 0.4260790662671869 0.2743954230000629 0.1153841387511844
0.14695836994127212 0.42606063426448104 0.2475508564023161 0.018141206331517896
0.13419714104967367 0.42606318567059315 0.25463248015535295 0.04477138614357194
0.16183145146771782 0.42605766051613897 0.23667608829661418 0.03441328504624093
0.07728678277271012 0.4260745631849997 0.26696451960821166 0.06491026774958
0.09333789880589062 0.4260713541118552 0.2602821051690328 0.060771261221281556
0.07836113118482804 0.42602291331044395 0.14423382631204296 0.0002797880775238058
0.09220452033081392 0.4260449178210605 0.19742265314812535 0.0003056356776897843
