x y z curv
0.054961739233682985 0.2016812483804866 0.06841783023733469 0.14976915027781526
0.05909118290901996 0.18655959042440906 0.06378285885124191 0.16497439558980023
0.07565125605510865 0.19721003568685144 0.05775477148250747 0.06180574320315977
0.07095050398288492 0.17206581630605758 0.05676747262756474 0.07901912186796785
0.08412521937648966 0.18371811697285845 0.052716027655397665 0.033731258518881584
0.09088366755579964 0.16409120006594 0.04934780197475021 0.026848681931745593
0.09929294971313098 0.17901160996234383 0.04785861781932507 0.02773660103100126
0.0996158286531833 0.15216779041694467 0.046825046362679604 0.027785066074131257
0.08763367711760367 0.14627063987426248 0.050247069796041675 0.026500279933791903
0.06796064823946711 0.15143585521524455 0.05751735146023336 0.08855636668655076
0.06193468286353506 0.16539308260570473 0.06079145122191382 0.11374179685612924
0.05443999985432741 0.17317751388911307 0.06523402828852722 0.12256563153668788
0.09175749320469888 0.1969677340356806 0.05225864158088312 0.032170010837374044
0.30842316078499854 0.20001621233330802 0.03824215346726063 0.04948124454034483
0.32699608083292064 0.20943990615285818 0.04094252439138055 0.031507659904791034
0.30944531749398524 0.21179526057638498 0.04143559723131783 0.043458566780744994
0.3295620889844705 0.17795236512075563 0.03603038156401337 0.08525113709694776
0.3296460406467032 0.1923197715723079 0.03737393725015365 0.058292615782377946
0.3556581168220876 0.1815853479706012 0.03663039223652725 0.03906896002592345
0.36878342349354964 0.17402691994521627 0.03630206991451563 0.03198538988362472
0.3481075898912828 0.17018482137067104 0.03615766388406701 0.08043310501129404
0.36334015461294833 0.19185713897793857 0.037842282634712496 0.03481972596749971
0.3736212061954364 0.16137337847298577 0.03594981281190844 0.031191644759841174
0.3490239721353589 0.15186002204661958 0.035802906613181654 0.11906139130004774
0.39102709688818194 0.172141723399297 0.03652286334496433 0.02504500330281093
0.4053696916208929 0.16673325083324206 0.03664042301674933 0.02729166003684836
0.40890727863654774 0.1791520455619731 0.037284162951514446 0.02730116158367411
0.3797538780747659 0.19295252835596594 0.03813055053328139 0.029036869075286624
0.429913979313341 0.17949781898236766 0.03815908664817114 0.026216074063399177
0.4078724037126219 0.15418921363185828 0.0364665380092629 0.027027275248172326
0.4262426379573365 0.15410081791176516 0.03712247727200593 0.026246094464590534
0.43250326334540945 0.16481861378224774 0.03763194138774945 0.02579685745780072
0.4193307900700447 0.16265563822867718 0.03687784731937572 0.028054418520063844
0.38800519285713586 0.15388042734935278 0.03605784278144335 0.025515229021395157
0.3622760175138199 0.15369691346511444 0.035848188832950316 0.048773051359322105
0.4427289680186429 0.182164492874834 0.03928967349371196 0.028994835093156854
0.42294171111406076 0.19731634090031466 0.03991589320025238 0.032047698869109326
0.4540298150681603 0.1911472646261488 0.041117548079288684 0.029044636401651454
0.440160482705081 0.1937008110586372 0.040408627356416066 0.03230402137884631
0.4483609601624339 0.16941399776840632 0.039027324592934495 0.026413233113200874
0.46159775842978484 0.16779723394717797 0.040339592918712495 0.024366387536738098
0.4878742310647941 0.17662713587742834 0.04491221179613886 0.029838386946276874
0.47613315113215715 0.168992892621284 0.04237939272283217 0.026936550958343974
0.4740685851869083 0.19134916406772465 0.043771866133670664 0.02761361660034043
0.4603701357394152 0.20250016968604823 0.04393988515496576 0.02909588163793486
0.47927763595289713 0.2026074939707026 0.046800221754620015 0.0312460474752819
0.4994728199145215 0.1950848957718167 0.04958681664699463 0.02749411604091962
0.4996407726295968 0.18158517244941833 0.047851437904006075 0.025639704306770875
0.5111511519465776 0.18169711085246484 0.05095212666282372 0.02984704876079152
0.5090060401066179 0.20400009448918924 0.05407771293976382 0.03045810019514155
0.4885767352802418 0.21161387780358804 0.05112942068793682 0.030637745916714042
0.49958546345497445 0.22047398075701213 0.05718075185502446 0.030527433889411273
0.5164288645863242 0.2190341815961298 0.06158250094491137 0.028348690169920414
0.5264818038621024 0.20461924242306284 0.060245109689289394 0.059990914977154385
0.5360917484367321 0.21588171964342 0.0673197956665999 0.09652917542851777
0.5191880928830862 0.23026092827879927 0.06747808613515871 0.05038210619576604
0.5351409515087963 0.2343258617295662 0.0739746812165946 0.13268785935073177
0.5093967531134783 0.23714540501425227 0.06876354572851663 0.06224646096599515
0.4968090640131893 0.2368104863149665 0.06581235191716116 0.05556239434900776
0.4831122926987992 0.23652913508412216 0.06328903220236705 0.04977998852731559
0.45680690875094254 0.22490186241087176 0.05218686642527909 0.03712876533253876
0.478358558428373 0.21934526858903416 0.05227486598322208 0.03217313570253106
0.4282054425406167 0.22150807348403906 0.04822760438861613 0.03047338448888028
0.44515615824982996 0.22382184757677026 0.05062205002594617 0.0381046816697045
0.44696198796622366 0.2032556721712764 0.04280616344594902 0.03250136689285526
0.40962001405265586 0.20246462995835504 0.04059912922005463 0.027544234888964913
0.3758529883956024 0.20633418737007567 0.0407945654097114 0.0326172565600455
0.3629884846545644 0.21007192643471828 0.04177316839607617 0.03285923702245251
0.3904826724433057 0.21728442678136434 0.04497187750708982 0.028039528306991513
0.3408462757255149 0.1974779601872733 0.03830668763059081 0.038682031818760704
0.340438850699954 0.20871092942933542 0.04096913065643065 0.033496207563391125
0.3568265334521437 0.21960693995053737 0.04556520327246521 0.03425012533958315
0.37688676664477655 0.21867568741411947 0.04533172560458503 0.03311793412401047
0.3182003252919141 0.21859353642345292 0.0444160639646771 0.029864880201563703
0.4044046564623004 0.22654356720309177 0.050163161499290496 0.03171382998127999
0.4188127595816002 0.22919741544954858 0.052329607589731576 0.03495974530782259
0.34689803581769063 0.2281968834465245 0.05032277176127402 0.032350454372861215
0.3599520670776571 0.23452357472253577 0.05525635430589901 0.030776634976785514
0.3295337374338645 0.23072905133856406 0.05189415630436339 0.03405443191881865
0.376449797725432 0.23280355659295174 0.054016277717312156 0.034027551431682915
0.4286039009189011 0.2341495300263225 0.05646388018800249 0.03295852209396649
0.44120326230558315 0.23926994509896998 0.06164000575548399 0.030650695095166186
0.46464053085528517 0.23595352709015294 0.06042280744902886 0.03646025290879927
0.4721165173117958 0.24228226443883735 0.06682629156739243 0.052835532004617394
0.45498071189095945 0.2469829368318174 0.07052865254957409 0.03948965730532204
0.39374031270862725 0.23845047179947343 0.05929874902146725 0.03040994950706832
0.42838952389145335 0.2501402114408276 0.07349029038355895 0.03501153917683787
0.4150061102107623 0.24475039336252727 0.06638697395997001 0.03406547583887117
0.3720262344509058 0.24135763788846576 0.06179620220692584 0.03822177853026157
0.3404937585324387 0.23944982680549326 0.05957701785850161 0.029633592492219925
0.35889376973026826 0.24390498666968946 0.06469259304582263 0.03419000941930904
0.3164364037361609 0.23047108724091847 0.0515436267686576 0.035652570278527876
0.3291272082709368 0.24371103589730594 0.06436952871577425 0.03162544151125764
0.30359172561343906 0.23665885849044394 0.056822347295543404 0.033691668065569357
0.5476646095708227 0.20268527335859682 0.07009319071626188 0.12379643008907737
0.5332920466981372 0.1935867754063981 0.060766854423268415 0.10215498123901273
0.525170397467698 0.18503699925380873 0.05627720098102221 0.0432252663975951
0.5392151843284613 0.18440039602791364 0.06255297805363245 0.14017974039952522
0.518486839898215 0.16966799377020259 0.052616344528742226 0.032134605448937724
0.5306301445924072 0.17084033389464665 0.057405284526025266 0.060685380212029696
0.5362399942242961 0.1585183681003405 0.05970062664531981 0.09850737822077973
0.526204469920248 0.14145702822932657 0.0550240349193606 0.06942711448983535
0.5241613945705351 0.1562065504840729 0.0542392285280947 0.0478132720344192
0.5081552498533181 0.14181387238694512 0.048986961437300774 0.028520722251875047
0.49679838567109963 0.15757151179417944 0.04596904015350658 0.028490374513439446
0.47143449243571717 0.1463580470072986 0.04127681355455595 0.02640085600423929
0.46682367280364717 0.15822666515435502 0.04075541621847813 0.026304058649373963
0.4499185050999565 0.1463135551540344 0.038743686889761736 0.026467367058494652
0.4458432755032774 0.15831963461266393 0.03848101343132702 0.02745883014524259
0.5481108601287442 0.16583152058358638 0.06659641936088719 0.14417701846361303
0.5445802172774107 0.15087312794316568 0.06397241934457301 0.16009478398473195
0.516010058244273 0.24487778178723196 0.07559651730779154 0.10074560925692383
0.5323172881175955 0.25150368475458373 0.08520804103432864 0.18385305054430745
0.5454740396987766 0.24363421109764005 0.08316380288091679 0.23307414095775592
0.5451543090910032 0.25519310043373217 0.09253486904510627 0.1368504105306404
0.5552988028212695 0.24837645766787314 0.09065597718385796 0.11710557296659682
0.5465663209351812 0.23033346332895638 0.07753493798911142 0.14727787478535892
0.5555471887995143 0.23685103998153395 0.08516901599336534 0.11282664443038905
0.5658913850523692 0.24333832293203084 0.09492724743573366 0.11844864699877958
0.5664674745551822 0.2259924092886085 0.09030499806751013 0.10312440188714972
0.577329650684178 0.25224022958167586 0.10877501007830004 0.1848545181141681
0.5633472092175128 0.25414989270280086 0.09892551816119188 0.09948152076426849
0.5857685664325422 0.26401389657545016 0.12514863486282046 0.2240039272176866
0.5743696495584534 0.2694872442174026 0.12279426646240453 0.11994550303903738
0.5729924964119136 0.26331968704627073 0.11301498306701173 0.14531478629544792
0.5573454389406501 0.20848765131685038 0.07801147480989848 0.07618069417153382
0.551579190981638 0.2185888040356764 0.07637151854494269 0.08960272987856073
0.5352295296674568 0.27132085190536287 0.12684042886885283 0.04245828418233294
0.525537653863868 0.26974697144606363 0.12045658762929395 0.027160198287006786
0.5624202329388875 0.2677851753856411 0.11607408068502381 0.05890945396633813
0.5358836491261276 0.2679295392112631 0.11523297415085544 0.009037659288631473
0.5484338107978339 0.27064551697828176 0.12397998737900984 0.022705440736355758
0.5515842850956297 0.26585940676007064 0.11072513041693577 0.01916571194147676
0.5434334650347086 0.2630474769675406 0.10412082868410992 0.03160422523380211
0.5168471354103226 0.2627390713581337 0.10095317549885581 0.0485859327586561
0.530461679935427 0.2639709842614192 0.1048613741000717 0.020437651885882997
0.5093149889205224 0.2691848376202559 0.11782760227947467 0.0211544196466689
0.49804922543648505 0.26669571072085535 0.1097834106468944 0.052506176183727625
0.48541292291831184 0.2667661526160418 0.10939127532402342 0.07530930772669216
0.4600672384410079 0.2694473017379828 0.11772002904979521 0.10105459869236388
0.49119793762715314 0.2714903206582991 0.12589670006410494 0.08303795276435817
0.4801971666630605 0.2704404791576644 0.12175908712836414 0.09828200069536384
0.514350156309137 0.2718006176186045 0.12725615566196685 0.040197853671552104
0.4710411451323321 0.27314401980179653 0.13259950006049953 0.12457516731032747
0.4349431113227109 0.26959444291546936 0.11801214040294891 0.05715991556573652
0.4521556872949963 0.2668424974219913 0.10882301689834714 0.06709954754051473
0.4067436646498853 0.26636397545335433 0.10702479062782147 0.031689211260774924
0.42163845186276183 0.27094414447967974 0.12331592887342424 0.07683528751569733
0.37388885217958334 0.2724039615982601 0.12915564306942556 0.09721950062834633
0.3601563152293741 0.2703621540999644 0.12088447844550312 0.05918363848890414
0.381275936968249 0.2692916820377178 0.11681434867832477 0.051633910973555124
0.373141622467946 0.2654892849646887 0.10438745473549312 0.03642869950517418
0.385843986658342 0.26582786180120804 0.10538252847999155 0.03636389878466315
0.3968333865377044 0.2644805605242465 0.10147422895449963 0.028452025496884813
0.3401545650329761 0.26566718738163353 0.10505849992901974 0.039091585976087015
0.37007221801501194 0.26086373657494366 0.09251022651389175 0.03151116050290906
0.3377108435233717 0.26143686900970875 0.09399593930624277 0.026625248501176584
0.42272896893672485 0.26369268872353063 0.09938904125403883 0.029504296443011637
0.40832307807549806 0.2614500352754933 0.0937464046372947 0.025403943841831575
0.38806870028638485 0.2612319600162576 0.09326818750491528 0.02764393446471081
0.3604811498750013 0.2572674417872945 0.0849273492322131 0.030060191673427977
0.31344002653064135 0.2603191746755649 0.09146347972729366 0.02650819221223669
0.3071826663240469 0.2539083304331611 0.07907621975996648 0.03535402857811929
0.2977980268693597 0.24945417231189354 0.07189022124886645 0.030674321606510506
0.3214954050798363 0.2537710368167858 0.07894049081512639 0.03411600449961312
0.34774100227993293 0.25147972312630273 0.07490933822659562 0.034008928455900464
0.3838651946351932 0.24889333054005242 0.07108228329690959 0.030981615634310674
0.3641209728695356 0.2512887353149977 0.07460593013953153 0.030163621545816498
0.4097874695420479 0.25323639813925036 0.07781768881283933 0.03399259024760852
0.39170718913163155 0.25486183499593384 0.0804469543422828 0.0267434862086063
0.4427590423192119 0.25117262390387046 0.0753546985136981 0.03235814231807939
0.3806033041079723 0.25723009040288375 0.08477065106701438 0.03224493865304808
0.43537023585865997 0.2561766848413712 0.08312391296492566 0.029778121220527247
0.4196116615120274 0.25899107720493586 0.08828896137542888 0.024914524594637395
0.4633757060254454 0.2571955468268425 0.08611151660584858 0.06414979150323588
0.4712654051791435 0.2513469203112495 0.0771450248399833 0.05812921193487913
0.4430340567862283 0.26329235470109086 0.09862757712036237 0.028320734786130824
0.4581262826744117 0.2636435346140805 0.09984301020973527 0.06698524454965152
0.4814717205544764 0.25504418887150826 0.08340085530370654 0.10958283948894146
0.5019647136016574 0.2559368626157098 0.08672398090125197 0.12480744668260117
0.48883454868805076 0.2623718945179331 0.09804918813960337 0.1122881127418446
0.5062602274739321 0.2610985877240407 0.09635651022514934 0.06177507472351642
0.4731646542101319 0.2634761774499772 0.10000281321520646 0.12774102509863247
0.5181376420710719 0.25417015646992686 0.08616906019051747 0.15471018840913542
0.4875822163712131 0.2462686940657507 0.0726981643986797 0.07743873029610442
0.5298628323205791 0.25815142808052516 0.09376593123242163 0.12958773232626902
0.2848206606078998 0.26155725019193027 0.0943735186602202 0.0315250146312952
0.30163948443515154 0.26322523294041067 0.09839257435329482 0.03180439828605275
0.32601926970078476 0.26296005953621854 0.09771753412624297 0.027547592883602704
0.3129126119105948 0.2655813410730154 0.10479134896551633 0.03202181290842139
0.3504234393426536 0.26805061960482923 0.11252346453489565 0.05254379681550932
0.2994529112161084 0.27011093564144995 0.12002847225610161 0.06472750115440248
0.3243278857580925 0.26854154676386494 0.11427269835231905 0.05328902272849104
0.327778804183098 0.272681647633168 0.13043441474572456 0.09450109013213538
0.29226605838116726 0.2727298419340966 0.13067036929278705 0.0992290039661425
0.3035716195403716 0.27333584038735176 0.13339279932305947 0.1033186413245686
0.28044100480436873 0.27295125339420956 0.1316397154178952 0.10592580659310744
0.40156351243791794 0.27324426005664565 0.13294808247845638 0.1123199603553693
0.3524163239085293 0.27291193092291366 0.131431648320454 0.09525065723892524
0.3400164443130647 0.273724292230338 0.13512228893209688 0.09450364963830113
0.459441854982387 0.27418205904252446 0.13725694468920888 0.11246510573110434
0.4178314515589909 0.27348483111635463 0.13404845198545537 0.09774243718446225
0.38845047523024323 0.2738816668675198 0.1358521322960189 0.0809745739092314
0.5433606054563456 0.27355148345735286 0.13467467906949512 0.035831972583688546
0.5605058999064434 0.27180217508186 0.12828180957176494 0.035520264426103156
0.11656885870346154 0.2720579686444291 0.12804165353354968 0.12561949682775828
0.082081542768808 0.2712167105473199 0.12543683126016858 0.03637869862442751
0.13335006526201795 0.2705713751007885 0.12202322533376136 0.1161358536228733
0.07433385909499182 0.26716346700300386 0.11246738180440019 0.0030226737674676953
0.08913576281258459 0.2677390511549261 0.11339927217035037 0.011784492152401438
0.10257686270901553 0.2672416093886291 0.11125547448329828 0.08194505095877108
0.11323989252121074 0.26932064978362635 0.11769245189118195 0.08281125185633646
0.0629277686503196 0.2652778261738927 0.10836830659699914 0.0048154673028766035
0.048970866166616535 0.2647405434133705 0.10795552837865047 0.014136898561241732
0.050969250080851916 0.26922767385087587 0.11944921693045436 0.023444646946117607
0.060118764838294814 0.271476393065858 0.1271626184377634 0.04425545990270836
0.08525426094898544 0.27400335916250296 0.136468365163273 0.04622829881878983
0.17377694091813753 0.27410776987520696 0.13682481009268482 0.09165080835794207
0.13219830455320353 0.27338406487991224 0.1336040127276807 0.13330275264201
0.15480876184813835 0.27316479062934806 0.13258197383891426 0.07846031140704039
0.0416152720176846 0.27172474882840064 0.12813640845597288 0.048603492685709924
0.22666735452798795 0.27264972468488835 0.1302427597966076 0.0859861736519365
0.18818789312566903 0.27282313364293126 0.13102395829717678 0.09289199554348421
0.20374239953180648 0.27351494830683776 0.13410961863730783 0.08792599258335314
0.2421149773431268 0.2733410667636329 0.13332632990237436 0.0861700168402548
0.2562236109441701 0.2724029058734436 0.12914660098752256 0.07899779162602259
0.15673242998792153 0.2703731676040413 0.12110683163942146 0.06252131536550151
0.18153752821388847 0.2705914945955866 0.12188270316430319 0.0773200463111418
0.2002343687200558 0.2711503323234161 0.12410170402068257 0.08048223079165834
0.2156483442716286 0.2703170782895282 0.12072843505951468 0.07200853589719863
0.24805372358902258 0.27056765476503086 0.12171816376799037 0.07384405714234019
0.28779692253807027 0.27013165779139864 0.11998228845231958 0.06565452312973895
0.25919143396804833 0.26906092355721434 0.11596731513859337 0.06455821973863546
0.15310518909794563 0.26580508670873115 0.10560522479863527 0.039832695702611165
0.19244306415728182 0.26691155776577286 0.108725278399762 0.04283740582219733
0.21435742508027247 0.2671757696996145 0.10956648707100168 0.048545984780655374
0.2047966079795912 0.26466714544006703 0.10197344802751908 0.03441279414672545
0.23371545320237358 0.2628120634581987 0.09715403055885506 0.027675293218544346
0.18161373982575854 0.26287921825444766 0.09720306410989349 0.029845877193057414
0.22088397432377327 0.26022313176674783 0.09099262059066882 0.027181901348099828
0.272436715721967 0.2624897824325451 0.0965349111112528 0.029829238597764703
0.24253476375867802 0.2598357206443868 0.09020777522408384 0.02849593953223961
0.29418772565120244 0.2570920725946642 0.08474281832950445 0.03194398011859216
0.25801716727100316 0.25390848730733695 0.07889879628768988 0.03145588674134067
0.28177710317657545 0.25592715034436264 0.0824416683936226 0.02940363784932708
0.20977130818454257 0.2565985724628049 0.08349633208634163 0.031726621332216334
0.2354025089152063 0.24937696851288982 0.07175467893599519 0.03377886475170264
0.18867537303195397 0.2533517857964336 0.07802632076600644 0.030213180855889823
0.15804094799708024 0.248769983373938 0.07202291124847661 0.029442985951282682
0.1665963197441786 0.2575813660418297 0.08578894146365848 0.02730785148925314
0.17953547261889732 0.2583487736087349 0.08704433314897128 0.025964283420591684
0.13684308448988625 0.25557171981493276 0.08308138059303842 0.06045384940975662
0.14606919336764534 0.24888854318016823 0.07288540669234837 0.03630595587894296
0.1150039248429165 0.2565556072719289 0.08633935216758752 0.1443778560994963
0.1118140772053282 0.24972568895490366 0.0768433081530164 0.11623044396030964
0.1474700071585574 0.25933397437917144 0.08954855054665907 0.03544742438546681
0.1315690374307959 0.2614656703691906 0.09490803500112341 0.10750756803332563
0.09691015956159336 0.2570747588887263 0.08858643432977557 0.13073284856738518
0.08551168508986115 0.25108901923452454 0.08167487246109359 0.15414218643306385
0.0839488191426965 0.2578284841384104 0.09143641968464827 0.11549942705859621
0.1070755616715011 0.260655973838742 0.09462242814270624 0.145466896398073
0.0662826734222806 0.25942163404998203 0.09610678895349511 0.10110809635167116
0.09137371494743902 0.26398921315550217 0.10299129063034598 0.0332051361200715
0.13896766676162892 0.26689608035079815 0.10921121071812352 0.09007768001730632
0.12148439938927535 0.2665344735151304 0.10854569408815454 0.08752878592382009
0.12066414189334904 0.2619713884653119 0.09641827228674213 0.13228262271017702
0.2904919890181013 0.26566876755378 0.10507964919196232 0.031907095425368986
0.2697424293069239 0.2673499765637238 0.11021227963122607 0.04483114000474521
0.04482678942810907 0.2147291729032477 0.07782498502938066 0.1071580522634423
0.0476704522753498 0.2279947237440063 0.07990693656323856 0.1379257216693298
0.05718969883930148 0.22294077650564587 0.07277635242874314 0.17606300223078974
0.05304399614637062 0.23757710761769377 0.08071054049526921 0.1623041990655166
0.040787518694424554 0.2369397381366263 0.08750810147940746 0.07404510352242531
0.07208471042565771 0.24435084525041567 0.07796543227417094 0.1246084586579763
0.06140677396601289 0.24851461188265084 0.08409758538624684 0.16294488374007518
0.05232984858684159 0.25808212108382306 0.0965129292125715 0.0743478384704493
0.03072428649814608 0.26709346904472536 0.1163138114040022 0.12358086635155449
0.02760013631242516 0.27145534851827 0.12738086628040962 0.12106697773589711
0.014966436850850657 0.2678255318454013 0.1280556762131038 0.2214749253643292
0.015356596968400601 0.25776014364101085 0.12096011457148209 0.23933396754593195
0.028554707148884324 0.24092687693056897 0.09870060720835194 0.20933437517706552
0.027986625464685548 0.2551629015732855 0.1055717821903982 0.16110928268074914
0.04017085623803934 0.2550884205449291 0.09783808769789112 0.07128858121146678
0.10618706789831296 0.23759973495941922 0.06574566760588543 0.053197850780239704
0.09714552909345463 0.24416830428826702 0.07265580714425451 0.10792617703284377
0.012260001928298365 0.1511932612370819 0.12262359698627515 0.08269188403225877
0.012784576922062602 0.16220268158716544 0.12078769385667824 0.08501716715565676
0.011243642313102067 0.13834921915767237 0.12615742410080893 0.08094662677229107
0.009893749410050324 0.16967165837134945 0.13229222830524429 0.07113980205337724
0.010283171400599379 0.11328998825645964 0.1303952470521992 0.06274643253373222
0.01438291585282304 0.13652600880896398 0.1154187164843443 0.08168192894079476
0.01872687728397028 0.13937691711595504 0.10416644112743029 0.12932931642959417
0.017956394649063685 0.1529663566268176 0.10593206436617086 0.12139132724444614
0.023851703977442233 0.14688907187038977 0.09480828949911548 0.1911077453015313
0.023427867173312945 0.17655866465613093 0.09589944092515258 0.17900296406686034
0.024242009111505286 0.16360320209350931 0.0940987883916114 0.19317195820942426
0.02921955525481017 0.17183513753151702 0.08728925620392616 0.19085535621136518
0.032178979010732536 0.15844960737991992 0.08309018570555339 0.13011561784663064
0.029734600643137404 0.14054066296237627 0.08612495286574966 0.19242384734563114
0.03895477374711302 0.16890903739030458 0.07649165668192644 0.10402510043985377
0.0315916866882917 0.18538554141403474 0.08541578301280985 0.15993258941023225
0.03881531778134235 0.1824740198800852 0.07768047132940976 0.11326044713899709
0.04660518295250457 0.15646471982964066 0.06979151493543062 0.12482024497488406
0.047955973928755946 0.1886317784602547 0.07091377868634144 0.16734003199941644
0.02761692086781833 0.22039876517449997 0.09520608538154564 0.18144523241560123
0.033157229589989234 0.21283655676410795 0.08742122110215615 0.16175660798859026
0.02524314495320936 0.20953188637311448 0.09651653462277829 0.20758855159342676
0.024258135317295256 0.1966565014472467 0.09623760074488825 0.1808026428109732
0.03279616109755779 0.1986430210281599 0.08557987864173022 0.12069738786192058
0.020556612863664073 0.18678012230477803 0.10192201704135667 0.16873753083036458
0.01799007163995547 0.1721856810826251 0.10636641959145121 0.12995168046629282
0.01677402881437859 0.20479441190891617 0.1115979344087034 0.11392935100776358
0.014676632258194919 0.17968529268057437 0.11519979436957914 0.1009503977252896
0.012041279354111587 0.18772422023167262 0.12450534863255794 0.08361204867156737
0.0127096246705953 0.21287441824175718 0.12286436190697592 0.08993096489343869
0.012218610040524054 0.20142270126204248 0.12398394840263444 0.08072266380338847
0.009296854435926937 0.1916055597979694 0.134769747878738 0.06358471195468643
0.018045124737905288 0.22746213681704253 0.11171011251183928 0.1619324431695123
0.012091209898915638 0.22667052239365487 0.12560620691643912 0.09401614487880214
0.012007240807089356 0.24047846113676413 0.1262069562945322 0.12458106937421308
0.016422512159186043 0.2420303940700781 0.11597758821653745 0.15213371072915285
0.01169837120303192 0.12522005373061038 0.12449020604847734 0.06801417556979436
0.013303784321233128 0.09822761934445584 0.11948341473015935 0.08893271131729678
0.010210689597306737 0.0878732959346763 0.13092651776442715 0.06681621830780743
0.013765247751392356 0.0868448990749141 0.11924567346425302 0.09844459456762852
0.013917386708012017 0.06793212880901708 0.11931719114121839 0.09354488244826088
0.018588228614466087 0.08893168840788987 0.1066837476827707 0.11971002531661003
0.014556186842322962 0.11154938416974315 0.1154565488200981 0.09883254301157335
0.01839353804873377 0.10870849764438044 0.10578925662090508 0.13669942018574688
0.0247223803958704 0.1259086011297908 0.09325614110942489 0.17092845406246002
0.03161812582128212 0.11863111243793273 0.08392810510650074 0.12232621330899042
0.02912223360913567 0.10747095082614681 0.08761974615933034 0.13123487881392756
0.036921534252060295 0.10252750903032734 0.07930180453217284 0.10808388180749418
0.04712754893508209 0.11926406474749905 0.06958393575269073 0.1555375376629734
0.03701678332496612 0.1271530492633723 0.07805986140079911 0.09931306080271475
0.03972765769560875 0.1426551173252374 0.07527279080480519 0.13434837156807083
0.03547548869650598 0.08012691035156089 0.08338196246335791 0.11859874768693225
0.03009642906387686 0.071985321237877 0.09046457580000684 0.1612114107791841
0.028818707233447993 0.09140240375658802 0.08920298620632133 0.15217975339691694
0.02775178702724465 0.060504409067556976 0.09547517634625331 0.16826322114743664
0.022663458316928002 0.0798113479565743 0.09973201793810257 0.17884931673593152
0.018286170131187475 0.07003962733260778 0.10870181309469662 0.13618201458134527
0.020992875594878883 0.049439958829498636 0.10702303199399629 0.17991964397699392
0.014072119784307759 0.05210275601969885 0.12006095132848639 0.10085562188775624
0.017329794073585567 0.04156351104550225 0.11425273352289494 0.18807115985163975
0.012556616559799434 0.03069585941604277 0.12528032299604794 0.15420458853619406
0.009738571675361792 0.06467206418232174 0.13304918020715498 0.07917931654002852
0.07477118812511659 0.039060002158158816 0.07701084018494626 0.0712234797651883
0.06298270376846 0.0371846816030705 0.08167826957332837 0.12698902249352526
0.07192717401957091 0.02922688283002478 0.08743134789344552 0.20724855666522235
0.06090189196417799 0.025205307733574905 0.09516587695304256 0.19606871352883729
0.05323563028703075 0.02147897805457055 0.10263010892308558 0.19026196192202066
0.03640390256364921 0.02135291569847429 0.107421088754889 0.20521490726663283
0.025252421514689132 0.01395425393769879 0.1251911844461606 0.1584915681026623
0.020011269230595197 0.024305661177086282 0.11569308189124058 0.20958111537145896
0.03558074291655508 0.030033160477165147 0.0994089767608583 0.18190680687527014
0.025114927514787694 0.030452556298557053 0.10684359773539726 0.2106726676628725
0.05083694246401968 0.03886298011967482 0.08535649852376473 0.07276706145240555
0.054211926817339655 0.04814372339093824 0.0788554090129633 0.00949570233619865
0.038894700807408505 0.04089411659999677 0.09083177612981318 0.04756223370323986
0.05358283045571586 0.062146960741589805 0.07386804930805504 0.12685962858188712
0.03731113679723277 0.05393083878707844 0.08758361030005225 0.09056429732356323
0.028061187998315144 0.04936147649926488 0.09764291194522791 0.1600549934109113
0.014074677083115756 0.01718060763138402 0.1284389091844553 0.16328930300402356
0.035687527210879505 0.011408093479078542 0.13098637129121635 0.13449495135575573
0.05526739100253472 0.011012696358362745 0.1318028855529147 0.06760102290884
0.053084373004950294 0.014879192238132858 0.11858199185587284 0.11920595962152576
0.0372806661687802 0.015014542306989247 0.11930526502960524 0.13852736015509978
0.07073384523041365 0.018530989945492703 0.10744746380822286 0.13055745411792047
0.07703933519849587 0.014242201043968696 0.12019881983156014 0.09450175677391216
0.10123295438123689 0.015841172396512997 0.11250835544454531 0.10612309249292994
0.0789358301573368 0.022235255565658706 0.09831349915790663 0.20902431437306815
0.12195803343690109 0.017355482516592396 0.10672517783438783 0.11740572454241323
0.09557105318609603 0.02401116627649943 0.09272186201004026 0.20062252466112804
0.14982035401389282 0.01636823197422291 0.10873318926325326 0.09632279788498027
0.13137649353544723 0.019146898589657273 0.101191473901089 0.14627944072795787
0.11125280412231117 0.02207003044026666 0.09558886404787244 0.1804371496569802
0.23768076091544715 0.017508177796018848 0.10439654828176634 0.10952158266282556
0.1613681200161273 0.017155024626216098 0.10591658224975252 0.09921332807381801
0.19594573184947212 0.020098671420070803 0.09748289652223349 0.12309999838210633
0.1779668220108634 0.01843651315506026 0.10211010639033631 0.1175304900720069
0.2168796291251471 0.018980688024727015 0.1004436012634073 0.12082838707126997
0.23037816516015686 0.02046856776023437 0.09637781049820687 0.15137982700474473
0.15687410813716163 0.020537692165427127 0.0965798179746995 0.14014041985749087
0.14116472349990572 0.022239907290875646 0.09316155450399793 0.17822302843133578
0.12627188270176418 0.024524840890272258 0.08908141811306888 0.19734108430292086
0.10315283917264415 0.028090737313188882 0.08474976016031432 0.19362836250328283
0.09287583307248591 0.0335041439208926 0.07880249499237657 0.13541045062208826
0.1251165989440723 0.03049297616738067 0.0792778647964758 0.15193710005801878
0.15087260485856654 0.026221528066636815 0.08475299913940344 0.19742200139349167
0.18979026415038297 0.024206803310766085 0.08799247457512627 0.17605613962177016
0.17406529009197352 0.0252192246903844 0.0860257173989253 0.17921744623952138
0.1625923724211752 0.025601210807103623 0.08538692881903806 0.1724008108780665
0.20134841607232312 0.025308504576058148 0.08567281103589533 0.16511805932313717
0.21485642372025016 0.023774279236500655 0.0887143657806528 0.16041535949169672
0.24916183209416834 0.021396631983068414 0.09413028362110248 0.14513052065517443
0.2928909653764881 0.02440785413445302 0.08752741078931328 0.19094830834401616
0.25196229968024575 0.026270515258705014 0.08366914295763676 0.20274602985954712
0.24030509022169871 0.025808893470425767 0.08453667849791027 0.18724771394042497
0.22656717657822587 0.027058827101948783 0.08215315106299743 0.2207469255600313
0.2938876109383692 0.030047430569805057 0.07707012220774327 0.18771100496571233
0.27139286336939916 0.027655930948963604 0.08119158958115436 0.16099177347313606
0.28376452927573936 0.027766412275286534 0.08103995132457475 0.15903185101094136
0.21651777539753492 0.02984864607111553 0.07744715669666 0.1694522433840715
0.11249269124507269 0.03831338873034018 0.07091434146635395 0.18460293321984517
0.18444872357896824 0.03221510642235138 0.07388526576751969 0.18282410790706802
0.16966871632960304 0.03140951176597886 0.07545487913002726 0.17739035123845312
0.23669073562575163 0.030983354479900464 0.07549624339430297 0.19762086525809613
0.28120796148566907 0.022240493044661566 0.09225571655411927 0.1590592781806535
0.2982675540493696 0.019219916723739842 0.09983438858429813 0.12875446806735236
0.28716103330099335 0.018249662741945817 0.10258811024666284 0.12520149659708546
0.2743462904955437 0.016360249729337882 0.10793548043944934 0.09681226623163837
0.26360373848076896 0.018376814265435172 0.10186358683384714 0.10950421448875937
0.191421013215937 0.016015814903353447 0.10932226817789452 0.09562642261626009
0.20949753390709097 0.014377588128247602 0.11473117164314435 0.07973923626498743
0.24716392672202964 0.013846021923000528 0.11617288522850992 0.08229632945750237
0.28019973183409624 0.010869442072102633 0.12816577105751795 0.06530801507054815
0.26755105989600536 0.013127743944398444 0.11881064215357712 0.07227553554235219
0.2950516002714659 0.015143512042643895 0.11149735597267867 0.10479856296680373
0.2923841206012284 0.01221519121988203 0.12322209221542374 0.08657254975030015
0.17146357854095856 0.013361337204487967 0.1187792640595443 0.07698534426224085
0.18564035104278198 0.012929569869495545 0.12031313058875981 0.08115506754573061
0.2265193777198146 0.013293677933509676 0.11837841499290569 0.08215404062567849
0.21774263410219108 0.011135910531939831 0.12725183620849972 0.056782573482972915
0.237699329109068 0.01164238556205891 0.12491753012034226 0.07108427037479666
0.25771250027904197 0.010502431749655303 0.1293358562404632 0.0671437665486828
0.17805256753819826 0.010311011046372512 0.13120891877969887 0.06774761182228019
0.19606182203726652 0.009921944334323645 0.13267629973978967 0.06883099342467425
0.15829930723067256 0.011671725122026208 0.12565379621223763 0.06250577292716354
0.12989502430157782 0.010103670148683078 0.1332198711046112 0.06451867842417182
0.1426263786790135 0.013699477932287964 0.11827732492842108 0.08449650345497868
0.095293677119455 0.0125304800857108 0.12428950327098695 0.07502495654808888
0.11050870355172342 0.013376216623378366 0.12079432075031668 0.08511741513123836
0.08604998566949947 0.011035414690162252 0.13066128989212739 0.07043712618117313
0.12998118298491074 0.014576319181928397 0.11556764952391063 0.10096425771615665
0.3806266300300204 0.02613765098799111 0.08393134070286183 0.1835245622577551
0.4616627751096365 0.029800899938665235 0.07929919056439043 0.16401315463478794
0.4436303712319669 0.02914549364079687 0.07944490352837383 0.1371081185995533
0.4025097588546518 0.028762253343388444 0.07943013827172492 0.17404250113949074
0.416618691221631 0.030200220053408285 0.07727709346320913 0.16119556885305059
0.43002151293146473 0.032561626094265536 0.07380563439090757 0.14977081295160538
0.31412962463695304 0.024993713887753365 0.08632097332030071 0.16790840584602296
0.33780008187068866 0.025642249284631546 0.0849217237872622 0.20045481394532075
0.4119239839285064 0.024788634023910947 0.08680221104452511 0.18511220819918836
0.3622596094560968 0.024483657362197098 0.08717050168445145 0.17568149857056548
0.3257934633570861 0.022256311296441674 0.09219919326466078 0.14716993620633625
0.34639978050644715 0.022019239486808815 0.09269256926603714 0.15301132428121525
0.3890110734699031 0.021873700807517403 0.09310013887870262 0.15678676141536077
0.3704099909650319 0.02127035324624249 0.09446964371693217 0.14482549672178285
0.43033142915293093 0.022073800444455845 0.0927593939503612 0.16226052970705424
0.4523688527943607 0.02483476985996086 0.08754382108413898 0.147766172893688
0.47346372744830123 0.024759775335630497 0.08868296759794243 0.17834705392446817
0.483537748124625 0.03294025416651064 0.0767324649436682 0.16043397472997556
0.4920213127841034 0.027315459419619593 0.08568269334411738 0.1782718660674874
0.484734239058798 0.022993421339836492 0.09335359197417997 0.1636348737170224
0.5041802237336634 0.024846459987734576 0.09134855642700462 0.18235337968843324
0.5237004192892071 0.024140754834280076 0.09475420336767433 0.17001164817042072
0.4592246168267273 0.01992253178610673 0.0987519721268562 0.12553412433627775
0.5138531845419091 0.0207866416827168 0.1007264939481819 0.1493311652139842
0.4921761391624613 0.019585437730393736 0.10162861421869564 0.13756697577709126
0.45791540387677093 0.016355223947566618 0.10902817397900055 0.0997563499000023
0.47888825223572284 0.016546750120864036 0.10931649953518707 0.1021927262015949
0.5294154475972216 0.019774467890942324 0.10445033991503161 0.1460534472214166
0.5236597429837219 0.012467443912679455 0.12652921163406916 0.08433593785767991
0.5160315129434168 0.014686670679441474 0.11759626120653972 0.09491341551119517
0.5034950492941763 0.016439761850178928 0.11087169224258851 0.09946995004770089
0.4906220285116189 0.014568014663246039 0.11636363325691432 0.09081737333513604
0.4468555529209743 0.013797299481994516 0.11749643397351187 0.08317892928116602
0.457112987686114 0.012351004979667549 0.12360103824121448 0.08087896749083945
0.5019296817204083 0.012189474733269767 0.12544785470291994 0.07477961687304753
0.4724294133420347 0.013342398186583102 0.12031071513477143 0.08123662804572965
0.5432848718801374 0.010642471543692775 0.13332443311958428 0.07886144292462832
0.5546008518852348 0.009883920463563806 0.13681730861665725 0.09084386094691449
0.5382555678960332 0.013667003783627747 0.12249625930382751 0.09183221560895029
0.5559929500345083 0.016576448625742403 0.11444583006359098 0.14994342637131675
0.5637532229414706 0.012029241999233503 0.12907347669555128 0.13992836077804643
0.4678876715270194 0.010355406672574834 0.1321793851218898 0.06739449967772898
0.30293436479787184 0.009454323946515733 0.13378490646108207 0.0683339421776389
0.31873661262136427 0.009730505495978578 0.13263571997437734 0.06567654330634205
0.3510100759388559 0.009809500501429452 0.13246611532643876 0.07013946117898222
0.3892499210209243 0.008863766535158335 0.13699612149509488 0.048001060932560055
0.36812873714232514 0.010519411539859323 0.1295704591568548 0.06483896422917625
0.38192709416168447 0.011578342641948354 0.12546532380254596 0.06461711555493978
0.33723916371102347 0.012085441164648932 0.12272837934390046 0.07812200939829762
0.3217981811976942 0.013627721695056392 0.11702081814856333 0.09019429096307187
0.3101612120641092 0.014308272306912732 0.11459635690770381 0.09068332134767851
0.3694073512319137 0.0134666772475386 0.11766557082284028 0.08004245321162047
0.3573073357109928 0.013221135195782737 0.11847002745697943 0.08189596142117844
0.4370677110671756 0.010601814335855995 0.13018074721754969 0.0653307187397478
0.4119998387654744 0.011354481733419127 0.12679017399215597 0.07692943819587753
0.39447567715128806 0.011834910499885633 0.1246162270288493 0.06258286794503404
0.3316069640630532 0.01674515399305972 0.10686094569874446 0.10881771360704942
0.369760805738377 0.016702111748029366 0.10691738333503228 0.08962379102510333
0.402486959791174 0.015790056181544852 0.10996294146796029 0.07948302073173422
0.3879203498543372 0.016839291587163074 0.10664476370429206 0.09215357832327457
0.430670518304776 0.01481766497687077 0.11356199347823756 0.09280730060758116
0.31179104927800794 0.019333712186605203 0.09947462708757968 0.13225271672541258
0.3434442381938248 0.017462143756137447 0.10447075020946897 0.1113323296511882
0.35960320960707637 0.01905339549262752 0.10010811086376296 0.14257639044563514
0.4228936646160678 0.017412209533576063 0.10501910869514183 0.08839920648108102
0.4073428563452394 0.020134285411643082 0.09739739161744995 0.130060211952634
0.43910354009279273 0.018963687130000774 0.10072509650733315 0.12041184582395595
0.36101962680642946 0.0072832250675658105 0.13980237065792175 0.0688633305022892
0.4063718898233003 0.00794710588751884 0.139153604150905 0.056313308334039185
0.49773032891978825 0.006666662939329334 0.1405215487559937 0.058983261280971006
0.45459774171288975 0.006768738060638293 0.1404862928799703 0.07569086862360568
0.3923764533423443 0.03245144988419901 0.0732340198428142 0.2047823827384434
0.34575766669394836 0.03152132869823192 0.07466562586662126 0.16727642701142192
0.3232075067952603 0.03197179637539045 0.07402728128465999 0.18332756887499835
0.5037909077957399 0.03940606976258653 0.07237152152131597 0.1643846250528185
0.5297031431868512 0.04124171776038913 0.07658161338620548 0.10948888214569322
0.5364627420742125 0.05051661974692763 0.0736516657287878 0.10166468135900611
0.5340614077733472 0.03226338503388819 0.08547767481272348 0.1344402813843103
0.5486509078315664 0.03150881694533286 0.09070246524264375 0.13656981489124992
0.548962671597839 0.041827907990723376 0.08369390484596481 0.0152080446216609
0.5435272289267159 0.060334076113817754 0.07311417874454214 0.1191389443864034
0.5521106959381274 0.05384601819432136 0.0800770823759981 0.007683169694150078
0.5616216633843162 0.045843925891943374 0.0895266116538447 0.08800966376958516
0.5737814230114782 0.03491846912363211 0.10404511171529303 0.19337183821309012
0.5672193373166174 0.023145391666530006 0.10706763539649652 0.19398009607796943
0.576999320922243 0.02187593466884584 0.11464840327899267 0.2187636205647412
0.552502924304717 0.07143874084160175 0.07542999900451064 0.046381597740336504
0.589223654881091 0.02348644939118648 0.13159023995402985 0.16477956478603567
0.5791126117770302 0.01300304719166152 0.12961792711816533 0.1910575047859477
0.5688271642248781 0.015706916893953052 0.11909672258167023 0.18042498138737678
0.5451708359750385 0.023048213258695285 0.0998624067295385 0.17621577612432568
0.555786812995015 0.024724271422161992 0.10030499388092615 0.21181248018031212
0.5137429333204476 0.03252381464084955 0.08108305843706792 0.16085617950083875
0.5871016585857615 0.060465487467121104 0.12346326093389315 0.09946155370704107
0.5834703843609853 0.07181097797235382 0.1128182234558326 0.10897618187333626
0.5846039223332425 0.033964765354918984 0.11878806652869471 0.16813881652508675
0.5838870520561759 0.04938298428982867 0.11607472950131217 0.14625477905183654
0.5757070040121545 0.051629457681354976 0.10184337803445535 0.20562448240713177
0.5797048826473153 0.06177712950047799 0.10617921343845617 0.16011118025031512
0.5762387723788145 0.07044674271977963 0.09930863706583778 0.1624700142443248
0.5687258353319286 0.06612760306256671 0.090375344955757 0.16400295876815507
0.5620990515238383 0.07517216817446915 0.08184385429332974 0.08757425900848462
0.5715799246458966 0.08449540768758289 0.09087015595977756 0.13882678544702354
0.5779060263898178 0.09403322247866823 0.09950671835226418 0.1472006376064419
0.5824413736852376 0.08975018367476345 0.10876989471471392 0.11606927875721758
0.5713584398052409 0.10327843948119314 0.08863342840495242 0.17518194750220434
0.5639848726135887 0.08742517642157663 0.08180893083420587 0.07004434905037549
0.5624474978037978 0.09810389526266519 0.07922273001274488 0.09865272102130478
0.5527742833660639 0.11740920253789656 0.0696967343732209 0.1229834423758695
0.5637491667314763 0.11826919846864692 0.07914872931874631 0.13503227158343156
0.5745936304425278 0.11950788872717272 0.09259921942528956 0.20353386457785883
0.5614600764014539 0.13344420212185548 0.07646590941732162 0.13194680802882475
0.5568063447005658 0.14559381777806488 0.07251697659556454 0.127852584916908
0.5773917698186388 0.1076235155321311 0.09741156961692962 0.1473387418611004
0.5830765587393829 0.10231874399574793 0.10956384957361764 0.11955796570995726
0.5844245925019378 0.11386622400683771 0.11287016814431279 0.10988992276437551
0.587161908463574 0.08725166347494352 0.1223178710544017 0.09175945596922558
0.5871539100369435 0.07491511585237079 0.12255211615656378 0.10311204530004715
0.5892528120545659 0.10326053098969389 0.12896742895332436 0.06347623418750205
0.5880245353037841 0.11794758151366286 0.12408461921560886 0.07284286459264395
0.585876530039124 0.13522654250363572 0.11645323625720842 0.08483612670872316
0.5840179116473361 0.15869364490118557 0.11108554083204268 0.10634192113209827
0.5891805382986751 0.1492536486567047 0.12872739293940175 0.06504719776686362
0.5905412735550324 0.13776238533740662 0.13438124860304335 0.06313305920391926
0.5899161124520875 0.037314861125440885 0.13306412733849404 0.1331401061752982
0.5885318542773768 0.17241458118655595 0.12599553939587002 0.07763578080671607
0.5878321494764704 0.18639227005729653 0.1237662604392687 0.08048718040982104
0.5831519806065133 0.16987637834426536 0.10960321672545956 0.10462163087618745
0.5835524457822134 0.18887055655064733 0.1115741794227836 0.11162962203702513
0.5851861078597194 0.20000012660181618 0.1161545922898498 0.10622981030474307
0.5804982061133037 0.18032111237054319 0.10354887746429313 0.13529458778848097
0.5780362599964743 0.19209751468806863 0.10004695758640558 0.14488151268368576
0.5829878686613589 0.21091467735131308 0.1115216735770036 0.14555301584000527
0.5745726526707655 0.20229433120333656 0.09543426065706745 0.17184639588067568
0.5746713035256615 0.21610721808557443 0.09777652999678146 0.1826669496611459
0.5810317068043571 0.22469396387810192 0.10924352373380389 0.1587730401596195
0.5661135482144162 0.21254236970409798 0.08689869693140753 0.14808111719266726
0.5593517942118803 0.19738350379521954 0.07780843659081049 0.04144332150604326
0.5556926694890791 0.18642181438005118 0.07350962847524051 0.1024469999984681
0.5653295486331029 0.1887829407841768 0.08240015966990713 0.13691942739344176
0.5680745862955108 0.1987318922886108 0.08668272854106078 0.19465890364806188
0.562689375905255 0.17461076375607865 0.07859950667175768 0.09179396076030424
0.5701701374627293 0.16735117986791068 0.08646608547856938 0.10246030252950002
0.5739082960917252 0.1766644503434016 0.09203848496582474 0.13831424156580105
0.5765229950032775 0.15447027213072856 0.09588034998586688 0.15098293439378424
0.5739737270201896 0.13876094003838058 0.09115318426268777 0.1892538018818161
0.5671536708215127 0.14533251004772407 0.08251977746948984 0.17158415473735908
0.5563822784251808 0.15841932584488638 0.07240864878506188 0.10675373194182812
0.5803102592306408 0.14346489329182652 0.10229897479841502 0.1291144226113012
0.579639907913149 0.12393326323861804 0.10107422237866626 0.13009971556880082
0.5784761154526725 0.1658453738067307 0.09911994440549023 0.13528756038965833
0.5776388035812154 0.23454348552525325 0.1051473990302402 0.20615068419386745
0.5838800175196637 0.24318301993548058 0.1169367748138004 0.16979379719483872
0.5858024385552647 0.21850402657445134 0.11914768339027543 0.14466056109063694
0.5872070955867481 0.23262424825971642 0.12381016508853779 0.12122114935268058
0.5878808538917261 0.2082930567321491 0.12524791016787293 0.0760682898739443
0.5908583270922608 0.26245970611906067 0.13654036336043499 0.18534585704295883
0.5938553435423344 0.09245106215387751 0.14045955528390236 0.06488884667401833
0.5929252457379631 0.24088353622474143 0.13993531002367482 0.1262916923893515
0.36884090079257353 0.2759571500984014 0.13995396801892734 0.1023011389492206
0.43376737096875523 0.2749992607348567 0.1389988513773082 0.10224137856677788
0.31921667174589663 0.2748362705410117 0.13881278157748506 0.0911357434836413
0.4937122941951386 0.27439350486954733 0.13790472756610866 0.0722343792774343
0.5068956100542452 0.2744624870863547 0.13813272730476966 0.04318852016892599
0.027666906170924144 0.2757578999100162 0.13978294557526239 0.09206311767717518
0.04239840170476783 0.2772516596478459 0.14061768321131815 0.05181380079459902
0.05705111889604862 0.2752025207970897 0.13934749268854296 0.04542048413109896
0.2697982999094716 0.27564184413254145 0.1397405945530555 0.11130573518673037
0.12026705563419535 0.2747517826871384 0.13870274857317133 0.11314432588047753
0.10533874023895014 0.2743489496125995 0.13788017856276497 0.07244854691370467
