x y z curv
0.0011027613066709185 0.4266014688805037 0.05607442015167578 0.07804004626983738
0.0006702649039765187 0.28482473799662517 0.08778489081651139 0.13953951646090798
0.0008542639483532844 0.2197867047200919 0.0742927627522883 0.1509669064232079
0.000700304341312601 0.4578622994683267 0.08558421845591005 0.06725041192453812
0.00030186193549298397 0.39898535884581415 0.11479865774411856 0.04685683827839984
0.0009388177962348701 0.37186863476876664 0.06809468459957913 0.020254662258405585
0.0010135910298531231 0.2260883587016447 0.06261045339016896 0.13065422537821075
0.0010260402877022594 0.3853685957782333 0.06169939773670512 0.057300461214843675
0.0010096872997957006 0.14406452530272573 0.06289580278103998 0.10196579848024952
0.000424922210309213 0.2724433768985768 0.10577497101358124 0.12294976704797232
0.0001598704816637359 0.2138297165344707 0.12521088079811565 0.06747100330898088
0.0007456881743921519 0.10849327741987458 0.08225444505628408 0.1383019927054318
0.0009721809446824458 0.06319102581485797 0.06564635574458878 0.040445282915127306
3.2283491255166885e-05 0.26876666141506717 0.1345663774016646 0.08828606690655542
0.001113016223350077 0.06898025683050889 0.05531917247916827 0.07924382218574183
0.00015685355247203325 0.12290541442884519 0.12543243066758109 0.064549591536722
0.000707581569963961 0.03658382763931248 0.08504898106836467 0.08300267023373532
0.000609049214664964 0.21841228805554533 0.0922735077302019 0.14731132173713968
0.0002384658988689231 0.24732539746144577 0.11944752020390226 0.09803949272899712
0.0005761757990891849 0.17215133698511534 0.09468421314618694 0.1398001290051115
0.0002565387956965887 0.38486121595117595 0.11812178063941509 0.06008916518373152
0.0006655998174111426 0.06862858622571386 0.08812730260661997 0.1361105284612192
0.0006768086592512183 0.13929383727341055 0.08730512888871195 0.14700986595265209
0.0009984449568654428 0.050489766354831295 0.06372051485975568 0.046950982647472744
0.00018584648087478464 0.0610990218489323 0.12330665926580905 0.08299252569939933
0.0003609214445880467 0.319596702190065 0.1104678477565427 0.15899364798693297
0.0004933197424607621 0.025603049056881995 0.10076040133970936 0.150819477909606
0.0008142307906840395 0.08703528675553834 0.07722843197054882 0.12038833419365125
0.0001734651450677565 0.3324296452287148 0.12421358852783886 0.1967090314183163
0.0001508765168246283 0.3597750727790076 0.12586986874996567 0.09230985800903989
0.0004842465444002134 0.03883153310467023 0.10142567314424909 0.10425483750058258
0.0011286920313720032 0.05694158112122018 0.054169740558334324 0.08009705792952852
0.0008350101736856229 0.14337283319785485 0.0757045212214967 0.14929733155274721
0.0005266667313071871 0.15073176279608652 0.09831468818171829 0.1342926335292305
0.0004549409683767723 0.11011273798380053 0.10357433652764632 0.12220132871758205
0.0011641030779106518 0.08930192260600374 0.05157300548989509 0.08021583513093887
0.000498588574119274 0.09727460252320218 0.10037379281221254 0.12968816000277011
0.00042720861897821514 0.22943401076359896 0.10560746690532571 0.1249388442898107
0.0003759306642225591 0.14774689222110804 0.10936786597540185 0.08290739993106162
0.00019254157806506339 0.2922794458013394 0.1228148961083973 0.10572152369684608
0.0005784174152043734 0.2662785019476331 0.09451950396173991 0.13967775569551374
0.0010575039766820213 0.027503076406689732 0.0593899199419303 0.07842543736576525
0.0004776320748892869 0.2843787242848878 0.10190982196492968 0.09357491497586976
0.0011494796937962723 0.04411698990370178 0.05264546962770929 0.0738672735889687
0.0012435293969752083 0.025672380006883377 0.045749063332710053 0.11360820712311202
0.0004162584416527915 0.24711910384411315 0.1064103578443064 0.12245458808651287
0.00032890455281989623 0.15922533961367227 0.11281615344725408 0.08951156625417432
0.0008531602026496507 0.03133696118754737 0.07437401676826848 0.022056531616205285
0.0001033985294983009 0.34687708881743523 0.12935137838985603 0.1315533777697954
0.00030043988838227324 0.1194530976213432 0.11490355100326642 0.08884254070041747
0.0006543560534989286 0.24011596719645997 0.08895117252416773 0.14620944097720426
0.000103191053126334 0.17868656321005308 0.12936719270275943 0.07542947161736833
0.00040213601909812346 0.13003421964281053 0.10744634420320028 0.09769161112761734
0.0004391549841500223 0.08429404884452812 0.1047319826071938 0.12791807367937283
0.00025120911059521464 0.2016438337159041 0.11851324968049881 0.07878010744592212
0.00010162271295527865 0.19050292000232866 0.12948215368773575 0.06570711962926072
0.0006975553640045539 0.12682792942325688 0.08578386001960997 0.14777150485399798
0.00012640704840038723 0.37791866025279347 0.12766409998476286 0.08938533166531819
0.00026705787760898154 0.3023614992549913 0.11735073245380317 0.12550872410611347
0.0010561666751848118 0.1068690071890896 0.05948769815989484 0.05277024530832145
0.0004292749961380087 0.06638982334505159 0.10545652582080335 0.08078909935069067
0.000196982395441874 0.31729948881231546 0.12248917073385984 0.1432825609352143
0.0007045815547474248 0.19513463798958858 0.08526839996260648 0.12089284243792628
8.80179151920593e-05 0.04200758122720706 0.13048029582624973 0.08210087255697318
0.00047116849424279236 0.20662287597169907 0.10238406071215514 0.1052263782445574
8.28318023468999e-05 0.43860870211616504 0.13085916686535567 0.08177280513350661
0.0002662283708914351 0.08819434297373598 0.11741232312988151 0.08685303938288128
0.00021112618635752757 0.10853689044064012 0.12145278085930636 0.08710487217582072
0.0003089563907070172 0.17906439479413028 0.1142788404951523 0.08134300677115983
0.0002708510350408267 0.2794775670081223 0.11707266968973479 0.11009413197946107
1.344885734917231e-06 0.29277966780761744 0.1368349562570922 0.07852734051797182
0.00011706109219530923 0.3908573969294402 0.12834937362000665 0.07790561173560362
0.0006365694965111135 0.08681333304801048 0.0902559716672459 0.15851568674428934
0.0002401166753594653 0.048983999056957966 0.11932718028806168 0.07687827848715657
0.0009944764638591245 0.11804817450206744 0.06401127511991855 0.09890273207093635
0.00013682079338480556 0.07339827117128847 0.12690156862707513 0.07571462456627755
0.0005675679787741464 0.05702836326558851 0.09531581801044822 0.13554421238492512
0.0007514435900531624 0.04932089714471935 0.08183262347606553 0.12071116876136458
0.0003594624241032517 0.25742571880420717 0.11057505671187576 0.10991509417304184
0.00016799949703965867 0.22752670414752071 0.12461474784366042 0.080854281457609
0.0006806285320405571 0.20814454139022986 0.08702477961941343 0.13801662009838023
0.00023506114614192788 0.03144557523093894 0.11969795451129589 0.13628937317209958
0.0013060432707827049 0.042891148356521205 0.0411649874995569 0.07998471244764226
0.0008166394385321447 0.06533795322436031 0.07705188822264555 0.12172762730695007
0.0005747725589711497 0.2537741423091352 0.09478681845041087 0.1355410140405874
0.00041599410181061163 0.17055728438109913 0.1064300146944765 0.09198959727512077
0.0006606562484284835 0.1573367875865963 0.08848948767975684 0.13519162494830825
0.0006791356100792173 0.022764350063319543 0.08713491439792591 0.15234029123118079
0.00041027964915313575 0.2942896584551578 0.10684860204115161 0.08998270485250356
0.0006869291996690577 0.18059125189293948 0.08656286293839727 0.15328940551463477
6.227319170734125e-05 0.15903117093276953 0.13236768586921654 0.06292579434009303
0.0007847717483057267 0.16945348487038409 0.07938830896477303 0.15259523317090196
0.0009525304994948627 0.075454025750982 0.06708723886899529 0.08324250129272824
0.00041185520989187816 0.18920311244592547 0.10673344459193045 0.10151225497590519
0.000891477804830526 0.09801334973540213 0.0715640274067909 0.11993193360114479
0.00015022790435572514 0.1347414636613653 0.1259182336180129 0.07079600563655403
0.0008500609793661458 0.15800552238443466 0.07460082421700964 0.13393344252897219
0.00012128694924965913 0.4150454693988826 0.12803941381614847 0.05354528114950956
0.6623908651956201 0.045994195344204486 0.043328170435580904 0.05630507055498785
0.6228259434558272 0.045757586061200665 0.0425074343762142 0.061898739827885324
0.649094141449681 0.04258637445240546 0.03905188029905904 0.05528843364538909
0.6359446589082907 0.04176270113388302 0.03869928397904492 0.05871049270730406
0.6059827333548156 0.04576061890907088 0.04161181645586075 0.058992678319498594
0.5844070180997702 0.048149056163594994 0.03844389249161702 0.04605936292166828
0.5590179445329102 0.08384007073045813 0.03862087984888442 0.0680590411210826
0.7596127375602906 0.15620854742280302 0.04344428275532277 0.07404839762571329
0.760450713708545 0.39029824061998936 0.04150626350890969 0.0852078653730113
0.7596325827912962 0.2233849006349253 0.04336974805757008 0.03638240851874893
0.7599903634950597 0.14485404357977544 0.042523049761047614 0.07150388353400794
0.7606019015891932 0.3531436983613614 0.04126162217449339 0.08424340107232002
0.7611846677022884 0.19048774536905977 0.04061390527400008 0.09832653319143247
0.7627451510016854 0.3657813036637333 0.03928031427953336 0.08457470245275465
0.7645015771684099 0.17839244240772062 0.038514415953089354 0.08658649687448358
0.7601904585430579 0.0894004884563411 0.041145045510575934 0.055536574240962054
0.7476661976154315 0.057188902823415516 0.03873201980577714 0.07437481743810084
0.7309090743617479 0.04796277211168157 0.03969952403156255 0.07401864699231177
0.7551854189447929 0.30112634018689755 0.0927047324229778 0.04550573027592356
0.7577897897611924 0.26779843993662006 0.0629466938727262 0.04328955495475452
0.7549388206878056 0.3709401565242284 0.095520708011288 0.04168131145305324
0.7553237696478247 0.25954044869375215 0.09112492819852999 0.03138988356868079
0.7569902523892058 0.3632670003566604 0.07208018271967258 0.01092598302275432
0.7570370882889121 0.29878021666660043 0.07154665919788164 0.009576458090445005
0.7566540138631374 0.3270891704937943 0.0759231427011368 0.0025244825253985166
0.7565630673729462 0.15267323596830396 0.07696680099366257 6.82891388297545e-05
0.7538630637776065 0.3768523487014253 0.10781271269143608 0.1545324907250518
0.7562763275956221 0.37252808271559645 0.0802376206214123 0.0022734986348372684
0.7560919948429486 0.21353079351078197 0.08234796475839044 0.00045230875214752857
0.7583093903464875 0.34054267679922606 0.05700760968794391 0.032991675127529936
0.7553272835642784 0.3252508990747758 0.09108309737099266 0.021345484788507684
0.7577837854512227 0.2418972201060325 0.06301596404285119 0.034795861880784144
0.756609861108495 0.38677481582121065 0.07642612989352038 0.005506036427104611
0.7566050544288497 0.19729596072871813 0.0764858949661175 9.483290275888768e-05
0.7560421166148497 0.34426537923122735 0.08291455877256171 0.012531682254225981
0.7552751785713039 0.35714860048441893 0.09167766098063403 0.030348473185644584
0.7551667305971297 0.31315194597498014 0.09291796789300788 0.021223230536263113
0.7564624417412982 0.1718966599481379 0.07811611040286964 0.00028195454294224
0.7581530477659717 0.28260571902082554 0.058795541378953535 0.03566942808203591
0.755966829212119 0.23004318638408272 0.08377775018184047 0.012288364753061339
0.7580399855461232 0.29968055943391647 0.06008701258708078 0.044402232249839524
0.7572462101702382 0.31581738135197684 0.06915668892314072 0.01266053139710147
0.7553591677650682 0.28379701085635456 0.09071983118261175 0.025609314014937257
0.7562236763688708 0.3098437375174281 0.08084084249030021 0.005608620766022347
0.7572634245687982 0.34340142574499566 0.06895928347484172 0.009169953850843104
0.7570625051627055 0.24993439562264372 0.07125748091277778 0.009302834394275058
0.757427853250449 0.22270240895536622 0.06708352021280893 0.019701282189399743
0.7572016759503298 0.2779623900077097 0.06966652724069394 0.009316943339098908
0.757243515956921 0.1794562705334479 0.06919095862534175 0.01799655711079166
0.7584031450714078 0.32815130336506965 0.055936636249589826 0.03538401927738303
0.7539490901113473 0.3577426577263749 0.10683021951714895 0.21330280486563566
0.7570555171528317 0.20722044527255493 0.07133842093737554 0.008220760096304807
0.7580182109610646 0.37249585404583857 0.060333959739251916 0.03917143934240935
0.7557104256132325 0.24067673343960105 0.0867072788284215 0.023114085770827145
0.7568083162309502 0.2668439908307053 0.07416154326324431 0.003439039509013938
0.7585396999265364 0.36265389526126396 0.05437540814196855 0.04463822152301614
0.7543614024779763 0.3382635810921125 0.1021194225389226 0.12971346752439575
0.7568684508173619 0.12724373428224248 0.07347738544961673 0.004094691193843122
0.7591499011823081 0.13180960996470115 0.047393833889402305 0.04862306425717319
0.7593887502176816 0.3760128169890663 0.044672619476899836 0.06302382564720543
0.7592266517620176 0.2407154886322678 0.04652060075470389 0.0762315614359754
0.7574702568984886 0.16084621496925133 0.06659827312203458 0.02416450692717317
0.7580818792208748 0.12710010388885576 0.05960430191419184 0.04460654197017085
0.7593798852750604 0.17004941665257173 0.0447659284400364 0.08890832168085298
0.7590595700050593 0.30240989254989775 0.04843324910871741 0.0747408007298812
0.7578168699021924 0.19095052411068567 0.06263663632576835 0.03394189912209052
0.7583173241112654 0.2315193300102952 0.05691654791628374 0.036353794116721
0.759249700370878 0.31453321217451036 0.046259969772463855 0.07248340706120733
0.7589945889069828 0.10085299859262868 0.04916830389959365 0.04872697041121064
0.7580953285177632 0.21244321077926967 0.05945386958322949 0.030163965530925436
0.7581670606516919 0.1701495296586225 0.05863210728195496 0.02763895374804481
0.7583179285459729 0.14562434929932783 0.05690628294900894 0.032768731565191014
0.7585249167383166 0.2512712891949602 0.0545439211768629 0.04487961672229648
0.7578140998385947 0.10268673394957276 0.06266485935129568 0.04655889909580972
0.7591745144246799 0.2102329981573593 0.047115494382214275 0.09540345400028466
0.7592122209961722 0.27639871890108925 0.04668698066864435 0.06131273637518286
0.7576787323391818 0.11673442826683628 0.06421305911450217 0.03207498574128078
0.7586877960589897 0.1121681477317764 0.05267629603399403 0.05603046056451192
0.7585999203508381 0.1997317804956763 0.053684395112118824 0.051426599994641733
0.7538845604218465 0.1309341189063994 0.1075511226556052 0.1908286316487341
0.754231962551029 0.17396857800893303 0.10358803926321598 0.19432269009869269
0.7544461005674736 0.24914179138471382 0.10114884197093205 0.2049342521555954
0.7538855214210105 0.23704825316654746 0.10754809050358734 0.22573064581215324
0.7554299807085674 0.15389091311005598 0.08990871825536711 0.03913724133692587
0.7540986547603646 0.3241585916592386 0.1051212568006164 0.17385123325307436
0.7563585883816407 0.11406873063294629 0.079303789659339 0.0017766869338980912
0.7537570231747294 0.2012466117290287 0.10901248112752662 0.22859002639037718
0.7548988365491263 0.23230315134156498 0.09597867819632627 0.073355579936386
0.7539409665399578 0.18821883687682892 0.10691141798943563 0.2518142127852241
0.7559292023582442 0.14226767655975597 0.08420821606882688 0.017705818761407054
0.7536086692174462 0.2774629718758041 0.11071194650521823 0.24183706405586392
0.7551981563946869 0.12478832104931406 0.09255328774669547 0.030735339861126375
0.754311932858183 0.21427264696978368 0.1026780308399676 0.17090502731253915
0.7542630950926452 0.29148856454858163 0.1032413908682892 0.21004452403075738
0.7549579295308588 0.19377765381548734 0.09530112884832288 0.08651064342287501
0.7546431813595071 0.1148088941496663 0.0988887121090033 0.12214908662959478
0.7545370976873754 0.26866860794686315 0.10011138542422598 0.15694793198264076
0.755423974563741 0.16705083220859063 0.08997827528282007 0.03193462223132347
0.7555205148227233 0.18320208966431314 0.08887727994269559 0.012671953035982215
0.7543405428277324 0.14708536557141605 0.10234636268302824 0.1815647289081658
0.5695190432019596 0.07847433513323267 0.06494680380716583 0.05642993468610982
0.5659918967246005 0.07915926607148699 0.046984524517745034 0.09392647915895971
0.5680298132383862 0.09207060550870835 0.08332366763181712 0.21920242726019257
0.5729725372148278 0.08315835757012535 0.09530269231707328 0.24277746152647262
0.5732237572467285 0.0785315672454496 0.08392084106409659 0.16844427774726514
0.571559386466474 0.07110640460983422 0.055466282755720187 0.07653350506638089
0.5712530136118038 0.06760033094742218 0.04349095223967399 0.08215826606994368
0.5791383643301256 0.06827772743227258 0.07782720164324138 0.020002510342970584
0.5825421673550193 0.07241007656659475 0.10475725803648098 0.25550815128180726
0.5794327092757315 0.0635626579254034 0.06244338395435878 0.06362912008549135
0.5791740028552279 0.060308404599006875 0.04969692688959304 0.0807162188698561
0.5897586100712506 0.0645587041567735 0.09855368894859487 0.1319177915130136
0.5918434499648072 0.06030560811096583 0.08641588839819522 0.02405692765018906
0.5887516973333279 0.05319803437839357 0.04908216750499062 0.0778458927507598
0.5967726759040836 0.06252288402306569 0.10736891546304324 0.27340182913011324
0.6023004045482798 0.05153819452842112 0.06512049524088451 0.04547933932835494
0.6025272091462326 0.057713609225217496 0.0954604587091315 0.13866689988626718
0.6001132068808813 0.05539181233427904 0.08030980296675348 0.015052510166366988
0.6104116206837646 0.05813242025858612 0.10724889098484276 0.290338576735494
0.6111480035235305 0.05347515584720274 0.08323269377024946 0.015841774926376194
0.5785053417914079 0.08604099313276237 0.11477784966228793 0.19096282378937887
0.5883625630284048 0.07264033305025236 0.1146221854440427 0.21060648195704368
0.56923911631595 0.0953574385770453 0.09750220094826725 0.2210182789635945
0.5639866687144621 0.09695766698671716 0.05700017790869938 0.037224717175937345
0.6157716045627691 0.04750213598258654 0.05094925522766735 0.06295951058231944
0.6302955799397958 0.049578504130597244 0.06273373019921971 0.011099603276042876
0.613929410448109 0.04954610113379213 0.06254502079691249 0.038974129274259854
0.6190524112072747 0.051613199891251696 0.07427410734667864 0.0022372429138205543
0.6887676178241313 0.04892188311970667 0.05900970211878914 0.036706220150036044
0.7007351541849224 0.04642364802390126 0.044835267253596794 0.05570113484953875
0.7004922160101168 0.05024127951299504 0.06649178613967653 0.015048693492264214
0.6855644559147223 0.046670436111262245 0.0462384962558921 0.04694824489694923
0.6539454015746777 0.047995871898579456 0.053760322544335735 0.041828261211858266
0.6377309894460339 0.05361492625478598 0.08562828166436967 0.011504553186823932
0.6592528397692549 0.051719682641396016 0.07488050716772815 0.0004358485701154028
0.6457261293497121 0.04973810303719719 0.06364104443939468 0.0191552823651518
0.6520139723894247 0.05463208069993419 0.09139797702113704 0.032215134495101216
0.638456569444689 0.05159020989126781 0.07414498979211682 0.0009439829431483578
0.6676643942492921 0.04825671872846281 0.055239707415224104 0.03025585979595031
0.6772856806894336 0.051925503011021834 0.07604691373890113 3.8756366845476535e-05
0.6993836442960225 0.053104734383623356 0.08273359160741768 0.0017246871280262857
0.6703346115432388 0.054133525387498486 0.08857035796655849 0.009207999187031378
0.6699051335239814 0.05032824477244913 0.06698840331961958 0.016038314549397106
0.6621680995302207 0.055577904741180156 0.09676281284931347 0.10518696374873054
0.642388355366733 0.055635517473053786 0.09708728966514901 0.1481174749074163
0.6352272195971743 0.05786297124161946 0.10968667707581206 0.21495789528933057
0.6226650852983967 0.0553193786932868 0.09526976996533787 0.1038963573332576
0.6911064942554407 0.05442512541288396 0.0902214897195385 0.02367461786536107
0.6791851573338524 0.056690811603137214 0.10306649466512717 0.17456675172037364
0.7344690645219124 0.05432538813871654 0.05072066770294358 0.07623112099546432
0.7266210116540872 0.060136311713462204 0.09531880481716683 0.08077400462039289
0.7323977022181622 0.058561026875376794 0.07461196040397727 0.011597903697492
0.7393482385505716 0.061422256731914024 0.06622842991241705 0.044542812768670226
0.7401650898331774 0.06588637783731721 0.08086918322061222 0.01741030050570109
0.7444018863972212 0.06214116560146813 0.05111011681112482 0.08780277128829073
0.7400290241907304 0.07186126950661022 0.10437548357960136 0.20141687377632703
0.7490268542226722 0.06977090705512513 0.05848351512014688 0.0519201418223861
0.7472037912787075 0.08263081201496371 0.10829905906305198 0.29309236723488447
0.7498120727062493 0.07789103454076636 0.07957202488105836 0.01950556192094544
0.7519816926823055 0.09265424630935594 0.10518810985394975 0.21811599754371766
0.7536382908563362 0.09332207915833621 0.09397230506436655 0.056601102588276234
0.7576110982696678 0.09027478341758662 0.05695551746664851 0.047989458510992
0.7560557879469325 0.10135669704659592 0.08111717939623005 0.0066698253201409345
0.7538550531052068 0.10490201565288833 0.1067557225032874 0.24247401054938178
0.7195720893900949 0.051225213914275994 0.06345442458272134 0.046899484306550596
0.7189656038524905 0.05571428614505654 0.08630764220675584 0.01353710668814103
0.7152333600791706 0.05673371288318601 0.0969505509233361 0.13124457720232102
0.7175903752218701 0.05945839091874394 0.10816798932411631 0.2052596009809812
0.7152714748493838 0.04829844540949335 0.05335516380827892 0.07723110279292121
0.7098753841870826 0.05172949123328992 0.07408824425386622 0.013799048580270559
0.7490315410634132 0.3658578937759051 0.1168597018240338 0.27834419225217777
0.7479962439905782 0.34064832155456737 0.11716276548485799 0.2295684807017436
0.7493510021453202 0.2880360182343739 0.11667547806186178 0.20333956723133423
0.7500168912524673 0.21129639366637576 0.11643521184882756 0.20247520878771302
0.7509017328762461 0.1617976239887197 0.1158304822406591 0.22800531824322107
0.7512154938246143 0.2656225800457829 0.115610249357326 0.21035709630792743
0.7519706262333915 0.14442002049966826 0.11483118732523521 0.2328432150596489
0.7516134117965336 0.1762127968926699 0.11518962267523278 0.22636397727777155
0.751377320068115 0.24644316107705203 0.11546619783150634 0.22619419081712247
0.7515997312216709 0.22305577638369972 0.1152068149444806 0.21269333242755536
0.7534200576534515 0.3020531463231937 0.11198108059859825 0.22445611337584603
0.7248811069591427 0.06566447162927357 0.11560764707866159 0.20714113365424722
0.7481176028756273 0.09799745281597338 0.11668987896790277 0.19347895064454798
0.7091077751394742 0.06240367382122119 0.11633557285775029 0.19783766000424152
0.6963640493360986 0.058200512316452 0.11157406090282507 0.23287245781660063
0.6722661390695392 0.05955582273238745 0.11405178587538813 0.2114898927173216
0.6841866195706693 0.061329488516605676 0.11568732574834341 0.183498914711374
0.6461050367786323 0.06447810813739106 0.11625535839203216 0.16708689376118538
0.5702378803240012 0.30780686020761583 0.11198261086437765 0.1776671253213026
0.5720254386752874 0.17484237084377183 0.11407220139921338 0.14755974093515445
0.572529200076239 0.14606273313610044 0.1144590979797082 0.1782906528224534
0.572422795739422 0.22321209131108072 0.11438378364103902 0.1446538003201125
0.5728312351817877 0.27668630631407054 0.11470987538873581 0.15217884671854232
0.5710413850454865 0.3218870403448761 0.1131539382935239 0.18582380497995873
0.5742305107452326 0.20073129592197392 0.11527285768938522 0.15659662970240376
0.5754080949910108 0.3695759144602664 0.11552288278438468 0.1960877158656498
0.5695917683699345 0.3498669787856953 0.11032321775715673 0.23949864822503947
0.7353808030141258 0.4090035205473604 0.11722232903480964 0.2453163469174651
0.7087366705375484 0.423290651673633 0.11696257325393263 0.2467808407329966
0.6953712739890542 0.41356330116417905 0.116830792582801 0.19857771886788117
0.6779188086180966 0.42805040467547467 0.11665906087273137 0.23687545137629284
0.691867969395749 0.42543762014059516 0.11679643454368781 0.25004313194948397
0.6285341501242349 0.42535204239504987 0.11617256007987055 0.2540172708218894
0.6639162595825588 0.4189925343175743 0.1165210124344099 0.22290724970361722
0.7133338025039128 0.4046087956698506 0.11700761926897958 0.19607738721129442
0.7428027397296626 0.2986813447051572 0.11729774464475562 0.16040024669501038
0.7405837088981259 0.19556375823004968 0.11727581744939433 0.12201586465451542
0.6488394248286655 0.28838935418005013 0.11637303616691759 0.047432071070174095
0.648248300061454 0.31629303231216255 0.1163672431013029 0.049986985620523255
0.6944453682780054 0.31459816157201226 0.11682187020149465 0.058171450758540626
0.638174225256714 0.3405948375835993 0.11626812453435557 0.10025240934206812
0.7211690032200107 0.39110346394729584 0.11708492580307815 0.18224134004222872
0.7171184153986561 0.23623210065714279 0.11704492917917403 0.049293398166696985
0.6282109796922417 0.33174253791459013 0.11617006785120518 0.08187058938040494
0.6774487373676026 0.226977515769372 0.11665452907166161 0.04553194361667607
0.6650859242225446 0.3165419490906885 0.11653294355187596 0.047834603036914385
0.6418347841710765 0.39023403049966765 0.11630419146194958 0.15597595538022258
0.6343179035765567 0.31998350072545007 0.11623015630254693 0.0500542200915377
0.7250547317370588 0.2672984835710984 0.1171230580033931 0.061972879472012854
0.736006793347578 0.2673634028203245 0.11723083806237761 0.11482502953056394
0.7160827857834434 0.357831128568934 0.11703484308516732 0.13209208033251565
0.706347987536069 0.393191286408752 0.11693907296672698 0.15704585792858802
0.6928995055269052 0.22220891600214054 0.116806577017803 0.04888726756806018
0.6034876551494373 0.34703907791511285 0.11592677717416969 0.1075971858521769
0.6921791638928003 0.2951589659263803 0.11679955144296239 0.047268212517473686
0.5967567973804524 0.37945867658712756 0.11586056648971903 0.20048864170820763
0.7364062881607868 0.34335026759167275 0.1172348355136506 0.16041939904466743
0.7310784529835834 0.23707412647722648 0.11718231161455578 0.1110270350134828
0.6447652175153035 0.3756025403343855 0.11633301735347555 0.15908076992249293
0.7059345128044048 0.38095091716201285 0.11693499330222192 0.16314334703931446
0.716966072322349 0.1723207157505505 0.11704337445300059 0.05624549478079556
0.7057860497059019 0.21839726952724975 0.11693339108792739 0.043144433924328075
0.6856936366487143 0.27105253004376073 0.11673570598020985 0.04307008482224519
0.6972287224451266 0.28458438389124185 0.11684923531698815 0.04003613162575877
0.6787105458327672 0.2977407683539065 0.11666700807502939 0.04316182125407819
0.7417703952780118 0.3122460238953944 0.11728759705194997 0.17489126677775255
0.7357303475196688 0.14422539482352534 0.11722801059377382 0.13353806001862023
0.6269599887684812 0.3061935982945041 0.11615773457285354 0.04246455028442943
0.6988156469934845 0.3280672550107446 0.11686489011728368 0.0631254073145114
0.7042156323349256 0.23111170119388755 0.11691794754352927 0.04262257120697443
0.7204023304024726 0.1833538932634578 0.11707720049093215 0.05782440619822458
0.6607491857997967 0.3370586092566142 0.11649028322522977 0.08893098962152017
0.7310883876551716 0.2818145579607373 0.11718244823962021 0.11362372948355531
0.7041672792013008 0.17993245629321353 0.11691742724756019 0.04142191199137454
0.7170557567471665 0.3121603791552745 0.11704437849506698 0.051402190963647176
0.632317320835918 0.37722276369773844 0.11621051814074504 0.17378077984184703
0.671121619219202 0.33118181628637255 0.11659235396233196 0.08656177607363633
0.7218243842384895 0.3011678246085633 0.11709129734390555 0.0578906847093041
0.7254386986065124 0.36571188555657597 0.11712692212063744 0.1736609436230817
0.7100605413957684 0.20776920908784627 0.11697544742842521 0.042646119645313584
0.6370155087250733 0.2955472124979665 0.11625668240003925 0.04452542066489422
0.7254660083933865 0.15384417021897925 0.11712700687008239 0.06599700925668509
0.7022571089961377 0.19718768948636348 0.11689864411551783 0.04273791317338844
0.7184451841850843 0.2208733487495962 0.1170579726642444 0.05062468696624116
0.6920657039120277 0.3903962093697838 0.11679851758935245 0.1689874857059772
0.7214439978468787 0.3227780649756623 0.11708757270347228 0.07505162434244526
0.6913205841989959 0.26104387667759293 0.11679107247116938 0.04233616175694434
0.7371303565559291 0.3232064052565467 0.11724194362622055 0.13158241184245734
0.7294170766775425 0.16510681371686245 0.11716589939045025 0.11902024001796545
0.6599098860329112 0.3880428749238184 0.11648206789771946 0.17230538357129957
0.7163438233942326 0.19727460068215077 0.11703727253043764 0.05019947302394268
0.6327865240088112 0.3530540945238154 0.11621511461131397 0.1343359062826272
0.6782630978455941 0.2440345278742092 0.11666255806404842 0.04580619524602132
0.742091755246927 0.38179241569570843 0.11729081997918757 0.21988023444981014
0.684024421882643 0.32103791653959607 0.11671932253374562 0.060275712079283394
0.7350542872587178 0.2247866511966236 0.11722142740538398 0.123167904635557
0.7271498924185471 0.19228308466256025 0.11714361147465617 0.07390870327519762
0.7224595671940384 0.2539095169492724 0.11709750717964257 0.06732237808509701
0.6483980851769151 0.33229255235431054 0.11636873104273282 0.08620475230684935
0.7421403175461984 0.1252203207686343 0.11729107505013332 0.1496754420179089
0.6444535479647057 0.3642366491636479 0.11632994032035004 0.1473356598345482
0.6656550721143697 0.302608851934425 0.11653853247503937 0.04169770479324758
0.7042223450468966 0.36425197462313935 0.11691812923672869 0.13201321106283714
0.6871140686313849 0.33254861416115145 0.11674973796010507 0.07356904519122859
0.712525391841618 0.3364890355632014 0.1169998159874273 0.08565072169247709
0.7381952554910354 0.18061075636346552 0.11725229952598618 0.12503612777479003
0.7312905886336778 0.2131557159914633 0.11718437848304411 0.09307399776196941
0.6747372195706338 0.3426988019336155 0.11662794534026047 0.1082735547107545
0.7071103804551468 0.2563778405304701 0.116946456905548 0.043444746300454036
0.6706006893974683 0.28161839000241295 0.11658718440954209 0.045691200928104865
0.6889895774222392 0.3450759044097603 0.11676820585300728 0.09525842487133124
0.6622220735844212 0.2474866535280813 0.11650470022305358 0.045232794979878234
0.615446206043693 0.340631915135632 0.11604445654340097 0.09782916391235073
0.703728209230225 0.3000027835491253 0.11691321061095902 0.046248539934834514
0.6601056360674329 0.28965012101974386 0.11648390883291582 0.04220394688679834
0.6637226299009961 0.35194432324008257 0.11651955802444253 0.13269780466819509
0.6914962903110397 0.35791597410835246 0.1167928857411365 0.12758153466875422
0.623004056503781 0.3695854846138872 0.11611885902351209 0.15268040500183472
0.6725272248794515 0.3810192594227226 0.1166062299097709 0.14239363056622745
0.6786012892793676 0.3573290851443929 0.11666598462638678 0.11364766588186792
0.7085167192091123 0.34782085989919626 0.11696037620204536 0.10734812859011318
0.7067205906787963 0.3186687188009308 0.1169426750570682 0.055492825866633476
0.6494977492108195 0.3026302684188289 0.11637952715140246 0.04205640513989203
0.6613626922075811 0.26261755845381207 0.1164962561322116 0.04105023962890978
0.6166843761425915 0.38017405406735383 0.11605667580427761 0.17561119399893121
0.7395318724785687 0.24530177495186312 0.1172655094514803 0.14214728439911406
0.7444562915237646 0.3548064691111926 0.11731406610828053 0.25392571604099107
0.6503435843544156 0.3530498605891528 0.11638789486372234 0.12359439027840012
0.7267729558082795 0.37884917914577443 0.11714006404867072 0.18447153331757254
0.7386859454871895 0.15534582030571498 0.11725710649776949 0.16051998794351696
0.6763016135276355 0.264685230902612 0.11664327289522206 0.04089110939435727
0.691415497561009 0.24614382857704264 0.11679199357942904 0.046901411483629425
0.6943670067475562 0.20876234055633097 0.11682100712131355 0.0449219050397185
0.688437791246123 0.3737777572953154 0.1167628006144312 0.14932021773925597
0.687577949161613 0.2337508340980795 0.11675421723445414 0.04633271151952631
0.6736223113018329 0.36957128894148017 0.11661699678906008 0.14173192763728562
0.7179548909920134 0.2886110384836676 0.11705320648520746 0.04929068802083333
0.7272356445948256 0.3510255607406256 0.11714459323636897 0.15131457531560188
0.5995324821713918 0.3684920231552189 0.11588787267286028 0.15980206476716946
0.6071156220151306 0.4118146083086361 0.11596206373616967 0.24532652088339932
0.6437796367070264 0.4206525372512786 0.11632270088795812 0.228059207133239
0.672877017496543 0.4075333992143838 0.11660936641778538 0.20707506755805868
0.6422266363557898 0.4026289823528453 0.1163078247517515 0.15135678396885016
0.6970114602117814 0.40092198869249673 0.11684704072108278 0.1520336875097462
0.6226824960163788 0.40693398925282465 0.11611537917391426 0.1908988981172572
0.6799241031238467 0.3968341163111535 0.11667896415793493 0.16020381637618872
0.6666687903913686 0.3980481743921127 0.116548481491314 0.15541348002429023
0.5890794738227394 0.398998994261041 0.11578484703366197 0.23883954031926014
0.6043114371405068 0.4001762007079876 0.11593472921669892 0.19822950977185436
0.656058105425128 0.40964873944002655 0.1164437913707648 0.20995149201899482
0.6305296655147509 0.3978862584324163 0.11619281372898994 0.1584535309082866
0.6147816720294434 0.421936737101138 0.11603728173871189 0.2305999686910372
0.614616393358193 0.3955139394361082 0.11603625334833256 0.1644518835471844
0.6194343246853965 0.29683264718149455 0.11608370692928932 0.045155696961789664
0.6956029424070195 0.16836589275613806 0.11683317300835533 0.04248334794375625
0.724332971533331 0.11561519407359148 0.11711586899616212 0.06431730762180952
0.6938186354532748 0.14659127262454968 0.11681564502272943 0.04407517162721449
0.5979751525777364 0.22167085196255276 0.1158726874904609 0.07244113209438686
0.6650844160170277 0.22303046079519523 0.11653288026727932 0.04398937506550192
0.6712355942314175 0.19835359520607937 0.116593421816944 0.040722939319623015
0.6715698881029869 0.16174383880144838 0.11659675303758317 0.04534506942257071
0.6281015873190627 0.2857983415938449 0.11616898485747403 0.045447403529725976
0.6445906856208934 0.2734372217252835 0.11633121245025972 0.04497205231837285
0.6761896678522356 0.10737486410194962 0.11664226382165412 0.04527081356415136
0.646462677816514 0.21200559613377284 0.11634969980099723 0.04083755703851105
0.6117913860510016 0.2666514081145547 0.11600855382050312 0.04354800860945815
0.6507369200890917 0.14210343528477162 0.11639182938623588 0.04623037606449812
0.6821597070629454 0.122112532561148 0.11670097756621675 0.04454737049057161
0.6347092078768801 0.23779796709513024 0.11623404382679088 0.044529095485733305
0.6434648940221287 0.1586878600673881 0.11632027078917453 0.04729362860720021
0.6849981581792716 0.1626061933833115 0.11672885403811613 0.04168548189431983
0.6946269814567393 0.11450496292342208 0.1168236345206379 0.04242660044200356
0.6577354283272059 0.19633212610109083 0.11646061488154857 0.04214331252623206
0.6192684370059687 0.22491395165680517 0.11608215861922756 0.047308316060003894
0.6097464029389095 0.08894691498290203 0.11598864272169992 0.07657600646550815
0.6779896653431071 0.21013075681456267 0.11665985199934858 0.04572122255980705
0.7238005716557461 0.13818417396491223 0.11711060521373706 0.0635725806226588
0.6234493139367249 0.24936786981170045 0.11612325999572726 0.03997879991194227
0.5865754621608299 0.3042025523223482 0.11576044588246774 0.0760239218683469
0.6422488543702127 0.10271366761610536 0.11630837295957094 0.04048064489408784
0.6376758205479593 0.2519588004507828 0.11626321172118892 0.04674402146095157
0.69541909931388 0.12695030056628148 0.11683141259096075 0.04211743329808517
0.6844517701354544 0.19989635176926834 0.1167234355278287 0.042254974670495625
0.5980499370981791 0.251959035662874 0.11587338797178343 0.061729863639876564
0.7115013067458165 0.1131214653805081 0.11698963905916425 0.04566879223419951
0.6207106743645614 0.09648946020084172 0.1160964961115341 0.05316313049991276
0.6590343126681476 0.17477579803324117 0.1164734178570746 0.04231734055844165
0.6450505631309214 0.18080229351647117 0.11633584425920865 0.043634135916233
0.6185735371914296 0.2777332684915482 0.11607526105160845 0.04383960628376182
0.6592003129977844 0.1576626588817963 0.11647507080177988 0.04253608447528461
0.5928008230673728 0.316455506633026 0.11582167426999572 0.09659956646208782
0.6384849442129397 0.20331334107972276 0.11627122812444318 0.043628736509902344
0.5885249910540749 0.29232343529642 0.11577963838875288 0.0835805411573568
0.6035957694486579 0.29768438241620904 0.11592789250469707 0.04936078724823058
0.6461019984673888 0.0887135829550934 0.116346294944648 0.05998378222883709
0.6098000673017914 0.11154987761670523 0.11598914436767005 0.042190246626442225
0.7211855938911456 0.09992109206859227 0.11708492459045165 0.06834033064363229
0.6260567575760607 0.16410731975895035 0.11614901013485363 0.04426942941168415
0.6230045605902079 0.1990807399024728 0.11611894316242882 0.04444501912438449
0.7082541033718006 0.14655035115128223 0.11695765548710554 0.04108284103922152
0.6666494182722141 0.21099678294690222 0.11654829013249932 0.04026727856911079
0.6074976740578838 0.21439992403276373 0.11596637474042146 0.04052119402198488
0.6474033791579731 0.07603712433536997 0.1163591121527393 0.1177274900629838
0.6601674929370982 0.11183435490316423 0.116484638824274 0.04067693563489542
0.6300169479120552 0.26144424181574816 0.11618785573549274 0.04393714947488971
0.6337920453958734 0.21456826301011475 0.11622504815706507 0.03945994878719662
0.6061236263625874 0.312592849132062 0.11595274322435803 0.04773029240271657
0.6075229141855066 0.2857168117974653 0.11596654011534994 0.0446676241517797
0.7363532179972309 0.1121913853811631 0.11723412340194904 0.10996554528813739
0.592333049439081 0.3353825716177966 0.11581705048984613 0.11979209855965207
0.6476731411761995 0.24471946702367947 0.11636156982040502 0.04815693337018558
0.611632683988267 0.19366564751310208 0.1160070774404787 0.04249505928149502
0.6072853465737205 0.24430770705356455 0.11596425116987273 0.045014445000047275
0.6886872190949714 0.0887530750577504 0.1167652314350865 0.05548978359037158
0.5825516506119203 0.3791549605564288 0.11572077406307543 0.28747326372190884
0.6385674206871639 0.1481104554492745 0.11627210368538567 0.04660835106662376
0.658639702869944 0.2344869829141703 0.11646946640983732 0.04223359900744466
0.6231162838180188 0.15169734705630453 0.11612009734882574 0.04671851863228183
0.6575079289789383 0.12515125625850157 0.11645845960234211 0.042578995755282435
0.6141905874519455 0.07468801565746107 0.11603237942928063 0.1336078238399897
0.6751334944275122 0.1835423607053519 0.11663178503800539 0.049886991519874746
0.5942474428959579 0.275571929973594 0.11583595308251646 0.06880172693413747
0.6630908840948598 0.08482960322980422 0.11651342938998323 0.07023196402951616
0.6649690879148586 0.13823945070483018 0.11653184431027544 0.044072616531692095
0.6991239157235383 0.09728666275054318 0.11686789360060522 0.05058515797279177
0.6063176426420499 0.3307106723363855 0.11595463081223381 0.0744661738567613
0.7028852943701026 0.15701599264822208 0.11690482710077542 0.044293836680726215
0.6714574513088916 0.0956710704869392 0.11659572375850574 0.04577365197803403
0.6391783775565986 0.1356715859533158 0.11627812850107004 0.044864680243878755
0.6147687825775868 0.16742834618701102 0.11603795964527219 0.045066126196898024
0.5958416243661684 0.2352520479858886 0.11585168289256605 0.09133402313641055
0.6067980483483866 0.14973587183521864 0.11595956729126845 0.0435446096644644
0.6155153677632307 0.18078404039385193 0.11604528872463941 0.04157427260887375
0.6267121583064192 0.18068858283661515 0.11615543842696031 0.040429257329656014
0.6357208628267269 0.12517106213011253 0.11624412705040287 0.04808957346137067
0.6159878436186828 0.12561314904507437 0.11605000090784773 0.04607788668614537
0.6167381137301732 0.14103670196410178 0.116057363833545 0.04461824229886101
0.6301196473700899 0.0846952752991757 0.11618907157622198 0.082366658403133
0.6873495512111852 0.10169003786687723 0.11675205694504369 0.04891912031589286
0.6042216100518714 0.13636625200551986 0.11593423685782941 0.05398616680828927
0.6451619812850806 0.2295749881398655 0.1163368836338778 0.04335256278109845
0.647007076659357 0.26034305530947843 0.11635499917430983 0.04497128107784507
0.6354094776894811 0.11296689095619147 0.1162410779577744 0.04103112729989629
0.6018680178478546 0.20167379492414694 0.11591100721000155 0.05541764385515955
0.7078011366855704 0.12676702475766555 0.11695322238432611 0.04685513784727095
0.6717900029239364 0.14897039311903323 0.11659893329301793 0.04364230686971792
0.6879956026336213 0.17961753548689108 0.11675832192880972 0.0442782469506931
0.5918989514283315 0.3563137854545152 0.11581275566665683 0.19359430879181125
0.6459684592878179 0.1944782893924931 0.1163448582556226 0.044037328656832776
0.5889110827473563 0.1607966028699647 0.11578325382802222 0.12732631242558293
0.5957790846126957 0.1744576614288855 0.11585107207695486 0.07180234410770629
0.5944599653619589 0.10317234648324901 0.11583790174607224 0.10078304298603902
0.5775279505991718 0.28937716973481675 0.1156711694133301 0.16314086483388687
0.5793577020597999 0.33852659266339247 0.11568933321835646 0.19744919100241679
0.5956216811484092 0.15160916210226494 0.11584947031499035 0.0726491795296346
0.5794869010199665 0.3572251256475489 0.1156906478492991 0.23473754694478952
0.5936045001614303 0.09186665665577458 0.1158294342005161 0.12492410687037313
0.578052744635757 0.13225545467784566 0.11567601828078768 0.12060388773145904
0.5817151925433084 0.18711114880205568 0.11571228343264241 0.15101968464402907
0.577725701378158 0.24722893925755063 0.11567303248138672 0.1328440906214166
0.602313424190442 0.12094445216661234 0.11591545544488889 0.0535470644081121
0.5846768255226155 0.2580880800239153 0.11574166527183102 0.12534416550608085
0.5784850560511319 0.1107036002725477 0.11568023993303503 0.14435823721533858
0.5868553130793948 0.12243812472780918 0.11576288188235226 0.10565369747405862
0.5819585139261035 0.21238590935720544 0.11571473834475834 0.135649131958342
0.5823157614961089 0.3209139445863671 0.11571849314462787 0.13386533559462133
0.6013549277744372 0.07590632246994727 0.11590589987926163 0.15945977235835881
0.5766135509624751 0.16257081262041256 0.11566187682800665 0.12421377080248223
0.5803082215961308 0.2348784922355073 0.11569849679681725 0.14586939949752886
0.5863947288860885 0.20167179739604718 0.1157585026926326 0.14454179516844065
0.5864705233728771 0.1405050487356358 0.11575912194314765 0.1070589308850765
0.6951495423757016 0.07398943735663385 0.11682637182960687 0.10234127093126337
0.7155469778262153 0.0720302442702798 0.11702568428807672 0.14239150133133183
0.7019647149311047 0.08563933010562624 0.11689528860738926 0.06356737890015991
0.6250064990931874 0.06672187046278716 0.1161383291477609 0.17466525957668413
0.6744706956633255 0.07435941321216202 0.11662400448210403 0.14172418768079498
0.7200544584172579 0.08670484830223833 0.1170725807000769 0.09672651351709634
0.6611727797310163 0.06515198917424518 0.11649208543823075 0.15798001189261987
0.5764926028153857 0.09878110787932727 0.11563656396712851 0.17041104498209483
0.7365856567128933 0.08809082604246575 0.11723426719038596 0.1316022923948339
0.7340382823365281 0.07655583282916449 0.11719669440566875 0.1830346345308552
0.2834795659085091 0.21686786972740257 0.029712413344716825 0.15111021706238284
0.24297713241783472 0.18316168230854113 0.03053482477197788 0.16252911776995296
0.26950120938261235 0.13846702010996026 0.02670573111080887 0.158698614622864
0.2806552535433747 0.13604671163475848 0.030364719542688115 0.15377671434093954
0.2628105696980043 0.2114696115890825 0.027741787331564204 0.16446088861833644
0.2949645275757208 0.13785436429313644 0.029280434685507287 0.14944846378991483
0.3023058539909604 0.052611633433826854 0.06448390746732495 0.130550126797057
0.33580475988318553 0.04949805718085371 0.067150029168662 0.15901815730618585
0.311327692945773 0.05898825054379316 0.0599104335528268 0.12306829612014697
0.32599781451572724 0.05430051177727504 0.06339888861124929 0.17328887049865666
0.30871827442752364 0.07052925521575018 0.05287510909134026 0.08030720336606391
0.29155242648814317 0.06455099835716 0.056290758086483206 0.10955260241371881
0.32158054835463024 0.0679734095428668 0.05440894958737716 0.07829944778614001
0.34064939321928384 0.06397384907492137 0.056754378293409145 0.12275291425025016
0.3548134564328118 0.06027206818128898 0.05941626620994463 0.14252659379137317
0.3529724356593533 0.04576520160019427 0.07019466080720035 0.13899698645612713
0.34591489393192426 0.05327496045427858 0.06413472878765492 0.14692935149283964
0.2972637259131399 0.0749745187358764 0.05063932676924049 0.06820062305776385
0.3221222163785636 0.07780625427174474 0.049533158687245754 0.06621508286671828
0.3725715373507865 0.06252863179032248 0.05782194579292571 0.11799595736610904
0.34536801888647156 0.07604473406345957 0.05035418799374046 0.06519984657979312
0.36826039650965847 0.047282505195659554 0.06901828549306234 0.13057249865992657
0.38121096888836 0.04711394518998821 0.06929916197064578 0.18599323848257024
0.35690647462728015 0.07434871431675188 0.05133648118567431 0.08016187404066732
0.38272405970987866 0.05773065542616228 0.06136018488509919 0.12490883983742383
0.3828350084286326 0.06811948222113581 0.05498259417424232 0.08815444918994954
0.3546991280363089 0.08513303653975167 0.0468451947746646 0.0491814993275564
0.3812421417528086 0.07906836693739638 0.04961151080012009 0.057389594065638094
0.3989799796765855 0.06600833637727999 0.05655967017338136 0.10739009311536979
0.3954306906085893 0.0814391531951487 0.04892807665274084 0.0506280316112315
0.40635308394417946 0.0743874829669108 0.05248718852867339 0.061553846310128904
0.3609649140637728 0.09847571893848786 0.0427269393546164 0.05161163595836372
0.37045226363602146 0.08932672967478278 0.04549017509780362 0.05262557340685704
0.3937775312052818 0.09252050599224174 0.04513697039605932 0.04689881010933381
0.41150398985532355 0.05828505239065649 0.06151893420997113 0.1318967038285862
0.4236220886782315 0.05928186214074267 0.06163349222755736 0.13408178178901453
0.4175650172095582 0.06946969551274094 0.05525304155271494 0.07921792775820594
0.4107671990259235 0.09238584565431493 0.04591741226195438 0.04713062907222869
0.43059951745973385 0.0750031858208564 0.053609077303976564 0.07268775001930713
0.42268828399728364 0.08692533259495339 0.0484557243612636 0.050586547148345304
0.3851753541637065 0.1000825417700888 0.04277244261365739 0.04483870522749415
0.40879582494827177 0.10443284816473423 0.0429375301849904 0.04769717059056621
0.42055934496916536 0.10094433454288326 0.04447617778219902 0.04172123586237322
0.4386764013598929 0.09064560398316981 0.04864045368996631 0.04777275801286225
0.4526872457463624 0.08818217166657723 0.051245745532134866 0.04954717859683634
0.4428786829642196 0.07890006196176183 0.05311060054400668 0.05903220055231778
0.4354853473109711 0.10686286900863462 0.044728494762888524 0.04565467922394482
0.4535966211085172 0.11072311759354003 0.046845955921941344 0.04691701038888397
0.44001097330498634 0.11799156319241387 0.043738847426104614 0.04653088758005304
0.47018877446070356 0.09027374915506294 0.05409406613539727 0.04664907925108896
0.4644085976528556 0.10573751405396382 0.049728317381464465 0.04753940043431814
0.475848856329526 0.10837947733207311 0.0520175486518306 0.04135848077724507
0.46187675998834854 0.12144428191257065 0.04736303092918721 0.043407809464045904
0.4807407769707908 0.0840655434533517 0.05842737227942134 0.0713967895822288
0.4972903773045933 0.09230897921321872 0.06184204314674165 0.10626175981050703
0.4934254522874827 0.1064477001880516 0.058109912164667515 0.06905997201237982
0.4840803686295667 0.11677713231593179 0.05365715937242349 0.04595053455771075
0.5080863152920667 0.0922766966191459 0.06700343095510712 0.1345209180261666
