x y z curv
2.2820720421171448 0.3757667043520808 27.023035484160037 0.1713760190235364
2.20421882544436 0.32341995561219977 26.918548745867668 0.04913843651310804
2.2055824775499278 0.32688595771561335 26.907490988168348 0.02127761497865817
2.2056042512919904 0.33932322103189266 26.90726044107837 0.049053264184012096
2.2025579173273853 0.33044751767267805 26.932014400472575 0.1679975435110924
2.203639152187869 0.3429259566111997 26.92324085833298 0.04482581740841159
2.201702807570588 0.34158563613414705 26.938977104870013 0.12543087014023144
2.2027058443296132 0.3516058339112859 26.930836209457212 0.051975854055372576
2.20327411739525 0.36575588588035285 26.92621965104457 0.06567954439384752
2.2012115188956005 0.3525011117488953 26.942969761458585 0.0880529484150644
2.1898091311084 0.37340272132026026 27.035745144602863 0.18222273197106617
2.1976392509601994 0.3731783289323667 26.972054816786777 0.08162498276002246
2.195461916527192 0.37619517134378366 26.9897709268039 0.14245132767804633
2.1917496655740907 0.381628632525401 27.0199766198484 0.17477469906811777
2.1903547869099897 0.38437696053611065 27.031327810716345 0.17170945841599397
2.193330259776852 0.37764525668645604 27.007112399903733 0.16692007783342908
2.196560129592433 0.3625349138161537 26.980757815604527 0.16560650805121746
2.2014607003544087 0.36718766440757566 26.94095131686758 0.0533014717637283
2.1982346500881853 0.35999420143399086 26.967121091414207 0.1727727751371446
2.198889924902197 0.34952902200297603 26.96181693602292 0.20635164558219776
2.194474067148397 0.36190225906543994 26.99459041920636 0.19159925303735276
2.1986719949630866 0.3386627775747765 26.955013702115444 0.22330581796785273
2.200411580310864 0.3227742414392521 26.942565638778376 0.22454968213997462
2.2038438265251252 0.3024948382119075 26.921493201866976 0.19783367536215976
2.2049596496612094 0.31269155168852175 26.912460433453884 0.08120496993681203
2.2068449123600518 0.31318725461957136 26.89711075285225 0.06192947516900859
2.204017871517426 0.29033552713405575 26.919581919066857 0.212996088169189
2.2059061179905277 0.2804974758594032 26.90476686607658 0.19258909144242176
2.205617139184327 0.29259932179985115 26.907017425020662 0.15858837528531883
2.2076233691361526 0.2896560953341726 26.89073593970282 0.19399888210567928
2.2067786447728297 0.3003313648984025 26.897612565565954 0.10536027985003679
2.207956190559879 0.32182622907888786 26.88823846732446 0.06273069636960456
2.2110665586015843 0.3516094027127285 26.89871458966347 0.041368763549790924
2.211755912979765 0.33261186145177657 26.886708306306595 0.06347355309972365
1.7940432253351903 0.3054561917491186 27.057376380074775 0.0785184712720367
1.8236326900923827 0.3039880982539816 27.05455683716585 0.00035645609160467806
1.8125998191323915 0.30765867900910115 27.055960664009305 0.00044794443073624965
1.7734215130730582 0.30837480673395223 27.058343632997893 0.12849139160793557
1.771202636546167 0.2842030298907154 27.05839738328381 0.13890969765978797
1.7940759488019051 0.29063088491393463 27.057235254059695 0.1322624070566046
1.8418618909113254 0.300784401741239 27.05162933385714 0.0007042477945602204
1.8471784082117202 0.2858538333382513 27.05001722405762 0.0004834646507202382
1.8650257139945718 0.29126441421638816 27.046251341475156 0.0008494294438019662
1.8518023658200486 0.3125468455525212 27.05081689873615 0.0010696173021293046
1.8810624582117266 0.30272703773049486 27.043513032696243 0.0012599740617260306
1.8901427904321193 0.31225640075086564 27.04295164664682 0.0020684493372152527
1.8759601759236186 0.31395085952176593 27.04635472102888 0.002053198198817086
1.8622883191663309 0.3159250118863325 27.04933517167386 0.001304834894465304
1.8713110167293017 0.33504077402735444 27.051206349518555 0.0017313404270632522
1.8583962444502629 0.3303044620712822 27.052165942067244 0.0015283454203756173
1.8806808138825661 0.3253227287005411 27.04756208350264 0.0027074122254388067
1.9137589902010266 0.3320399442342886 27.043472047819442 0.004343117008632458
1.8830459936577126 0.33852772783562146 27.050719649761675 0.0035743246162155727
1.9043291037679495 0.3391630586165766 27.048118233776083 0.0036623669556629748
1.8598929413339154 0.34268382488710986 27.054228863813027 0.0012131515457174508
1.900542013440642 0.3518011450151511 27.053811019026092 0.00593568209613661
1.8891393290021208 0.3485789469926191 27.053376229446336 0.0029724439485886802
1.9141750450332424 0.3469649456179085 27.050322890730726 0.0042843101115430755
1.9329796657951985 0.3447309290179029 27.04658198598766 0.004761620137185015
1.9226214296410713 0.3553504898942828 27.05426672438992 0.01118017646688357
1.868962677685962 0.35636922679902816 27.0569560343037 0.002378855839829627
1.8454610369747584 0.358780406024733 27.058053078599457 0.0016623450392118722
1.840363176338342 0.3470723030700369 27.05626757971979 0.0015442787961331436
1.8230165096170816 0.3445365854792296 27.057082661104904 0.0009159857722061275
1.8053347886259152 0.3575764139435291 27.058295585740172 0.00020053047988929668
1.8058848290938063 0.33187801087312585 27.05721064295928 0.000454054772175564
1.8204009395951637 0.33278417212067024 27.056268434984254 0.0008982814141870037
1.844076180352014 0.3270308666027529 27.05343835077477 0.0016178332553293008
1.8225815222105524 0.32141775214585566 27.055468497097706 0.0007485325644030614
1.7964933204699305 0.32117335745554654 27.057487242023758 0.11290915225606467
1.784642414352196 0.320166570565671 27.058023107122118 0.14125806808563462
1.790860688430889 0.3327250894921593 27.057905527008682 0.1352937898175583
1.8094536974462216 0.34638183230554953 27.057669021397217 0.0005189299289077389
1.7920519478861703 0.345933103108032 27.0581338404727 0.1241997426739055
1.7926346509554867 0.35904724492892326 27.058479026444733 0.12060556052463069
1.7722743787881203 0.34657413677826315 27.058447413947366 0.14750329411845517
1.773544686698122 0.3305744711349206 27.05841996315862 0.1592767609611369
1.7626454201842254 0.3014950256758981 27.058515493087796 0.12089531681399594
1.9380813094867357 0.35744372386887713 27.055220066850723 0.010655782457785494
1.9714187904213074 0.3592104547407369 27.055642726713454 0.02156803182409825
1.9439276418282092 0.3497109322719157 27.04871930975541 0.008339700674386667
1.975238637871662 0.3500450003196022 27.044912432379718 0.031552240832214584
1.9631788174919114 0.34805848627768066 27.044776822902776 0.010746334451296143
1.9828387979130238 0.3563493467271564 27.051559148650277 0.04499047199283892
2.0112005682278444 0.35634933566446325 27.049456239314768 0.10657228422540306
1.9923670187816962 0.3511116425203664 27.043909750420347 0.08342992302995847
2.021961531490105 0.3473578766112664 27.033731626638456 0.10258439552758822
2.0224193461426334 0.35446556039276256 27.04496871431537 0.10302548178778416
2.0344537283546584 0.3564464993825791 27.047741016241098 0.0837730063076358
2.063069240061773 0.34870091871774556 27.027890115242474 0.053961449165986525
2.045253185239936 0.352857565913349 27.03980323244549 0.0622165043572437
2.057696345000158 0.3533260243805305 27.038739918902415 0.05678001831250133
2.037383113916004 0.3460839746539212 27.02865388479932 0.05303352632737645
2.0733246970351336 0.3472201115787473 27.022717874402282 0.03829555324316023
2.0694458949194496 0.3533854688148957 27.036938757501606 0.05735259328794591
2.1042432154208175 0.3466346714517603 27.01457746776322 0.04344268090857178
2.0924997083397248 0.34772902578840487 27.019495282985908 0.04452984189824877
2.0730424012378763 0.3411546890931202 27.012275175298427 0.04550595074846192
2.105043007149547 0.340902190522406 27.003624399175333 0.04347963865482067
2.1286723829392766 0.3457396656114081 27.00683488470127 0.044597725549261245
2.1064501154640234 0.3512248342576041 27.024933842098356 0.05027105011172109
2.142691465804615 0.3488650504154739 27.010990635274833 0.0420447297952528
2.1203137654234117 0.34892677378261827 27.016180156661612 0.041698742175437425
2.1589922481058172 0.345914107980924 26.999488379717597 0.04285217272977619
2.133263347944462 0.33940537632769846 26.993865278056997 0.04481007914165909
2.149649712642378 0.3410410865262439 26.992081254046916 0.04215051030022638
2.1607877057486395 0.3399971734942537 26.987320330133507 0.03762394277633958
2.1768671003015605 0.33902203204282383 26.98116638526659 0.06339794455798681
2.183421448248815 0.3479354164082372 26.998468118108214 0.09528568700594302
2.19837036046559 0.34379181438910034 26.984746811548778 0.1026541164127315
2.204935416010709 0.34917052996717163 26.997609901475634 0.13287546226594513
2.172381699598501 0.35059260060701414 27.009228320516744 0.07677892396031967
2.20067517384829 0.3526742675795521 27.010887265023523 0.1342402783830924
2.221325577125037 0.3503437977749715 26.998978674281865 0.1969502403028701
2.2247742528683783 0.34536846175158464 26.9840775171209 0.1218362809816834
2.2149961181455695 0.35285649954554427 27.00962187992801 0.21967646154679177
2.1805514745309593 0.3545686071055899 27.022900162709128 0.0775500679313404
2.191707011401646 0.3541901807401897 27.019114448906492 0.1400093205978594
2.20798656566307 0.3548600222678634 27.020117076719053 0.2061357329148253
2.227363537111921 0.3533795233983828 27.010563734245274 0.2311695494136378
2.221199964053124 0.3556291217358817 27.023323905393553 0.20809189951172571
2.2359928548234524 0.35537267931255595 27.021126584068686 0.21665381933472308
2.1678858705239192 0.3551113442956737 27.027307523882108 0.09348412478327343
2.1546972799926194 0.35548893373320767 27.0313175735414 0.067641411443195
2.1777452029829614 0.35666067529721135 27.03421186187299 0.14106214687176746
2.1956078812534408 0.35679412165648233 27.032540471210204 0.1594954395971483
2.14880966277589 0.3527791373454972 27.021529833855414 0.04729677573179826
2.138100368274436 0.35443564523457327 27.029314958010005 0.05478251432341252
2.145820503132932 0.35713206617190496 27.04029729711507 0.08124295974245485
2.1529495374150147 0.3588852114154463 27.049142233577218 0.11465057319653524
2.1689934133699023 0.3588548687728067 27.04797664538222 0.12083292057294417
2.1949019131664897 0.3587349615653853 27.0463122283187 0.16626456216478142
2.117862426719558 0.3577323066814926 27.0453172835387 0.09019320423642084
2.095136624516253 0.35779821396542466 27.04670409145003 0.09166786166647765
2.1054186773923638 0.3552576555219008 27.036935618651256 0.07227420125339226
2.083260104128094 0.3559947804736654 27.041864395647274 0.07920502498258919
2.0680843741046555 0.3579534256745791 27.0490629409758 0.08292809345986327
2.0889599252975954 0.3527067037268755 27.031956685200676 0.05911987467198313
2.125754645368212 0.35455827405181467 27.031697599377466 0.06174707753048299
2.2295130995650476 0.34047211757887785 26.973823811288376 0.03647712553992942
2.209738347782249 0.33947204480288207 26.97448461994361 0.12090896927106674
2.195413217865888 0.3348531524938118 26.97033313299594 0.11550215157842307
2.207475799913524 0.327611969417785 26.96004358014049 0.16421847059633196
2.218021326870176 0.332217133579519 26.963193113543916 0.09967487593486136
2.228246869529927 0.32656193143447915 26.957004713706368 0.06492060964494945
2.177714356775901 0.3309069937710391 26.97007446014397 0.055727258744335546
2.1927695939509784 0.3246433831036724 26.96044115914613 0.10454916524760412
2.1560586378191235 0.33372781453773104 26.979388150139407 0.04679507445708648
2.1435788156326447 0.32772169444035737 26.976106830465604 0.04290956137769134
2.1355139043049856 0.3327248740733792 26.983905611171153 0.04777671577996718
2.1659432071145517 0.329430238761503 26.971901768286603 0.05394801178485189
2.1777295902154075 0.3226137772362384 26.962594856121484 0.056262322562092966
2.1220788782480713 0.3254513370881571 26.979827772024468 0.05047422429884961
2.123514845937159 0.3343255374752428 26.989056743968852 0.04128533575696722
2.112143628927289 0.3360104792767452 26.994432276314065 0.04239299825642388
2.0893491904707178 0.335988048134391 27.000550058334824 0.04521846262173799
2.09610813851891 0.3281736510252899 26.989431491223108 0.04423939501988777
2.06432903373039 0.33392059105129934 27.00489510148507 0.04269928584888738
2.041029195346686 0.3343255590880845 27.01194420570078 0.04926771457573481
2.0252750796152483 0.3368250955926859 27.019195478092158 0.08159395468878455
2.0113430210986927 0.3381485752982562 27.024588590975966 0.1530603610658753
2.0075641796543016 0.3454192165166652 27.034032350731565 0.15912135371844377
1.9963883611409154 0.3340463974124221 27.024727681501666 0.10244119689356777
1.988204899713722 0.3400791407040702 27.032371738617776 0.06900043984058213
2.0144021513703665 0.3310012663679796 27.016487301730578 0.1303177578167781
1.968896544020922 0.3311937307724387 27.029926333884163 0.006375399880378927
1.9720482444288399 0.3397971589378195 27.036025941778135 0.005035632032800098
1.9486968647708065 0.3319667485624911 27.035878749675767 0.004598982817595348
1.9394400734713817 0.31941844202965225 27.031743364543118 0.004725093766400006
1.954300391062005 0.31990543699881135 27.027622320670545 0.0036052216897451894
1.9742150395446478 0.32103082229191426 27.02199457148042 0.00410385394879613
1.9245615023891747 0.322712051805093 27.037432573513815 0.0035505318231983866
1.9142703982705416 0.3174408184030996 27.03805829620466 0.003114486653482769
1.9015953260904495 0.31906023621341645 27.0418425018671 0.0026252133538282978
1.903488357061502 0.3061211754178717 27.03806706793018 0.002356628324318428
1.9217953134567674 0.3031372983931395 27.03198743983127 0.002259755603068498
1.9073730349461917 0.2945548378567504 27.034831151407893 0.002494336543936792
1.8894156961890525 0.29190559026487833 27.03989200211609 0.0012962326366499695
1.924497777587324 0.2909408302673857 27.028585133274035 0.0019800765321749815
1.9386195389224805 0.30814206390666177 27.027847056363264 0.004135923808636203
1.908102710449396 0.2830740525835615 27.033120908422283 0.0013726402334347852
1.9339663553899409 0.29647049676254195 27.02638078041899 0.004025905686753913
1.946194235131121 0.3008744067505098 27.023013246417296 0.0029743838103787426
1.960913450264124 0.29647938396794693 27.016321569968824 0.003464594577685662
1.9494308701734382 0.2898816034266903 27.019191744255075 0.0027582803288809313
1.970401649832235 0.3059733483083351 27.015885326205723 0.004788958736881882
1.9818051091371718 0.31343224860575264 27.01518483099528 0.036590155004490185
1.9920913434390222 0.32305648061987124 27.017390696942144 0.08892944377464365
1.9810116793924495 0.3013304457021167 27.010314041518708 0.03346833009899379
1.9937474326487237 0.31101700347541444 27.009727905850628 0.07552773715327255
2.022282745823174 0.32271612770016 27.007189302105562 0.12805979400617432
2.0017944080339873 0.3047204617679842 27.003916078773543 0.11997939348872363
2.0136912961585525 0.30862580676112056 27.00142456387735 0.11342475338643135
2.0254558670335965 0.31320426132658014 26.9996655645371 0.10903466906314663
1.976399226971328 0.2892190964614804 27.008576806367095 0.004147517458145804
1.990994972028306 0.29893852474414234 27.005698324328996 0.047898700554162815
2.053349901033758 0.32429505023534994 26.99830925254807 0.04249452462517923
2.0248346795766445 0.3015636291489768 26.99431088347674 0.09088969237594076
2.042601987812922 0.30931089374734033 26.991667617427446 0.05233266309220385
2.0007648397499875 0.2884957848621933 26.998991145173928 0.10192400790658893
2.0288963807420437 0.28935530140806354 26.988646392103018 0.10465564269228478
2.0466460803540145 0.2956354772043184 26.984517409387266 0.04584826564199964
2.080431927251049 0.3188595734915642 26.985750962261434 0.04496656791219152
2.0601244953341182 0.31257560803954354 26.987797999122332 0.044800691931331606
2.0597896924379824 0.29666812184721064 26.980368395391064 0.0451266575044106
1.9896504460950626 0.2873102087321425 27.002933884034313 0.054381916527547994
2.0662388454003935 0.2879169350497511 26.97572791059641 0.03626969176977489
2.0913051871570385 0.28684188298943436 26.96803067746173 0.04629464195427741
2.0802681057975794 0.29189663425534274 26.97253688344004 0.04233019687027771
2.106313342588347 0.2845817550362654 26.963445389326736 0.04736168060280364
2.1180645487272463 0.29043173158365776 26.962030126462192 0.04691473859128403
2.102683208105077 0.3001898250941602 26.969159951421986 0.04408734317768092
2.0954970607328436 0.3082405339437633 26.97486738654556 0.04530814682775621
2.123045982388046 0.30443036579501337 26.965772241735984 0.04306215654026012
2.1524099938565326 0.29571186914431596 26.9558486826719 0.03995562600722004
2.1642190141404996 0.3006082870436901 26.95477843017536 0.042354541770171325
2.1568886370924902 0.309886257164833 26.96001875848171 0.04659286809380068
2.144710683600943 0.31112345451648976 26.963655563170533 0.04588925528368966
2.168404132283944 0.31236753320203164 26.958520543829813 0.046070981136138875
2.082817212237586 0.3089509416244638 26.97875053245059 0.043155243920076095
2.1106546115572247 0.3185801720475342 26.977119839777338 0.04449996010834102
2.1369807898241477 0.31770035790218665 26.969525053402403 0.05270579820726754
2.191269641961775 0.31439253596041017 26.954211674384123 0.09969457963567271
2.201746967862975 0.3096497403649407 26.950217257893524 0.13605638952141022
2.21356273185937 0.3204607376562864 26.95374679906852 0.15307224372654454
2.2132250596465926 0.30611844718967757 26.947415309783867 0.15298504619102168
2.233210053187488 0.316625632614103 26.950361379392287 0.058199898500976045
2.205912205628369 0.29549577333171145 26.94578061634263 0.18818285472620283
2.184428861386455 0.28529540626950906 26.94741894342512 0.0909756096313362
2.1848920416096744 0.3033687882281905 26.951185115678374 0.09162000624645429
2.1406550591536257 0.2881880472460603 26.95634865961105 0.040014726109390227
2.128521522630346 0.2842114681798013 26.95815968727367 0.03951874489279515
2.0941788935792007 0.31926228162802966 26.98220551511199 0.044079183900990866
2.06680700035504 0.3249687762042867 26.99486554515259 0.04587639570508691
2.0369881362398448 0.32361114103760824 27.003054701294783 0.05366649578022026
1.878797248090097 0.28929274667701077 27.042632834412863 0.0012439228563251186
1.929205001432936 0.3346259922188371 27.041600156629624 0.003905227780251604
1.9533131783044593 0.3421614414417956 27.041765356291858 0.0051265034466063
1.7835011088755217 0.2756962217212666 27.057901108863504 0.14668655674309045
1.7767041068373328 0.25941991616953264 27.058265098937632 0.14813482642853731
1.787419413599736 0.24763902234976848 27.057715407486203 0.1382603347020797
1.790297659805956 0.2644708682887129 27.057566704618935 0.15886804418624834
1.8048767613899679 0.2600642815147912 27.05625279930241 0.03165123681057778
1.782983709134518 0.2886164880020866 27.058030446354202 0.16268536632976774
1.8065871805428524 0.2855514044727202 27.05626693034285 0.0002519402158371175
1.8011081721926565 0.27293986925895425 27.056663889862715 0.07607895412467196
1.7703436957047625 0.2707181015777501 27.058422304537803 0.14421277472200078
1.7606395850753778 0.2583865897946443 27.058541162216386 0.11637427263603435
1.763801173224236 0.2283980035161232 27.058502152243236 0.11322728813806193
1.7751020184038935 0.2426668350019475 27.058369254562358 0.14806525131121723
1.7546955991246485 0.29264374534033044 27.058542491966065 0.10456355287021322
1.7577897507461544 0.27203396794136986 27.058542503146857 0.11318323584598101
1.7470066791992251 0.3411910921123838 27.05854256156265 0.09744721527001822
1.7326661595837187 0.4555485852354026 27.058541822108758 0.08947072016899711
1.813519680035638 0.2697202432426067 27.055294042659796 0.00042346542310510736
1.8181709991401858 0.28068939050097486 27.0547677919195 0.0004143107992282415
1.8270695295622987 0.2883175453699047 27.053605622005893 0.0004740067636828197
1.8152756766693843 0.24429828886721006 27.054944920923525 0.00029176810770406634
1.8081391196679584 0.2327609671353319 27.05589557922982 0.00027932900964617387
1.8249382304667536 0.25279386238694723 27.053613042568337 0.00036937695274473937
1.835902553128523 0.2575307795425137 27.051681243566478 0.00034562283668220016
1.8305170868656706 0.27556910977706983 27.052917651565703 0.0004142707286902127
1.820560371993194 0.23111687538456246 27.05415288934797 0.0003011249381356639
1.8499171157578504 0.27136907352310347 27.049019668119712 0.0004919054132452307
1.8468300915434415 0.25942292308746506 27.049489261691086 0.00028786001526589876
1.853389003362075 0.24809339248945916 27.048010674297508 0.0003167378751758956
1.860520350855916 0.258932241043767 27.046360124734345 0.0003609430036062721
1.8646744690231922 0.24743428326268702 27.045246834919574 0.0002078804122951844
1.8719839901142221 0.26088627591007435 27.04330482970277 0.00039410199163768516
1.8655944667327984 0.2706483474529888 27.045214968672916 0.0004489883749396306
1.8731435891215353 0.23063813211500211 27.043042451344682 0.0002158667476487744
1.8869038230255792 0.26236755045915156 27.038939387024076 0.000445748529561943
1.8796829812417468 0.2507738988510236 27.04104936021462 0.0003676897600092345
1.8785020404395365 0.21884928401623038 27.041562223658918 0.00019209775136191302
1.8930097913663793 0.25142192933669183 27.036921844736213 0.0002984623873759167
1.8916786965317125 0.23581304508366008 27.03742246472003 0.00021259102831435543
1.898907185009001 0.26611736499570227 27.03511606335809 0.0004690643206923776
1.88762995114601 0.27791839951798003 27.03932586995203 0.0007482357411963127
1.9184737394693188 0.26040056199381223 27.028137691533342 0.0005944283286852185
1.9064542713495394 0.2532830942857035 27.03240468322577 0.00025841191645954964
1.9155581234724204 0.24803695446812224 27.029073119820996 0.00025278296286058413
1.926121577056375 0.2406886381630392 27.025185135587968 0.0002024643458958338
1.932685375284488 0.25679356165166134 27.022686352662863 0.0006326709490191104
1.9225743174590741 0.27901748851750985 27.027684798002447 0.0012420976280396769
1.9432749681955288 0.2712502241824966 27.01925680438886 0.001199257688230875
1.9340462608407198 0.2815995660039633 27.023581689806882 0.0022119418460236897
1.9892002630379733 0.25902821573920665 27.000110313213902 0.010556047295144807
1.959541560011823 0.25914666122956553 27.01209506927612 0.0007433242477935413
1.9623511872531485 0.24737097058415025 27.01097176080242 0.00016496781148722436
1.9785253663342983 0.2689419293253292 27.00485880289132 0.0014660451881013188
1.9592439757372446 0.2753125010961524 27.013225518163914 0.001129629657017086
1.981050142205934 0.2502750866206497 27.003363335610363 0.0005220938001042699
1.9748621528695334 0.23374545402118282 27.006004857201148 0.00013191854840495883
1.9933146956006764 0.27209573970189016 26.999308443200537 0.05347780032793347
1.9706975878686914 0.27676655905800224 27.008786494811083 0.0018688451192285767
2.0150491903934418 0.2542732598401927 26.989921397301202 0.09944694670398009
2.003914517181312 0.26335479008381135 26.994381772800565 0.05347624479705658
2.0156686397997237 0.2665765276620987 26.98990655367369 0.14938836447069623
1.9881069976194374 0.2291988338853438 27.00081046295138 0.00012861387549758927
1.9930462915375988 0.24675021093042984 26.99843398326954 0.00018979367874467378
1.9446735215685484 0.24415794778862338 27.017959541151072 0.00019585736246429002
1.961014425038064 0.23001573489698843 27.01166854427145 9.702617315957098e-05
1.94719402446269 0.23236539640091758 27.017153245830322 0.00017695263408572305
1.9390602172164828 0.22091064109145025 27.02056026299559 0.000132847556144575
2.008140545425202 0.23856343640442484 26.992762123983738 0.024078721319035
2.023882007220536 0.2356846479667385 26.986878199865966 0.06810661213672164
2.0389034722131516 0.2464009810704385 26.981179194453183 0.15487045801606772
2.049272738848238 0.2365325995700365 26.977876274197566 0.12522182178579824
2.028544906170982 0.25376818410055973 26.984928211171926 0.16828175967335926
2.0528995661739438 0.24881304238738203 26.976362226210114 0.10123915024486949
2.0418083113121854 0.2582917328580893 26.98023120012517 0.10450646251585456
2.053725948233593 0.2638465849415663 26.976282305330667 0.06112037441250567
2.070539101207916 0.24045136065221867 26.970939408399456 0.09554173803063301
2.0649553131529537 0.25939756141086057 26.97259679754242 0.042994718410599375
2.084016431146675 0.24892550593725515 26.966754648381496 0.047927183073473316
2.0990863128211688 0.24996883643004103 26.96265055514766 0.04358689470742016
2.088942655472073 0.2592722098609767 26.965489235718806 0.03992356297952795
2.09510542259839 0.23905163174156313 26.963916046096912 0.061138921554683145
2.0736262227210083 0.26834832824152516 26.97026957481089 0.03769956980348355
2.0971784670901465 0.27205335779433515 26.963912584327765 0.04821622015654822
2.111451700945139 0.25986100023149733 26.95963594998656 0.039530116429861276
2.1126086312575456 0.2486759745122385 26.9592348292376 0.0404816369669696
2.114047433276027 0.23682751197519106 26.959179021122928 0.04608735772877196
2.1268512300138442 0.2579208603888363 26.956054918322465 0.03726600902436261
2.1357242698973335 0.24684530383227718 26.954067983226054 0.037899478732598704
2.1348540797901947 0.233375483723285 26.954595736751358 0.05155606516211517
2.1177104096697206 0.27802624205352444 26.959626110252376 0.0399283986471375
2.144501643253647 0.2569530337430706 26.952424478804524 0.03974376834792587
2.1397443768842663 0.26781494024705244 26.953678609299658 0.039580178634447884
2.0817535192607566 0.2796208735937693 26.969170153914305 0.03956264823817658
2.054829067728946 0.2791242922781454 26.97742817071338 0.04621587522138001
2.045034792717251 0.2711352737373459 26.979726767544136 0.07805358090098759
2.0362256251245543 0.28101122451013477 26.984107434367072 0.09794482635480528
2.028030068532393 0.27240773552210257 26.985953406940233 0.13762767897294365
2.0135303016074957 0.2800806035683775 26.9922915573606 0.14645563015847873
2.1515971625186396 0.2719441169969273 26.95182408143883 0.040263890898159495
2.164038555505786 0.25356056572946173 26.948868312925335 0.04368672760937785
2.162269406480756 0.26556010196273216 26.949311065196248 0.040506305967407036
2.1728293862685018 0.28188619536745924 26.948978732528687 0.06023781915389768
2.18633601451771 0.2551202824521301 26.945418305976702 0.10535171403682371
2.1865763045760125 0.27186097630806244 26.945978280314883 0.11769459497679033
2.1992028996406763 0.2793468663118477 26.94457028149865 0.14253756884711646
2.173580586919685 0.24606063556826527 26.947331692519114 0.0707312549437306
2.1517970861265856 0.2303813117902414 26.951397910447415 0.047782704985123534
2.1497764923182023 0.2463465900798203 26.951343380726225 0.03831749416683809
2.219291102177182 0.2007959056535774 26.947533403441525 0.14506035823271615
2.208146225608548 0.1982969138484613 26.94862617124174 0.13641303230608445
2.204417208037335 0.21018755155459135 26.946291095985746 0.11339207868084955
2.1930555985119122 0.204255448082988 26.948436809492954 0.14183829856651609
2.1857121235726327 0.18431903919912085 26.954116594778554 0.05976530851528685
2.177559336963943 0.2031296097305085 26.950056566170662 0.12797791937158326
2.184866876909304 0.21406361265312207 26.947747694023278 0.09835396885005405
2.1711039969152583 0.1914588719485353 26.953507060651727 0.09153538566287378
2.163158772550864 0.1772703990445503 26.958988566200865 0.04888936623636472
2.165038943110952 0.20418927360123726 26.951693347182687 0.173312291922979
2.150746068482568 0.18014319084975314 26.959577871254226 0.05017240241126592
2.1884177244702236 0.23146928600363836 26.945764204789953 0.09356433347682981
2.1479548597401013 0.1967020013696621 26.955554316560864 0.1276287211892757
2.1737738257788024 0.22358216011469573 26.94829797514781 0.0816008768311537
2.159132864700668 0.2209708541243845 26.950696116469338 0.0873495522090345
2.150372010475654 0.20970009900706282 26.95338219702716 0.11872927059895941
2.139043344798383 0.18527766849189475 26.95991000387224 0.07820905650427716
2.1375096261364854 0.20685913508544632 26.955977553414844 0.15208740211471827
2.1061511282779524 0.17802834075885052 26.968564654622632 0.017328766541370322
2.1011629447399245 0.15302727519444237 26.980675316205506 0.15208419186618327
2.117933413434989 0.16655466658703455 26.9704325823656 0.004180409649923913
2.098631234852003 0.16739965932259793 26.97427995694111 0.0030723480229850144
2.0999730200922317 0.14005397839535763 26.989878976244917 0.2196006719201318
2.084274699772188 0.14630149145957083 26.988177766694687 0.18403267541178292
2.0889064309943923 0.16160786254394857 26.97879156373898 0.0032722181182050247
2.073168683091767 0.14310427134162207 26.992701970297727 0.11290789228635546
2.079326589842296 0.15686368020037955 26.983429977815703 0.003450211668154491
2.0868754995427374 0.17326144902268847 26.974986437862945 0.003242594251007609
2.1009316254104826 0.1975950050325527 26.96574398506931 0.08147702971621672
2.0760491673479624 0.1694385921937696 26.979084096353052 0.004033021956747778
2.0865059027517034 0.19068586877267474 26.970636028967455 0.05732204643148057
2.122256357604667 0.21427920591616934 26.958570086123842 0.12354183127332699
2.1179879641474426 0.20221228164280836 26.960857038912263 0.13145217841428955
2.141721559047135 0.22011900045774413 26.954022715001052 0.09590186760532741
2.108124395374439 0.22047521516377677 26.96145507665107 0.09470997952505522
2.088528947697638 0.20358527364383824 26.968155245827866 0.1013409227856698
2.0631309409272935 0.19292262687601944 26.977066674376466 0.02738960575454711
2.0762843731112195 0.19903401035312707 26.97219288933614 0.07418875788626177
2.0595296834541186 0.17566656531768132 26.98197867585447 0.0033151505000622136
2.0476540055702817 0.17540451055941975 26.985524182382555 0.0021174744839851014
2.0386070571197847 0.16086251807829716 26.993094441800253 0.003378940343948001
2.0244262909489974 0.14909816046414803 27.002027151565628 0.002396357160798279
2.0149856757685676 0.1391099891466648 27.00944273058772 0.0022951477504726796
2.011380911830435 0.12771033293944994 27.01693675209038 0.002903531561731721
2.0276471242643463 0.13386174534934617 27.009240614080497 0.002458623448948399
2.0095963274836803 0.11536325109711776 27.02528276117816 0.14308919686596758
1.9993606121003786 0.12034920300815305 27.024064473716578 0.0022259198056982024
1.990777440191893 0.13328009671855065 27.018960501573048 0.0024131272648296323
2.0043587549017627 0.13919552690391324 27.012330690717597 0.002024210419517339
1.982807239451636 0.12285138920565719 27.026398892508958 0.0023173113316652073
1.9930209938942531 0.14442066530907374 27.01341695258192 0.0025323943871451682
2.005461895235981 0.15288899645722306 27.006204674666733 0.0025560662828148554
2.009889250614192 0.16533424701996557 27.00072531707972 0.002107391307602466
2.034796475968844 0.17849137884407223 26.988937883836925 0.0008319488534529479
1.9984770459377406 0.16256470351449895 27.005370557429092 0.002325942309446298
1.9833090929773505 0.15356335593304463 27.01313151788016 0.0022024752218128127
2.012904711469045 0.18131209995987893 26.995969365050502 0.000987377403737089
2.033211459965921 0.1966212082803452 26.986360058849364 0.0006882190526031458
2.06809831271983 0.21503368659444447 26.972991765222204 0.15804058998066062
2.052674185566135 0.2140033946011349 26.97799617302932 0.07506758460840417
2.0421575836929797 0.20896241813421118 26.981929002651658 0.030537873379185017
2.0069747424130293 0.19658341589894401 26.995815690693334 0.0004818363335598944
2.0299195943893045 0.21025004572529304 26.98613048587159 0.00033811542904838086
2.016784683940461 0.20626513492870263 26.991205584964874 0.0002190240611709466
1.9980834519715593 0.19083409800865306 26.999790145009694 0.0009228046816021148
1.9813357514665135 0.1838001656403969 27.007052325415774 0.0008932134122265346
1.9879825711409715 0.2013849167748829 27.002529541535605 0.00039173201375954103
1.9771470382765535 0.1958285044840061 27.007195944346506 0.0006025488738112299
2.0050551626323987 0.21427988308378015 26.994972439215495 0.00020203640450127254
2.0219813277716012 0.22341242016125934 26.988080469813706 0.01666202106966165
1.9760237743097562 0.20738760375970433 27.006671507757837 0.00017771546425195153
1.9933495599263606 0.21814485151032087 26.99924286107367 0.00010650593965466358
2.0040431190527155 0.22611923659125643 26.99472282650511 0.0001448785875931782
1.9708267608625838 0.22126537306621857 27.007984377039772 0.00017704026307035527
1.966214167274006 0.20094041802419632 27.011007110045266 0.0003408024552725292
1.9482978014531915 0.19360423568082896 27.018484307127476 0.0004438881363802829
1.9602711601220852 0.21719005415059306 27.012349430918018 0.00017295147195879043
1.9482340506393 0.21126168767515965 27.017356246437046 0.0002020812250483731
1.918133948243869 0.19773961226391176 27.029253897636533 0.000238887719482269
1.9299726718420556 0.1918745050986659 27.02538119471702 0.00037036800654126546
1.9302251811796711 0.21195778372539345 27.02418000180227 0.00020200677938815698
1.9168807941004833 0.21598133919509369 27.02898538036231 0.00017379864188652954
1.9272004245260392 0.22422154716658235 27.024992582429256 0.00016951268092088684
1.901872011375348 0.2094205236709005 27.0343064915104 0.0002308923820750161
1.8934068264231358 0.2019162490142823 27.037375111934395 0.00031259006318966673
1.8924166200473325 0.21525437935429803 27.03734177026275 0.0003274167034329911
1.904410521212089 0.23315002219394051 27.03316605484621 0.00013422774071845394
1.9185078552592358 0.2308552634551843 27.02811880288819 9.192520482664989e-05
1.9070267285616933 0.19273515803584848 27.033298812520005 0.00015272352773996597
1.915755745397102 0.1823802887731101 27.031126583650774 0.0004604298132250007
1.8956080829264523 0.190602664098862 27.03718900968675 0.00034905557402634287
1.9010553373831836 0.1615046186636287 27.03798429177141 0.00114407471703767
1.9159546696852081 0.1709786692148331 27.03212222880368 0.000901239756974561
1.9286736033789915 0.17320777985342242 27.027631833494375 0.0008486064000549052
1.9384685696489583 0.18374424814062268 27.022952529078573 0.0006453673365062264
1.9464097785190992 0.17220450602204077 27.021552657874885 0.0007573950550946626
1.953152326579145 0.1825792565843884 27.01771856469019 0.0006905128399351584
1.9163960575216772 0.1493652540161793 27.035270376646473 0.0010555620197268015
1.925901910902536 0.15662474632008389 27.031057588949103 0.0010392002405416574
1.9444349803031762 0.15815131559870418 27.02478121178174 0.0012845150581157353
1.971439981034172 0.17673777304859134 27.011788751922573 0.0010805228507617787
1.9576917526618813 0.1657827733579984 27.018737675225 0.001090851085585885
1.9698331380586145 0.16333225007436097 27.015068939488927 0.0017476967267769567
1.9402898411827467 0.14567650257363163 27.029041589120485 0.001699867978541206
1.9342938367895999 0.13612859666495375 27.03340856233956 0.0014897718871271005
1.9559110156989121 0.14442991308912345 27.024698528687818 0.001488088668894791
1.9640210846329653 0.15253866606157054 27.01969765466832 0.001469575329572832
1.9918358367750235 0.17831393634894618 27.00412207566109 0.00101295122480649
1.9852773128014571 0.16464245790168855 27.009300994609504 0.0016423738562042114
1.951196389855739 0.12743157106214664 27.03185413036107 0.0020459697368007995
1.9617761009541415 0.13404186899953094 27.026467042307907 0.002122374747196077
1.9795225844850401 0.1392673269395116 27.019375212370534 0.0028079117071666887
1.9722148449990602 0.12818558661243704 27.026263217077805 0.002517560574325563
1.9545984739640865 0.11408838296018342 27.036751005400635 0.002095001509986693
1.9192770893966489 0.13792844315210717 27.037025120261738 0.0014888272531443014
2.0458908796649213 0.22540763960411553 26.979459689344537 0.11420760845881052
2.063540148586943 0.22516777157084403 26.973752309525395 0.14604377849743427
2.0796639553252434 0.22266432858899668 26.969040089391704 0.1362671242693583
2.09384340796332 0.22641068160978817 26.96482521697301 0.11239396548586948
2.050998834121794 0.19653936963165253 26.980375758204616 0.02677413925359277
2.0264658108136286 0.11753822191111284 27.020732222765535 0.16948895269540162
2.0398518310918323 0.11512563428327056 27.0204132877391 0.2269801873905268
2.0364054294054346 0.12651305775489277 27.012325807536556 0.16113777742855226
2.0487200890870785 0.12888652667344508 27.007833239726324 0.12306375595671354
2.0602532195589522 0.12287139253411283 27.010769624711997 0.19099724407951219
2.071647590969686 0.11674991704157704 27.014399253261857 0.20092140755571156
2.0868769098750404 0.12403698567802265 27.00554635902924 0.230659977525662
2.097600957911723 0.12844333638561525 27.00005376706623 0.1982664565161411
2.0963817296743974 0.11796210315110742 27.010650195834636 0.21594161659755756
2.0707730102317448 0.12645331293966372 27.00595420145744 0.21664812890489332
2.079955364206752 0.1343253434372572 26.9977180245692 0.15451164358024777
2.110623457570405 0.11444190212581477 27.012913014346907 0.21138197269989725
2.110183748343947 0.13371927673026718 26.99361339063801 0.24553623218074844
2.1377352965317256 0.1226511559168055 27.00216786925987 0.24694637198198913
2.140411526960995 0.13123615100255628 26.992967525667357 0.2398649584574325
2.123275963834061 0.12279626653015818 27.003076805414995 0.23343466335093807
2.1229728681583473 0.1141247951557461 27.01246666371309 0.20978787032699828
2.1203899239099027 0.1372974564515185 26.98921923609413 0.2161048168359553
2.1340800296447444 0.1112216927668295 27.015060498552934 0.218892416335345
2.1505631059829904 0.12052342060558928 27.00384450064025 0.22294799239383023
2.149030341371172 0.11186454556880926 27.013778054744705 0.20394900349527675
2.173036715084744 0.11921816029708032 27.004460752153328 0.22654071484331556
2.1663887806259376 0.13294375735242653 26.989653709200695 0.2570265975130003
2.1534399232799384 0.13024309136578183 26.992979553973463 0.21082546356738052
2.1554539879551604 0.1390949318693969 26.984187305083477 0.25357772141869733
2.1350100210131853 0.1409483824278649 26.984265351237436 0.28403137485692975
2.1778114435254436 0.1326131232582058 26.989535142233457 0.22633199920767696
2.1698112294342335 0.1424637244923209 26.980291901109872 0.21535536895001348
2.1580461048909445 0.14733950104421195 26.976822624111065 0.2564231840250185
2.1816732202272315 0.12467524392019876 26.997984806193443 0.1841417231959502
2.1977398482645647 0.12367023184774337 26.99895754485859 0.24958427407934367
2.2081732946675925 0.1287373594112422 26.99320438677144 0.21377566777635018
2.208268383151167 0.13789579116928827 26.983634876091273 0.24442573365150744
2.1913058467060202 0.14227197216296295 26.979674954439282 0.23572516821898662
2.1811222259368623 0.14766324098902062 26.975253502250215 0.2217814783107135
2.163755262212298 0.1570008945704322 26.96934069940375 0.1942321795142742
2.20573088428294 0.149363780260223 26.97336890367552 0.24003116985861167
2.2303146004064973 0.14220973436152004 26.97929650484689 0.2512484583460667
2.2235164316507188 0.12980515363947118 26.991889969982378 0.23386633262585302
2.2318885706134215 0.15175790287949403 26.97115337195287 0.24437838010845797
2.218740162663478 0.14987371225215504 26.972835868408385 0.2735413111615398
2.1959585313753602 0.15796546152071253 26.96693898440678 0.2525948983072996
2.192648309656424 0.16858788733706656 26.96047788956247 0.15805519714651436
2.2171410240614065 0.16539667949408404 26.961890894651358 0.19755573383026545
2.2393981833424763 0.1592912363907094 26.96578965864602 0.17809906229543984
2.2334099475208182 0.16843532768269048 26.960028256114818 0.1464758791218909
2.2092147809999374 0.1740115284977804 26.957315512464447 0.033010831285920604
2.236458049969831 0.18720385499837738 26.951272390581234 0.1293926828683698
2.2482186864382707 0.1806320405974182 26.953971380427436 0.0367809792424876
2.255143374415474 0.20133968450504025 26.94743918536561 0.1647135833464623
2.262897809603879 0.190618839049267 26.950592763202515 0.1436531250167211
2.2451918897396457 0.20748371683891736 26.945697992183398 0.17285395575552295
2.236892732838884 0.19811419979192568 26.94783375096049 0.207766398383175
2.230580849979652 0.2083769751754866 26.945502699119256 0.16202272426405373
2.217601733807386 0.18717942258305353 26.951616544506845 0.12452771791706907
2.1985572096531945 0.17994425768959207 26.954854428768034 0.05646425372229957
2.170817819161399 0.167791210021414 26.962436866265257 0.07164874342546208
2.1501559580671303 0.15742398066050983 26.970487147709267 0.24037262181603572
2.134897813587786 0.15541638347771602 26.973551241702157 0.1881164308261621
2.141729663868425 0.17181640569011286 26.96413062451024 0.004108702126897497
2.1318075301935044 0.1670101512703582 26.967599539623443 0.003456251601485201
2.116944772405933 0.1504423628284508 26.979542651070478 0.16419969708354548
2.127162261068609 0.18136541300483303 26.963307689411593 0.05254907264253779
2.2560061954250914 0.21381103969175339 26.945027486003223 0.1407529145701306
2.267521996217855 0.20168038901895297 26.94799954345298 0.15118760583112467
2.2728012908310653 0.21982929142533314 26.945418139295786 0.1356697441101875
2.282830781220453 0.1954034594614519 26.950364354389883 0.1499412399179117
2.305845456017216 0.18868753954543716 26.95451514133215 0.10002822234195237
2.2947106038278755 0.18105401617451253 26.955873524948124 0.08001596986764971
2.286177886656719 0.2210225804092674 26.94661315864676 0.10913400960268303
2.3074934413507577 0.2019439284386774 26.95193494832683 0.1203596905714964
2.311326003470589 0.17592332626684515 26.95960093297225 0.03933023881740629
2.321391854402698 0.1822055240937252 26.95874318299449 0.06024779701356142
2.300710617124851 0.2163113482750675 26.949070983034588 0.10170350784147714
2.278841576706052 0.23347718450592947 26.94491549244937 0.13036519041907965
2.3210476293369626 0.19493286099753088 26.955191556973947 0.1004153654345921
2.3135035929339414 0.21220940886987164 26.951345594429707 0.09192555751301057
2.294179936265207 0.229584410975483 26.947032128261682 0.07805348136943117
2.3396536987517136 0.17363098836956564 26.964781810603906 0.0031846386323985615
2.329521635007803 0.20379504249164765 26.95521185092185 0.09009722671649095
2.341348158288503 0.19146012928758804 26.95974682220639 0.0864110533947376
2.351370362192612 0.17204544441159308 26.96730523629581 0.0027109009875714474
2.341371256811748 0.1564580609336354 26.97341498394774 0.17424117679896195
2.3661832064721775 0.16259684105065503 26.974498565571718 0.00474722217020318
2.359855008200048 0.1538948871313342 26.97780994172739 0.1384745562141223
2.3449911265164567 0.13445911639700464 26.990798457159084 0.2678166037087503
2.347990892161903 0.14387239347354305 26.98299653546607 0.25010134314396987
2.3623860022314602 0.13615896090870863 26.99130895666709 0.217142868220148
2.3767291303795237 0.14516473962936274 26.986393082311427 0.18804451900885027
2.3563013820479926 0.12704406988775496 26.999114542782486 0.2490322372862276
2.3701529612965797 0.12406328882220194 27.003734266696114 0.20091026519718874
2.382224040629041 0.1261768008601695 27.002973212818272 0.2398485997626216
2.3796347493877237 0.15917980631105336 26.978865878710295 0.002838256346297043
2.390731786127346 0.14773241775655255 26.987612725929115 0.07449660475300626
2.4061716883519066 0.13106761510463288 27.0025246428117 0.1878297324202521
2.3947293813313317 0.13245417459147762 26.999552878126014 0.21435063677238575
2.3918996514340005 0.1597055555936761 26.981587393017186 0.003211896467122061
2.375213340091963 0.1735240401237206 26.972086650141303 0.002223513247946708
2.365768000147025 0.1859224503433185 26.966326976613626 0.048443587342059724
2.3504803968614905 0.2051230533743536 26.95940139115603 0.10923856315310286
2.367124392011411 0.19992647756041987 26.963988712397597 0.0848942998672417
2.3764566471809507 0.1900354052216002 26.96802215825846 0.04673065505342534
2.3875587539216236 0.17742770511517775 26.973994737311266 0.002509553781870719
2.3487048503231756 0.21723697253947763 26.95772363025403 0.1087197442308176
2.335702155764746 0.21760404742555484 26.954983772553394 0.09255834490335861
2.366853157759115 0.21179529953995496 26.962454106806668 0.12553788199113658
2.3858273111676427 0.19798053226199758 26.96909009706293 0.10142402447883402
2.3420865707304532 0.22850048568826414 26.9555703621058 0.062081569425677725
2.3238899670793485 0.2188077702934908 26.952567839006374 0.086294308651729
2.3547346944926337 0.1897041996304185 26.962819907139817 0.07918126370238106
2.360934542258601 0.226860174693302 26.960033383348616 0.06446692273883538
2.3844825729826833 0.20914707509400213 26.967451437158942 0.10843220550325006
2.3960275486873273 0.2227851313273559 26.969670252690936 0.11602033336893533
2.376977669561661 0.22026141764625684 26.96441837532987 0.09722337959869838
2.4006810983777958 0.19995844420514935 26.973167515542023 0.03257607033025278
2.4013672179431995 0.21336367103453696 26.97187936712295 0.11669128209697874
2.4232099812173877 0.19834880068874416 26.980355861872333 0.00897147852720147
2.4576951806264167 0.16773429035154902 26.99797770950708 0.0017095753750631048
2.442983535639725 0.17864800897938543 26.990425082379467 0.0012525864965611108
2.4375794807952915 0.19316596530891367 26.98595887578214 0.0006315140157258135
2.4537596100866104 0.18461058697366667 26.993009979003684 0.0011984195865452451
2.4461328482140816 0.16714835482434393 26.994438312751583 0.001955658110358869
2.466506930002857 0.15780812451662962 27.003961981506258 0.0019024141290343451
2.4799052934537027 0.14182326163196451 27.014296433922226 0.0012193487006434665
2.4925961455002783 0.13368081660545994 27.021485381963686 0.0018241002243668584
2.502074024417121 0.12006004890819666 27.030279875782778 0.0016545292535770978
2.515257549142964 0.12487948469009583 27.031205089908525 0.001787824504596687
2.4927108993732183 0.15616498909622578 27.013157668452987 0.001983043541671553
2.503292400680773 0.14122275436555531 27.021362976322614 0.0020557640294638574
2.525242451749489 0.11986437956570217 27.03560448570443 0.002134608000008277
2.5048311629433115 0.15793300639494426 27.016697893320178 0.001165886407905119
2.5223802811863534 0.13859195875427247 27.027947121148703 0.0014072385877869186
2.5381102562518216 0.12228910020324948 27.037603480522456 0.0015492262430169088
2.4790189340532347 0.16759673608917042 27.0054314496938 0.001722264115463511
2.465181999804468 0.18111074644044545 26.99759936870403 0.0010046354900645378
2.4644363695973377 0.19428990312116806 26.995330925113983 0.0006807434466910454
2.4914245507241812 0.18120819201073213 27.007162244690424 0.0005673800745630892
2.4775616768416815 0.18429854559494124 27.001548356654666 0.0008716692289415783
2.5141158035097675 0.1660777229455159 27.018115409302954 0.001413011208558205
2.5042863370350967 0.17845100139546352 27.012339494428982 0.0009929747755459183
2.531173445655644 0.1666534531967386 27.02387846498887 0.0011453238476768167
2.51553083599533 0.1870176039963239 27.015419639637916 0.000569960100068176
2.545557488951186 0.17226789079910731 27.02803561697707 0.0008839870127455149
2.529462524603291 0.18212074523020547 27.021161282543243 0.00045474398898952826
2.5025758371504168 0.20044019111171046 27.0092516358163 0.0002610033235392276
2.490701774595173 0.2052415427427578 27.004237124068133 0.0003829585323269749
2.523253089001599 0.19666573062895792 27.017510423613082 0.0002431504731287409
2.5420316236818916 0.1914760675043185 27.024887026164535 0.0005607057034351707
2.5756960186342277 0.15966667627206438 27.03925353800561 0.0008742498129526824
2.5604299571107054 0.17431976939224914 27.032732028957987 0.000470122479813068
2.5548669408952374 0.19257367963869487 27.02948021179804 0.0002854486681969504
2.570965773286138 0.17686234918916918 27.035868977245233 0.0004598429932322448
2.5552724297040914 0.2072927689784044 27.02884135133928 0.00023617927105129286
2.5671817634923686 0.20803930033924445 27.032882161087592 0.0002882952131607041
2.56984777259399 0.19568905132460282 27.03424362003313 0.0002831523742441311
