x y z curv
0.23828192538363505 0.029636233242540434 0.16602797058765378 0.06943961032962245
0.34526024494753693 0.029519596716557375 0.16605795270229742 0.07200083281836167
0.06397583746645912 0.030354878012809457 0.16585378411371524 0.06426572796156503
0.09736088321624305 0.030453724233793732 0.16584560324251507 0.08437903010422523
0.2620237091158545 0.029022950576322665 0.16620553673961652 0.0674879160836965
0.013618972175172786 0.20489203467812148 0.17129159964576224 0.06130781037657575
0.01378875141618556 0.06444236485127025 0.17064579401675764 0.07067593940486697
0.014722145532186695 0.4496144196218835 0.16878121265251883 0.06614796763872613
0.014341378769139207 0.436544316298405 0.16933824597960132 0.058952733951576575
0.013921161335213903 0.2153459317264058 0.1702638041918212 0.08593787666122496
0.017714220502932806 0.3927831207704717 0.16634614681045287 0.07634263374295695
0.02029462377734205 0.30386214795907995 0.16577687716897074 0.07856271239814508
0.019130086713407428 0.41538998759294304 0.1659010179518676 0.07235382402137881
0.019286380594113563 0.2940746099750425 0.16586084065516415 0.08930509779412481
0.018444072900283198 0.16654231252797208 0.16607736638206871 0.07188586255724716
0.016214917205187595 0.2503846075199294 0.1672140778217032 0.08270492632389127
0.5827277593442461 0.031194148635233624 0.16604895748918422 0.0651938892450409
0.02865975859650799 0.4775206413569334 0.16613254136344607 0.06616872819065117
0.6013256658036769 0.30059308361628867 0.17108196842041812 0.08149276872662577
0.6007855507301718 0.2823650985760775 0.16961779605098223 0.08525464502919924
0.35282848103016384 0.4845428793958143 0.16916699464163593 0.0746258278687145
0.38394302055679846 0.4841155779686178 0.1685449492848455 0.06784303954089155
0.4662119455285408 0.48406881949406844 0.1684768804928105 0.06531568181817454
0.3298561350257989 0.484287191960875 0.16879477687784994 0.07123572730191587
0.4836876295626966 0.4852384942621072 0.17074946310582317 0.06643997641543296
0.49570093261069625 0.4833433575234424 0.16769226205555762 0.06891083480086967
0.4036375334933676 0.48219188530011514 0.16680178006991297 0.07153271358035408
0.5524106775002389 0.4798112274623932 0.1658859322023934 0.06537610862569547
0.20699820871510055 0.47860617257882876 0.16576779639928918 0.07540479935932394
0.4754602369443651 0.4788283744253751 0.16578618639065457 0.07428077836360927
0.3213827447320364 0.4787844376845597 0.16578255007395976 0.07669293261819651
0.20328089264944338 0.07790664990953294 0.16664786476736415 0.04408002495374951
0.23046544770849223 0.05700283939727237 0.16627056865306164 0.036078545097515305
0.1976592330620684 0.44673553767618646 0.16661560007836002 0.029162221820475447
0.1619646720653826 0.06094979598749597 0.16614534843190457 0.09785298018119871
0.03935687253404691 0.12056017624951593 0.16657654974195055 0.08485538626502342
0.03737984248865256 0.2090478567485617 0.16643885858558963 0.08765607922155878
0.03744400471043557 0.30871429859416327 0.1665844843312171 0.08486743414325276
0.04384671265456504 0.41112637265063 0.16675980345826869 0.10633185729240462
0.08121475040356549 0.45403917773081154 0.16644099884685337 0.10514622298598444
0.1812155103021262 0.4301438092166289 0.16615766634430706 0.07690205504860935
0.19345092261553004 0.40359410475132623 0.16634340885350002 0.0794553776089825
0.1966404319076772 0.35390941246663676 0.16641481783034673 0.10494004106592324
0.577130570365816 0.17605038446200932 0.16640952256086194 0.09191976399666717
0.5519491754391483 0.07120789379536598 0.1661690473239611 0.08419244243939839
0.48586640910296036 0.0478671064546445 0.16669860794482805 0.08794058620003756
0.23810461049609405 0.10344245313662558 0.1660079801367937 0.07836266420908686
0.23346754921612714 0.3586616425247655 0.16663810643724222 0.07740101268673903
0.2607429919743257 0.44120663163027996 0.16609346059735774 0.08840206382010905
0.4971725422226076 0.46193719412747014 0.16599884920143265 0.09346965092075367
0.5655499711321442 0.4209250503110704 0.16579190662723856 0.10304004890931978
0.5427465121307093 0.4464824974365087 0.16651881461628454 0.08352796525401587
0.23298130463866068 0.1714279101713631 0.16587279403199404 0.08361388939263746
0.5836770932234925 0.4978517836315805 0.17172679228260082 0.08331590416833254
0.5549536105121585 0.4998001702919235 0.17176354071125388 0.10244977208980985
0.5211893901325875 0.5019252204641522 0.17176354071125388 0.07424165807836758
0.38988202123893706 0.5080778127033571 0.17176354071125385 0.06972181463011276
0.3306380017685827 0.5092465786660879 0.17176354071125388 0.0804684396066405
0.2602261258769106 0.5091337922955018 0.17176354071125388 0.07914141417063011
0.1918831960538548 0.5075105361729685 0.17176354071125388 0.07682072773556996
0.1508767906409097 0.506021211004555 0.17176354071125388 0.08190768191384969
0.030927397142585217 0.4971796679221411 0.17176361278886515 0.069537294081313
0.6118048602249964 0.24238658006582178 0.17399773674898938 0.13108057959145725
0.6126399778103214 0.4570886631266243 0.17295574886675727 0.08125777800863573
0.6129292834481596 0.4462215052503675 0.17259458908812023 0.07670573339411646
0.6123348006206203 0.41832766607882016 0.17333661076855889 0.08785324574684494
0.6108493058333081 0.3833985438923283 0.17459925310754182 0.09536487562404221
0.6112934282178426 0.4743798485415991 0.17443309552537442 0.08968324864204208
0.611005063109237 0.35137958716300915 0.17454095535495462 0.10614613105599706
0.6104398170977607 0.1027243589475247 0.1747525200075134 0.08170766948377475
0.6123396989319687 0.12874785423390683 0.17333016724115333 0.07846087240299487
0.6131681504201699 0.3003805118890349 0.17229655170144842 0.0985261653797965
0.6126954003874996 0.26028109550067186 0.17288635840529326 0.13090273161144464
0.6131613969516078 0.26984233785267897 0.17230498709940778 0.12086279379397338
0.6116707938729963 0.06427038593681084 0.17416470102700266 0.08759676069095408
0.6124625419939008 0.08572265902596403 0.17317692458978526 0.08005749152426335
0.4739600436821728 0.006600008966925607 0.17276547161379502 0.07349413999023839
0.4524513396755736 0.0063326638394789305 0.17375910286064025 0.08310411391507337
0.3495824539195994 0.0030065874095841147 0.17339529909001705 0.0675740538716537
0.2860128407661783 0.0027227343985655565 0.17330826841157065 0.0790321479765917
0.202284095879199 0.004707106448023548 0.1736928184933217 0.07780297350167018
0.03988972966421291 0.013604505731413297 0.17277063013611688 0.07479859208249995
0.003370018640787239 0.22434442441335312 0.17421562301491042 0.0964288682871982
0.002299840533979202 0.09142535264442739 0.17288023020990734 0.07708588208099329
0.0027188383672744998 0.4202272129061092 0.17340336822687688 0.07252414055060814
0.0028450208883770574 0.4566273589753347 0.1735608507219912 0.07026972102356137
0.07032761037607567 0.4990298035967072 0.1725613118902469 0.08584159899528758
0.08840932501406028 0.5000988417600073 0.17286212029051407 0.08361905137077834
0.14240400597040545 0.5023841408362519 0.17412015516348245 0.08595674671518883
0.18248250024439844 0.5046683803809042 0.1735623698245619 0.07438550126980104
0.5099367516252201 0.5006809168056368 0.17353067521539717 0.06923112654826886
0.3199673676907694 0.5079089690625116 0.17257499508741334 0.07725652705618873
0.4239550722655786 0.5046124501758081 0.17403768975266232 0.07481264917682137
0.001638908047845255 0.28020526538575513 0.17217650163144324 0.09816699580245239
0.0010819381568351757 0.47799027433583224 0.17184463077340573 0.1128575149618724
0.0017937264946341826 0.1768938555798806 0.17226877847391533 0.08603621655464815
0.001777353869006227 0.14211528537955043 0.17225904649631135 0.06141467114074955
0.0034890444962622142 0.4315516262156371 0.17435157596187825 0.06971486879141865
0.003489248764008017 0.20207041706596 0.17435156843491526 0.07425099243627681
0.09019799335939116 0.5008890887680367 0.1721635250232396 0.07405456593925366
0.24615148618589058 0.5081700519912495 0.17191654372091983 0.07531449601896366
0.301679996961247 0.5090105697657641 0.1717702931415637 0.07004859899410003
0.4043208162886306 0.5067642857125021 0.17223772576892307 0.08256588687105648
0.5431743757047721 0.5000784232913804 0.17183959588697195 0.0903320393951561
0.41482075223811116 0.5045532535939404 0.1743983332980243 0.0820039871023114
0.6133843238701392 0.18448968292735782 0.17216277037697097 0.07952292847513329
0.27407174946369695 0.0019229625442722567 0.1722283904049417 0.06644584253383577
0.4103463856395454 0.0034600474823111875 0.1722514356466282 0.07422462259508948
0.5191694259230019 0.008318318333454228 0.17190853414812815 0.07557110966614955
0.3101655967266606 0.004354893413041695 0.17467280446963804 0.06829694865422956
0.054416411839185545 0.013946944924636828 0.17445742621614413 0.09057747094560896
0.0038713992608938644 0.4907376752646175 0.17176354071125388 0.10254634928113261
0.29845074293054985 0.0002724722462988854 0.17176354071125388 0.0734980696769617
0.6148716215820181 0.094286380793206 0.17176354677262656 0.07875760604629649
0.6149888470253483 0.11923125003093844 0.17176354123825147 0.07712537656468452
0.43828007256875806 0.0030220436345061346 0.17176354071125388 0.06298912074199471
0.47361865302935463 0.0048789010942389445 0.17184943648855833 0.0712188734804457
0.5601787645479013 0.011180315772263248 0.17193245029318807 0.08972069656658792
0.445739565193115 0.5069334355869098 0.17126801961780785 0.061876797134302164
0.3512992973293785 0.5096636074353391 0.1709701724861472 0.06882307743251236
0.46981350201891514 0.5057759939921695 0.17138867964106053 0.06889359378602848
0.273524083637659 0.509801623751038 0.1709348168517225 0.07049472908638628
0.20662729071727048 0.5083471523544048 0.17141883619638978 0.06348602084209608
0.10050683989269923 0.5031606565707187 0.17079096945187605 0.0785507004272878
0.34133794109570736 0.5098024294894297 0.17091702902928388 0.07605254728668033
0.0 0.29482265823858195 0.17087468891841945 0.1008059275527331
0.0 0.08042540841617209 0.17087162247772894 0.08453196586547156
0.0 0.25554082435912856 0.17132476271758862 0.10151685459544509
0.0 0.4176348347505882 0.17113333224457544 0.0709770005522698
0.0 0.10389028542636045 0.17170531928013696 0.07710692716215475
0.0 0.37047599979153034 0.17166077049884487 0.08382027151159235
0.00030861913164006804 0.02494355889304306 0.1716789755465713 0.1215773951801232
4.356834708547685e-06 0.17619488144507778 0.17176354084833886 0.08836644211116496
0.0003205606221215107 0.06585341533737121 0.17176355079748576 0.08803048517160901
0.04304378839830179 0.49888127011823685 0.17116033703660763 0.08554479458684022
0.06109527033391685 0.009670218719162856 0.17096157940069598 0.09481611088787331
0.08882395915278891 0.007591293775253343 0.1713857955938837 0.08271789593364125
0.3003239855729697 4.194418033730247e-05 0.17087439536473936 0.07516709235061532
0.16028113442134898 0.003434333888378372 0.1715419908557842 0.07429555396975142
0.36118361971708207 0.0005096396976357998 0.17147439448301668 0.07983983968900236
0.4943513858590881 0.005543125953356304 0.17095246306369005 0.07580007152990399
0.5991619749524051 0.013508313162074839 0.170957208399848 0.09807806131286202
0.33934346945897165 0.00018612659598272148 0.17165313338860175 0.06918290340117898
0.6144747321248047 0.48585501898916567 0.1712454855846498 0.11847688501047104
0.6150000095367432 0.30192167568633627 0.17137465184055362 0.10197065041834867
0.6150000095367432 0.16642107228771083 0.1711534417585836 0.07971219434043803
0.6150000095367432 0.21212602768715225 0.1712391238708357 0.10586297246364276
0.6150000095367432 0.11060612268917347 0.1709073646717166 0.07927576626608132
0.6150000095367432 0.47341422302175207 0.17172270169785997 0.09526108058082822
0.10808670184932784 0.4994105996173147 0.1746348375671814 0.07514128361894733
0.6059168561279182 0.4938826769870548 0.17201894491843928 0.09868574583246977
0.0006883236520002867 0.23678486097537355 0.17176357359442757 0.10024294151950237
0.00048507366716526036 0.3180961580921386 0.1717635650351491 0.08315246627944355
0.0008385920599633892 0.12879996443745095 0.1717635736794317 0.07510388353770786
0.614039439247263 0.39453179309672054 0.17177223347252643 0.08412504302347223
0.6140412407318454 0.36194672826490953 0.17177111623077554 0.12131818264273274
0.6138603645353107 0.03791574933479175 0.17187861174444397 0.11647109393338886
0.6142787216619326 0.43009728227833044 0.17176360365639753 0.09163968506025398
0.6141302289981524 0.4308406861116176 0.17176361773862564 0.09161938208423602
0.012318717158819874 0.01403519900752727 0.17176366299823723 0.09671734762230681
0.5949154490745179 0.2893886842833307 0.16579380403485777 0.0792766627232651
0.5342368862138962 0.49540877017757895 0.17476354679092765 0.0776038651864487
0.5883551317363038 0.49134566864683676 0.17476354679092765 0.0755971435693111
0.5794523012316067 0.48782362430076737 0.17476354679092765 0.06719445748562233
0.5939481039294501 0.4804494655509157 0.17476354679092765 0.07643846102596341
0.6008696884733035 0.47239161042300853 0.17476354679092765 0.06582332924422118
0.6043220176053827 0.2691979452732678 0.17476354679092765 0.10278932318619433
0.6034071820224939 0.2227221783231984 0.17476354679092765 0.07375583839243852
0.6029069199265347 0.34068771516773766 0.17476354679092765 0.07498348530919631
0.6036727094147721 0.4212259716162859 0.17476354679092765 0.07261930679437277
0.6036471054099906 0.1627707420928785 0.17476354679092765 0.06494986541878854
0.6029418949390947 0.2551345695647244 0.17476354679092762 0.10316614357636003
0.6096117672498993 0.2333850242921056 0.17476354679092765 0.08990829343804402
0.60736737842124 0.2915080158309628 0.17476354679092765 0.06718697290826466
0.6039344999038561 0.09365119022612525 0.17476354679092765 0.07067066031649577
0.6067838746866514 0.19307438419788453 0.17476354679092765 0.06398519537439627
0.6096899493695735 0.2806893886306319 0.17476354679092765 0.08064012443801051
0.6044675058126772 0.1346386398333385 0.17476354679092765 0.07209464175731506
0.6038695514235282 0.05673224581791972 0.17476354679092765 0.07471744671732418
0.6059390277768402 0.1469097554276557 0.17476354679092765 0.07193019134293366
0.6063075314258456 0.14776600631692954 0.17476354679092765 0.07202054557570511
0.6098713730324996 0.3304614199132122 0.17476354679092765 0.08451405289493788
0.609645301645861 0.3104806388847133 0.17476354679092765 0.08101180935521521
0.5902557967068387 0.024631455553875505 0.17476354679092765 0.07231592777258825
0.5298497354859301 0.012849599802787768 0.17476354679092768 0.07294010292441494
0.5627947125174463 0.020765748013433182 0.17476354679092765 0.0632450889308132
0.49540989145167036 0.01684673260596327 0.17476354679092765 0.06091693818277504
0.3925776986100218 0.009605943898585236 0.17476354679092765 0.07644278632442572
0.40199547311648626 0.0109770250603543 0.17476354679092765 0.06364015537505646
0.3810651471046257 0.011179497443045439 0.17476354679092765 0.08259724560600308
0.5120019911219413 0.019293949442737924 0.17476354679092765 0.06848956549151096
0.3611343926369938 0.009780777736789854 0.17476354679092765 0.08441866745210498
0.4688866649132036 0.01734069751388289 0.17476354679092765 0.05447839009687698
0.249679813028822 0.005720391945267312 0.17476354679092762 0.07733225193168373
0.43276808567894887 0.014943274803416118 0.17476354679092765 0.06320697522538846
0.2277635080939463 0.0060411733114317644 0.17476354679092765 0.07811925093598902
0.17867077332080586 0.008427145239360589 0.17476354679092765 0.07736825091845406
0.15084034353345271 0.009656753179318193 0.17476354679092765 0.07382189311488428
0.18997331424748104 0.021537955163278034 0.17476354679092765 0.07205533417087015
0.1497886629407783 0.012085838221511706 0.17476354679092765 0.07669423000946722
0.23002371042083805 0.022047207355423044 0.17476354679092765 0.08064735579637171
0.35052282190617423 0.01767320039962308 0.17476354679092765 0.06960711619106223
0.17100654811218466 0.01523723006039228 0.17476354679092765 0.0743234065022583
0.3261873974846238 0.015376809670251169 0.17476354679092762 0.06349251530959059
0.41493802916507205 0.02262059423904543 0.17476354679092765 0.06131912669212221
0.28993875675992803 0.012308259865411196 0.17476354679092768 0.08426099085626192
0.18082249106214135 0.02237386497595112 0.17476354679092765 0.06739939877902505
0.06315205908924526 0.02291408068712622 0.17476354679092765 0.07817715671316447
0.22144296358299692 0.015204188160111279 0.17476354679092765 0.0756099945572859
0.1987229485750196 0.013702343557915931 0.17476354679092765 0.06834325509342716
0.19049730111315016 0.009926786020212644 0.17476354679092765 0.07086712552069649
0.4440306664795962 0.021229645731621633 0.17476354679092765 0.053589690290859214
0.14708202341481283 0.02263452465914325 0.17476354679092762 0.07271228762916189
0.12638199973115247 0.01630692443475881 0.17476354679092765 0.08132897852931772
0.11710191030238207 0.013363495860182747 0.17476354679092765 0.08153757686912347
0.10265414241966866 0.014644770492391884 0.17476354679092765 0.08129072941155624
0.0725977799831279 0.019283893709786466 0.17476354679092765 0.09346836790749773
0.08059771523378263 0.013533399267064069 0.17476354679092762 0.08967915151299075
0.038678347125177745 0.022677515557735478 0.17476354679092765 0.05407299900828021
0.004703023140455005 0.18833836278090993 0.17476354679092765 0.0750033848784485
0.004634793002698307 0.04315775976008794 0.17476354679092765 0.07371101795719386
0.009970269479438389 0.13383264088707408 0.17476354679092765 0.06580567118331875
0.011590898875238885 0.09921515396534318 0.17476354679092762 0.07190567787480161
0.007441299162396597 0.28768958568379177 0.17476354679092765 0.08806733910834387
0.0063237150689614 0.12030127862203033 0.17476354679092765 0.06657976682558132
0.008409775659460338 0.08241936458440655 0.17476354679092765 0.07732385803418805
0.008057848482845843 0.3107155843586063 0.17476354679092765 0.07542199126511365
0.0101947893343871 0.35011373055865225 0.17476354679092765 0.06955526112352027
0.010892199292173839 0.4441992425882074 0.17476354679092765 0.06869089822682975
0.010102389398955155 0.3505766590656668 0.17476354679092765 0.06620555833673003
0.008185199057908439 0.3930047716055844 0.17476354679092765 0.05940684646261036
0.01235230054404383 0.4146520434132574 0.17476354679092765 0.05743199881706594
0.011486460973294265 0.2961014935518674 0.17476354679092765 0.09381053907452544
0.009801628858833651 0.4773836808012587 0.17476354679092768 0.07833595468746073
0.024449989119654854 0.48335797477996084 0.17476354679092768 0.06278630736551076
0.03247695733544244 0.48950851802937095 0.17476354679092765 0.06575845470617915
0.04358540366831384 0.4908085837681021 0.17476354679092768 0.07006078643883808
0.16027074575027384 0.49890473823833154 0.17476354679092768 0.07426222341252801
0.22812451034455378 0.49600190159380186 0.17476354679092765 0.06571483632077076
0.2703550275970313 0.4955878872406765 0.17476354679092765 0.06510868759831338
0.19905568995038758 0.49063471875586606 0.17476354679092765 0.0668248297151872
0.18957978546807017 0.4977602904157953 0.17476354679092765 0.06401281750905115
0.11424072499040944 0.4923249889589296 0.17476354679092765 0.07196110733035918
0.43165170384624757 0.4886456231750619 0.17476354679092765 0.05942656772715574
0.21823486315455903 0.48762463030935654 0.17476354679092765 0.06898071129750138
0.29074461031640136 0.49406418388047946 0.17476354679092768 0.06598157485724251
0.3536741584794215 0.4924726990384103 0.17476354679092765 0.06795955332817678
0.33250282158215366 0.4932365241031843 0.17476354679092765 0.07362340530004091
0.47693902111233405 0.48733157754479656 0.17476354679092765 0.05690092079827077
0.2815812189603867 0.4918725188884167 0.17476354679092765 0.06738898543004936
0.3094426461248531 0.49012783804500276 0.17476354679092765 0.06410838318008945
0.38250150223525126 0.49246011280590346 0.17476354679092765 0.07334399069984764
0.2715730433743624 0.4986407870905549 0.17476354679092765 0.06497073518516602
0.24766001613926583 0.49977493406913126 0.17476354679092765 0.08511843443315596
0.31286644779190603 0.4995642878690813 0.17476354679092765 0.08019936513585729
0.23853618265596474 0.502505080345175 0.17476354679092765 0.0728335233970985
0.3423263201231235 0.49929669097984897 0.17476354679092765 0.0839925790121087
0.4108219479855728 0.49578892666644614 0.17476354679092765 0.06172278827510003
0.37352251478832865 0.49956861461176244 0.17476354679092765 0.0792042969105684
0.3996118124530231 0.49875175422326756 0.17476354679092765 0.06946031915410424
0.44705812134619244 0.49597382556748454 0.17476354679092765 0.054778612543089834
0.4832628176535773 0.49508732261799326 0.17476354679092765 0.057814960188093734
0.4751068111016327 0.49808276762301495 0.17476354679092765 0.06812468073190116
0.6005217839976823 0.4301978247737154 0.17205221093636372 0.0756206331735132
0.6005547198791135 0.2454837484238896 0.17223945264298324 0.09884177228188723
0.600878722347006 0.38402583402862595 0.1734652331710393 0.07534633384776551
0.6019202766031982 0.11093478563820135 0.17433885665723223 0.07035089263470884
0.6021761045376923 0.3569871136641209 0.17455351830332605 0.08821882412223095
0.6023497168856238 0.3412988294376375 0.17469914261082586 0.07941881776613077
0.6023348142523202 0.0808131294650048 0.17468664243050674 0.07134611621495326
0.602060654254161 0.3943663338738945 0.17445667975589424 0.06853226247491355
0.6013513539419842 0.3230729822153012 0.1738617257218015 0.07112929218200766
0.6011278045263334 0.3707126504254122 0.17367421469949224 0.08439030146149647
0.4119678082696392 0.4852423606694841 0.17376996435216716 0.06800849224732843
0.44355164937944463 0.485828343653926 0.17426165973698696 0.05731196944142293
0.4225438821036222 0.4847843528230059 0.17338565226409672 0.0668580535396021
0.10816772753667114 0.48502102988699025 0.1735842468020672 0.07341346974782331
0.26478973957957713 0.48560923442419396 0.1740778062806732 0.0608265441539977
0.15967662030583865 0.48629416782060114 0.17465253046015278 0.05832762860817326
0.18110867116021537 0.48556961413644006 0.17404456109582817 0.06157466385630684
0.36749100083939784 0.02473232098092315 0.17379136057052952 0.06489915861420396
0.3852205840404417 0.02446500504824817 0.17401565527481197 0.06264890175639837
0.5286748760587507 0.025227682607924132 0.1733755776306996 0.057541457532938885
0.47580536072290797 0.025109155372466083 0.1734750743352812 0.06582059357517003
0.5413254848976876 0.023799083850456065 0.17457432170272685 0.06516517283381461
0.1616094914691767 0.024113613699276545 0.17431049929867246 0.061406961895822836
0.0831649776193175 0.024466494097727304 0.17401447705194842 0.071205037646398
0.3255082124324978 0.023624110676757647 0.17472113073397008 0.05770927579645139
0.42614590804239233 0.023953492796873452 0.17444482058567207 0.06401528817926766
0.16169898452467343 0.024036320146630354 0.17437533886247952 0.06139110760047088
0.11597475232570056 0.024444807500084813 0.174032669378261 0.0674039536122757
0.018864193921924535 0.03549273209703826 0.17375368406004055 0.061314635777586994
0.013610753130760059 0.15883507049236384 0.17389343085786696 0.06528927526153815
0.013404306018849229 0.14773962977175403 0.17406659867973737 0.05632138454229546
0.013686367071801889 0.2278861736072497 0.17382991005231452 0.09392431163417275
0.012869400387928994 0.07240013546728807 0.17451534619107997 0.08376431292138885
0.01310258036160996 0.33970703201490837 0.17431961474784263 0.08493602080860699
0.012683761400418825 0.1766952613881687 0.17467103738297207 0.06380476285506195
0.012889658287837905 0.3817114653895693 0.17449827341226745 0.06091422461750896
0.014337322127938684 0.4034374917903273 0.17285098468444968 0.06495903131206632
0.014400506907197026 0.2599251285660801 0.17249367068403762 0.0771162463989024
0.014508614591382508 0.12577033470566074 0.17187939489997003 0.06123958861813207
0.02717852364057416 0.028714897150782764 0.1729921767354546 0.05929761366218783
0.2117170123601652 0.02526036847178256 0.17328852510306686 0.07014599879861105
0.10258363145249852 0.02537189085188004 0.17265644072039715 0.06901892028151248
0.27068927973298595 0.025532522473453997 0.17174465615706935 0.06171171280687269
0.17269964775147376 0.025500177582424996 0.17192849819655284 0.07008574670547472
0.13380029187522768 0.025335374743220465 0.17286345046715834 0.0784906031328092
0.2865695127682193 0.48447229862716396 0.17177080379467843 0.05951704355484498
0.02160365203815736 0.03992474732336784 0.16710976881049033 0.06210152386018693
0.4868596907286621 0.025916761109124872 0.17065855952342052 0.06514897231383793
0.3397014436609361 0.025608973386532043 0.1715190097662211 0.06444725997085245
0.35368435025482214 0.026253912189722086 0.16977560266372993 0.07029315745281854
0.1232832908007323 0.03082845020709145 0.16686881645927149 0.09029108862377035
0.18036084669077118 0.030095615495747643 0.16699389751019128 0.0649606750442149
0.43321326948296035 0.031372514057420385 0.16677595503074855 0.06841817655707617
0.314031692644236 0.029947086968181973 0.16701924852595498 0.06590429591395842
0.5605866142621779 0.03055566620841154 0.16691537553828456 0.05391702710906936
0.14365590325990277 0.02932331914734806 0.16717832061911292 0.07882309493335506
0.551264895106886 0.02933461159544558 0.1671718830916004 0.055553776597284034
0.5120966847125462 0.029000657350848894 0.16736226161882084 0.06334138286091137
0.45316892947004994 0.028083715121503768 0.1678849862554841 0.0683953904826122
0.016189092471457233 0.37078004686631705 0.16864862978989328 0.07172482414472328
0.014858826613028696 0.2789998560542112 0.17082040603566107 0.07833969154710446
0.01495489655935521 0.27896705707995284 0.17055188714685643 0.0783925681686816
0.020004865401736294 0.1853585651151829 0.16683870756048624 0.07491638174914142
0.03807832510843115 0.482630592604711 0.1686423245066846 0.0703724353096918
0.01956836452236327 0.47375690926154235 0.1710955346657332 0.06779326664863454
0.5997292770654918 0.0657992803736552 0.1697553416618967 0.06942027380748121
0.5947530638030076 0.1652653550379617 0.16679738870839012 0.07744120488135703
0.5414150263362244 0.4844392589264548 0.1716535296483738 0.07513298570547625
0.3636591883949196 0.4829146871749054 0.16877366732959712 0.07537944149290818
0.22414119743296115 0.4792464607009147 0.16688160053759327 0.07138368471568603
0.5051734569768273 0.4816872641324293 0.16775441600169697 0.07023417531002182
0.14196663036896026 0.4821737147279215 0.16803172868579586 0.0778146188484884
0.5820555818171869 0.4793207555141475 0.16713297686608541 0.06332360504406179
0.5941537220594422 0.03491515108678415 0.17066366924801055 0.07818907704312841
0.014937460046747127 0.11118535256443787 0.17060117741953879 0.061151981490466516
0.6038112817516125 0.48377419473930194 0.17476304244115048 0.082537224946238
0.014097567654389754 0.48512870402175556 0.17476324877737284 0.09012471685519197
0.20631415752439541 0.12020724692228146 0.16676354547962546 0.09531623192362994
0.19482231775900027 0.11292107349565894 0.16676354547962546 0.08036402065369762
0.22066628401380967 0.09182513976163163 0.16676354547962546 0.0637181753327201
0.2289130201168584 0.10938293937277313 0.1667635454796255 0.0985785178458377
0.23234699961324506 0.12500131421872934 0.16676354547962546 0.08237881901001308
0.21357885423039757 0.1596133085157238 0.16676354547962546 0.1409855585077588
0.21398638726703229 0.1286141914678301 0.16676354547962546 0.115026471152587
0.2209802932223434 0.13746545697467372 0.16676354547962546 0.1255326947332927
0.1989731756143376 0.16802793931555352 0.16676354547962546 0.08508899696237635
0.20903760630188145 0.1709535682428358 0.16676354547962546 0.10875789951031756
0.20962090045621806 0.18238378861596863 0.16676354547962546 0.12036450547382066
0.23053998948485135 0.14703924304901594 0.16676354547962546 0.12638220830110503
0.23095533354227102 0.14703709570256926 0.16676354547962546 0.12623986198005266
0.2072866784563182 0.2216545263460361 0.16676354547962546 0.11685275574066255
0.20158215681618982 0.24200344884065952 0.16676354547962544 0.09520690002049324
0.21168010587130293 0.21069347812285588 0.16676354547962546 0.15089478532964803
0.20717001494315546 0.19528571509629547 0.16676354547962546 0.13280607276306694
0.20199913295983427 0.20536993015100138 0.16676354547962546 0.12883818302035846
0.22167258711575277 0.2005041554485703 0.16676354547962546 0.13330219336819787
0.23174404417720745 0.19240481785873545 0.16676354547962546 0.10645786135396766
0.19933962963499602 0.2539135146170375 0.1667635454796255 0.1023009071448303
0.22807008044179664 0.24952663671518993 0.16676354547962546 0.0888395871580564
0.23213583758858297 0.22283258072196205 0.1667635454796255 0.07943871283535038
0.21598486620456359 0.2674924023303562 0.16676354547962546 0.10252680107743403
0.2149751154261466 0.2796838685617522 0.16676354547962546 0.12120626544902136
0.20387621983909573 0.3033729010626024 0.16676354547962546 0.1150187900611834
0.20681533210902014 0.2879701588128779 0.16676354547962546 0.11923530993378248
0.21687475806310436 0.29961292663543293 0.16676354547962546 0.12931233125550934
0.23081388646680479 0.2850515128874385 0.16676354547962546 0.1190952872106162
0.20838733583276825 0.3194757120111242 0.16676354547962546 0.1176440894709377
0.21562032921843197 0.31121274336693655 0.16676354547962546 0.139288045395019
0.23185319458411052 0.306581080896453 0.16676354547962546 0.09457765848730812
0.23185121803008216 0.2959069694860543 0.16676354547962546 0.10827778681240974
0.21950527487894844 0.3246282559765442 0.16676354547962546 0.11741082470231384
0.21296378589585013 0.36006681863596646 0.16676354547962546 0.13092519406305392
0.23082230034901594 0.3296164131355768 0.16676354547962546 0.0888003198759028
0.21535708335475334 0.38661107090971236 0.16676354547962546 0.13697350830667357
0.23495496107926292 0.39469830983414067 0.16676354547962546 0.07744314220812287
0.20866555705661355 0.4133861952845186 0.16676354547962546 0.08515640280639936
0.22933109552232517 0.4042314209422423 0.1667635454796255 0.09238914720575754
0.21810389108475417 0.4210753663032178 0.16676354547962546 0.06503873471648151
0.21723057331181367 0.4068186459924106 0.16676354547962546 0.10650944243473577
0.19722707352173854 0.4142343287121338 0.16676354547962546 0.09241203537224768
0.1878187305519119 0.4203677647034073 0.16676354547962546 0.08025242948553617
0.17013367565640167 0.45353844525812465 0.16676354547962546 0.09546789512629056
0.16158653545104876 0.4514506180209405 0.16676354547962546 0.09042108533078935
0.1835753415241346 0.4569457579032495 0.16676354547962546 0.07834227864355466
0.2003461067640293 0.4596244004739436 0.16676354547962546 0.04556054185488137
0.22151683732329017 0.46388592233550113 0.16676354547962546 0.048443954650250004
0.2102623958877963 0.46341038002080537 0.16676354547962546 0.04728504121993202
0.18858543178148376 0.46698054540894196 0.16676354547962546 0.05492854355236709
0.1283640140183705 0.46318279141150415 0.16676354547962546 0.10446284635426135
0.16655175418568957 0.4647647251335998 0.16676354547962546 0.08549703143627414
0.07458104562203538 0.4631045716206896 0.16676354547962546 0.09519211803766552
0.05093355861738051 0.4720236125638305 0.16676354547962546 0.05204820445044679
0.06804611876005576 0.45447898188450286 0.16676354547962546 0.10698348485875692
0.06713132895595947 0.45422066053399685 0.16676354547962546 0.10706940948110938
0.05650787270833656 0.4582645300432122 0.16676354547962546 0.08751401140929668
0.04320417612399449 0.4645689248979062 0.16676354547962546 0.05366539284801347
0.047048523658625434 0.4534835484817482 0.16676354547962546 0.05876129391694563
0.030457895444923895 0.46500102106653424 0.16676354547962546 0.05261660192303357
0.04013267885932302 0.44204569653856723 0.16676354547962546 0.06616183432366642
0.04005948455750039 0.4285532499902207 0.16676354547962546 0.07826690418974747
0.03839405204723688 0.4196978537788399 0.16676354547962546 0.08879852825150814
0.03726360242160352 0.34358492665202606 0.16676354547962546 0.08449455536337576
0.03695791576204362 0.3463616296913996 0.16676354547962546 0.09153526409751739
0.033653661868307365 0.4064747618559599 0.16676354547962546 0.09319147133555673
0.03764557421814774 0.3860135747818171 0.16676354547962546 0.08455840160366367
0.029817460607142177 0.35511865760104355 0.16676354547962546 0.08128679597437133
0.02430501986984199 0.4136458653848378 0.16676354547962546 0.07708188277462572
0.03524720006085218 0.29293660462383897 0.16676354547962546 0.07944826931270536
0.031927036323248954 0.33252649345262825 0.16676354547962546 0.07998255937978109
0.024449802035048745 0.4266612280589438 0.16676354547962546 0.061909667798952635
0.034888225162201976 0.22326949726536252 0.16676354547962546 0.09177261202458481
0.03686769726180662 0.2476031927396761 0.16676354547962546 0.08968720830263459
0.024363495903472955 0.0873138997462925 0.16676354547962546 0.06486703006601503
0.022273756386946685 0.07423826755186413 0.16676354547962546 0.06503717122886309
0.025561798939393865 0.2874948074313897 0.16676354547962546 0.08629365584227218
0.023461665574653637 0.31652345809231847 0.16676354547962546 0.0751556300355795
0.023228759063592144 0.40327051986257767 0.16676354547962546 0.07897828898689703
0.03534333026036169 0.234943244424419 0.16676354547962546 0.09933579191401305
0.022977078559692294 0.3753480288853172 0.16676354547962546 0.07440987993059102
0.024537714221096116 0.21325975624819732 0.16676354547962546 0.0845922957629824
0.03454405063125064 0.2347052976039555 0.16676354547962546 0.0996378724095616
0.02472081809521791 0.25714930022366767 0.16676354547962546 0.09164592783153283
0.02096804245537356 0.0597322510018678 0.1667635454796255 0.0655199403207858
0.028976701231859844 0.16838161044621813 0.16676354547962546 0.07414072260744993
0.02581867529295249 0.1770365529179276 0.16676354547962546 0.07936191532827025
0.02368780150090239 0.2304356989088464 0.16676354547962546 0.08968604211381297
0.027955077396208308 0.1882796445910449 0.16676354547962546 0.0795069337734211
0.0266377945170929 0.27669410923847726 0.16676354547962546 0.07748862131190945
0.023614181496225427 0.3376797177945261 0.16676354547962546 0.0836013340431467
0.026319776148097274 0.14854855739757827 0.16676354547962546 0.06357847301998754
0.021860146034196448 0.44118040030918615 0.16676354547962546 0.05460390739239476
0.02292268719308921 0.22752933490884272 0.16676354547962546 0.08851845060198572
0.023008566526187796 0.11901101812658976 0.16676354547962546 0.0791289762724961
0.022993473735438974 0.24346773026964047 0.16676354547962546 0.08427679865262462
0.0358821661257498 0.1530360535397057 0.16676354547962546 0.07810540366381563
0.031047869222110613 0.13602538087117838 0.16676354547962546 0.06949142957508116
0.041450589779701556 0.06521863667310389 0.16676354547962546 0.06695918140743577
0.055168218244389076 0.05114151794073208 0.16676354547962546 0.0712950923173907
0.06261310946642601 0.06874278512943223 0.16676354547962546 0.09148211108160949
0.040061538311916334 0.041172893670548875 0.16676354547962546 0.04838118319982846
0.0697184973082719 0.06296944070527474 0.16676354547962546 0.09684526977301705
0.07528340352647418 0.053722872409869366 0.16676354547962546 0.10187083897695032
0.05551085275439173 0.03377104739341369 0.16676354547962546 0.06089134748337199
0.1569175583075254 0.04421577611283496 0.16676354547962546 0.09347141844121425
0.08290255350896447 0.034639482915994335 0.16676354547962546 0.09016368120225204
0.22464033265366265 0.04723594385492659 0.16676354547962546 0.04503330648632259
0.3297792392688014 0.0458732460711567 0.16676354547962546 0.07402391959834338
0.133978681700261 0.03624055471948679 0.16676354547962546 0.09197794246135857
0.2578869498132342 0.043581747125836 0.16676354547962546 0.08325016399338414
0.33675319481539123 0.03332973310993885 0.16676354547962546 0.07371744696133266
0.48724807483797655 0.035121636119502704 0.16676354547962546 0.07656494192416935
0.47524205187442164 0.03840211965302987 0.1667635454796255 0.07978921323992441
0.34253476355811224 0.042020089874398134 0.16676354547962544 0.0747856689161704
0.23557549479510198 0.041018281100841256 0.16676354547962546 0.06250818208867943
0.5404966429095055 0.03145055688068045 0.16676354547962546 0.07026404025058232
0.28376167344749303 0.037423469900605175 0.16676354547962546 0.08958102543770369
0.35369585293331124 0.044383355811819625 0.1667635454796255 0.0908607164473405
0.369608352631337 0.03604969157079591 0.16676354547962546 0.07518156078305036
0.4166313120949089 0.03423325164219121 0.16676354547962546 0.07576359464104139
0.4043591324349806 0.0329049905676016 0.16676354547962546 0.07317376730781654
0.39218109188652334 0.032776343483413885 0.16676354547962546 0.06546722976461358
0.26680225551646836 0.03746387382823352 0.16676354547962546 0.07813857132999699
0.3589877537791129 0.03330435819371198 0.16676354547962546 0.07716478447188219
0.20387377006481028 0.03680026238391932 0.16676354547962546 0.06493180456452648
0.29692679662825583 0.03381435485613229 0.16676354547962546 0.0794863743705819
0.41997051860871326 0.04461208435624417 0.16676354547962546 0.07548586387999671
0.43754435871902597 0.04487555130449898 0.16676354547962546 0.07898173134413292
0.4370366014216827 0.04643547107628547 0.16676354547962546 0.078261866498369
0.45647062577502484 0.04454233079815853 0.16676354547962546 0.0829834233209507
0.508808954782058 0.04041611136251763 0.16676354547962546 0.07759464817856633
0.49807736532132885 0.04297794659445645 0.16676354547962546 0.088412148078821
0.5115255255786568 0.04885923369444006 0.16676354547962544 0.08670937480908252
0.5462132012905035 0.040504995093347186 0.16676354547962546 0.07096991122545128
0.5470603064008324 0.040004278154689196 0.16676354547962546 0.07100373592219879
0.5301698100948385 0.05420604871882183 0.16676354547962546 0.11804617348933444
0.5579105258331415 0.04564089271116033 0.1667635454796255 0.055593308341978634
0.5667670102330442 0.03843066544782865 0.1667635454796255 0.049186465891796365
0.5848120389959885 0.042700621621546204 0.16676354547962546 0.05858370511508532
0.5754762633202374 0.03677882469564301 0.1667635454796255 0.05776338061840125
0.570942870410626 0.061715748492215936 0.16676354547962546 0.0558651702994646
0.5650817428280905 0.05303427935488576 0.16676354547962546 0.04852678445198177
0.5820843213307592 0.16665006016631181 0.16676354547962546 0.07652868258398035
0.5775930092694976 0.19745410977119454 0.1667635454796255 0.08464199864293692
0.5863235865511321 0.12671331822721263 0.16676354547962544 0.07416761677382451
0.5770756179493584 0.07126773296633408 0.1667635454796255 0.0677503350988958
0.5825838258128332 0.05704544503691331 0.16676354547962546 0.05094475872881359
0.5601429740824825 0.07749701328372187 0.16676354547962546 0.07506525510322393
0.5796468358129869 0.15579274702667312 0.16676354547962546 0.0851335157511125
0.5875629286860746 0.08407921985002041 0.1667635454796255 0.07818604730259002
0.5769351531351945 0.08220829271536126 0.16676354547962546 0.0823127590232708
0.5674413498391786 0.0889791237213973 0.16676354547962546 0.0992151704520167
0.5892397210337084 0.0637912303856196 0.16676354547962546 0.057294509865636147
0.5910507533214042 0.3550700025980492 0.16676354547962546 0.09049703715492549
0.5903499994765385 0.1482665538780006 0.16676354547962546 0.07454086578349889
0.5790760708837496 0.2465517517761729 0.16676354547962546 0.10474200191619293
0.5887924527632402 0.15714709939838728 0.16676354547962546 0.0790322257032793
0.5895965157912211 0.2570309979890405 0.16676354547962546 0.09067011302248427
0.5890668703563631 0.30428591316240006 0.16676354547962546 0.07899688618088645
0.5937559906517191 0.21419206259690912 0.16676354547962546 0.0818418140586399
0.5854256336211158 0.20465905766726517 0.16676354547962546 0.07925304776672489
0.5933542933508115 0.19061537055179884 0.16676354547962546 0.08195672403002562
0.5905270508623488 0.36829192520268755 0.16676354547962546 0.09221092188336427
0.5830003827369963 0.21777155398590636 0.1667635454796255 0.08476948647444985
0.5934432379956233 0.24912632288395592 0.16676354547962546 0.1045519549224479
0.5942636690306523 0.09458031574645974 0.16676354547962544 0.07906328286658507
0.5921258348049507 0.3997020427470658 0.16676354547962546 0.08291226385196947
0.5898485589202614 0.11677795532556137 0.1667635454796255 0.0757046030230793
0.5936429146026121 0.3243604209120556 0.16676354547962546 0.07781958928334672
0.594104797096476 0.10672596024152914 0.16676354547962546 0.07844554562389629
0.5806657778474571 0.24697780913604062 0.16676354547962546 0.10491443446667711
0.5779933817403111 0.31048734615344287 0.1667635454796255 0.08366530026805909
0.5823339028103098 0.3464671985134936 0.16676354547962546 0.08482540893548522
0.5816385887767347 0.32156227034177043 0.16676354547962546 0.08662942366137664
0.5883918545331646 0.43230368038547673 0.16676354547962546 0.06671352223932588
0.5821814360504982 0.40064029192877315 0.16676354547962546 0.09038492160125812
0.5815074581821384 0.3616364329676206 0.16676354547962544 0.08554653111618502
0.5872635957770935 0.4341529022282296 0.16676354547962546 0.06671298667968582
0.5793457730769273 0.42466741520511764 0.16676354547962546 0.08680211709583542
0.5726163875497191 0.4344729133543837 0.16676354547962546 0.08498170992777448
0.5788952694328384 0.4419620507494596 0.16676354547962546 0.05632040638186563
0.5659339627754684 0.42509754159760027 0.16676354547962546 0.08861518257330653
0.5822342076155265 0.4530588015553637 0.16676354547962546 0.05426879261088992
0.5654872864916507 0.4643440110271302 0.16676354547962546 0.05316584847751029
0.5717324724314655 0.4712576497020654 0.16676354547962546 0.058167531643828714
0.5581338159628425 0.4455452753583199 0.16676354547962546 0.07835731127507096
0.5551291302808788 0.4582930628538102 0.16676354547962546 0.08515832099457486
0.5427826008530542 0.45713499677667724 0.16676354547962546 0.09601054908717568
0.5183598362425186 0.46136613549118155 0.16676354547962546 0.09889162163306003
0.46139789955633403 0.4625724621629287 0.16676354547962546 0.07222255087296241
0.5093214409510997 0.46995694551906675 0.16676354547962546 0.08358511978765407
0.4744222253564284 0.4663120761103804 0.16676354547962544 0.07907897130113097
0.42730759074487323 0.46576489006049115 0.16676354547962546 0.07896113653489116
0.4887987262260482 0.47213488598993325 0.16676354547962546 0.07292067109848849
0.5269549707362055 0.4742531368362528 0.16676354547962546 0.07691638833293296
0.4845809189282175 0.47184369269971427 0.16676354547962544 0.07861428850351662
0.3744082829558211 0.4633875923962829 0.16676354547962546 0.08000933686726176
0.32081489480508424 0.46404076441873005 0.16676354547962546 0.09731355140879726
0.45516544327465547 0.47577517616030957 0.1667635454796255 0.06846039651034454
0.19764985259849122 0.4742155564880536 0.16676354547962546 0.0615286229544205
0.0981054158860945 0.47822101702817393 0.16676354547962544 0.08755183396403513
0.39163724832655805 0.47243847348688583 0.16676354547962546 0.07835865049991583
0.3597578506159265 0.46577891453426906 0.16676354547962546 0.0773426603582916
0.3681615538246794 0.472664572614924 0.16676354547962546 0.0772520393479652
0.14710002712186382 0.47385584777060025 0.16676354547962546 0.07606000476055906
0.2979862414191163 0.4731218354972837 0.16676354547962546 0.07584797250557056
0.4173623512248186 0.47090432834401497 0.16676354547962546 0.07219857404474386
0.4993527604163679 0.47394207038453895 0.16676354547962546 0.07375772567988358
0.5156703399483652 0.4775062883765776 0.16676354547962544 0.0765548326397755
0.23935410014876113 0.47421248982634334 0.16676354547962544 0.0592828593639671
0.46546732662380463 0.4724472227212669 0.16676354547962546 0.07431495942788863
0.18497077701381043 0.4778722059554604 0.16676354547962546 0.05121380367923075
0.31008059910400576 0.47369757096669785 0.16676354547962546 0.08588857872960305
0.4284007112497876 0.4761003532350957 0.16676354547962546 0.06925047276515436
0.4396995864989413 0.4732675118069308 0.16676354547962546 0.0750830583571249
0.26652012482140075 0.4756152458044041 0.16676354547962546 0.06699073255000526
0.11067393920747456 0.4750694161435302 0.16676354547962546 0.08957134360794132
0.3834546399478215 0.46507545722322813 0.16676354547962546 0.0824435675672826
0.40613762486700516 0.4732043701659988 0.16676354547962546 0.0769832916056407
0.2854626341037646 0.4755948174908064 0.16676354547962546 0.07685837328681497
0.27521070347150617 0.4698701417228899 0.16676354547962546 0.08821572378444918
0.3302988620381212 0.4719935889364241 0.16676354547962546 0.0828590877201524
0.27880098964232497 0.05361845168734749 0.16676354547962546 0.10297530207256085
0.2693096930995124 0.058412647431823395 0.16676354547962546 0.09471855797257815
0.2556953798806182 0.05541764522776303 0.16676354547962546 0.09542561850408941
0.24400992676623712 0.06091432766362322 0.16676354547962546 0.07572861420073543
0.25556483741079206 0.07353335342507708 0.16676354547962546 0.08447050397771053
0.23479606438548994 0.06738829573042489 0.16676354547962546 0.06506126610599909
0.2386511857769228 0.08432747752885451 0.16676354547962546 0.08070765624693091
0.2359803918626334 0.09213571715380728 0.16676354547962546 0.09075023212654382
0.20486020165820557 0.09282353248709163 0.16676354547962546 0.07440560357798504
0.19683701629468348 0.10035538583620587 0.16676354547962546 0.08087724408127654
0.18078817920128232 0.07759112323754315 0.16676354547962546 0.07876488099876375
0.18272034291848305 0.06642893416931063 0.16676354547962546 0.08527793497569926
0.19493999890066338 0.05415002059482642 0.16676354547962546 0.052163520412083136
0.15459318446082054 0.054495639020374735 0.16676354547962546 0.10306840229554351
0.18391093621974097 0.05024155156651631 0.16676354547962546 0.07885460127511155
0.1692064733905021 0.04940554158559094 0.16676354547962546 0.09569796960206131
0.16996707289749025 0.048037822569877695 0.16676354547962546 0.09581119764965547
0.29808890795939647 0.46074754686812 0.1667635454796255 0.09661801976473745
0.24970700154875797 0.4596785860432934 0.16676354547962546 0.08692857867437535
0.2557950423521672 0.4506471614299894 0.16676354547962546 0.0913926909245015
0.2488873591247987 0.4415514134288905 0.16676354547962546 0.08175889255833296
0.23964474757520504 0.4342035413254419 0.16676354547962546 0.07909684188995551
0.23569354090564482 0.4381879994604912 0.1667635454796255 0.05874985765482262
0.24622504276709378 0.4251813111127188 0.16676354547962546 0.07608776507020748
0.22700749271189247 0.4276600676895983 0.16676354547962546 0.061897941714298604
0.19745573147709727 0.2814813629551322 0.16600499750298947 0.10379472114280133
0.1294903030579982 0.46169188170802244 0.16592368230907967 0.10343042422290623
0.05196171645718105 0.4276114978919574 0.16573424927177222 0.09587991633318754
0.19312912379859334 0.3895205349182439 0.13906856122997469 0.03972424592777016
0.1932270062250704 0.3896532059767992 0.14060710613536892 0.05237130781386602
0.19479909739637186 0.3700697442887576 0.15274890425713278 0.07207487068877957
0.19482154240116398 0.3852389145578543 0.1596723496048164 0.07910725872516416
0.19544659331902203 0.37523391349175206 0.16426479688750023 0.07835863709847395
0.19428040212100706 0.3807975826403013 0.1499934370619192 0.050150994659055134
0.19098372093882593 0.3770247448821507 0.10116264688421092 0.00151324312744939
0.1923701744529115 0.380872472268209 0.12268469539025396 0.0014962408203637804
0.19192624336603606 0.3711632453689608 0.11211088314961795 0.000793305589849774
0.19152355449418307 0.36667352191475133 0.10464156054711614 0.0004074879674110933
0.19069604358054923 0.35605087200008706 0.08875478183574073 0.005062006772227921
0.1927991600229282 0.3683396164452558 0.1234684805346741 0.0005748427116673289
0.1917540365913719 0.35536763824901596 0.10357489944264336 0.000267661010013962
0.1914766324008135 0.3465322602182456 0.09627800278476051 0.0016681524171028913
0.19518310617218923 0.3589771003243735 0.1539292592775837 0.1062811281434768
