x y z curv
0.12300626859821173 0.2518425724459997 0.16581370298802323 0.06607905609005739
0.11818128453482149 0.11135289759206365 0.1658494300473928 0.0619473869006075
0.09799734158955029 0.331947098520718 0.165998902323083 0.05407367118467394
0.06197425064095631 0.10718848517450731 0.1662656574552858 0.04453400891189212
0.11071559621827456 0.1687138918283845 0.16590471668470225 0.056324479983654266
0.09564415239573841 0.08809879658531283 0.16601632276413064 0.054523944995548364
0.08456856272923396 0.14576543941405645 0.16609834165375575 0.05681953138556673
0.08909113367360351 0.21256305207058712 0.16606485237036167 0.05723654823464899
0.12533735602851734 0.2923782585087586 0.16579644160672935 0.05860241109952699
0.10630623209930151 0.17863678156906024 0.16593736938191422 0.05447075725356952
0.1480418023889236 0.047133245635863526 0.16562830379789634 0.06108072913844862
0.1574255560634833 0.04070912239251947 0.1655588145494869 0.06111336217153472
0.05971465794234486 0.05123597568042195 0.16628238905022608 0.04441711145784009
0.1277350830922469 0.4072888454095429 0.1657786884280747 0.06184277337644362
0.14427069534183795 0.0958232841864792 0.16565623091671003 0.055717820859509125
0.0881928127063646 0.05451984811898086 0.16607150108439864 0.05413687793715976
0.1312761764860921 0.05531803381299169 0.1657524577434214 0.055708015780677314
0.18554855516818525 0.044464236500702 0.16535055661309314 0.06215185819637315
0.09344372152152051 0.28059806385744257 0.1660326218834493 0.057220520961081794
0.049419767528060765 0.10023737339161146 0.16635862646519284 0.03734402310036034
0.14965288743238098 0.13448392974454404 0.16561637528033046 0.05848972317141527
0.1363726248543525 0.3068022158943031 0.16571472293769865 0.06012948680121859
0.12013208822843413 0.3596353027442379 0.16583498947470973 0.061174065209283535
0.13300172828371676 0.20641495384491224 0.1657396830154271 0.0618930542664984
0.15701495067840557 0.05361234618634585 0.165561855480218 0.059134809726893126
0.1482099174519268 0.03867424627507459 0.16562705867095442 0.06315863106544192
0.10192449109440277 0.2198361906204969 0.16596981823197818 0.060148837798946336
0.17409989458277994 0.1380360512945718 0.165435339002597 0.05839875929525216
0.09214823699010319 0.29289219441805225 0.16604221555740897 0.05916184125293005
0.055226373863011304 0.45628529811438917 0.166315625633513 0.04294036329565826
0.04433413922329396 0.4204518773333631 0.16639628418181313 0.043650163502496474
0.08785691747597994 0.4227659846352488 0.16607399393754382 0.06187669347931767
0.03766898680861884 0.23487113478820867 0.16644564305346787 0.05009431171340945
0.030250768042151772 0.11177894371096603 0.16650057750852476 0.04905311080618835
0.04058932789579837 0.19161254698547436 0.1664240183095273 0.04691001714116335
0.024087843252231244 0.26258129044080764 0.1665462122629799 0.05504310860998996
0.046162139927115826 0.16711450462619987 0.16638275148920653 0.04601124627532006
0.07979837209491034 0.456703398532468 0.16613366770143853 0.05251106654491214
0.03439793496452064 0.3621212553088034 0.1664698635758966 0.05581108418596814
0.03278571415387434 0.37515395274847485 0.16648180202389404 0.0557140484935197
0.0648100729826062 0.44010229568687637 0.16624465769687508 0.04425672414237463
0.022909498503545192 0.3413724749439603 0.166554936826392 0.06305560372437234
0.05351523925908746 0.3591368722895041 0.16632829820964176 0.0383777048554162
0.03475033052633543 0.13342176043961068 0.1664672575045021 0.05238489101802804
0.027730116212962397 0.3527453050315194 0.1665192395335959 0.06136137996611628
0.04877436621069264 0.28643800508253764 0.16636340591106216 0.03352546861143677
0.07475713823878177 0.3695827762881506 0.16617099982007943 0.058090720141221366
0.10385544299323875 0.4689606089503441 0.16595552267540623 0.06318146288837075
0.05264422710467414 0.22533397631518134 0.1663347501541285 0.041363823340342366
0.035702413166895396 0.3973301971854469 0.1664602032626255 0.048679425521974684
0.05570946912441564 0.24181375914754458 0.1663120515040624 0.04502052088458893
0.09295175051750838 0.4640181096592735 0.16603626560398885 0.05759951154490731
0.028966963163441932 0.32002717790595114 0.16651008106084295 0.05718983530283458
0.09631389255073905 0.4470035356730363 0.16601136888712192 0.053485038313433625
0.040696051977347436 0.29794271582516746 0.16642322640358687 0.04562914490865164
0.0508301053433786 0.2521946418184975 0.16634818348876562 0.03903056019784945
0.06210076859411689 0.2974960729481769 0.1662647224986594 0.04732493707705158
0.03490288895705751 0.43673751663417826 0.16646612321900495 0.04901324276503672
0.05221776964180377 0.344533148781881 0.16633790631281634 0.03839111048567685
0.02366651909941787 0.41382372987700017 0.16654932992558924 0.0619631693261637
0.031347607326002225 0.42394511101144094 0.1664924506022082 0.051061730534578145
0.01980713748089576 0.22519961385059972 0.16657791185020115 0.05961897938006335
0.06953180094258266 0.3531336111666943 0.1662096941755376 0.05323246927542201
0.028253584807088894 0.19357409822502641 0.166515365601548 0.054508691854319384
0.0543741484594964 0.2137271988064512 0.1663219401011726 0.04110697122075934
0.04503048037500334 0.4211077433069419 0.1663911277011094 0.04283671397147264
0.06932057962073299 0.45340343770133923 0.16621125677622955 0.04760091815489334
0.03188650374099723 0.30396750360937436 0.1664884618343964 0.05009457451908234
0.09787612329021719 0.4175812622861301 0.16599980086750962 0.05791748496459902
0.03303502640878786 0.27428471211818484 0.16647995736535356 0.05007054829991662
0.10419435088566385 0.42832363438104915 0.16595301364412776 0.05831756764153076
0.05395317446275412 0.38378652050414186 0.16632505488695074 0.0338043244413597
0.08644131532620619 0.3714671814166477 0.16608447737670137 0.0578889949865196
0.06039752095034661 0.23287870924564122 0.16627733618031587 0.05438889717578025
0.11268878464563506 0.46330325840596936 0.16589011104660067 0.0603685228190729
0.0715328604835409 0.32809838956266285 0.16619487652176435 0.04831719100776635
0.0537941524831915 0.4287823151410446 0.16632623178059933 0.0359327695745165
0.08543515792891544 0.43697844931189167 0.16609192707716341 0.05613855047386384
0.049895644936952636 0.3140855951985568 0.16635510232098122 0.03585988733528928
0.025479554227706078 0.4311390190477974 0.16653590397108123 0.05724020983095847
0.0697899692311319 0.35300243049675617 0.16620778241739695 0.05276878421291008
0.02140628613586598 0.4487777646250326 0.16656606663294654 0.05563916324876031
0.0787539544552599 0.4286712640950634 0.16614140213384654 0.0551849615295602
0.09800598312170258 0.3966532101609006 0.1659988395591586 0.060744345709993555
0.020284966812179984 0.37396863829438737 0.16657437123518815 0.058968569939961066
0.028586804852937957 0.24025989028399908 0.1665128973718496 0.05782964329339633
0.044301548622086295 0.3705895213625689 0.1663965262705182 0.04857414066596657
0.03230871147629959 0.3758784875737699 0.16648533426202855 0.05763810824810105
0.021135083397839843 0.2139797490381221 0.16656807845680538 0.0673334925465305
0.0709724205466521 0.30425474784860895 0.16619902699120592 0.05271171640863286
0.019901054060986946 0.09159392998083013 0.166577218404944 0.06043431202393529
0.08263990494995624 0.46543216351013567 0.16611262575542496 0.05828409188327525
0.04262574853346132 0.3862388350966065 0.16640893548948826 0.04530132553211423
0.06899291779229351 0.38095717661233264 0.1662136842354645 0.04528486128852454
0.0507099030209269 0.26526482572835575 0.16634907340091945 0.03757846012151456
0.06639971653469788 0.4202525901346113 0.16623288653842033 0.047767700159869184
0.05966034300310545 0.4478673584181475 0.16628279180781758 0.03819703203502315
0.024275731426521827 0.28141717089515406 0.16654482064944442 0.05685589800030988
0.02729730808524173 0.3869465189159405 0.1665224440019225 0.057315160128358265
0.06465013243215618 0.4187657267210183 0.16624584239339235 0.046713167006490156
0.04759519231149842 0.4451955137319822 0.1663721354079471 0.040863104366904136
0.36637590154585 0.4460526623211427 0.16401146932184635 0.0015472997394997761
0.387105313218287 0.441710182188576 0.16385796266120042 0.0003166030969578091
0.32645607051519393 0.45447088335274755 0.1643070956355776 0.023931836608786432
0.19781298997013402 0.46875845780418146 0.16525973732276084 0.06051873017164506
0.19764172435363764 0.4700713887183354 0.16526100678287067 0.05988117711591585
0.13356808637021517 0.4773405482438358 0.1657354934254466 0.06544232258100847
0.2856047493793124 0.4598275487187609 0.16460961293462012 0.03344717391125878
0.33983355821311834 0.4704059119859562 0.16420810703004277 0.04730062244838015
0.29891578954026476 0.4666942469572497 0.1645110601929533 0.039800388409903645
0.4122510219989824 0.4766006725323812 0.16367192867696878 0.06386144410568052
0.3288486115462199 0.47043353022664525 0.16428944720539457 0.04112349073178588
0.3570893955971356 0.47626491524907166 0.16408037989120428 0.05232488439733889
0.27094832157231646 0.4716448016695055 0.16471818966852197 0.05040304683391045
0.24489506275685138 0.4707772856808142 0.1649110986534519 0.057683201892531046
0.3077191056102847 0.4719906917017148 0.1644459167376586 0.04423799171895708
0.23406867884604252 0.4709158907675096 0.164991265608236 0.05879105507722887
0.3199485294880539 0.4666991071065022 0.16435531963731134 0.04502263762330035
0.2066923155992318 0.47672263724176034 0.16519402497321273 0.06720488120148706
0.37573057537041243 0.4640890289345648 0.16394225092786546 0.046824423963445626
0.4090946477809375 0.4673187113932533 0.1636952265840394 0.05186266635880451
0.39402754359107034 0.4664806464157827 0.16380678690416173 0.05202411088629198
0.363614237418456 0.4640035389912234 0.16403196778552764 0.046729961581995105
0.3514030152032289 0.460866811977674 0.1641223628989128 0.0372577095461935
0.2892996113534035 0.4748928697715652 0.1645823302409043 0.05558074771020281
0.16165680799263812 0.4752503625315259 0.1655274884936356 0.06693827636694635
0.3766911027950809 0.4525534767433171 0.1639350844593174 0.027399148901225877
0.32605910758892265 0.45803583196477893 0.16431003499179805 0.029928477182507934
0.33737912696260725 0.45822512838649 0.164226220649462 0.02594897133891779
0.09453624874911795 0.47647710408194 0.1660245307291964 0.06287058404250544
0.05344258207266456 0.46867388680067035 0.16632883355385908 0.05426799400135775
0.0844605269031464 0.4756446815036083 0.1660991416776275 0.06044978469408293
0.06353025687220622 0.4764597880084556 0.16625413258744282 0.05938405690204352
0.05398377324710068 0.4783776419580842 0.16632483100090592 0.06330162217408133
0.33605561965545205 0.44520427920165084 0.16423601817501893 0.0004807499291612291
0.2357527961262454 0.4602352642127223 0.16497877470916883 0.05036247650696954
0.2231026593054481 0.462138858579376 0.16507245096021883 0.05759435465620529
0.26955050802363456 0.4536535409442788 0.16472848935453632 0.019798087380333583
0.35658192433167923 0.43912030180987727 0.16408398572782806 0.0004954996305172172
0.15598201930093292 0.028156709149001133 0.1664845879330753 0.07426896958903632
0.1255900078688574 0.02416290146932005 0.17116118259969623 0.06474763956067878
0.1419634151001039 0.03007091904477161 0.16583409273907196 0.06582057875778886
0.016963305819490855 0.0390456884634343 0.1706210628991296 0.08708048135118773
0.013287663645011214 0.20598875546556997 0.17111702568221007 0.08048442003709962
0.01402786969151549 0.16084955089357342 0.17060072927981762 0.07646766775119351
0.013554843165074893 0.3033980456530591 0.17093066544667257 0.06353441666274454
0.013842219582456631 0.4000036512381968 0.1707302010011777 0.07656883762054195
0.10514578577951715 0.4861968988476555 0.17144282118156903 0.07130438449853861
0.12835194458165036 0.48479685158280755 0.1703326129621592 0.07585778176569621
0.10266306184639899 0.025217809098127965 0.1703440440365924 0.07229280499400555
0.01433974998431283 0.053773855198832 0.1701898395138028 0.07142141850696113
0.015050576932120193 0.10086180936642503 0.16892076260493843 0.06387501418100568
0.015874187463334712 0.12072970001129953 0.1681264462834705 0.06855036188902316
0.3921734623803051 0.027213427051636877 0.165632490277199 0.06654289956701201
0.01818516781195329 0.3243252814892956 0.16682372954682664 0.06612105419333145
0.024666543651854406 0.4738921958515827 0.1667172732986692 0.07441342155496151
0.11733277605575876 0.48474089219353667 0.17025961702887765 0.07320929210141836
0.11522720567795158 0.48423985621484644 0.16912344613459485 0.06848029343944805
0.15413499389202426 0.48120150458039146 0.1660723042519486 0.07281882202231862
0.4633840765664683 0.026749950167275546 0.16602876555454438 0.05625597642498202
0.14266700632899842 0.4793465942713092 0.16573936878107165 0.0717668004952477
0.19097636601213774 0.4806028169150857 0.1656085799080373 0.06700432471000418
0.2352150699548709 0.4813543981655163 0.16564639105751766 0.05698820066061741
0.3660124225577208 0.48161297053209784 0.16492267799254645 0.05948939592748745
0.27819395342186315 0.48128319655775975 0.16531955924659575 0.06205396181252913
0.2786097587185009 0.48119790713559196 0.1652681669273846 0.06205872524594035
0.21384173368623666 0.48455919923033103 0.16961637502869253 0.07044476004834554
0.6580630347658429 0.4800799335316404 0.16387472786653356 0.06130007724562079
0.6109153062711675 0.47988750881628284 0.16384189820795575 0.07433570993531363
0.59265135785102 0.48047263380484884 0.16394177411199645 0.07738829545498722
0.5562187630235309 0.47924242600656 0.1637317954338593 0.06505953646570072
0.5395325492713701 0.4818162519921602 0.16467888318243426 0.062256182799997645
0.775662099572761 0.4787861272982381 0.16366298304126925 0.063308414789471
0.7960850082371014 0.38110449870673635 0.16387556481695928 0.07174802999365266
0.7948040530318196 0.11104389591149186 0.1636569283080298 0.08590858292256341
0.7947477915589631 0.23985440024523835 0.1636473254648064 0.08005883970150368
0.7863119282036106 0.03484551853356911 0.16365123685293242 0.07461760832967299
0.7959766738751255 0.03765404086967253 0.16697371427839916 0.08470716595228903
0.7686699394518363 0.023877638106832022 0.17135950895771362 0.06965074953037559
0.3239232907539241 0.025033072871671058 0.1703900661909855 0.05784515646650846
0.7065577165735878 0.025271311970890744 0.17007822402578712 0.08058851840406235
0.4874209027612862 0.025288639339084304 0.16998047646926354 0.06596132557848451
0.411735650881016 0.025499797373163352 0.16878048369673548 0.057097760399428314
0.5521388437082605 0.026188586955209515 0.1667494858789763 0.0572421884032514
0.5607266435607969 0.025998846127424872 0.16727983678745487 0.059370163575023636
0.7985909354273473 0.21283370253276637 0.16523433286796402 0.07777724875796094
0.8001525229819655 0.4682128942035283 0.17111107400133155 0.08893698259214013
0.7796495326661793 0.4846789112856501 0.1705154784036378 0.07586011611225493
0.4099019841557174 0.48487526229496336 0.17031312425483522 0.06187675147508085
0.5849937216004153 0.485668136332984 0.1709782303878664 0.060527409692879106
0.4768331552319537 0.485301339951526 0.17067052103917058 0.056181276759946976
0.703382707887536 0.48592522653897136 0.17119393816208744 0.07431816404402065
0.5643134603708276 0.4846667074502828 0.16972475314804464 0.058001107071016175
0.3499621092464261 0.4847249348908389 0.1700530314205704 0.056130941130060355
0.6839580119139403 0.484669196391565 0.1697399012657664 0.06696650378227612
0.7254574966809428 0.4845243136619881 0.1689198124400854 0.07616008201519574
0.5231777179084456 0.48453905102682393 0.169000804775827 0.057959508316315196
0.8006685170017045 0.3513934157045533 0.16973708730533255 0.08149000255225673
0.7912120742195476 0.47856015503426075 0.1684449060181813 0.08393536415816633
0.4661074429996639 0.4838219129806349 0.1667788559651038 0.05813605235431599
0.11269230987680323 0.026824709139835527 0.16794237139396379 0.07898471147809098
0.18003368176039558 0.024922790921029104 0.1705051004358063 0.06367051313654251
0.8013926531284173 0.08294375314558784 0.17074746715224567 0.0701426292619397
0.8015246040547017 0.15642149887110407 0.1708581302845539 0.07921975915557515
0.80148460697146 0.17801958474308838 0.17082449839734376 0.07390233803873981
0.802345862571727 0.11285289893828034 0.17154789415602525 0.0785210024882251
0.8021579724653218 0.13343976969604018 0.17139006660924125 0.07924082546941742
0.6644139371110909 0.025470541260047937 0.1689464517879403 0.07451074615686418
0.19805519487740136 0.48548044078952535 0.17082058285614232 0.06881854064375964
0.42582815160752013 0.48578850247651906 0.1710790921722328 0.06390380104038391
0.37792857130425633 0.4856731558424535 0.17098231824078472 0.062196539781651794
0.16059152082086517 0.4851850223434886 0.17061432749181732 0.07224381905296745
0.28590037239723737 0.02758954843402695 0.1659107870557158 0.07181900932461446
0.6759848805075246 0.02983000481679 0.1638900752496006 0.07628520761917813
0.5125205911636999 0.030873859238847702 0.1637119119788284 0.08319524903491995
0.36740521893557077 0.024147431303622218 0.17113295961250485 0.05384106041409799
0.2774047479564915 0.024304405015482283 0.1710012120098047 0.06788841914878782
0.2963703633576428 0.024662238643998642 0.17070112789436892 0.06882450700906313
0.7276411208628121 0.02362679830280608 0.17156999283921015 0.06760101255019224
0.8004992126929447 0.28991836575907154 0.1687748568922574 0.07292666409841767
0.014783967055465511 0.44193736369293907 0.1693787011879061 0.059127137081374535
0.016383418274610557 0.3530573221737728 0.16765199417760765 0.07326441011360682
0.0178988224720474 0.06784729468082794 0.16690530707384693 0.060006795870324287
0.31635483207478976 0.02945628596524065 0.1646983273899999 0.05965941766791923
0.7540472942875753 0.03123404173379163 0.16365042714484956 0.061508697082572485
0.7743851039730463 0.03139727853058636 0.1636225653041617 0.06869942910732375
0.6687150030745777 0.48434988878613094 0.16825539737952713 0.06364848408367972
0.49038277534622754 0.48445657311075774 0.1685529439961187 0.05929288024407537
0.016285579964149963 0.3354578965652887 0.16773136474475167 0.07021465158606086
0.015212663433471576 0.42833433898961365 0.16876462677606419 0.07184289295816061
0.01592523962823101 0.27401596899699937 0.16807780056631322 0.06417558103439494
0.019552087205502 0.1727748360916058 0.16660997346352197 0.07224027459055744
0.018773665076155244 0.11039079131868113 0.1667316361320739 0.052137054407233326
0.01924344768973607 0.23773490472313988 0.16665831448228297 0.06846697361030646
0.8012868452028686 0.24777791632369267 0.17065843183240825 0.07878103007904531
0.8011297247185127 0.4175076752367171 0.1705266127844535 0.07023475389925696
0.8009999316275502 0.23506872704463977 0.17041764195559966 0.07652442847881014
0.19227755014059167 0.03165931369456658 0.16530071210090988 0.06719365957514326
0.09151259631168902 0.03519157815095456 0.16604643139245734 0.06417572320829217
0.1661422672781699 0.03226775317765553 0.16549410939159126 0.06515639758225983
0.0728207685192302 0.03417947246541754 0.1661846587906826 0.06725509320634726
0.03487315512457084 0.040355097722331965 0.16646579254655602 0.056495835100524264
0.13143264466868682 0.03341077247691589 0.1657509762422227 0.06738087634668939
0.03360448305445615 0.03953888928613428 0.16647512828743188 0.05981765073989389
0.7815764176468477 0.4057538067542088 0.16361438008061668 0.08838438519718046
0.7772052507673713 0.3464335113112295 0.16361438008061668 0.10316184344584944
0.7879005640795665 0.4234526722794876 0.16361438008061668 0.07432521457444623
0.7774386098291066 0.3267403095957838 0.16361438008061668 0.09103829310090054
0.7791175319382537 0.36858545750432414 0.16361438008061668 0.08623927962208906
0.7786241712747507 0.30393230506629787 0.16361438008061668 0.08876486603216989
0.7801759762875641 0.33672338805444424 0.16361438008061668 0.08920095163236043
0.7867432758818047 0.3754700680407775 0.16361438008061668 0.08757830758959086
0.7797851050121924 0.21758542597635974 0.16361438008061668 0.09372657238680043
0.787516899821999 0.15432607311500224 0.16361438008061668 0.08508034217160143
0.7890143206862863 0.34033100477569644 0.16361438008061668 0.09472600262141627
0.7908014328247099 0.29543565627417295 0.16361438008061668 0.07628289222500396
0.7916318571720304 0.40517471012677164 0.16361438008061668 0.06961295598176685
0.7923458516417071 0.16369403105241084 0.16361438008061668 0.08406163479108442
0.7942378315242734 0.06912177166418267 0.16361438008061668 0.06217905129223597
0.7924337816923829 0.13590737408035214 0.1636143800806167 0.08484591972468784
0.7858375822688375 0.24466842943617872 0.16361438008061668 0.07824606354601386
0.7804681897860083 0.2827187111789565 0.16361438008061668 0.08981676915382054
0.7893037743522643 0.12628599446606723 0.16361438008061668 0.09356372480900589
0.7896135018307106 0.21251268097373496 0.16361438008061668 0.08152783461378389
0.7906341135762923 0.29498200845502737 0.16361438008061668 0.07901303856150044
0.793737446211401 0.3139858348725148 0.16361438008061668 0.07509437182911848
0.7923067642170132 0.18412268503919263 0.16361438008061666 0.07360490242960091
0.7857736794380159 0.19908773112809325 0.16361438008061668 0.0866825936706172
0.792292100976823 0.25994695974839777 0.16361438008061668 0.078388619853246
0.793174964483785 0.14686220986721948 0.16361438008061668 0.07573968666355389
0.7825588887779356 0.1410033310454006 0.16361438008061668 0.09188112790909883
0.7893117602072213 0.09047728672536824 0.16361438008061668 0.07557785082417601
0.7800281249857559 0.16677407890735504 0.16361438008061668 0.08286280147166757
0.7736238907899934 0.10713396351713723 0.16361438008061668 0.10309557853375545
0.7788688855936599 0.09373094926318408 0.16361438008061668 0.08714613594205878
0.7719784752997619 0.08049551837412097 0.16361438008061668 0.101447132583506
0.7919129662572861 0.05202647561803069 0.16361438008061668 0.07028795407112415
0.7648199950921722 0.05036623598610223 0.16361438008061668 0.05308774277998478
0.7575615735431117 0.05998220624212668 0.16361438008061668 0.07053259498143505
0.7457619228924576 0.06237767457974793 0.16361438008061668 0.09111393325903636
0.7622638614099578 0.03869263819924463 0.16361438008061668 0.049477194784081316
0.7409420891544616 0.04414378651346614 0.16361438008061668 0.08443551275943635
0.7321120975939175 0.048164167398363406 0.16361438008061668 0.10508485371509665
0.7096665870574688 0.04788391478127277 0.16361438008061668 0.10116436487057623
0.7007735148062105 0.04528755360395093 0.16361438008061668 0.09718192115068404
0.6616404160108096 0.04724598982899123 0.16361438008061668 0.08992960655384662
0.7125813680089137 0.039476653570086964 0.16361438008061668 0.09176826542308357
0.770653979849835 0.0319059405222936 0.16361438008061668 0.07309783161863372
0.6392764601649032 0.045785893404341464 0.16361438008061668 0.08303144978200545
0.573280269806931 0.042357512654036034 0.16361440099968017 0.08043196752441086
0.6262971254122613 0.04033170107255926 0.16361439316651688 0.08268454652185998
0.6674805652555114 0.0355716763908729 0.16361439591641097 0.08206930682197505
0.551059199525109 0.0381137526459534 0.16361441840345164 0.07669227178663006
0.6459142393660834 0.03467207282415624 0.16361440388192255 0.07017407238504442
0.574088930552354 0.031517245454602404 0.1636144308507313 0.06968935670976509
0.5401100046487182 0.03353236503331737 0.16361443388374566 0.07362571172434428
0.6125406627102123 0.03448533204208921 0.16361441286633907 0.07200111373724302
0.6832786023701092 0.03789250209446428 0.16361438547373208 0.07743331460383836
0.505455660196287 0.0403898054479011 0.1636144187583151 0.09743633419132379
0.47630886086308094 0.03715540009888328 0.1636144370759173 0.08131566365531566
0.5152529796573496 0.04772491420684889 0.16361438153591285 0.10051336102458663
0.5132929346224517 0.047934400199580764 0.16361438067256376 0.10804433311374892
0.4550450642279597 0.0382935610292144 0.16361443404569057 0.054175898636988205
0.4540298397281022 0.03908667440523041 0.1636144322200279 0.05979956247871852
0.4414609842618777 0.03783861009118908 0.1636144431278321 0.04157089069630646
0.47845576976920406 0.048470153779031085 0.16361439529574162 0.10982872694568083
0.4285645464185662 0.035161404206874414 0.16361445831883184 0.04793372591548154
0.4647566386720758 0.05695484640210294 0.16361439180844983 0.10710933538596372
0.45089703390660835 0.05159539639383967 0.1636144130641502 0.061871507847197006
0.4522952340698522 0.07609374751596858 0.16361438165178652 0.0831303423317669
0.43725906573258216 0.048927482482118194 0.1636144313051866 0.03974226513384138
0.4346890549959776 0.05260219111323536 0.16361443057786101 0.04190473382419347
0.4403710430275065 0.06175127691127669 0.16361441312837618 0.05099065202200909
0.4412907665412338 0.07449376161255185 0.16361439895394525 0.06062290327566443
0.436428988332026 0.085331274500171 0.16361439780103001 0.07337929012064583
0.42809213601253093 0.13738196863018204 0.1636144187814396 0.07659598088179537
0.42450826279273773 0.07411053704936932 0.1636144514070359 0.03314773355159771
0.42851170518861414 0.15731262275592134 0.16361441415689015 0.06932560288525735
0.4316773743797603 0.24391775952311748 0.16361438336385786 0.05383802461759201
0.43166917309099473 0.09788477003075491 0.16361440183842343 0.06868905014740742
0.43040084967131365 0.11388125075504571 0.16361440584888745 0.08324734055664015
0.42395240824943586 0.04394867315486517 0.16361445864673924 0.04211137638976179
0.7834975416623564 0.4318503048363771 0.16361438008061668 0.0677413959317494
0.7740403955303463 0.41075773915058894 0.1636143800806167 0.09832753882867276
0.7851586680909239 0.44426019389637106 0.16361438008061668 0.05945626667795142
0.7595881564903857 0.4313477017283762 0.16361438008061668 0.09056812208622157
0.7727008763168959 0.4332680208006934 0.16361438008061668 0.08928795767403734
0.7885573868996568 0.4549694282362882 0.1636143800806167 0.06826242110382487
0.7741842182383062 0.46323825058439266 0.16361438008061668 0.060531624254836366
0.7876865620920727 0.4558649838312389 0.16361438008061668 0.06763736157941365
0.7722967335785016 0.46391057356024873 0.16361438008061668 0.06039048050587051
0.7673616997080958 0.4468157651297244 0.16361438008061668 0.06494258861819753
0.782679981555038 0.4709483507522434 0.16361438008061668 0.06579908238986373
0.7441425634650105 0.45017745111357776 0.16361438008061668 0.1116991924362994
0.7530318298895008 0.4563957027297041 0.16361438008061668 0.08285142806737958
0.7308797850909896 0.4597899934699867 0.16361438008061668 0.10917762846257187
0.7500894474766026 0.47179192078228077 0.16361438008061668 0.08255958166561284
0.7010442621227247 0.4645824697653851 0.16361438008061668 0.10046815823492819
0.7302947631446925 0.4713326088301395 0.16361438008061668 0.0899454357695221
0.6634596749046706 0.4657217766594967 0.16361438008061668 0.0864975274404931
0.7415960232115415 0.47537637673568545 0.1636143800806167 0.07191237506764157
0.7606005463868819 0.47676283733615005 0.16361438008061668 0.0723218095660655
0.6300315487475134 0.47343390943445524 0.16361440996782808 0.07045608474693854
0.6396514187031828 0.47676375847242936 0.16361441895814396 0.06601289401775552
0.7106420446652244 0.47512811489126716 0.16361438911622983 0.08696551492118683
0.5366119379545595 0.47358796904510314 0.16361444190402125 0.07663961364850037
0.6172285493409464 0.4700512956172397 0.16361440185277398 0.07327601007017841
0.661034981220398 0.46934632843982615 0.16361438455508265 0.08075153548945291
0.4796011240643535 0.4751893763586024 0.16361446692579362 0.06622370113640924
0.5701447464728568 0.47626106633529774 0.1636144404539364 0.0701531710156941
0.6023603071495511 0.47461644291080546 0.1636144235999324 0.07579548950963767
0.5659004755934087 0.46345620144711824 0.16361438497004935 0.08583349023222805
0.5086276280913025 0.46280624083442173 0.16361438624065364 0.08924848423393071
0.5194251200097376 0.46493949225119147 0.1636143989717815 0.08314462692919668
0.46772255319485145 0.47065157327102175 0.16361444218915322 0.07199887192363602
0.4804226067154857 0.46527154863294273 0.16361441040598912 0.09113722463000468
0.4315985955857843 0.4750179171508284 0.16361447916862915 0.05892721155173637
0.46606641807702237 0.4565130683097332 0.1636144007127594 0.08762762932022125
0.454376934419213 0.45549424282856804 0.16361440440593378 0.08547831060854612
0.42970765407463085 0.46196058482802954 0.16361442133781087 0.042395292774879176
0.4331960313607907 0.4488082165398874 0.16361438008061668 0.036901226856727226
0.43172728731499954 0.4400080654981811 0.16361438008061668 0.04572389045998045
0.426654601502874 0.3491180204158474 0.1636142538182333 0.08179682489232401
0.42430994843589376 0.12671482200836365 0.16361440962088128 0.07154563505784735
0.4274537517721822 0.20850562242571866 0.16361437404133747 0.07750826483346693
0.4245135251861987 0.38347371470924085 0.16361420592166304 0.07966980130932358
0.42522308685079796 0.19792356731719596 0.16361436128241025 0.07640390186957384
0.42503652917548895 0.23536481626626227 0.1636143295200025 0.050497625920454196
0.4312402817835867 0.25985083275513227 0.16361436896375256 0.04176666492240597
0.42891315126066054 0.2752422447830396 0.16361433448451554 0.0708610884315291
0.4257597821515272 0.36562870354361077 0.1636142320769719 0.07717887651787413
0.4233806437325201 0.1775326409472091 0.16361436007491031 0.07573332865893248
0.4248364277580571 0.2993905533161773 0.16361427633726716 0.07941651468458973
0.4238906391936594 0.3284703873855558 0.16361424404424268 0.06068055324788816
0.4242445509207779 0.07387549075307989 0.16361445131714614 0.032039856595443866
0.4241121281128684 0.08577174873500998 0.16361444052893057 0.05167057574520812
0.43744878137292087 0.41043513132873105 0.1636143601919096 0.08744372260989233
0.43117542796833924 0.3943513412840261 0.16361432121461694 0.09156722415608826
0.4329160533946465 0.3583778278019033 0.16361436992216014 0.07264774139809779
0.4202982233076404 0.2791497929499978 0.16362096678866503 0.047432101806010936
0.4182911823914422 0.06542450899533456 0.1636279264534741 0.004252209922492363
0.418809995618116 0.30804645127038116 0.16362558287338155 0.07637285578539633
0.42046091169241273 0.22618359808879482 0.16362060691800406 0.06625310918418399
0.4199755352938324 0.3929423052086342 0.16362205712426822 0.06489391004124594
0.4229244750769719 0.42594860898675546 0.16361482598680613 0.03230783215479257
0.42110019532315957 0.25274580064981184 0.16361883290656565 0.0330578840933542
0.4211006854503326 0.35773658956339954 0.1636191522056407 0.05649463139008239
0.41857655183867104 0.3746862627461977 0.16362730666525746 0.06481498356038815
0.41750955440058535 0.26215312811228736 0.16363360056317064 0.026456457663761025
0.41863529135692 0.3434518364827663 0.16362675847964223 0.06306210213877127
0.8075010361743991 0.48200858643910255 0.17161438139191884 0.123473019639074
0.8030908611051393 0.4273088660351495 0.17161438139191887 0.07391773161841356
0.8090547127388759 0.3203609290553764 0.17161438139191887 0.07959951618469464
0.804977731402629 0.40507371610130494 0.17161438139191887 0.07739030154907833
0.8048376620920601 0.3817510675648833 0.17161438139191884 0.06941425367753395
0.8048774809829041 0.33216437984896396 0.1716143813919189 0.07390917212044495
0.8073982273918234 0.26862371105879 0.17161438139191887 0.07664653293826656
0.7751739884399912 0.49494880101749494 0.17161438139191887 0.08883215000508954
0.7625048769183304 0.48937596853658394 0.17161438139191884 0.09088340181303928
0.6399514090766173 0.5007416294925676 0.17161438139191887 0.07553611355532908
0.6807958655135962 0.4985757400525053 0.17161438139191887 0.08285955606409824
0.7332167730481093 0.49056485276327355 0.17161438139191884 0.07782853989952178
0.5111283407288854 0.4981145412679527 0.17161438139191887 0.05920458274691949
0.4501945616193149 0.48691983822003937 0.17161438139191887 0.07398770143892935
0.5246604952450489 0.4976903389627109 0.1716143813919189 0.061006630841856
0.7473238969204843 0.48740670098684147 0.17161438139191887 0.07423180810862659
0.6204616295125188 0.4865657830338692 0.17161438139191887 0.06040331549314945
0.5890729885025161 0.49659229170088076 0.17161438139191884 0.06185015159970041
0.6089324736159609 0.4916710722972659 0.17161438139191887 0.07028331069833223
0.5134664958935624 0.4869454034709051 0.17161438139191887 0.058860365660125674
0.3179105133431592 0.48725873367273953 0.17161438139191884 0.05872057362128142
0.6310889180478968 0.49430326203723146 0.17161438139191887 0.06735747545525693
0.30419378304716016 0.4868169164137768 0.17161438139191887 0.04769007978644656
0.7123682887607524 0.49217295696277596 0.17161438139191884 0.08030492405492365
0.6940025632292824 0.49361362258538044 0.17161438139191887 0.06729129441305018
0.41657887605988103 0.4923661040799048 0.17161438139191887 0.0642293311372801
0.607367172020859 0.48686893747791105 0.17161438139191887 0.06617489815198349
0.49388214299470506 0.49803004134219364 0.17161438139191887 0.07096605551640552
0.596935518011843 0.4870254920688358 0.1716143813919189 0.06574061307454146
0.6596359893319832 0.49344548515162806 0.17161438139191887 0.061176854353234555
0.39419495726805115 0.4888483668694074 0.17161438139191887 0.062438936538791324
0.22718748535858577 0.4873350453422891 0.17161438139191887 0.06961112843052589
0.6706537172499853 0.4954201648006266 0.17161438139191887 0.06810345523660873
0.3570135402116066 0.4893702722651016 0.17161438139191887 0.060706488912680254
0.5648881300626439 0.49621086870050496 0.17161438139191884 0.06445942494724595
0.4035632613914608 0.4928752112155654 0.17161438139191887 0.06501327559352248
0.45230321277638075 0.4974794059496065 0.17161438139191887 0.06505510335919686
0.5247569110697375 0.5002740271071584 0.17161438139191887 0.06164329514596517
0.47164301024894967 0.4978863883439809 0.17161438139191887 0.06380180841953864
0.3740377097851366 0.4968595535164104 0.17161438139191887 0.07040682799739813
0.24284982930631424 0.5031307710057251 0.17161438139191887 0.07329068421170694
0.21798402934004898 0.49304442154068695 0.17161438139191887 0.08893559732157107
0.2719737348270472 0.4976553502444889 0.17161438139191887 0.07636242134035948
0.3023547786907249 0.49858642645426343 0.17161438139191887 0.05918920959167844
0.2926955128127795 0.49667130334105936 0.17161438139191887 0.06708747379655332
0.237118135278383 0.49248692752230216 0.17161438139191887 0.07731638345272258
0.26265612418401046 0.4919495440599545 0.17161438139191887 0.06512816622302038
0.40949126430896354 0.4997624166052076 0.17161438139191887 0.07275896649305749
0.46312355616554324 0.5046484367372042 0.17161438139191887 0.06930730202910576
0.329693199186482 0.49705568444722925 0.17161438139191887 0.05874177267283092
0.3646311028310346 0.4986057032252804 0.17161438139191887 0.07341016496475308
0.19270314343468728 0.49577545634476317 0.17161437939489785 0.08895189371391242
0.14507782099184352 0.4870624863194878 0.17161436887653453 0.07594582807138058
0.17159089234362626 0.49021062517389513 0.17161437563884788 0.0760233876753511
0.12701852868233154 0.4946954385388323 0.1716143759602086 0.0941675695126246
0.14437818679014014 0.49930374243263803 0.17161438034956328 0.08026615742346657
0.11637898061099596 0.4946471969283558 0.17161437680347277 0.09783879317044927
0.040344156269801174 0.4889095002083956 0.17161438139191887 0.06424506000918838
0.05172476615751508 0.48942526796250746 0.1716143813919189 0.07666165220007187
0.007701051925397604 0.4914136371793909 0.17161438139191887 0.12097012676452068
0.01428276386011319 0.4815993463011997 0.17161438139191887 0.0862888665531147
0.006832191442363018 0.43439320424966826 0.17161438139191884 0.08808199161054239
0.011656086655465532 0.23303592650161245 0.17161438139191887 0.0747891776005006
0.009082027890668375 0.41873461064242906 0.17161438139191887 0.08203215164036225
0.012568620316798378 0.31543990967558594 0.17161438139191887 0.0679429714429678
0.010537934093504312 0.22154026622332273 0.17161438139191887 0.09876649353977113
0.009810369213055732 0.32713568773195784 0.17161438139191887 0.08680140772293468
0.0109924463997559 0.14311253783609956 0.1716143813919189 0.08386850231933102
0.010067427628462166 0.21762058161839218 0.17161438139191887 0.09695676759893924
0.012399300369118245 0.31389511041404394 0.17161438139191884 0.06505178971389847
0.006996017827410441 0.03499257474437591 0.17161438139191887 0.10025703355871886
0.007076658698549403 0.045603580833044256 0.17161438139191887 0.09844924311416502
0.008887810973464638 0.07208432062014203 0.17161438139191887 0.07485828129515558
0.0118017811018502 0.08680915298850013 0.17161438139191887 0.0666853217428401
0.005201240857704469 0.09467801534674689 0.1716143813919189 0.08597212897451544
0.009887524025006018 0.19501527743348823 0.17161438139191887 0.07086521890518634
0.006123016452754873 0.04555041581635266 0.17161438139191887 0.09859594393478585
0.005656613483078792 0.17939797408767602 0.17161438139191887 0.08689894700888574
0.005009956930002446 0.44667871210574983 0.17161438139191887 0.08349953902462197
0.022092526314881254 0.023516387344418407 0.17161438139191887 0.0907484473362314
0.0468916207556508 0.022948129089723556 0.1716143813919189 0.055946627265048066
0.08040736884182671 0.0207910130533591 0.17161438139191884 0.07832926384251658
0.07102494109770602 0.018446104140780784 0.17161438139191887 0.0728400095341135
0.1872568115919398 0.01706185937531607 0.1716143813919189 0.07921869140833826
0.1783835702495166 0.011884351813317427 0.1716143813919189 0.08214130891594854
0.1577085055206502 0.017841641792246753 0.1716143813919189 0.08273265429869676
0.17005808664897293 0.018029928964694936 0.17161438139191887 0.08028669256056677
0.09072425268412342 0.022098839494558223 0.1716143813919189 0.08720975802289388
0.1467535266535947 0.02087875330080783 0.17161438139191887 0.0815670371796573
0.21836483347863178 0.009352347631464952 0.17161438139191887 0.07574249169833207
0.2765465339136943 0.011748242417413596 0.17161438139191887 0.07876942830964286
0.21523956704996605 0.020130438689465 0.17161438139191887 0.06254064376212339
0.28639343508685383 0.011583980266669378 0.17161438139191887 0.07163382728325524
0.3037662365817327 0.010432308551894769 0.17161438139191887 0.06724298635278636
0.4821927186920605 0.01570828828841122 0.17161438139191887 0.06822865842013513
0.6723134454802387 0.02220846795045417 0.17161438139191887 0.06811001532748652
0.3966630169763681 0.0204293685225393 0.17161438139191887 0.06215551038367784
0.5953929882729379 0.008258466122144132 0.17161438139191887 0.06339717016643787
0.2493443846222919 0.02324363486336897 0.17161438139191887 0.07656396455086616
0.7438609406408284 0.020608179770144036 0.1716143813919189 0.062418121943332405
0.5209735176852792 0.016113824766116457 0.17161438139191887 0.06133236326920672
0.38625340674020253 0.023411598747340234 0.17161438139191887 0.06198638920902339
0.6335833205753416 0.020258123254189117 0.17161438139191887 0.06558705125341568
0.5505518915400516 0.011973126958829364 0.17161438139191887 0.06416297054273129
0.47279289001069 0.02187375293779661 0.17161438139191887 0.06657261002025947
0.692756383242105 0.023448153018212466 0.17161438139191887 0.07531452052368157
0.6001324672421188 0.01825525392293304 0.17161438139191887 0.06447037592657968
0.6620994164044287 0.016263976002728046 0.17161438139191887 0.07567781868832557
0.6444376690728362 0.014472052093279297 0.17161438139191887 0.06765290208685466
0.43890142742609295 0.014488105983800164 0.17161438139191887 0.04901810139811167
0.4137881201078467 0.016716571014279393 0.17161438139191887 0.06609607551472164
0.43112320753596495 0.01867163775105983 0.17161438139191887 0.06342024249431533
0.5302171939760197 0.021966223098822166 0.17161438139191887 0.05714811332893553
0.5777099204243159 0.0233199771508982 0.17161438139191884 0.05303949334687184
0.4500498156079873 0.01944899217193857 0.17161438139191887 0.05907008101745643
0.3182238052296946 0.016425625376719738 0.17161438139191887 0.06600465286075684
0.4682453686512165 0.011662418214835811 0.17161438139191887 0.05941957287183023
0.5028185234124468 0.008529572923269564 0.17161438139191887 0.0765474420068337
0.4488876977974928 0.008739596161959528 0.17161438139191887 0.06526964333838944
0.25861218496814387 0.018004027185502598 0.17161438139191887 0.07961473664987681
0.396120444844436 0.008193440729546917 0.17161438139191887 0.07410230855051364
0.3598130785508982 0.011579439281754955 0.17161438139191887 0.057068977635109805
0.4299779899341294 0.008960914938235148 0.17161438139191884 0.05914691200608533
0.7808916829266546 0.023111672602161612 0.17161438139191887 0.07939388597678669
0.7105883870286149 0.0166159414399448 0.17161438139191887 0.08923576996037376
0.6766924852782936 0.013083424270948926 0.17161438139191887 0.08594848894588479
0.7551209955297505 0.019891571579591892 0.17161438139191887 0.07355695324390167
0.7309089658715555 0.013701321650308435 0.17161438139191887 0.08414751823461404
0.7906177918432427 0.016043685508376485 0.17161438139191887 0.08809507009642223
0.8011507973056524 0.01656788618756095 0.17161438139191887 0.11746689417625669
0.7938854801900974 0.02885785819265367 0.17161438139191887 0.08872322285986393
0.8039519275113725 0.3115886216017641 0.17161437662596488 0.06629573044573488
0.8036189750646328 0.2578151169794665 0.17161437141512212 0.06420713589875134
0.8065869806503064 0.12357657290327574 0.17161437341458888 0.08909237784420197
0.8037105160028106 0.14599999552049353 0.17161436367632596 0.08170344046213221
0.8042199388084816 0.30062918073265954 0.17161437689072062 0.07734779638343657
0.8043514806558641 0.18116311927041176 0.1716143687556681 0.07419102654800422
0.8025047350813967 0.2219496784381417 0.17161436441535094 0.0785518244824417
0.8050646675593532 0.19379521003945563 0.17161437248805303 0.08062799956694426
0.8062839603066001 0.060087084949098056 0.17161436761811427 0.08077943588793382
0.8068041013625743 0.026915693109487562 0.17161438139191884 0.12486292098725664
0.8024636739082553 0.04067454312367979 0.17161438139191887 0.09139230390679491
0.05021373776036484 0.39734977797574683 0.1663524398479781 0.036980085534582804
0.11938569249676587 0.39615438867846076 0.16584026634829763 0.06295517318187993
0.3126627538556355 0.40034208082986855 0.16440917495726542 0.0009009983034814909
0.28609094417664044 0.4008025007283739 0.16460592198874657 0.0005082294174957335
0.14838168855987882 0.4000518646986683 0.165625569787575 0.061516194557643254
0.3975443209112543 0.4003602368954294 0.1637806819585796 0.001963549052507998
0.35479309316977187 0.3997333075572841 0.16521596158132093 0.0007159442565228299
0.3647209382527989 0.39921272588453116 0.16539813231470646 0.0006805316305413295
0.07751811349874076 0.40159223062455474 0.16635600627264058 0.058880554919604935
0.10767145676640386 0.399943268927 0.1669426163291735 0.06656634520421963
0.1941849217019231 0.39475405763646076 0.16604422278991654 0.05846672169050453
0.2406419128347472 0.3950137195176647 0.1658277693099423 0.030131264929626343
0.30550974111387863 0.3941319512527084 0.16491439290016843 0.0007538967591326125
0.17491047330515908 0.3974225174186977 0.16692475594357534 0.06111234131751462
0.05069565136276921 0.39881546620811226 0.16784448635488877 0.03556932472179489
0.06546730697836405 0.3964803613967536 0.16773511179972164 0.04509705313270902
0.013825811338078975 0.030000150203704834 0.15920034237785757 0.10296142241221141
0.013325548273895607 0.19151598191374192 0.1459143784832122 0.0920518230264768
0.014206163428025114 0.031493617788379 0.14591437848321218 0.09652481418982743
0.01416219564552862 0.3855593021836617 0.1459143784832122 0.09002477394919454
0.013633132831215075 0.30938376538328016 0.1459143784832122 0.08847658510323186
0.013980265845513623 0.23363645780072706 0.1459143784832122 0.10121389606427016
0.013050440145821013 0.05496223440502825 0.16982347762064431 0.07059750700569006
0.012476854700933621 0.25431581910202117 0.17030478119070236 0.0705216932836373
0.011793127235909811 0.46952155509204646 0.17087850647051187 0.1003662900569689
0.013589766249822279 0.29460686988668494 0.1690339095526105 0.07081832852644289
0.008482791957798582 0.1809441485034916 0.17091438444367668 0.0846060118908604
0.008130145318713223 0.24225006050827252 0.17091438444367668 0.08547369378306549
0.008581370099640034 0.3747852712696399 0.17091438444367668 0.08830474909411393
0.010622858407877262 0.2665095584044419 0.17091438444367668 0.08389815875748355
0.010549942462150299 0.28414455414302914 0.17091438444367668 0.07496688974856386
0.014250367879867554 0.2671164872267096 0.16157983276818977 0.07821158521692456
0.014250367879867552 0.039992692331728516 0.15847439553842824 0.09026165194388146
0.014250367879867554 0.06945646995308322 0.15194856724185551 0.0750588878388672
0.014250367879867554 0.11608207369568103 0.15877885390944557 0.07361282463394085
0.014250367879867554 0.09138686449416245 0.15204412875278184 0.07432965218078921
0.014250367879867554 0.04455010446152409 0.14696651107676928 0.08566066097816179
0.014250367879867554 0.2165250600461061 0.15976907921815134 0.07534510761609363
0.014250367879867554 0.3598690908262095 0.1613715233552523 0.07471134624835393
0.014250367879867554 0.1420561516308161 0.15767938170600113 0.08940537141633198
0.014250367879867554 0.20748592669410493 0.15509165037427664 0.08707653919670212
0.014250367879867554 0.08251822826843172 0.15785655397007756 0.06398024575986992
0.014250367879867554 0.41150966938199623 0.1633780782086986 0.07654154830082158
0.014250367879867554 0.06866308396098739 0.14865884230879434 0.08431335528175632
0.014250367879867554 0.2561916039166936 0.15729273191711524 0.06660183949630864
0.014250367879867554 0.3821987549947799 0.162895027495428 0.07475264022852982
0.014250367879867554 0.19542729930631308 0.1607757989871554 0.07082931699678813
0.014250367879867554 0.1620919354637198 0.16112485703873747 0.0758841642263272
0.014250367879867554 0.1285680287575463 0.1595698737996997 0.0751360148943163
0.014250367879867554 0.3725476770526765 0.16040223235513099 0.08030280811391896
0.014250367879867554 0.35287077778454023 0.15620655761242158 0.08722065118602593
0.014250367879867554 0.4048548257963038 0.15082321026443965 0.08909597604129446
0.014250367879867554 0.124827529330852 0.14982458452041053 0.0855485902021568
0.014250367879867554 0.4350026858704655 0.15887462949223055 0.07190181650582125
0.014250367879867554 0.47910860496295404 0.16336917836111192 0.09019823275351702
0.014250367879867554 0.14615788836301052 0.14682904035957695 0.10326605518771738
0.014250367879867554 0.24568053695232558 0.1459404997586582 0.0904711216921023
0.014250367879867554 0.34728557983275143 0.14726341710515997 0.09525298104329896
0.014250367879867554 0.4040474733531532 0.15005913721239295 0.0894563212166572
0.014250367879867554 0.14807422559836886 0.1474764811405873 0.10281694584530608
0.014250367879867555 0.41653549306230003 0.14817659773657252 0.0959241711262033
0.014250367879867554 0.4134438616088706 0.16071706736076863 0.07940493813879596
0.014250367879867554 0.3466018689036449 0.14733328526717235 0.0908947643396101
0.014250367879867554 0.41985763194761394 0.14987195943046921 0.08646678228354596
0.014250367879867554 0.3349270513802197 0.14882653564529297 0.08607116687876913
0.014250367879867554 0.17095736375287113 0.15022406242752562 0.09719900167842908
0.014250367879867554 0.46102713938763923 0.1618463291338508 0.07881453078609778
0.014250367879867554 0.43080037764735785 0.15106409143548646 0.08002439847335834
0.014250367879867554 0.29105377490734324 0.15500184517938032 0.08241074768661806
0.014250367879867554 0.26820780033400204 0.15017142772883024 0.08954466496651194
0.012664800515460733 0.36647975026693175 0.1685079127814723 0.07848673920180502
0.012717351869818604 0.45334216509276887 0.16819848802290338 0.0694449442401738
0.009684924201022635 0.3429632561368054 0.16991438241711876 0.08652588885738274
0.008292481055769053 0.418727298316525 0.16991438241711876 0.08296639400690117
