x y z curv
0.2469095737162435 0.14517254465069085 0.07381484687653984 0.02038419736512745
0.24702964302871133 0.1715224694093676 0.06743950685081061 0.027514233366462224
0.24760021319506267 0.15742838145682936 0.06735647635447782 0.02443886571619224
0.2501874101303998 0.14692219687177277 0.062243117801839984 0.041152647019403306
0.25744523452834334 0.12435757202586231 0.054687317105577185 0.03366412789855734
0.249842166533719 0.13309404524379315 0.06442769063981282 0.0317190469212717
0.26703712371854954 0.13025387984510392 0.048271236868393984 0.02699939818461258
0.3915257918837166 0.3238269374027689 0.06808752400940227 0.025414122987719338
0.385291917688152 0.37078583872617416 0.05875641781668181 0.03805059055083636
0.39050186496439987 0.36431886206472575 0.07014274278347545 0.020249971326261825
0.3847147864609734 0.3519215528667937 0.05639094136149455 0.04884841001017017
0.3863527827484453 0.33179614641835775 0.05625089850740032 0.04490422913275867
0.3815369784725541 0.32414750749019505 0.0506513130521202 0.04379836248717899
0.3803155409896293 0.2895517278084823 0.047447449495719426 0.04122146309912796
0.3804407492910884 0.3620109500665135 0.052909343332030304 0.04673923160219884
0.3693675498241703 0.29577030695917683 0.044676865446671335 0.03513241553932795
0.36926908986803697 0.31625342806375645 0.045190946958954634 0.02694585355979136
0.3651672750674563 0.3549629120230188 0.0458712102684105 0.019496373226790573
0.3914425409837984 0.23234037129420548 0.061705299780205114 0.027992223122225345
0.39176689262711506 0.27283043371166815 0.06294310549505866 0.03357803187129304
0.38810555054550666 0.2666578747316577 0.052601819169090694 0.0305688153759881
0.38656417031513246 0.13496975656280752 0.06143304570406976 0.032038328000716584
0.3869548665373042 0.12341858455290512 0.06339200604270502 0.022305950962321647
0.3874216570785828 0.16643042831994742 0.05928969886999269 0.043349416601798155
0.39096845795248497 0.17526805667541745 0.06680019536767998 0.0266572044616421
0.3901955546643735 0.14166932639088822 0.06908333019789095 0.02182177927100493
0.3855979352755328 0.221277600628391 0.05126690590904318 0.04506605910064091
0.3784072441460035 0.23435916001153198 0.0459225951550859 0.03772396548125312
0.36966222703484297 0.14257049129766192 0.04727683505513503 0.03567807432563037
0.36998700861096695 0.16422572715164957 0.0464003244006371 0.03791128898883857
0.36519201593487655 0.1299557824723041 0.046605549012403075 0.023435485717578645
0.35941737514654504 0.11881888378171496 0.046408070391672 0.016279804220957754
0.35373572155325705 0.13797740635139477 0.045835252722638775 0.008025970582193785
0.3441055032928504 0.1721116073158814 0.04509206233319482 0.00187919457266878
0.33344614507507087 0.1879740963279784 0.04471511441312055 0.00118826298688474
0.3426648964510943 0.1541240235942339 0.045447808648887485 0.0010002621179164778
0.3377485836319825 0.19813459751267914 0.044532068793634576 0.0013889993675776557
0.34874474779396225 0.11401992467906001 0.04629774497361183 0.008424973326855299
0.3390411096889746 0.10555392190529353 0.046436364825860256 0.004831306745583678
0.3328389625558524 0.1586782453204487 0.04531591399339302 0.0003982650200407351
0.3333583749460881 0.17303632674068586 0.04502128761692881 0.0007249734160535334
0.35485213317453146 0.14873581532006008 0.04562700234323668 0.009057871304065676
0.35096313508245436 0.16506443101430923 0.045278289313924976 0.006510344105154468
0.3564158533554986 0.19384719525123867 0.04486114621963903 0.010029154662199724
0.37588555004543683 0.18896734244316182 0.04706319112278622 0.03969033260224194
0.371770584219631 0.20878741386972435 0.04505359683437497 0.037377659526137384
0.3313130928644095 0.20875508170229284 0.04108256010023564 0.0011921248022101203
0.3198810430889292 0.20473274633619898 0.04140963372307382 0.0008681478672361563
0.30915029861664284 0.20796608655258159 0.04110573474267536 0.0011144216645307865
0.2962923794753856 0.20998787870204882 0.041442890146903416 0.0015606454693133103
0.28564716395887685 0.21091065534592274 0.042202909784892884 0.006693828836675417
0.3683832061631595 0.24552345791770064 0.04146605331954565 0.028040433720896703
0.3628006997993661 0.23613621176551064 0.04007607002205395 0.016614842663960343
0.36699658550882713 0.25695516785633804 0.040090827824523036 0.01845214329324441
0.3635265617738681 0.27179795638677534 0.04007375311360158 0.021488775305918865
0.36777392727612346 0.26935024412915265 0.040568739658107214 0.01937714044694846
0.35539251146716366 0.22262088256924206 0.04120569221498968 0.006325364333065794
0.36165688924506934 0.2842492579647177 0.041634558078329234 0.02024252849981621
0.3540917322946305 0.2985833741206042 0.042285080609312006 0.006359900512397275
0.3398020939940303 0.29926242226817085 0.041259728432712896 0.0012693157612200803
0.37182228204581463 0.23106940649237384 0.04198193653290628 0.028579708357942428
0.3981343574830979 0.24473165243823103 0.13829228607658003 0.07223742222980661
0.3975531094717098 0.24781012006061792 0.1298606271841779 0.01827015959580517
0.39926529332242794 0.26285094965797245 0.15406321237821172 0.1093296449996629
0.3987505025174255 0.25543280621878434 0.14686260733600645 0.11025877595003235
0.39685092051465454 0.2385429846352645 0.12001639170944658 0.09052001232086286
0.39591297943348325 0.2408095905307054 0.1064815904893245 0.0003079799231287632
0.3966107320235567 0.23767599356560268 0.1165884897198616 0.0003181094703096735
0.3954160628798246 0.26620881062746665 0.09906545435363576 0.0002928751076229131
0.394408466264261 0.2659553625763521 0.0846862227648342 0.0007273222965494963
0.39535940356469057 0.2505320995980734 0.09830941218933227 0.00030078095375093094
0.39345722554155654 0.2501735170470432 0.07116336678312891 0.01479326518807687
0.3942113206287192 0.25428603764643665 0.08191176584395285 0.0028481872469944686
0.3960017130347021 0.27901088454839246 0.10843623963490845 0.0003076661665419077
0.39695374416881657 0.2712298312677678 0.12128569435671917 0.0465146032642596
0.39500961197535905 0.27535299690505244 0.09389000269026895 0.0003043834781733416
0.39791530494120225 0.2741966048645657 0.13532731365954268 0.1016577724648851
0.39508858480755027 0.2775667948742598 0.09523678966447086 0.00030506315911114196
0.39735091122011273 0.2826301771501378 0.12811679253059272 0.0756876481402987
0.39905074834009197 0.2911729886369677 0.15333419142012986 0.12067666778333369
0.3966715671155595 0.28505250850384023 0.11864067428480174 0.00030460915435502465
0.3976242791963261 0.29171299315954136 0.13296749435417363 0.14538020797286233
0.3989188680397743 0.29013861505960037 0.15133939067512442 0.12634638257062328
0.398525842949927 0.2811898520521888 0.1447894164048003 0.13940162685256907
0.39609217791107265 0.28955026673550915 0.11080968127414251 0.00031918830800413953
0.3970386953885372 0.3463773761487016 0.13729415646269516 0.08582893865751735
0.3965178377268791 0.33046022161984745 0.12486601655098696 0.0010948289324098632
0.3974354877106886 0.32690337439272943 0.13687334597259304 0.11263731634013928
0.3980073985348964 0.3514397602738208 0.1527286828550395 0.11742976248277082
0.3965182848956913 0.35563970348076596 0.1327512174922308 0.05101814186276029
0.3932159058670498 0.3393560671217453 0.08043844571542827 0.009399050178951636
0.39427981732651285 0.3480077102286352 0.09835727716341824 0.00035932602737229706
0.3956459650146116 0.3475862094584677 0.11775894954346233 0.0002764791663380151
0.3945542174237221 0.33646753749831315 0.09867027799017018 0.00027407385759978877
0.392760394062993 0.33419807096831455 0.07231169239852829 0.019440639466070116
0.39262368658088787 0.35704809922417513 0.07750584506629457 0.00853642067792815
0.39584841244625363 0.35769295419164276 0.12381558080260882 0.000283697345809397
0.3931920276846407 0.3487202274895448 0.08302668915553632 0.007894543391658501
0.39345729132014684 0.3546939451623012 0.08868842927356493 0.003252842870809549
0.3947559369056196 0.3831293096364103 0.11897718267687385 0.002039027808968858
0.39614292329191997 0.3865726167215045 0.14029775254996243 0.06026462014774931
0.39610204773589675 0.3763534332008681 0.13533131441230384 0.01829670267831248
0.3959852618656887 0.36833250427217507 0.13023739981612822 0.013950840962035194
0.3939420688812882 0.3603763919680308 0.09766866752654703 0.0005116633079422185
0.39385585453263205 0.38336619589686644 0.10620365522644906 0.002121968263004449
0.39307799696233636 0.3667372976488022 0.08802692157625713 0.003429730284146801
0.3944570987674058 0.37096570979467036 0.10952491790178799 0.0007122444190950461
0.3967358752251276 0.3680308864881886 0.14083242661554002 0.04888014220691243
0.39514675745293504 0.37177343772169247 0.11972043178068174 0.0005002813865674837
0.39309668501984574 0.3674297423718041 0.08858806420452213 0.003431839396291765
0.3927946420938211 0.3808027120783716 0.08993354507144512 0.0024019048884818474
0.3915891545802982 0.3927580677591451 0.08275262541174078 0.007043438132137034
0.39018403531810275 0.394895841665789 0.07141561839919477 0.01888078581456155
0.3817170472819511 0.41776529693698705 0.06856887597612538 0.02141076064293148
0.37491843567910965 0.4257851160492189 0.0652824741670461 0.02383099819874553
0.3674958102696425 0.4334952425055847 0.06470625956047521 0.022221227970154377
0.352149057315823 0.4443872466032214 0.06463370176570117 0.02787038980073568
0.3392555979629108 0.4467129323228245 0.06035300883258961 0.028667023377181997
0.3414632972409614 0.4519384288561889 0.07077506991715286 0.02045462584059657
0.32626100729540214 0.453235085958658 0.06663648800900882 0.02239191149359689
0.3146564486189991 0.45164298037407813 0.0635613491215366 0.02449011343816023
0.30073398072709334 0.4486631915029524 0.062342487122435924 0.026744460140479837
0.3057841727273151 0.4548600656283903 0.07303817622912734 0.018376825716810364
0.294319779869625 0.4419083943341544 0.05675774110239169 0.02757597399822829
0.2825786320524606 0.43144672390461775 0.05364919239850286 0.029198007750008942
0.2808522297698904 0.44487507654250386 0.07160958121488173 0.017700799567201473
0.276726695955198 0.4373125604490598 0.06275474982883054 0.023030492107515618
0.2750236302701146 0.42674514266466707 0.05452204552685129 0.028427170495999552
0.26690544431586205 0.4267880533490047 0.061318258253831116 0.024807784090429642
0.2642538843205352 0.430503780888565 0.07105340356656023 0.018094630653951584
0.26271080434136385 0.41577122244271236 0.05731613026555213 0.03437184640283621
0.26516358890946307 0.40607053381827 0.051288049441968464 0.03263280970596771
0.25347728607455006 0.4128066480103758 0.06988507964586846 0.021465772202110347
0.25345883715810197 0.39723748559906125 0.05937611235137881 0.03048488011809393
0.26101474361346244 0.39688191581640725 0.05201097988140482 0.031055115629715233
0.25085684680853076 0.4036069346966717 0.06719705653232161 0.02253806053359893
0.36821889235749594 0.43721597086116204 0.07382484383741122 0.018936173031454805
0.3627853999466483 0.44251627067858035 0.07739465226305477 0.015176863233662019
0.33202711291183523 0.45601569304499845 0.07799095311376716 0.01299779554557238
0.37671917359959806 0.4287312777855233 0.07707686405502301 0.015269524761414075
0.27239670954786777 0.4400548676578775 0.07608347990961775 0.01624758165702892
0.2556744669441054 0.42032647151001634 0.07706338773890073 0.017364430179887504
0.38073539092327807 0.42679109947971927 0.1060766170393048 0.009176310801925202
0.38267554273176463 0.4220626852016657 0.09564915293601065 0.007860749523284813
0.3829463381831985 0.4243347704804663 0.11659199204493052 0.009090961774588598
0.3847209523806582 0.4222942293495805 0.124523152686068 0.007633598884125534
0.38673206491154216 0.41129536358220825 0.07777165574349633 0.011675476004193027
0.37487405197990864 0.43403789997208275 0.10691064564500025 0.010390328016878538
0.37027346354888435 0.43691922589766474 0.0847085550694944 0.012527749909353268
0.3606850789519779 0.44535699706760046 0.09049916210189488 0.009249087349187727
0.36411935916636573 0.44377732521053925 0.10372373069803544 0.010384177693425197
0.3690514807256259 0.44056195695852757 0.11226656293792231 0.009065040316524218
0.3500113253509841 0.4507769549254341 0.08214046048816975 0.014729927022177429
0.3548811865009723 0.44969729204952746 0.10136827371396093 0.01003280372499277
0.3379877060517362 0.4569332391462106 0.10908536692147983 0.006757822382305182
0.3282608869467826 0.4587653860306262 0.10728894681996269 0.00907788492697067
0.3943767592044102 0.39249730935362215 0.12480149770209259 0.004224265307137926
0.39322142437013163 0.39470783885598826 0.11228079561282937 0.003600659360904028
0.39278770600566665 0.3892341442296336 0.09667766713204773 0.003534360691558465
0.38986862206664513 0.40257196546555735 0.08274092728253571 0.009722581665542952
0.3894599446638821 0.4099347747258951 0.10813538951822353 0.009008490238045305
0.39302866687382215 0.406895887679534 0.14374547787523617 0.07353576302315447
0.39285466661134694 0.4047086230872448 0.13305828551263865 0.02759322318398134
0.3947455567067012 0.39495650033007157 0.13454060242417504 0.04172903373152166
0.39531548954351087 0.3972428611601657 0.14714630608762078 0.0863543792583503
0.38101146512902995 0.42919282056039393 0.1295863921756204 0.02804359338814549
0.38162931832381847 0.43002814039923326 0.14377263498537268 0.06596906399123685
0.37904426175461714 0.4343721341383834 0.15284346094866674 0.08059416565927806
0.3872638799400646 0.42155066218360815 0.1499152319206502 0.0766848100710407
0.3680971709397063 0.4434572003331515 0.13535260627051876 0.050384923413614655
0.3623767641714098 0.44702033335259506 0.12609743781998423 0.012957032322787224
0.3658076605363803 0.4478245122651594 0.1618850888271941 0.0964248587658823
0.34931023113932413 0.45599682045419715 0.14654980468064263 0.13120959838471877
0.35035222814139655 0.4544582555139398 0.13369412478420803 0.104960229961469
0.35130950465860644 0.4530959105923779 0.12364230797802184 0.053538200988892205
0.34220687822830875 0.4579345916665989 0.13831924827760067 0.12116611697842353
0.33020367614546936 0.46012110790717076 0.12944788324850137 0.08884369029035924
0.32435306328183944 0.46131916928527195 0.13818245560661488 0.09466433735314883
0.3219230788370141 0.46238117492240866 0.150481491816296 0.1145270727768367
0.31964939081802307 0.46058408393368966 0.12321817658628405 0.06608607409863669
0.37189329640647395 0.44213674828605604 0.15405233570598528 0.08446079962529815
0.3585395183011256 0.45056187133788433 0.1369289342855281 0.11398714770515893
0.373624694559397 0.4393790707604904 0.14349340108012118 0.07345288686785396
0.26678136029777755 0.4389966482469955 0.11478606735741526 0.0077715388263616654
0.2660703915950481 0.43614265223394166 0.09256723576946417 0.00903901869194161
0.27786979186738414 0.44632289302804795 0.09721618330094159 0.007944391554114832
0.28030825093454087 0.44666012140980427 0.0828167834338102 0.012091798714150177
0.28758172160031403 0.45085195929568145 0.08596482701465834 0.011157201027612071
0.27933982985375083 0.4487926021295794 0.11600407155572551 0.006934728520649088
0.2899362743598756 0.45401836517856864 0.11443301829360973 0.01067947883780546
0.2826190877195225 0.44973020535683395 0.10554318427694528 0.010867588708396077
0.27242226678067266 0.4429024933830745 0.1072394281120343 0.0076858913971900675
0.30621558297640916 0.4583299578940418 0.10656624943335417 0.009786448803202187
0.30579863915113425 0.4575423090498501 0.09666763292200627 0.009456989489260596
0.3168306611265253 0.4578608019299097 0.08438935365547419 0.009548684013237184
0.31018204987981446 0.4594709236371629 0.11799540979997923 0.04222095443704855
0.29350487809254766 0.4524021413422505 0.07646863870829188 0.01605806152155023
0.2972928362512248 0.4549916661590128 0.09061353057637692 0.00955536980180001
0.2954696066247289 0.45533357444056377 0.10396660173334964 0.008573304400864226
0.3005869491150043 0.4572946822401034 0.11222429066244781 0.008272140035291217
0.24801366263918215 0.4010503947105593 0.07878089500761012 0.010273937934258516
0.24980579587805823 0.4093740314290833 0.08813876705458035 0.00884353782243281
0.24744656510965157 0.4064802982411344 0.1103700089821357 0.007692281975053677
0.2504174543447902 0.41368942282590637 0.10236414485495597 0.007939230977690665
0.2508361389907112 0.41024640781750693 0.07874603933677404 0.01373209045303815
0.25927557473685037 0.4281688721414878 0.09404989081791784 0.00864112307621957
0.24990316346106756 0.414754932309248 0.11489426807350306 0.00800381925914309
0.25366885406587036 0.4184826446812786 0.09060946369730842 0.009326864707008973
0.25484780093665826 0.4220988264012211 0.10191965222351686 0.010148436015591195
0.3210755018428958 0.4584628619077965 0.09341291596835949 0.007450837217249777
0.3077144003533658 0.45993970465751577 0.12719289576075296 0.08329622528273298
0.2835716335513395 0.45195206468467664 0.12850275407702422 0.06034156362160475
0.27366426761785245 0.44500899736713406 0.12136694097517507 0.009550571346247842
0.301527199291505 0.4597456277714783 0.14106600484891457 0.11198362857156258
0.29205217669830513 0.4573583918374703 0.1465805458043827 0.11487961127470711
0.2664567160788475 0.4421832226823649 0.15213533860793033 0.08447409886260358
0.2804215598375961 0.4521694114210304 0.14999936823608834 0.11327490308005482
0.2532358841257472 0.4255773151459461 0.1456783816561416 0.07236159001735518
0.2614222143666207 0.43630102461231285 0.14482442787765692 0.07078315251535726
0.2556040541087238 0.42624806336451837 0.12284040407610768 0.008242039061870763
0.25277707860404425 0.4231246710602127 0.13517956031572778 0.042609158014976466
0.24838611439394007 0.415469562563267 0.13870801179009376 0.0850839330504312
0.24419238067533383 0.40662273723321274 0.1531345755871573 0.10998506643026205
0.24886954147127135 0.41461227161053776 0.12756119925930942 0.01401206414713598
0.24605814176131952 0.3811091024977754 0.07785625242548273 0.018802605030328753
0.24567113611513738 0.3716570772821128 0.07950727653974927 0.0057382404886868995
0.24519693042198246 0.34614487782302267 0.07692892215220415 0.01968645126326156
0.2447687182559327 0.3863100914174143 0.09859939499842102 0.00224469718556334
0.24501590171424154 0.3690450649726209 0.08838204281876112 0.001961329069193084
0.24402323272405077 0.3772872393530333 0.10576370294487496 0.0010955189742747247
0.24482673317522755 0.39737172886030125 0.11624222734927053 0.005805999092456892
0.2405218720935754 0.3656371715842144 0.15106428419426798 0.10632824142043021
0.2416636933646465 0.383701768445474 0.14193857050230696 0.09808459242888175
0.24054554781765347 0.36626483543933386 0.15097589361338487 0.10636328700573074
0.2411511790536757 0.33753571133293647 0.13208859416753257 0.05990799139005465
0.24221216973858894 0.34396695942958494 0.11920731535329387 0.0002634251460409092
0.24252242923465722 0.3670755919074758 0.1235216575304025 0.0004315399186839157
0.24275710245313994 0.3391794896702665 0.10951143411156447 0.0002795009937487737
0.23961444188627923 0.3382466604957614 0.154562534291623 0.10601235551653654
0.24191233175161633 0.33404372087044665 0.11976186176451863 0.0003087492051446313
0.24377457209844333 0.35244062570233053 0.09985898757519505 0.0002642688431228165
0.24354337684474614 0.31957752123354366 0.09276799944745114 0.0008881351273296919
0.24384701800544661 0.3293155183251312 0.09090085269148963 0.000984492687117437
0.24281723067895084 0.3265991863860772 0.10489022120324877 0.0003097130132539924
0.24438912259888196 0.3208593380530694 0.08103902710960291 0.006463605616101996
0.2425400780800488 0.32449219848877797 0.10830766635613326 0.00032251331170915433
0.24150762693959874 0.32139277812691575 0.12223821911701112 0.00033996419419111853
0.24445198137508697 0.33623950350352616 0.08402864664506396 0.0056922890243978124
0.24493570294637035 0.32921664856657407 0.07536093712886849 0.020680852944673554
0.24078920870001838 0.3269725881543764 0.1338860598960568 0.06731831480451733
0.23938237784188773 0.3247024676460807 0.153438636701164 0.1180114332788658
0.24251765048057733 0.3121679114914994 0.10572779781638698 0.00028265119640444964
0.24430036726280155 0.3109479545196423 0.07989109458565706 0.006683830827185045
0.24114092793361103 0.31078202748619166 0.12517142268400927 0.0003175414315165823
0.24023833255290428 0.3082182741854492 0.1375569680303303 0.07251864840704969
0.24058477903792008 0.356142323082031 0.14680540237476564 0.10975175371431568
0.24149400109503574 0.36415117350058707 0.13715061580108356 0.07761794386904382
0.24108198606466932 0.38758021259646147 0.15181097148512707 0.12074729778929318
0.24079187404845281 0.37743537809909933 0.15152474883519138 0.11033830660104343
0.2544289476334335 0.38850777489093435 0.05681573354548674 0.03285045741246006
0.2547712069147898 0.37923529472411444 0.055661611530535865 0.035421315556087095
0.2519096670771895 0.3693513743298253 0.05821804962335167 0.030606537127480585
0.25130338423262766 0.32581521072374364 0.05450891213743398 0.046965008163196334
0.24727636389540325 0.3641278598976941 0.06703308038745721 0.02719204370267611
0.2453790112375507 0.31528471687492604 0.06707776804246324 0.030012770629637565
0.24509779419433605 0.2933323646397442 0.06571641585658548 0.03321877737981653
0.24397091664093576 0.27968892200262496 0.08028452584679224 0.0067834070380974245
0.24252133200746312 0.2807205083454746 0.10108490570418605 0.000282212422522933
0.2398370083126285 0.28050849544197204 0.139397370909379 0.08648206668341768
0.2406366603171104 0.2867209578428937 0.12868592757323374 0.045693516847048254
0.23907636927795461 0.28228891383311305 0.1505094704766493 0.10699744525488017
0.23895600735645028 0.281922841915948 0.15219003888664565 0.10760146226161418
0.24000590116383996 0.2934972690621618 0.13854100242842682 0.07768398649917575
0.24416113041057044 0.2904725725869216 0.07863520576183758 0.006754893141259583
0.2383875643011742 0.2705260186542387 0.1593393726120913 0.10448775689188014
0.24167654691174345 0.27135182207913355 0.11237929266928293 0.00030093220362903064
0.24046902949473947 0.26558485338922355 0.12926520313604117 0.04675648821107392
0.24452465980060578 0.270413218335506 0.07160826051306504 0.015700718367339203
0.2437114445948915 0.2696264602663083 0.08318101193314015 0.0012791565718985646
0.23974922846206964 0.26069484026118844 0.13943406414739015 0.07690432925563928
0.24457090426039543 0.2594940942910715 0.07082621275908754 0.011067600256297208
0.24429074276163595 0.24787482621169904 0.07486187226334429 0.009460152906961018
0.24135090744095053 0.25067972829524365 0.11668419754758838 0.0003066334704039531
0.24046364544194776 0.25644232711375975 0.1292857515713243 0.043018026067190906
0.24176051615573504 0.2609594507592171 0.1108121332600456 0.0003231704758976087
0.24360220681663602 0.25052530081851965 0.08464864222024543 0.0021755012700626474
0.23874132127563613 0.258567300274924 0.1538286369250168 0.11416996278042543
0.24337881592652535 0.24097732188206372 0.08794173049125702 0.0008732947761380789
0.2393623613147168 0.25207729844491195 0.1451600763908448 0.11329246807926169
0.23933599696090735 0.24190595487634414 0.14591928928317383 0.11096007722626902
0.24279613353718194 0.23929213345748562 0.09636602477721933 0.00030356014665148406
0.24195056218150965 0.2343707025445927 0.10868382938649013 0.0003254574788386972
0.24023310448920165 0.24622525107812973 0.13288451643741392 0.052273482267812525
0.23997179342436006 0.236617932367936 0.1369939698605062 0.07816798361080157
0.245024906211678 0.2350638989898542 0.06463353202635982 0.02658542941176255
0.24577570201486965 0.272326425604814 0.059569513156261814 0.027056850953487963
0.2480396981809638 0.2922653490567892 0.05579760046892268 0.03639372818271649
0.24547986872176256 0.2622266917771051 0.06000217858505405 0.028944278149477115
0.2461489285115009 0.1834941391434131 0.06459367834788131 0.02727529734431902
0.24733811060536648 0.20665095681382883 0.05811134746841842 0.040461296429728705
0.2484369850449004 0.21666366101238388 0.05521162105002614 0.04673028132730784
0.2501261193036494 0.18701566913969891 0.05571455674754559 0.04540555944935282
0.2408692574191295 0.2064344971098456 0.12772814869134397 0.00310000172584497
0.2410914417436208 0.1973566466878417 0.12644580562465968 0.019731674511342095
0.24364991808672098 0.19840900270567347 0.08966456400951528 0.000836719843289051
0.2451502089900834 0.1945764904452888 0.06902380400040886 0.019985400856389182
0.2432310306727268 0.18752148180204425 0.09792075995486148 0.000293402582837656
0.24446252182045147 0.19849895650716268 0.0780333217974753 0.01379712474056817
0.23980782039303347 0.1902292650524143 0.14628618866131793 0.12011359696271257
0.24255198147798035 0.18138006847538327 0.10891291389589942 0.00027619872085063587
0.2417794925139889 0.18211756346108948 0.1198007814304317 0.0002921244708799445
0.24198762825143594 0.19158721118552355 0.1148427212127227 0.00029941823012237284
0.24084069658194107 0.18717011088912394 0.13216237172624373 0.0410647586380887
0.2429093340995988 0.14811761681076377 0.11602777320366153 0.00031018708198924505
0.2411995958266454 0.17019518584803828 0.13234188466881575 0.05681216267538828
0.24046049125871863 0.17816324800123753 0.13998864358226074 0.09303757007103018
0.24385148144428706 0.1771454938671725 0.09150241432609765 0.0013210350193097317
0.24415675744573315 0.15339212684332432 0.0960610427794932 0.0005526690760815323
0.24394862522700647 0.17465281197910706 0.09104247705568712 0.0013699495259855334
0.2395481543192504 0.181336997074763 0.15194007699532855 0.12242085918583034
0.24282913246328336 0.149049015416979 0.11683235664534933 0.0002407283802627183
0.24413350083523416 0.1310015418261852 0.10459284463691279 0.0015883083243827165
0.24471898898616185 0.1451167837720644 0.09078826832937298 0.001958977669710379
0.24430752792580762 0.1389557722671038 0.09913905012162563 0.0009707837485311688
0.2449639123709756 0.15406430303783195 0.08392013626641923 0.005106189439871948
0.2393856229214585 0.15726468641397726 0.1619466508917791 0.10430269652243888
0.2391018997301633 0.17669933541141972 0.159989877513554 0.10437864811952996
0.24005019848619563 0.15658752171213158 0.1532762009731799 0.12248354065113111
0.24532606576249671 0.13330999658363107 0.08600662079035765 0.003757817288504041
0.24252510292794185 0.1254518946890613 0.12985831938695125 0.04300363582988271
0.2445956930556545 0.12070629799352275 0.1040503390161449 0.002742328766853426
0.24625038498751015 0.13636063939703597 0.073609367630309 0.016699387278330025
0.25460671594667356 0.11335261181651676 0.05797122317262489 0.030866849053907953
0.24796322682637106 0.11633733591886601 0.07003812175247598 0.01715255293602709
0.25865316187435533 0.10127572755016089 0.057824375945107545 0.030230711354343052
0.2906370462087483 0.06579986390609012 0.061079166775752945 0.023431170177231474
0.30037867342369456 0.05982391534350793 0.06502538090818517 0.02499745214545754
0.3290916491724389 0.06207587778104963 0.059113789217659404 0.028453231582494295
0.3320299442548071 0.057960325669266344 0.06602326550424166 0.02099336643559535
0.3410846994033678 0.062010568696241865 0.06268570554983377 0.0252759701606681
0.35370600099628113 0.06498734903652437 0.06671874706658856 0.026978679188356815
0.3490129024368398 0.06845302050853733 0.05889851940415679 0.03092340030156783
0.3509405527292436 0.07762440391738007 0.05237763765165353 0.030640707041762392
0.3616806610389741 0.07293922588822388 0.06287311650050123 0.029242032350685104
0.36140474781562726 0.0742393964963647 0.06083590590811176 0.02808124873905717
0.3723363232967828 0.0806496543937389 0.06581665362796628 0.02662896838655256
0.3764676614992657 0.09090729771246031 0.06080208838355542 0.030905189074839544
0.3702217976748843 0.0949222126571192 0.05289289466211376 0.02883224300306611
0.29619426609833827 0.05686564740901279 0.07484090214390585 0.01300628708941731
0.3065209934917764 0.054187873213325854 0.07623122818324035 0.013813907976897142
0.3639140214590057 0.06910307858713988 0.07322728671807988 0.02027214297644442
0.3744258962436706 0.07856905771444611 0.07659173785662102 0.01846452687494
0.38101293879508447 0.08909241049445044 0.07192481502810583 0.01839237297638845
0.3899762803375208 0.11052362766390089 0.07524929770787997 0.01637545222087268
0.24945776048939794 0.096748457339732 0.11317213937087968 0.008982128916257213
0.25374544547193656 0.08747180984224855 0.11628572917148916 0.008005245373840236
0.2566074317709353 0.08795476183094611 0.07778392964810818 0.012148314388908805
0.2605828853714797 0.08131362032648086 0.08332086001191237 0.013608738610332538
0.2577653516597209 0.08371503350706132 0.09574808049241151 0.00925153592523897
0.2703395126537368 0.06909939016023456 0.10107700152183186 0.009330479413376013
0.2698740774432198 0.07043822992935285 0.0907130821833985 0.008720011882088395
0.26536961163389866 0.06914539242835527 0.1479588519165997 0.08204457529214926
0.2609059428644178 0.07267425843139697 0.15957076460060104 0.08779303953745521
0.26682938674707607 0.07335537056018022 0.09132088500093874 0.009559675631322734
0.26364573979688527 0.07542529546466079 0.10328042567488858 0.0097035749959957
0.28016962495771824 0.060716385071215365 0.11621116272728632 0.010052809506015744
0.2805878706017002 0.060584715384719406 0.11494168986562732 0.009522066097822449
0.2815635154641669 0.06241028933136773 0.08453468680607305 0.011492866044190983
0.28247261116315747 0.057219939817234486 0.14318754922266785 0.11469857200787972
0.29091006194504704 0.053498512404113956 0.1405555774467885 0.10788961785285274
0.29534191561182754 0.05471281768290817 0.10278768846794699 0.008215983239512123
0.2941256723186639 0.051528379262156095 0.15198855934008051 0.10733600049994059
0.2967057475551164 0.053093865449839364 0.11830592009011062 0.009376552893001183
0.2912458849919923 0.057797768765629524 0.08145692295909476 0.012992404044557078
0.28741099827906735 0.05635770998476035 0.12325300886997531 0.03182354821300786
0.2899081417033038 0.056279578181935096 0.10928754337626907 0.009054942366871885
0.2557801311033411 0.0802193896284882 0.14792599299245693 0.08319513057424863
0.25901668479496043 0.0802326940167179 0.1106071422254937 0.009211858937125613
0.2490151483711634 0.09123184091254527 0.15129247702273593 0.10133855939041936
0.25080168607752773 0.09110257704993359 0.12896068904213434 0.02166362707364801
0.2532862538435478 0.08981495559600562 0.10512246748258323 0.007537305022506104
0.24861958187343494 0.09226249220949047 0.14970765866644833 0.10583082139699125
0.2992124145506498 0.05135749819333914 0.1325436688684618 0.07916224741000745
0.3042685306285372 0.05160697054104173 0.11252058557015318 0.008921853934597048
0.3046467844506824 0.053518473513068605 0.08511525618870952 0.010238752290790161
0.30668662311893147 0.050342979553487696 0.12442462989025996 0.07245762615166676
0.2717089289083464 0.06594481837567118 0.12316172970129778 0.008832484096826677
0.3604852626921634 0.06487508457992708 0.08657994981958055 0.009436186638211773
0.36463435491584595 0.06537604718768872 0.114971182591422 0.008717741566241007
0.3619777594372225 0.06250549570725228 0.12698587264034192 0.013082723727030725
0.36338475715151836 0.06068209326804772 0.15953885119801267 0.11114834698389724
0.36450368045118947 0.062465078728940346 0.14834136034409617 0.10922492234270925
0.3318304047580989 0.05326872854891086 0.08373485320153662 0.010414334994271522
0.33692641136499857 0.052918811823843136 0.10429683350437653 0.006557192396079294
0.3353004871377363 0.04992323996119388 0.14095605344000622 0.09613970886572909
0.3410733727347038 0.05073485225503818 0.14969023865330375 0.10458966389384773
0.34131578810444757 0.05342709736695182 0.11433346366416244 0.011568955349565336
0.34759174096129386 0.05237511624220085 0.15814349497242744 0.11514248488946553
0.34514771480448675 0.056046005293585735 0.09594595133161704 0.008269458334113406
0.34939674273365806 0.05579688909149204 0.12384986429095293 0.010030945442833443
0.3467660999766794 0.054614574458341225 0.12343773120782003 0.028141259596912917
0.3510473415760146 0.055450701784197406 0.1380804599636852 0.10873273429867258
0.34793002323145905 0.05646253264012144 0.10660702443827617 0.00826004279769694
0.3546749108907123 0.05908998442651183 0.11435415368798894 0.0072483368540641625
0.3522639264820717 0.05972308345457738 0.08949713968322502 0.008715406192923736
0.3564047360188759 0.06124396273065172 0.09927830601371387 0.008483204048765883
0.3594617031581957 0.05963893578623504 0.14159992637723956 0.09888086669787703
0.3896137323619716 0.10608979190251547 0.08404913242012106 0.011098671879908692
0.39238596977445006 0.11893804148690593 0.09068791248091317 0.005233024440205958
0.39389685063409463 0.12100028793850731 0.11150917062971828 0.0024032898933576807
0.39007916712838275 0.10151654041397382 0.10916005892745068 0.007976152807424877
0.3821495626216722 0.08788175605980304 0.08796505662629336 0.009974848944852429
0.38603781032204254 0.09371530527007624 0.09753030363143715 0.008346898713168424
0.3797960324286588 0.0826736134370231 0.0988024810207333 0.008234795692609174
0.37615899113375606 0.07947985809834288 0.08585931920151257 0.008886676484701997
0.3765534742175404 0.07531262905271248 0.12781879292908704 0.012510177720469128
0.3931980092506637 0.12148889045224237 0.09973958906973061 0.0027163918690802052
0.392353473723652 0.12675938936992717 0.08454292099490157 0.00520474397418217
0.3939196375601716 0.1520832549266109 0.09635694370379803 0.0005860421845493604
0.3949229977071928 0.1339089042126093 0.11845933299479754 0.0008978232931857717
0.39452079860136446 0.14939743090698532 0.10613456313337938 0.00031182827799870137
0.39695386328646476 0.1523669969826746 0.13986150015081525 0.06219741064989564
0.39520384006145126 0.15352855569059448 0.11421001288459164 0.000344147579780573
0.3961997152696962 0.144747264002561 0.1322372679092233 0.026335442812680104
0.39765206681607324 0.15494330668116588 0.1488116776755969 0.1334873940058627
0.3964469647411344 0.1586219975551125 0.13034111163782944 0.011282435628738603
0.39457490437459 0.1616170532817433 0.1027584396485845 0.00032075679410891996
0.39729756890454415 0.162447046160267 0.141291491645935 0.11634052476538134
0.3958228806082984 0.16142132283744676 0.12059647056938934 0.00031337023750615644
0.39822510577256776 0.17037564194120375 0.15208577629794712 0.11992897992294269
0.3964196948125458 0.16929024145919455 0.12669758370857498 0.0028437068890809123
0.3938601669730438 0.17344513261273706 0.08869339109548345 0.0024848582582871386
0.39854072511897826 0.18426555248588417 0.15229771298432165 0.14663100442466087
0.39303843698308827 0.16754380652965303 0.0788200568952852 0.011592907245779232
0.39436829424009 0.16912940128568837 0.0973726560836257 0.0006324945210013677
0.39545994373890336 0.1676212946647136 0.1135100494034759 0.0003159071248332943
0.3934767716085996 0.15985616676362197 0.0875884432617311 0.0026136911649530105
0.39581989204150264 0.18718447228348872 0.11292122971011434 0.00025032823720578205
0.3929616630946729 0.2121340988007879 0.0669401459515742 0.02957335007874582
0.3944310460350306 0.19438685190528232 0.09162678660765775 0.0005847703499309229
0.3941251289131416 0.20148080246831843 0.08576307529942798 0.00237186123037263
0.3951255017073367 0.19317963658148263 0.10176449236642951 0.0002800019233190485
0.39792475883377043 0.18814677755923348 0.14266373603087668 0.1402196033446892
0.39417776180813635 0.1848622493256146 0.09005211891667211 0.001401845493159783
0.39339287335283357 0.1877213176694067 0.07827586991521547 0.009782552469687483
0.3967865063516448 0.21354319938689695 0.12171353312512714 0.044836001278702256
0.3985415503421985 0.2127163092373331 0.147118131090518 0.14560202521740803
0.3981651558277439 0.20192678332115974 0.14359121516713005 0.1505987738982747
0.3978056002729717 0.20874693147512066 0.13722132566528641 0.15580231303465497
0.39362598352311756 0.21069549996823622 0.07672419244602773 0.011038219853802949
0.39572928157636567 0.21439090629188468 0.10634875067886566 0.0003062568212530143
0.3950669447834772 0.21388027011100613 0.09690544057797476 0.0003138147960819904
0.39898162813046645 0.20464981018294504 0.15486531721665142 0.1309226757735287
0.39773790196149106 0.14629294522698066 0.15352457862550645 0.110518679453003
0.3962709612626253 0.13160400927421634 0.13853392228577194 0.041066654002502374
0.39720133181276596 0.13560108696933112 0.1500782942387741 0.10642461698475024
0.31245314827412896 0.046963809173273544 0.16234109564530277 0.0991100303961347
0.314490536814923 0.0507776430979616 0.10555530279916053 0.009489192048103732
0.3136657397329696 0.051711128909794825 0.09258051873861826 0.009427138597128501
0.3143695753467381 0.05071207034149436 0.10659165613034002 0.00898393625401677
0.3219736207349614 0.04730440164247495 0.1549009945368913 0.09861310928762518
0.3250425471475671 0.04827745743592704 0.14291867964656052 0.09435730192931813
0.32576721653709567 0.05171911874857685 0.09463123573574657 0.00831254138626918
0.32526041930116445 0.05089435402173586 0.10541199941734603 0.006436395050699874
0.3819075686471345 0.0827960046962616 0.12305662209315206 0.00925762344612578
0.3737506711464299 0.0688499447358405 0.1619886528320529 0.08529896805902705
0.38911523552837707 0.0915452579490665 0.1509196827096311 0.07801023768073082
0.3882500052024754 0.09243576357794789 0.13386285687558774 0.04058702757121278
0.38793970892958113 0.09787338400125314 0.09839157700742243 0.008494262452534377
0.396529775009907 0.12077579365953536 0.14763602827970596 0.09310577938303524
0.39321891006902787 0.10136098104668329 0.15252873795749222 0.09626585704001525
0.39241928946654536 0.10145066392388612 0.14100079515365502 0.06250925854890511
0.25614562555436293 0.12689330983342229 0.054481589857211576 0.03250067464024886
0.25457849370203367 0.1374329721237517 0.05545370722701347 0.04108247020419718
0.3923755822690622 0.3245096050041545 0.06705098141228602 0.024317315342296045
0.39160405803478016 0.3521240093571689 0.0679339877853462 0.023675449680372322
0.3928366752530317 0.2408880755208693 0.06265199428957086 0.03185865196973741
0.39219602509763046 0.25675627040462334 0.05854705050808674 0.02683481978757926
0.3910837944902311 0.2909266781489823 0.05801436687342388 0.03809958265304639
0.39021951934310434 0.316679836063632 0.05886376126054856 0.04120684819361648
0.38829886726373775 0.33110585850255625 0.05731884168209423 0.03950034931858545
0.38057851175205315 0.264407562489966 0.044793078222192376 0.026924346267942413
0.38544518908226577 0.3010896733695935 0.05069236670435655 0.04607388442089012
0.3888026326820556 0.26960969741826896 0.052036012210010335 0.030495310169537652
0.3835091698995414 0.31240262493992016 0.04994368260515718 0.0481494820062193
0.37730843418866433 0.33259297330292037 0.04743055356829384 0.039036409181197655
0.3848691162683771 0.2545611238869504 0.04726532837582326 0.027524396065364692
0.39141367817094114 0.12871502209486824 0.0730122590351877 0.01809344794245464
0.3920734528584835 0.172401907426552 0.06766368189620935 0.02739846861182541
0.39047093813313055 0.15050732862937916 0.06556751125084674 0.021626339533441
0.38560419871810764 0.15234763887171615 0.05646624644815745 0.03605166769667662
0.3812039416579592 0.12724168923613552 0.05376645707571996 0.032947373295324746
0.38076104612691386 0.14299304953470626 0.05241151040410682 0.036534665480588584
0.3920303888285452 0.18655905753067098 0.06484103926189755 0.030014464972377954
0.3923120164451795 0.20056867192758765 0.06448556774915125 0.03156091943125872
0.39197019632097096 0.22183577426904394 0.06032897701220655 0.03174575215934409
0.3865983941672035 0.23177090424384722 0.05000185561528707 0.03541433070878366
0.39008936966063124 0.24156099250335433 0.0537449225771116 0.0272083472760088
0.26959030179928084 0.32770391297186413 0.04539749707127077 0.031490956712992214
0.30309575466623406 0.36676795706729426 0.045643541055846844 0.00045065208112780137
0.3120562987636025 0.3278960012644388 0.044812718822002176 0.0009552832961452322
0.29686222344667196 0.40213878992383933 0.04639387846021548 0.0038828453774609004
0.3327702759828347 0.14684502940849764 0.04556086774894471 0.00047134238485405577
0.3972846289406215 0.2987051157023957 0.1435220212433331 0.11441885058458226
0.3957586265292256 0.31142161467370993 0.12384269487396285 0.0002730957380917235
0.39633437939976623 0.3025602333300587 0.13057322341241734 0.008428430691870215
0.3952016111620035 0.3036918367449811 0.11454535998955137 0.0002710354732687894
0.3952055455994548 0.3028231412924831 0.11445325686003599 0.00027448778260664796
0.3968741666611447 0.30862530773059577 0.13933938438565238 0.10003104152422934
0.38616172081050865 0.41937233921145445 0.1335952506850127 0.04034362859109759
0.38467372958412027 0.418416873006544 0.10868991251957812 0.007177520279106573
0.38415253313170616 0.4260860576527884 0.15661882809762248 0.07496900626694654
0.3773297837657598 0.43107145577264233 0.11851411113290805 0.0074973853835370455
0.37483361027529744 0.43137719543152575 0.09282694684826628 0.009949574247467074
0.25540058340942307 0.4227928822579503 0.11300759726422356 0.008855582756290838
0.25908677884413267 0.4249271008369055 0.08438905861593199 0.012000982847826892
0.26110481929724877 0.4345992033265277 0.14517522940672198 0.07090532304797825
0.26571096031975344 0.43511346786003635 0.10201491689809888 0.007774864360193391
0.26570228387914074 0.43325923399594035 0.08383896195745763 0.011896575479478023
0.2522341632531157 0.09082179693071918 0.1273421836848544 0.013268679400112157
0.25482636209751564 0.0817175884311881 0.16109634932374042 0.0841993344147936
0.2534680322565246 0.08687965584282126 0.13915611018035132 0.05907517539617045
0.2588009180758983 0.07938904808425884 0.13575130961904397 0.04450752030559934
0.26415134700390375 0.07399223428677665 0.12711452473369395 0.01623456741803317
0.2645154759157566 0.07242869389673684 0.13858064159530242 0.050626926606258164
0.38330622599752917 0.08411902298467554 0.14483856706177006 0.07118224927414406
0.3820571196747134 0.08364535601771805 0.13322616231360052 0.03618434598180699
0.383572686338244 0.08432396835383138 0.14654284280178148 0.07302835213667787
0.3869173832750765 0.0940405074091057 0.12175161023481967 0.008060157869294086
0.38339693575803413 0.088975044998995 0.10911956306598952 0.009175458822728464
0.37308504726336467 0.07550013586424142 0.10430369650311991 0.00890218090417237
0.37384656089511026 0.07522804070307133 0.1149572984227122 0.007463030201781341
0.26308800031716745 0.23124697932201893 0.04488415266120446 0.03923850826987808
0.26550855054746914 0.1907917450337086 0.04586778557395314 0.036316499338891785
0.272329219457209 0.15988107709163518 0.04578231297271015 0.021460893760138558
0.27117850585386694 0.17971117269643005 0.04532234536792938 0.02654677740685433
0.2731973492286669 0.15034052674230663 0.04597320385020197 0.02612370261039476
0.26229554401300337 0.21138104542188255 0.045906889500737486 0.03959559124408142
0.27334663658754044 0.21311085640776312 0.0445691193886984 0.027700384631368227
0.24350731565736694 0.39671485141331875 0.13411087558983284 0.06530847095164133
0.24483362998085328 0.30422477592105424 0.07115882676875548 0.024114435162215925
0.2438625529826139 0.29921126871828774 0.084203569024971 0.0023668164743087155
0.24146177872388536 0.3036110070424506 0.1191568777811293 0.00028948257065607337
0.23946609418483064 0.21135403900622848 0.14693177339246208 0.1049832269564523
0.23854128123147783 0.21459494492004472 0.15974655954288994 0.12057753223619318
0.24067687943593435 0.21486012494444648 0.1291265172202285 0.019013549644210013
0.2432547510875029 0.21289490992388516 0.09246831970209808 0.0004482181169239325
0.23950965835712495 0.2108551702333 0.14637404188122508 0.10505084549342521
0.24263163929737738 0.2126242372038047 0.10142808810683844 0.000273604850494217
0.27395480919257476 0.06312004887170039 0.13584170441633475 0.04514352177963952
0.27296283629019 0.06361977998313423 0.1380601147622978 0.05083532880552386
0.279614437699168 0.06344111520098493 0.0860524528114684 0.00984118639751774
0.2501258820313801 0.23299944676878218 0.05295839242054672 0.0402095339587086
0.2477440480888631 0.24265992907282535 0.05640600424049523 0.030409050399812246
0.39659132816777076 0.2250734664755047 0.117207435301117 0.0003022971885267874
0.3939713923597037 0.22190812905530066 0.08021870383297541 0.007775461995363323
0.39737492795270785 0.22914116089011483 0.1279527658307191 0.11761654687077014
0.3944151685604741 0.23311988577836446 0.08539738017705553 0.0016860448317247692
0.39488739250448746 0.22638912752234883 0.09280749992436711 0.000313181283857266
0.39348938125922467 0.2362427314449004 0.07189523123708919 0.013230289051870799
0.24573467045852354 0.3974952338300861 0.10381280735132882 0.004791844109483213
0.2465555648257876 0.3964277690454704 0.09055060394585857 0.005858734797141195
0.24374249423240876 0.1206083597841946 0.11779677551469775 0.002526466300546436
0.2452883910841537 0.11113493624627538 0.11341376112607937 0.004600687308094725
0.24454406910912208 0.11104976305629355 0.12413865205285175 0.005649333858788668
0.2435952450866725 0.11234929915820543 0.13519956008477568 0.07646361487664342
0.24446568439053046 0.10326209226454452 0.14946825233895822 0.12405476581763514
0.24364880880727444 0.10291890409698232 0.1622505583626056 0.11478388162844853
0.24605961477014027 0.10095583769810293 0.13684681846879226 0.057980239596030485
0.39472114663629315 0.1223643884647684 0.12101476140241332 0.0023067609706246568
0.25607232126653745 0.2888304263503662 0.047065402493750706 0.038271124785017346
0.2648533023883372 0.3000421903414587 0.04410501502180499 0.031198482375848963
0.2586568151259163 0.26837352985619456 0.04443325054871695 0.029098468297006765
0.26339783226972757 0.26054546356832187 0.04147502394066059 0.022010857953404035
0.27281035385262775 0.21217763827101677 0.043586242552380215 0.027531113028637116
0.2574646102863313 0.2545408589164745 0.04449887742059869 0.025693163654081228
0.2554264584429158 0.24267157730394906 0.045967745722044484 0.024388989575170234
0.2520296360884119 0.22372550455157428 0.05006041487252924 0.039268889601079354
0.26524859281967583 0.17173299914754653 0.045837557001029844 0.040447578290236375
0.2646011568439707 0.20169916365144924 0.04457388619487844 0.042392227459118
0.2605399102505336 0.2209901956573192 0.044922332285757205 0.04403738622276367
0.2733767961739384 0.14010117588027515 0.0452668978939534 0.02685268498194631
0.26643592359880613 0.2900202891064354 0.0437645519897927 0.03199023141612745
0.2711919657971905 0.1152973288092338 0.046684594828418156 0.019658251367138127
0.2800593131094938 0.11573439941674922 0.045372526395075455 0.017339457420826713
0.2821877866606948 0.138075136552528 0.044845957888087915 0.012100933778954465
0.2875103078783697 0.12187721381231262 0.045144433653046614 0.006196200654780514
0.29627865250537044 0.1386796966576413 0.044770094987371736 0.0010605957218469807
0.3113967110464936 0.1370070644110551 0.04477022918072818 0.00028777165146313635
0.29885402995073834 0.12289272935468465 0.04508675122635768 0.0014201177817476345
0.2971620657961296 0.11110218095140263 0.0453313849998727 0.003948663156153661
0.3163991462664483 0.16970112388936107 0.04406829571319772 0.000543978018098887
0.31175959990053814 0.18567791434550787 0.04373936912002005 0.0008416764702675382
0.31978062076051855 0.15540241737353874 0.044364493686693665 0.00029761758167974215
0.3029905914878963 0.1739747875228445 0.04400903188412079 0.0007742551393346398
0.2939811590833482 0.15764401762720487 0.0443853618525744 0.001035669557406966
0.30115356508888236 0.19175012611591946 0.043662706972782864 0.0012033335003070855
0.29607062354128155 0.20898334974432575 0.04069804123487339 0.0012155790477543582
0.32998429721084493 0.1968011469794881 0.04302221451898407 0.0010684676340505207
0.34969728044459847 0.21826526606656046 0.04013163629410518 0.004418679442918645
0.3531152759568722 0.20793782894393711 0.04214128156273193 0.009592434615994825
