x y z curv
0.11451341067581655 0.18600628682614034 0.007243373079622294 0.0001356881004004987
0.11440850537878376 0.1630969002134905 0.00797144308836853 0.0010994033219244247
0.11079655497291904 0.14631366121427175 0.008990730248729055 0.0012875506197817057
0.24658955031805405 0.21230327412049044 0.007155726121713589 1.5898447393838764e-06
0.2388083508192617 0.18059787411591227 0.008512502192421178 4.310535925202165e-06
0.23440982391058457 0.20650747390592555 0.007388239224524631 2.981790654815282e-06
0.2491278616000199 0.1543116302278612 0.009661551974209216 5.584534950985884e-06
0.24236346238313228 0.22434088662280424 0.0066302466518519745 7.00512510108321e-05
0.2410668589092523 0.1935400080751426 0.007957343569388726 3.0169913478268788e-06
0.24330753108040276 0.140810864529976 0.01023555457575975 1.540273267374502e-05
0.2395208121235752 0.16589142487643938 0.009148017747999393 3.777621981188651e-06
0.22350604950937722 0.1541867279797581 0.009580768562705313 4.8507451789394605e-06
0.2301199416291398 0.14232593343961897 0.010141182653780313 5.954506680692969e-06
0.22542800789171683 0.17686486875698115 0.008619354723733763 3.440903270295982e-06
0.21310622162803622 0.13113890146885773 0.010494011194735588 0.0001725311360872424
0.23111952452441226 0.12420864421272454 0.010935308914496521 0.00018596288086713503
0.2269476540019393 0.11248892993282551 0.011424457202928565 0.0020530192907386256
0.21452166591631486 0.11746821941491381 0.011134624744717691 0.00036597583019559146
0.2435278636669515 0.12360683034230491 0.010984090938998211 0.0001228604438777496
0.23842808669761387 0.08413454214528204 0.016028952338111985 0.012553651481492126
0.22825528715364224 0.07835685953149159 0.02090896187022233 0.03227265293437751
0.21348289478705287 0.18395814729906543 0.008218432064758543 3.358097085767426e-06
0.21340759038902726 0.14392691322802015 0.009944979743643646 4.278204343665874e-06
0.2134086860263501 0.16325935850346493 0.009110887972473093 2.8118411177207872e-06
0.21889974526122466 0.1974228887024435 0.007680977693779634 4.1789002419886554e-06
0.18615124631383176 0.15713436950100726 0.009006196777196376 3.5921126295506005e-06
0.1944185793678043 0.16737568347675044 0.008689305811183894 3.0663917217188984e-06
0.20177573128957252 0.18243045035839986 0.008154478763946602 4.621733207068926e-06
0.19786197811775585 0.13556950191113343 0.010101510513001483 3.562662672337713e-05
0.19146350793235992 0.14569387396091205 0.009574338592068172 4.7567930427463604e-06
0.2007245176424047 0.122578331239721 0.010766093730668412 0.00032106252835113357
0.2070194823365346 0.10151239503643947 0.01258445004526696 0.00411395098614071
0.21730359185992476 0.09201930241340683 0.014154637078182802 0.01982507320310193
0.2054770660311549 0.08754663032227115 0.014977239497590828 0.016075504852129534
0.20451219024731418 0.07490894118384182 0.02434771870879008 0.02550897094442905
0.17624965101010615 0.1312457084297713 0.009994360053623051 0.00022370868527615313
0.16438848613144522 0.1255219298666913 0.010138543519751086 0.000435311714370658
0.1570154040183642 0.11647029785835779 0.010573492108319356 0.0022542873214311094
0.18248666575878825 0.11838886996236234 0.01078156602890673 0.000994061582257089
0.19230423110007447 0.10943190213460631 0.011341294737312558 0.003945465177237783
0.1621997281473922 0.09211173324591172 0.014678199500175505 0.017091625452345355
0.17442255964820028 0.0952911371053895 0.013891827524900372 0.013462873385494189
0.16855503917956388 0.10744675042554605 0.011584238905764805 0.004784174290271241
0.1649081754834654 0.0809492496578938 0.02127522359354192 0.03129177601823819
0.17885899960358587 0.08406476897184406 0.01787155908112838 0.010033621366067058
0.11885019700808878 0.12806101693705177 0.009809270230459056 0.0014630165206537657
0.13463888979350763 0.11993020294489799 0.010180870769980732 0.0014817850664948368
0.14046736500039028 0.14041138681011495 0.0089850843485384 0.00017288743565390985
0.12980385101943365 0.13279555339375446 0.009430874660788641 0.0005594180707250357
0.1477922809420379 0.1315729633247053 0.009548397308292694 0.0003229300223684328
0.12261764624799978 0.114268689474412 0.011290250421117615 0.0042733208072245395
0.10916371736435321 0.10394456124506087 0.014630408868035884 0.011230344698468144
0.1314526179088332 0.10549063188696639 0.012551440832797809 0.007825208391895001
0.15013539621965888 0.10550845159771069 0.012066320099671644 0.0036430448809823958
0.141360234795641 0.09723387750154004 0.014017595509354629 0.011008159405769867
0.1457365310313663 0.07868893578423615 0.024515111690951615 0.028424174425955885
0.2167933837712185 0.06557266996187741 0.03864117199013778 0.020574720377213303
0.20264777562389985 0.06691986291999767 0.03583578501389436 0.019294823196755743
0.2338297109619416 0.06793701615079789 0.030267601613939224 0.02182712866471194
0.20885298878908326 0.0625313705468123 0.04875136754886584 0.00844993167219973
0.23870423591132545 0.061505129695575075 0.0509205666747322 0.008943559446968693
0.2276947040657313 0.06118656965984806 0.06753681172396597 0.0013619797241175406
0.22616831575227697 0.061533781714260306 0.054967678287951974 0.008076027807706608
0.24211967766486273 0.06100897530455815 0.06868563547885419 0.0014036035087250744
0.2448542957070973 0.05969391731644906 0.11790741311941054 0.01086955709118734
0.2345281082068683 0.060857107074372585 0.07745484667981407 9.579365567719474e-05
0.1833081218590331 0.06837490442994187 0.03412366962639424 0.01744523202289736
0.1678244769165986 0.06982537949674851 0.032496663487022605 0.017323913133070565
0.15645860152335614 0.07061845625317738 0.032697114365490616 0.01975377557665353
0.1771422105388893 0.06346910390256907 0.05420208375734194 0.007104010767852738
0.1963602105752302 0.06251695625218988 0.053313069972912255 0.004331868387546462
0.19143054726248 0.06239435891857668 0.06616078700384018 0.0012258807369882835
0.201733189371775 0.06071703282082739 0.11073432878048167 0.0005876392803944853
0.19389518954616872 0.06177607510937273 0.08475815070032405 3.2310258317357285e-05
0.1802317887295332 0.062434449455374005 0.0852708483735296 2.3801779927885775e-05
0.18041675436124247 0.061987850751428986 0.10045383104054562 3.613127691593519e-05
0.17943551728172524 0.06150880123241784 0.11884855819913559 0.016814224512757554
0.1688054954005706 0.06230401256881838 0.11215795285450958 0.003947520911327268
0.16232838982650372 0.06344803981132477 0.08859927981730145 2.290609863231421e-05
0.16638513174717628 0.06354192329375453 0.07543920953106034 0.0002266258892524329
0.15795122628616384 0.06340778556063476 0.10075790124450534 2.219740895220262e-05
0.18840724571276032 0.06131905687398651 0.10889482299172729 3.775035185988441e-05
0.1324582494435652 0.0861425918323221 0.019632365313350185 0.015533491637221212
0.14134750248427025 0.07160492900845396 0.03355543168717477 0.023359509574986937
0.1242071485260759 0.07010971595105275 0.04425642232144851 0.01136225354848332
0.12348558792318666 0.07487004390496539 0.030626738892208072 0.01654105999763753
0.15031166180200586 0.06777339756157721 0.0428370727307644 0.020160658248654182
0.14142556240153759 0.06610298511039439 0.05334866356661705 0.0040204391573665284
0.14591498688020518 0.06518259540682084 0.07258303772870212 0.0010762069628798927
0.13912650507385796 0.06540205951594232 0.08564854682545331 0.00018680304914835347
0.13127463080524227 0.06573546235801579 0.09745092654120108 0.0014252690473489898
0.15282490473586993 0.06506832587807297 0.05652346828911043 0.004357086467670694
0.164201066056696 0.06412744838126674 0.06010700892033786 0.0017652419686345826
0.1505195293555687 0.06426554151104932 0.09049780915396485 0.00021425788561127814
0.11681083692145265 0.09371584447304086 0.016507315825038976 0.01400415627037746
0.09849006048980567 0.09045777514404854 0.025144327880399872 0.02087628409387386
0.10204534156672344 0.08028390353384889 0.034237311777101334 0.01922780691312332
0.10564659099610851 0.0744767857916576 0.04513844063583896 0.013731364281711924
0.0974131668691358 0.07640656564131526 0.05417968215264132 0.009046036855849307
0.10809519118206778 0.07122105613462004 0.05762410254061863 0.006261601611404656
0.10068560458930952 0.0742532823199665 0.07154831268179145 0.00579339180992678
0.1278284298025294 0.06725689048575897 0.05794068283448974 0.004594971616629431
0.11389991273112766 0.06944875516513954 0.07245035223820183 0.0055509053383579745
0.12570882200209196 0.06728568056059671 0.07118691414819062 0.002124047942202409
0.22967002680558823 0.06049811537326008 0.09290850665711432 4.4136551943992524e-05
0.23389658779993222 0.05967037133733204 0.12265610382860927 0.03850107697376231
0.21102415284259132 0.06154105381608742 0.0698312453129342 0.00106532926295169
0.2249627553566263 0.059968732134407135 0.11449554629705355 0.013742914321101283
0.21893973867192978 0.060446968009844525 0.10272322945328521 4.073480438189657e-05
0.22132216145602432 0.060934572908305965 0.08205696196895765 3.4841983533618034e-05
0.23967113905978044 0.05930106911461992 0.13500927987624328 0.06476965778661313
0.22105962426988882 0.05966581477003438 0.12946037631841145 0.058093174425592496
0.22148352589356157 0.05932642854096889 0.1420963062254198 0.07110920451798128
0.2070417878406016 0.060196594890064584 0.12236249229342314 0.02492621232075469
0.20598383241936105 0.0613137139818062 0.08295659762674 2.4817467915550073e-05
0.1749230511060316 0.06128014399625119 0.13648279606003325 0.07627484581280458
0.18696966735206327 0.06055989112435933 0.1387616258926739 0.07405552876295653
0.20252087127119373 0.060002995849483154 0.13564105734883486 0.07775839177529612
0.14529694228353682 0.06434306484335409 0.10165155259662734 0.00021758072421361937
0.1385097107329893 0.06457561564442722 0.11392283587460997 0.006496787065857136
0.14336568093313898 0.06358367213006616 0.13300937636741228 0.06448711926657669
0.13155385893353747 0.06477771586165558 0.12747904170804436 0.036611964685235796
0.12994705484783478 0.06458845159087012 0.14080419551990814 0.06323996624027184
0.15492518950218517 0.06324947756315417 0.11346342341490097 0.0017941748449053212
0.16239019587643214 0.062437065874510186 0.12221975463151946 0.028469613494665442
0.1548691889741078 0.06256208597294093 0.13807394782562815 0.08015411455105102
0.09340532083357296 0.07706343982222684 0.0848982179348455 0.00513137904911528
0.11154791346426168 0.0689745768126387 0.09635406675956662 0.006212726403353097
0.11238682615836129 0.06929203284723862 0.08419048259784946 0.005004680095943019
0.11782227875732962 0.06724153027961276 0.1140326144600837 0.0053444183332375305
0.1018837038596654 0.07150774865863875 0.11823295540053647 0.028039589170202356
0.09313380355872397 0.07595738832140311 0.10917532782620586 0.004426637708558364
0.11428275423571244 0.06714930963646837 0.1360813855758949 0.07332026720141828
0.0935968425730991 0.3649735176092943 0.1188984929469711 0.02215163265908752
0.09384208405020743 0.36227211474423965 0.09169224043721365 0.006642388945618508
0.08876897672350348 0.36042683871253944 0.10495000238535207 0.005752098442328034
0.09558174984894033 0.3607314022439765 0.061777583540104986 0.004281248141644962
0.09391810774864234 0.3610579578155385 0.07892376835438483 0.007090759382489858
0.08457100476391617 0.35570159367126275 0.09208660119336609 0.006018618406637734
0.0856978092841888 0.3538448956921459 0.06329684764292515 0.004291406172754707
0.09071137716457844 0.3381514948060248 0.014355242950452643 0.021583745490587603
0.0861891348948222 0.3509260171730425 0.033683812904535856 0.015803292564016896
0.08492585091473988 0.3605515965145806 0.13736907828049574 0.0717028281546618
0.08117449684412419 0.3553412694898934 0.11420603743276278 0.008573765742092732
0.0782984556389322 0.34074118065093434 0.029204924533424416 0.015155997700273267
0.07625773198013198 0.3526793987981391 0.1330872438461939 0.07769232357128522
0.06890218319371394 0.3442245211993191 0.130912606118424 0.07639700288691348
0.07320215330889536 0.34645016339575574 0.1057993888659039 0.00624006025378681
0.0750888599961088 0.34660930578144267 0.09040704487833694 0.006489882748761618
0.07848919955450634 0.34815374139147703 0.07202853078426659 0.004550976890211562
0.09917952196137142 0.31399746930763806 0.005642712155255405 0.006939543450404573
0.08965521573266154 0.3038105787709584 0.006148835862820912 0.015029771746192681
0.07931608487356512 0.2907390831311887 0.007283936694456254 0.021623395282118322
0.08902311310664272 0.2838098273997363 0.00604535778110153 0.013394195847904945
0.09348473377200629 0.2714729915360292 0.005587520409776531 0.011908682628642153
0.08855476970564694 0.32597089466667917 0.009168200139787815 0.01985093966961201
0.06968877438335724 0.30279321573356693 0.01406093902682306 0.022337413851372695
0.0950478914047331 0.2601088515230368 0.005592161138339663 0.007153154042529292
0.08229098000144973 0.2642083584779333 0.007030723653717506 0.013737317240651204
0.0768996932391286 0.27591441708426634 0.008465288821531945 0.02669877590625105
0.06812775144302619 0.31533751672490185 0.019185517296786324 0.021500770263634977
0.06675948659336134 0.32359568572174063 0.027911667414365415 0.023976597523994156
0.07383834288255078 0.32541251525151293 0.018450926715439533 0.020687491689098527
0.07024083020694183 0.26628719638285153 0.012544358705985937 0.028639873579314308
0.06958433503629766 0.25127114811272355 0.013031531769017383 0.024772277667483012
0.05744596771493429 0.3074241961273587 0.03199611040615605 0.013195232812557028
0.05846298846066404 0.3147970961874531 0.0433530830618052 0.007843824853247373
0.059504549241388704 0.2872050749331009 0.02398661388791088 0.019835534661364167
0.05455092740927094 0.29530625836520474 0.03643056108389536 0.01564704164016805
0.05313727169106894 0.285258025918986 0.04223512380159317 0.010872679291810662
0.059647343485678204 0.27438989084606513 0.02294687909148868 0.02889993201036118
0.053233594189229724 0.2726171471975465 0.03755171307610092 0.016895587580660454
0.06075768386295266 0.25737806028183663 0.0207568577857066 0.032280030950609453
0.07027696140498055 0.3380217508085966 0.0620357192455022 0.0037213783373407634
0.06773436298782663 0.33726908177014936 0.0880090400170395 0.005843239520807698
0.07421105157503939 0.34109981602592765 0.04382713114916924 0.007163279580023449
0.069297764296837 0.33313959341127825 0.035424998188331516 0.012246383046193297
0.06255226660555002 0.32482754324840674 0.048077738546493616 0.00620099117591888
0.06341576208745867 0.3275847459772152 0.059691344893314055 0.005788874773824343
0.06425922691941066 0.33091837295100845 0.0775145148425147 0.00330644358968111
0.05936242645931135 0.32635923914921894 0.11044304150776377 0.00470140019534694
0.05917300922436338 0.3207865822641843 0.07251411464578829 0.006559602692623225
0.05676813396182184 0.3167184988027213 0.08571497736831102 0.006157638993354905
0.05618013401450794 0.3122462348627114 0.05900177537612561 0.003957837535470601
0.05522383513170629 0.3151920126131277 0.10284588183253611 0.006351624297227648
0.05311033949742544 0.30463412715524607 0.0819250690933357 0.0046787534046554705
0.05559426079099196 0.3187862345167072 0.12029541048482782 0.036401545530795575
0.05274305510796944 0.25587430009156376 0.03896100272593403 0.008577893779965892
0.05251316156122754 0.29197025764573104 0.05419642584386999 0.004135804212945613
0.05165598780459777 0.2898023675579993 0.07531604094280651 0.0014457046977436976
0.051362210105469264 0.26698979944999707 0.0539080442236308 0.0032527525021363423
0.05140413732871261 0.2935231481948735 0.09105036692879463 0.0017971396118532231
0.050395874038451645 0.2841725224528031 0.10242482721118992 0.0010812008038580327
0.05094950204219669 0.27017967863918724 0.069499871863972 0.00020896351669955133
0.04910231663332919 0.2699133318074129 0.12577157133719621 0.02906984715237477
0.05115487722978347 0.25155799115368715 0.053318243648100686 0.0028787902354920213
0.049415298417579245 0.26677562631061386 0.11305288188366586 0.00936410850929905
0.06372459287943874 0.3358630572856732 0.12261626893076227 0.04482136067633625
0.06173242867666043 0.3340421852650638 0.1365760752063903 0.06741311628593302
0.055530572690729224 0.32023435127062067 0.13277809471672108 0.07011696580366183
0.051740670423387584 0.30728202749971417 0.13358287126826396 0.04788574755112831
0.051113648707846356 0.3016687252412273 0.11790491093580771 0.021310416393981315
0.04964466849611288 0.285429720470334 0.12826286676660845 0.03434608099349214
0.05002248468812924 0.29852988421751864 0.14253101349285535 0.0318293408954893
0.04841825624255333 0.2681343932940472 0.144614779826746 0.05112626498096867
0.09280814798153629 0.21909056455233017 0.0069697439186118424 0.012844777865173395
0.09045107937882031 0.20276393559788425 0.007688720523649798 0.008138687001385468
0.10443292009552185 0.19700950945559836 0.006874364999554215 0.0018488555909839056
0.08804413093956615 0.18276057808051582 0.00850291139458369 0.012196315951647706
0.10157124626072485 0.16850339577035361 0.008210079959427564 0.006345486109672823
0.09908402722180315 0.15363896779140426 0.008986716609746724 0.005506957754579823
0.09825306111605218 0.11843410510689423 0.013491849838830323 0.014218590177630816
0.08778724453056432 0.24756070165108124 0.0066829672106254664 0.008030182727662254
0.0841780206678112 0.23045459122657555 0.007438291700810172 0.01367202450534862
0.07657891739264502 0.1634964465648739 0.01363477504327724 0.03411580507132287
0.08718899378884382 0.1686915884965316 0.009139874026245708 0.01493395794710412
0.08587633850885647 0.15675012470805094 0.010627882816785877 0.013404979366332899
0.0995437944768323 0.13180434115982387 0.010954727344878734 0.005721217355059009
0.07619025323675058 0.1439339068943571 0.015175755472785204 0.02412045358957625
0.08662308936101659 0.1351555980939113 0.013053846536748868 0.012679870397301897
0.08044087624676166 0.11920900206806034 0.01912552455006558 0.011507218828503338
0.07532738386302601 0.2382198102424182 0.010071491657892579 0.024897426410641816
0.0698477712016534 0.2119217891773381 0.014113474985945345 0.029263723656101907
0.0790670978853891 0.21716894615057897 0.009056727630925528 0.015519268371607364
0.08268571112715178 0.19385382255319356 0.00892665076752177 0.011676140119712911
0.06980072748615772 0.1784563754924941 0.015614492239493627 0.024377496035165425
0.06804394930031826 0.12352628987616124 0.0281404620830016 0.021001431578613308
0.07233175017095529 0.13443172525616728 0.02009065538514322 0.020860112024629264
0.061544071726079494 0.14171073414429913 0.03041900884651975 0.021729580375278335
0.05937763512574165 0.22196251178867657 0.02399679559068147 0.02486309945936966
0.063066844956942 0.23422899951357684 0.017654664067646136 0.029661773839011155
0.05553974153490296 0.23642700109269915 0.02921222710604692 0.015345111775493773
0.06066816393057615 0.20265633737786015 0.023638994812599415 0.028943007383188814
0.058112787018546025 0.1868431350292511 0.028782799062498417 0.02469439618769467
0.060754056407664535 0.17536126830443002 0.026499843241232248 0.023982558288991828
0.06743699377192848 0.15345980569326598 0.021097894058120355 0.027396349525690554
0.06684535189162426 0.1668865304633475 0.019690231834996116 0.025425327966177916
0.05947940052160394 0.15743134939668046 0.030592091305549393 0.024527072332250578
0.0584343628485864 0.14357177631322596 0.04315496385263411 0.013404757329628373
0.061530126406375625 0.13052917832150424 0.03654363015388306 0.019158217115684075
0.058110643463244314 0.13564757126158633 0.05186933314150151 0.00611688445330397
0.056456185543722705 0.14466817436833695 0.06645332998493794 0.000585459421270128
0.062066786023554074 0.12235794654858476 0.0451770227681781 0.011862645446971529
0.058127368920524426 0.1293172671641699 0.07709812689308805 0.002819970766151078
0.05668685883977387 0.13613330278471225 0.08949300057253633 0.00149263671782881
0.06286470831365384 0.11556878883144317 0.059571794661394055 0.0033644239803911017
0.05556471492735389 0.16947835991033355 0.043672392553769715 0.01109832131647186
0.05379989248879455 0.19190697462891984 0.04407431544020147 0.00807296783192627
0.05434259533149231 0.20180771131302147 0.036544273875589374 0.008253470175673704
0.05722030440343526 0.15564239004283414 0.04223762606927431 0.012041352518173955
0.05482280828653997 0.16257780784488796 0.058839278663039944 0.0013810916738940726
0.05529915490279885 0.1484190731682594 0.08572139491587367 0.0002575827825947972
0.05495044987280032 0.15709983378623443 0.07226324377554194 9.143259724119204e-05
0.05632971428058302 0.13487541706672287 0.10197015408286252 0.001135162184513754
0.05536694090569151 0.13764144517398932 0.11609632912774082 0.007068129688402701
0.05738259931217783 0.12505336204054263 0.10828780355806134 0.003999377687884858
0.053059550512626744 0.21675383904371995 0.040739301676088024 0.008402762996108398
0.05238001222941102 0.236984396554772 0.04199880984177029 0.01276178627749628
0.05233504540884702 0.20780803620230032 0.04791419041060803 0.007592216616174547
0.05137687654464963 0.21936439583830053 0.05728030738236811 0.002968101703336092
0.05270658750707914 0.18947445986274547 0.05934195106945491 0.002201703164244539
0.05360934302095296 0.17735805940463295 0.057900427429949455 0.0012139580387387511
0.053032095754355336 0.17855544314807859 0.07267173166546056 8.69178277275773e-05
0.05209506293121755 0.1791388956291543 0.09580585389868858 4.393138443102654e-05
0.054339144723232924 0.15259005544043863 0.09898051868826516 0.00021000367974183116
0.05070377721702271 0.2581399053950372 0.06881086959210074 0.00013264476222223803
0.04994954952952713 0.250176408756946 0.08946623906551836 4.9492529755904345e-05
0.05055602335123262 0.24468578734763535 0.06993659006701254 7.82843505107421e-05
0.05025082095081918 0.2609292343666759 0.0830796074286257 9.665645615533986e-05
0.04931743937566277 0.25134528558109437 0.10841214160646809 5.812661600001253e-05
0.05127928316344317 0.23028436466889035 0.05266246043626219 0.0037823974514255504
0.04945967575352327 0.23997150736670075 0.10249688188702777 5.768625218077557e-05
0.0489819331099659 0.23949340334181246 0.11657538657997725 0.010642169822221102
0.04996661063732606 0.2357754710685196 0.08957680473143759 6.104266177151209e-05
0.051569308247584274 0.20830161622542526 0.06381356248540587 0.0001424490626114954
0.05039341945535171 0.22577722720575713 0.08131492132397175 3.85618983031316e-05
0.049277913955333194 0.22342744954463264 0.11358269730322404 0.004330856549056196
0.050833808676629254 0.2234065478099794 0.06975348210388403 0.0001543726192232069
0.049972254455810584 0.2196706758897719 0.09735274898717258 4.286045749208156e-05
0.05080639717165818 0.20401237838129527 0.08939949028722347 6.967991858559503e-05
0.05099507204750617 0.21191360754661448 0.07658899489147794 8.171799874657756e-05
0.05153160376084727 0.19994112557869417 0.07603796484695727 0.00011685620230510815
0.052404965915701894 0.1600848798629314 0.12889180613565115 0.02666307081752648
0.053114186869484756 0.15008629064075973 0.13867280472998325 0.04730706059320854
0.054778198190338 0.1383934468131454 0.1283860480928166 0.03470242847877982
0.056087940304373446 0.12766364655734172 0.13273378050268556 0.0656725748945108
0.054427304657725786 0.13769634064659045 0.1431999162568535 0.05582286339755774
0.05116624972944826 0.18758735428430826 0.1047673586799818 5.674889101982434e-05
0.05022561247336882 0.19370594480024683 0.12060235584474867 0.019774218498756085
0.05050497417287913 0.20118268604397363 0.1016739772640728 6.691660391651082e-05
0.04941271937407366 0.19805132584467308 0.13739954314318653 0.04658342742937536
0.05286103471565861 0.16696190843038608 0.10089244206467746 7.294056286518605e-05
0.05159395142286731 0.1737728643470986 0.11963256312304354 0.017496339818253537
0.051108469821815626 0.1732738937393668 0.1349288664236428 0.04105976992834403
0.04852353179821672 0.2384970943744322 0.1302154304572017 0.022941162463905273
0.048614558899111066 0.26000383797633236 0.13186908169583234 0.03418831074727564
0.04813082989690854 0.2526030691122194 0.1442727582640093 0.028075069067641817
0.04974890573935176 0.20824779350740064 0.11446710950416775 0.0038367164336936773
0.04930637416009102 0.20752402302594292 0.12752809524746625 0.02825239128640904
0.04883815853692282 0.2209665329814454 0.12787512989476446 0.023596330633188146
0.048686088430133244 0.21425024183205785 0.13966850604208067 0.03223953944949069
0.09188128410266501 0.10427541506539384 0.019853881460444214 0.019939489053265293
0.07940507191636331 0.09458057717169951 0.038591796237687964 0.022732672512010787
0.086717170197766 0.08497279138523137 0.046544153385469945 0.010173242626295265
0.09161349811968483 0.08566989480108142 0.035202092310952365 0.02145999320347958
0.0947479478543251 0.07583596384857251 0.09675805969249429 0.008143284437259085
0.1035190196618535 0.07020992249884267 0.13174953182778917 0.07878742151397863
0.0919131569813017 0.0755471913347185 0.13125580739455722 0.07599097802588127
0.08155250144998558 0.10710307414001269 0.024515631256661303 0.011714213949074253
0.08618652545888084 0.08324241097865256 0.06665611647118933 0.004980277515811393
0.0838243489612595 0.08464912907773728 0.07766923757619758 0.007174606573562239
0.08418104720158859 0.08342676844484725 0.09221225174755412 0.007381995632218368
0.08050329677003569 0.08569632751293593 0.1046829455229367 0.007093474624526986
0.08295648756831112 0.08259112181727263 0.12168429792826549 0.05296406566651507
0.0860701907886974 0.07898274826779259 0.1440205184967917 0.07494927225854861
0.07043902155841718 0.107073274504314 0.03870138431902657 0.01768743300321727
0.06964434186642043 0.10287331257545898 0.049143186604286244 0.011156121942408276
0.074385956112926 0.09466227752513987 0.0646025041747219 0.006495422053899758
0.06676535410754186 0.10520646223416913 0.07277305451227568 0.0054197779606929355
0.0729636289603198 0.09585663143937044 0.07659835207773508 0.007846287989707788
0.07495587095514167 0.09156809327199822 0.09290973922737995 0.007327566223738761
0.07234238038702208 0.09422613729989181 0.10538431904692754 0.009312446447092834
0.07029803134840486 0.0959777809126903 0.11974175667048725 0.02161317540029994
0.060058957989914785 0.1197960833728387 0.0900680030516326 0.004597863019893664
0.06435736416808965 0.10710235492663453 0.09332995602217975 0.006488174065568639
0.06159416126599946 0.11253073953796851 0.11020647816181643 0.006208483961119489
0.05752575671422086 0.12267447178211782 0.1209182709186836 0.03659347219462042
0.06261756634136453 0.10719162705244599 0.12911288332824894 0.058839871960601225
0.07257306112669444 0.09155529215858049 0.13713584739228998 0.07369453716485806
0.41703359001739104 0.3498320029093662 0.14501506845779086 0.06458776478446936
0.44262531168690045 0.26407074996413576 0.1477924783346446 0.05434646771514388
0.4331989955365289 0.33441161634704636 0.14984881160730912 0.041661847734491095
0.43471889860004753 0.12963705415753118 0.14582994322422466 0.07651754868043575
0.44489402112644666 0.22340311799244875 0.14953239170759017 0.054473133188380304
0.44400995335316146 0.23521952187175818 0.14898725658962614 0.05479177044419396
0.4423970022479035 0.1989976864222453 0.14833901193278412 0.03838702944041867
0.42884784491411015 0.10940916547407473 0.14573074671427105 0.08520435029825622
0.4172332179968059 0.08776883529723946 0.1484740009748495 0.08683643517235329
0.40805474422971194 0.07911489670161918 0.14909906298237463 0.08305698844011576
0.3465722027042861 0.38296290523229565 0.14737622271286485 0.05091466687912438
0.29910442283753624 0.39181840208349805 0.14964936645283716 0.0482114976656605
0.2627791259382806 0.3908769649214354 0.14623622109031315 0.06473812368000872
0.29933703304141623 0.06008215927198393 0.14624968557101647 0.0624030960861762
0.26634039318502917 0.05541409632436992 0.14980002399830686 0.05956080033884631
0.15784581720629393 0.38467880326621384 0.1463620390042925 0.06410093097100011
0.12139758809857332 0.3777792102800804 0.14554807730349573 0.08549990429881574
0.2208982564067434 0.39429122601965216 0.1497982688950619 0.0522450580943856
0.14341307360034614 0.3835885625495126 0.1481647721438921 0.07429585003606012
0.10771946101741736 0.3766097808976391 0.14921643835760431 0.07017101764751484
0.14650516435214403 0.06280119897451508 0.1460946410116768 0.0818794120459842
0.23174292935906907 0.05708201819624309 0.1489979332676981 0.06328597293614055
0.19632087909967055 0.056639068739200216 0.14968813817812193 0.07090695467770874
0.17755460104334336 0.058674116226440004 0.14908523425718126 0.06737940529306825
0.08548809610861116 0.3642333155699382 0.14895109612465443 0.0844913820413859
0.06337159512733505 0.34054312492202404 0.14861617733051907 0.051565832645371894
0.055539133308906107 0.3223692232079434 0.14614713776477709 0.05925035802887214
0.046238635037439184 0.2839587027089327 0.14939427070619882 0.04332841247899933
0.05017167604699822 0.17842028847053878 0.1461158165076015 0.03575388817901551
0.04790898011416905 0.20457628139789283 0.14770865232187855 0.0530387933053251
0.05442300762086123 0.12577187035286425 0.14826224504926477 0.046773511882641436
0.04876333681474942 0.14582572085892215 0.14991061871002256 0.03562987407487049
0.04559363776244397 0.1920832172264803 0.14980025306896871 0.05077708825316312
0.10279446430873539 0.06918102078405733 0.1473991776875108 0.08149644552045616
0.06057885585046503 0.10684206171398623 0.1482733972521075 0.07708980813336924
0.07009982987763655 0.08758116663842579 0.14982136403577553 0.0742876514029164
0.39701541977188837 0.3750145082756139 0.14999058842658997 0.066879245177057
0.4168043252370497 0.38657032458769536 0.14999058842658997 0.027461321028701764
0.43356699918746905 0.3856170790660019 0.14999058842658997 0.005546273723666605
0.44759746614619683 0.39162260051707865 0.14999058842658997 0.008642785398893776
0.4212089079155443 0.37231786898551417 0.14999058842658997 0.04891716128322436
0.432946190914465 0.3724607335901223 0.14999058842658997 0.033024152689381074
0.4295136163028048 0.3509163479171717 0.14999058842658997 0.053118440325374154
0.4465271318530282 0.37228528761102164 0.14999058842658997 0.005765589401664626
0.438108408479142 0.3593168400021686 0.14999058842658997 0.039836280733010584
0.4432258460145872 0.3482592098393936 0.14999058842658997 0.04051809592454859
0.44571568683819407 0.3241478314075612 0.14999058842658997 0.04926672172502653
0.4565969997323081 0.3468412031822867 0.14999058842659 0.010737188720633383
0.4447778497052739 0.30891882712692936 0.14999058842658997 0.04605428666165901
0.45193153431947797 0.33479174335616535 0.14999058842658997 0.0400905134063433
0.4612087624417297 0.31205537971988195 0.14999058842658997 0.0489170330006721
0.4547924941686765 0.2392045608178942 0.14999058842658997 0.052309762497376684
0.46001820361121426 0.1651702357373292 0.14999058842658997 0.03114457052420454
0.4644738668683591 0.23139591506328147 0.14999058842658997 0.02729971414604567
0.4482332193700475 0.2744452697091607 0.14999058842658997 0.05357583692582886
0.4558331900233699 0.28548844507083504 0.14999058842658997 0.04915408638565203
0.4531201385990524 0.25311449617005416 0.14999058842658997 0.0565423985341588
0.4634045102546047 0.19421336018548996 0.14999058842658997 0.03478627947404672
0.4551866732099292 0.2116402651131158 0.14999058842658997 0.03974127670718335
0.456693560868828 0.26542579320191495 0.14999058842658994 0.05318729788342827
0.4604694804647298 0.10444142461857307 0.14999058842658997 0.005823051450060307
0.457940912052894 0.11716854351905186 0.14999058842658997 0.04747894556931683
0.45400795848023323 0.14543143274742912 0.14999058842658997 0.03806420455896977
0.44993997159694765 0.1829935169491788 0.14999058842658997 0.04385366719637165
0.4574966861971641 0.08965599754292704 0.14999058842658997 0.004940895312239093
0.44907344420888035 0.1559194056857026 0.14999058842658997 0.03957189790059656
0.4583122595874334 0.06495045601379126 0.14999058842658997 0.0064064076346942705
0.4470721509401273 0.123740750744361 0.14999058842658997 0.06735430275203444
0.4430177026099351 0.13735895744572582 0.14999058842658997 0.0440098413563171
0.4442545806680499 0.10954127999245131 0.14999058842658997 0.0636572234862949
0.44492590739344196 0.07868953697945874 0.14999058842658997 0.013132978265830755
0.4403862508392141 0.09888298471746242 0.14999058842658997 0.06145974995943111
0.4459135394296404 0.05893127889665453 0.14999058842658997 0.006086400030325668
0.43133623652921815 0.0774208802359737 0.14999058842658997 0.04191483443242167
0.4279995215838375 0.09652227814496964 0.14999058842658997 0.07975001662546806
0.43522838010760956 0.0657243372853665 0.14999058842658997 0.023608079594933037
0.4331046409732847 0.053981661549764554 0.14999058842658997 0.005159262192330009
0.4184437820512049 0.0661975721232528 0.14999058842658997 0.05153881941294897
0.43995346116852524 0.04000932890409538 0.14999058842658997 0.005855208517529651
0.3980211039732693 0.06000137871618611 0.14999058842658997 0.042730854027578
0.420178252136596 0.04584090367186379 0.14999058842658997 0.006727497999870402
0.4077058043651924 0.05003041076019004 0.14999058842658997 0.022553793580968227
0.3920264086421722 0.04930851438157239 0.14999058842658997 0.036540118189309974
0.37612847624662915 0.04941223408358581 0.14999058842658994 0.04622324089165074
0.3437825360553738 0.051374233632708245 0.14999058842658997 0.056860389194890164
0.3310350597722912 0.05662002505624668 0.14999058842658997 0.06750451568163923
0.3633048204856719 0.045605969756428985 0.14999058842658997 0.04754114212042418
0.31627671975254673 0.05368461808987841 0.14999058842658997 0.05718834322335659
0.38942211951044026 0.03710393310518305 0.14999058842658997 0.010887264536531674
0.4269678116497065 0.027102627762928377 0.14999058842658997 0.006785336639853234
0.3529986486634448 0.0406126553632727 0.14999058842658997 0.0331291870047273
0.4032185368828669 0.030760332484958165 0.14999058842658997 0.006330162497726333
0.37333913457961926 0.036873380557694777 0.14999058842658997 0.01605693191128849
0.25617534474279907 0.04392215442685398 0.14999058842658997 0.04931911830127907
0.34126396598077524 0.03660624501738311 0.14999058842658997 0.012136426294542925
0.29407781323014753 0.03792328423341776 0.14999058842658997 0.041931693092771866
0.2769918534227002 0.045044150505871176 0.14999058842658997 0.03991432617065665
0.3295713759228954 0.02787706437567755 0.14999058842658997 0.008920457986497828
0.2707983473798486 0.03413239386412373 0.14999058842658997 0.03735113681343779
0.3081236269055834 0.030969108048945083 0.14999058842658997 0.012791800578059257
0.38339301229924017 0.027242311655292756 0.14999058842658997 0.007856488101865166
0.24516114609692802 0.05108785677046696 0.14999058842658997 0.05818768204237623
0.3152925290453318 0.0410904924152467 0.14999058842658997 0.047886948257670585
0.2140266674987511 0.04871850334272031 0.14999058842658997 0.06486702437045576
0.22576989953897175 0.04312414848447321 0.14999058842658997 0.06246797342954469
0.2344999292526496 0.033174911196311094 0.14999058842658997 0.03576032925807176
0.17269907572957421 0.03076963727907345 0.14999058842658997 0.013003421711678917
0.18383708818714387 0.0414025425015595 0.14999058842658997 0.03911579267524974
0.16307620718751112 0.03763554139904163 0.14999058842658997 0.029199186127763437
0.15200165354011752 0.03241629295776445 0.14999058842658997 0.016923335464957785
0.2019311005429103 0.0366595729604152 0.14999058842658997 0.031430746658995486
0.18419118879758573 0.02856556570633914 0.14999058842658997 0.015867353102587294
0.21851901302579307 0.031645614241830905 0.14999058842658997 0.019137741754794838
0.15665889169631267 0.05601186655007199 0.14999058842658997 0.07723703377414144
0.16825231992487522 0.051664720015169946 0.14999058842658997 0.06822680533134275
0.13386513067732603 0.038822836580443325 0.14999058842658997 0.020726641986824626
0.12441526597086335 0.05985504848777434 0.14999058842658997 0.08484359613475244
0.14204981553075738 0.052416593881461526 0.14999058842658997 0.059966752307693494
0.10946348083889933 0.037901101766655766 0.14999058842658997 0.016546641751681586
0.09520282002717756 0.04677328893811016 0.14999058842658997 0.023510445293813294
0.10466749469105588 0.05361399886545794 0.14999058842658997 0.05788492082795663
0.07998946545905765 0.03738977988471065 0.14999058842658997 0.0068830700274849985
0.07675472861676902 0.07413974562883931 0.14999058842658997 0.06639036712927164
0.06956367452364023 0.05857765403170896 0.14999058842658997 0.032091849867923995
0.08345613810179017 0.06381226024980335 0.14999058842658997 0.06007199229104678
0.07763779818352545 0.05030792773334131 0.14999058842658997 0.021896103729954486
0.0643461751538842 0.04373200698055019 0.14999058842658997 0.007915258069748408
0.06251807776306526 0.03250540217460486 0.14999058842658997 0.00702279061791684
0.057603523898662926 0.06509171029227559 0.14999058842658997 0.012519008359325155
0.05132620882687274 0.043241163303363805 0.14999058842658997 0.0066448230156808405
0.047533059337079145 0.05494960673773569 0.14999058842658997 0.005934149102195522
0.04174970501167392 0.06538752251988726 0.14999058842658997 0.005424439952572342
0.043858587592818576 0.08550939481830842 0.14999058842658997 0.024187624970725206
0.05190578532985862 0.09379535791376498 0.14999058842658997 0.04518823741496853
0.05032633406804944 0.11255307025573133 0.14999058842658997 0.052542389687488596
0.041661197439458286 0.10357053723753666 0.14999058842658997 0.04336279449217847
0.037253989683874174 0.12153242802058976 0.14999058842658994 0.0440539458303309
0.04397191111862796 0.1334260706541029 0.14999058842658997 0.057157661762235426
0.038026290951367156 0.16132035301870848 0.14999058842658997 0.04533993394181254
0.035533718621592034 0.2665252558396016 0.14999058842659 0.059840706863986765
0.03897433708068334 0.212533763330427 0.14999058842658997 0.07180945778650624
0.036759645629954145 0.31018604743046163 0.14999058842658997 0.05001743462967423
0.03729286757703881 0.34490754433138976 0.14999058842658997 0.03673228075477534
0.042994000377180236 0.231637539151147 0.14999058842658997 0.04223511126402405
0.043499942904315 0.32039970458258227 0.14999058842658997 0.04713622624645919
0.038225594873792915 0.37883434508156644 0.14999058842658997 0.0073603913544632365
0.04412194886708594 0.3593491612485168 0.14999058842658997 0.018331023987314655
0.05255541841730111 0.34906136508991237 0.14999058842658997 0.04389572591567425
0.058671210756408014 0.3590500355801871 0.14999058842658997 0.04082804162302075
0.052783156782116196 0.373997546826707 0.14999058842658997 0.026285014721858846
0.07150850752323584 0.3607285632856986 0.14999058842658997 0.0793762203083253
0.0573148310992097 0.39242676266832616 0.14999058842658997 0.0057123936543954845
0.09353863955513722 0.3743852722178638 0.14999058842658997 0.06864128958583318
0.07037420674083893 0.38407243351967263 0.14999058842658997 0.016968993405938486
0.081533421845877 0.3787780619727449 0.14999058842658997 0.07496095239291854
0.07906964666810302 0.3934321013344326 0.14999058842658997 0.008949675813206036
0.09865289208787911 0.38547109076964137 0.14999058842658997 0.07881936004653972
0.06783781770435486 0.40585688387114105 0.14999058842659 0.005549243941682063
0.12267304303535818 0.39131009565051733 0.14999058842658997 0.06335210400722677
0.1101648393434867 0.3888673757874066 0.14999058842658997 0.0626188940707229
0.08756836492394776 0.4054674788060106 0.14999058842658997 0.004277245383548806
0.14132887688610604 0.3952917097677233 0.14999058842658997 0.054402245860177965
0.10755083382674206 0.4057345354102898 0.14999058842658997 0.020492360392522828
0.12993556522746952 0.4014798351650906 0.14999058842658997 0.03532556331677454
0.17915346166207355 0.39682066120008885 0.14999058842658997 0.033919388642928906
0.2012903731562716 0.39620589885444946 0.14999058842658997 0.042253171303627365
0.1522035103061233 0.4042532987639634 0.14999058842658997 0.033373169287772016
0.2674438961607003 0.40495068370192766 0.14999058842658997 0.03765131873791757
0.1671083102157905 0.4158747595857018 0.14999058842658997 0.016418120278993344
0.12765901033846688 0.4133410381509996 0.14999058842658997 0.011739488431974929
0.28693235979251025 0.41216150674134305 0.14999058842659 0.04290279558908119
0.2163280730519947 0.40719490547127335 0.14999058842658997 0.037835160400404966
0.363821153779251 0.41230424681452493 0.14999058842658997 0.009377272544946209
0.31479433774317506 0.4156386532877773 0.14999058842658994 0.01975608624768638
0.22947843224903022 0.4139025072908551 0.14999058842658997 0.022480393131712968
0.153392517620894 0.4157290787843482 0.14999058842658997 0.02123516877666731
0.34720352878700184 0.41594178494032186 0.14999058842658997 0.016573332467793495
0.30034679898216465 0.40688353782827336 0.14999058842658997 0.033244122218198016
0.17911793940312948 0.4115828173747861 0.14999058842658997 0.0159430563081993
0.23052000971087033 0.4026366115787034 0.14999058842658997 0.04702065400734352
0.19522207695867583 0.4084620767607918 0.14999058842658997 0.03521062107662011
0.14007331593732514 0.4106036321740266 0.14999058842658997 0.023506237103611483
0.37807764849070463 0.4144141164526367 0.14999058842658994 0.006915798501716942
0.25167805942648247 0.3961561285942946 0.14999058842658994 0.032771156249004625
0.3375163057914179 0.40630711317320445 0.14999058842658997 0.041000176000339124
0.2737931754631747 0.3952978582505698 0.14999058842658997 0.06111929931557581
0.3108393316756467 0.39683171993176053 0.14999058842658997 0.052193584530079114
0.3252529286823357 0.3955362813371636 0.14999058842658997 0.05005436827229127
0.39888677026682334 0.40561238537601507 0.14999058842658997 0.006785566966862639
0.42447845017322033 0.4081456218702058 0.14999058842658994 0.006263924279296286
0.34889794487074305 0.3961149571568972 0.14999058842658997 0.05061560278655567
0.37796152958798984 0.39883655469270984 0.14999058842658997 0.04643180981171799
0.41117797016845226 0.4038458786875544 0.14999058842658997 0.006417738348611626
0.3638567572504758 0.3938254048320814 0.14999058842658997 0.05671865713825754
0.43811020044942695 0.4068662521797465 0.14999058842658997 0.0055750223473531495
0.39290292985825725 0.3862239376140153 0.14999058842658997 0.07506334813154475
0.3789215527121242 0.38575866133682696 0.14999058842658997 0.05637340971400634
0.45123666157263254 0.40508932363617156 0.15079204334495758 0.0077369639380101395
0.46274717831672807 0.3868065043344105 0.15054826125314208 0.008870730616467865
0.4302452754071031 0.4211420901909113 0.15588758253044566 0.01053776022581148
0.4708055015837571 0.3556262392294337 0.15629463371627175 0.007503433846457825
0.4647986222427804 0.36485882621728516 0.15028133586257006 0.005208852790220787
0.4709176607543698 0.3434367444421043 0.1564079856350733 0.005723498724770784
0.4717501069401338 0.3075110117688062 0.1572403660786497 0.005262060062473226
0.47022414773296684 0.3298876104994164 0.15571452738365296 0.005606864727585211
0.47209807528425923 0.27723061754441025 0.15758830694207962 0.00908019633337133
0.4684797045735021 0.20453097237638446 0.153970221991063 0.01291493501019182
0.4690363703357342 0.18426708800748023 0.15452684379078374 0.020096474276677902
0.4651028340488191 0.138004442751412 0.150593618153716 0.01849591863544396
0.4673881751013515 0.2921228347923207 0.15287877872212483 0.016766446361366545
0.46630616118028567 0.219520708646226 0.1517968502527836 0.030882860255237697
0.46866919459869694 0.2631217102548439 0.15415969705134003 0.011248952791896534
0.46637129583613796 0.24430346208420017 0.151861979764646 0.03136152565864777
0.47410197522462216 0.1397971381818592 0.1595920486250464 0.00628577261505348
0.46893234961493946 0.17076657121682814 0.15442283128499418 0.022042583597534336
0.46895038901046554 0.12124694770420008 0.15444086925586442 0.008140608942572385
0.4674592472343231 0.07339485059300904 0.1529498452421961 0.005866439254238156
0.4710860283088907 0.10224005277808432 0.15657633989281705 0.007625556898766091
0.4659168922750093 0.05211930952383448 0.1547248056965309 0.007870558276581617
0.45618169624846683 0.043493591832386595 0.15033424974778606 0.007105665601669599
0.4595930018177614 0.03360967795908153 0.15937864635799562 0.007594768501062068
0.4386516108830625 0.025697427211276824 0.15404409785188866 0.008359572593728172
0.42173937425728636 0.018819764311214866 0.15767353307808019 0.00808017437357554
0.4143827386534166 0.424726513962082 0.15871666139299584 0.010606807572313599
0.2051382951453843 0.4173078140335974 0.15129787302030617 0.010362464317619289
0.21818399960726192 0.41876847793466204 0.15275855433510344 0.011287156172729702
0.27744794778405346 0.41827680385432864 0.1522668743931334 0.018258144997866498
0.26466536357428116 0.41705234852335316 0.15104240446445488 0.01686675018278855
0.3578572354248972 0.4225331421899684 0.15652326347195789 0.010634752304333788
0.25207678821704643 0.4164438141811344 0.15043386286741567 0.033930427425295825
0.19027576604661645 0.42121395890023283 0.15520406445519216 0.008329713637697429
0.25660741264984954 0.42527317158719696 0.15926332553524994 0.007603085308365651
0.23965701429065656 0.4236423679071478 0.1576325024130968 0.008068219860008457
0.12243893521975 0.42412434027391266 0.15811448052583643 0.006650682156200456
0.11338823591126129 0.41814009400447116 0.15213016291344947 0.006300968585345257
0.09016305184291716 0.4195246459887657 0.15351473140408617 0.004409802254213378
0.201056724207707 0.4253341902897463 0.15932434496525155 0.006036871650860329
0.4100159732637937 0.0209482921681012 0.15554158124947876 0.007932686651323812
0.353794807866578 0.023188517492373516 0.1533015428598964 0.008090171789552587
0.36802894110057843 0.02636620590444889 0.15012411960873656 0.007621518423312031
0.28817987468668516 0.021794106577597984 0.15469583741862095 0.0071180525728629625
0.3977804320594245 0.01773478934211096 0.15875481592603427 0.008495133908611337
0.37054988359931407 0.017957106777838995 0.15853251704149413 0.0069762854225457385
0.3390693300398103 0.019473071757109384 0.15701667856130408 0.006633757448729134
0.3126429986389368 0.01986318257448651 0.15662660029656528 0.007741919215759102
0.20393439408475514 0.025080646753530025 0.15140957148669557 0.010452315071126992
0.24317912981368853 0.02566680452132617 0.15082346263059568 0.011100132670753084
0.21435010746706554 0.017624874038453968 0.15886472205785349 0.00627226727263794
0.1798971810624318 0.018653190383306133 0.15783649152044 0.007404216600160525
0.11337723126159248 0.024618132722621058 0.15187204692330958 0.006416434928821923
0.14381298838434506 0.022772018589453782 0.15371800700823476 0.007664935290852504
0.13346073008189024 0.017787210012707305 0.15870239962965943 0.007725289870270025
0.10180105311388185 0.023075644415686932 0.15341440651793503 0.008554179675490886
0.09046717981983564 0.025681177743911893 0.15080909060737768 0.008289941803593609
0.0588179579190374 0.41373627079747555 0.15226000064217055 0.006185325885655108
0.047788469968847 0.4130004986238627 0.1574032602814291 0.006786246506454435
0.07128899617954214 0.418365368263499 0.15293806250333616 0.006862397063539821
0.044712513244340404 0.4002017508058289 0.15044607215025907 0.0055106107714643394
0.031518244631441615 0.3868052133526018 0.15597126260565966 0.00812928236956346
0.034335212626629336 0.3296340150149355 0.1511557769254385 0.03740677755156265
0.026762134521464545 0.3675968335177637 0.15872823438176728 0.007570816697468405
0.029184781763953824 0.339211659485242 0.15630578568644343 0.011079149283892678
0.03321862033715566 0.24231530269931484 0.152272277705001 0.053474733113013775
0.03329054506303142 0.2865445955521959 0.15220035887368977 0.0436012332420313
0.02822162054618559 0.12260764236828017 0.15727505246262835 0.020427724918599646
0.027772925322091517 0.2773413073350182 0.1577191753934712 0.04206912638562877
0.03423584587943649 0.19323949454636438 0.15125565748593922 0.050452083775334736
