x y z curv
0.0854783497149649 57.391169434858725 334.9742502034326 0.0027427192397912127
0.11476521888517043 57.37585641026571 334.9742502034326 0.001169464561631091
0.12205153673749204 57.29408048414207 334.9742502034326 0.0035448176347673914
0.1048016507882423 57.28947095005376 334.9742502034326 0.006023605588530396
0.15972535689751333 57.31077316041788 334.9742502034326 0.001134502861094687
0.11202091682173575 57.2977654706298 334.9742502034326 0.0024907707471467496
0.08971651477543995 57.29208777403366 334.9742502034326 0.0035873942931686728
0.15690475559438882 57.30062654368146 334.9742502034326 0.001537249194390542
0.1319266902337903 57.30554317954624 334.9742502034326 0.001525354618270309
0.09798605323310794 57.40323609432056 334.9742502034326 0.004304514967477571
0.10904820026097417 57.3992418069746 334.9742502034326 0.002432905744831837
0.2149981054259751 57.302431149434284 334.9742502034326 0.03607168162528026
0.19196686766295268 57.310202126260386 334.9742502034326 0.0012323001536492036
0.2328792833038058 57.31382880997559 334.9742502034326 0.09891638488495148
0.18390015981914443 57.301951521777056 334.9742502034325 0.001843555243498991
0.16824112554807066 57.322701136443854 334.97425020343263 0.0010612793408786348
0.17161852117661058 57.312229085982906 334.9742502034326 0.0010779592215948662
0.21873913873484443 57.31467597323281 334.9742502034326 0.06462270733081268
0.21674805191924745 57.326508426713616 334.9742502034326 0.0727187935214738
0.1862116547142897 57.331486704238294 334.9742502034326 0.0010794993949926122
0.2179713022738794 57.35486089024566 334.9742502034326 0.0926459733777175
0.17646554714656276 57.339963371478255 334.9742502034326 0.00118635366057651
0.1959804287388423 57.33942793138661 334.9742502034326 0.015404421092752198
0.023534159032581686 57.359439398569776 335.01939704321546 0.010414808008427274
0.0244369231584195 57.30840723689977 335.0142490264131 0.011415189559777567
0.024021135905456986 57.3229482472272 335.0163630939984 0.010313306963043944
0.02323631942352082 57.30084477676109 335.0218359168804 0.005500730422607934
0.02318215791442152 57.40319491913147 335.0222794209483 0.0068038807354037865
0.02480528405552677 57.382025945176885 335.01252584407104 0.01630245999376685
0.02483698014283661 57.393107070839875 335.01241239311844 0.01509985775559799
0.02576709955492372 57.35960790352256 335.0090831830403 0.01695779979526193
0.02491700543709591 57.403088057339986 335.0121259556861 0.011499938060635687
0.026149903144006892 57.33986537172414 335.00781559287134 0.01736272841509565
0.02864370535692485 57.28919986714472 335.00167399747164 0.014804520235602203
0.028071366537517413 57.34735521715632 335.00287344079715 0.019607424067106687
0.029327824713779642 57.35697584568587 335.000240297068 0.019997259006359642
0.028867606713833392 57.406176320991676 335.00120477019055 0.014063775743697148
0.029648423811753845 57.29826146906072 334.9995684215369 0.017649514770777947
0.029835159540623102 57.378797328339175 334.9992391964079 0.02208598678571263
0.03147522830627439 57.33452612195694 334.996495332894 0.021059875227183493
0.03456008925877193 57.39999158193696 334.9921480577851 0.018576195697722037
0.032495973298171346 57.390115233413404 334.994944334855 0.0210941718612462
0.034553089271742374 57.290312148873674 334.9921575407326 0.022580433321049732
0.034336526874523404 57.3535079246582 334.9924509198242 0.020599518756319723
0.0347607109805707 57.30313295991968 334.99190652100174 0.024065742504690305
0.0370891669976873 57.3384885832661 334.9893322202531 0.019387973633880548
0.04016196424010562 57.386794414745694 334.98645196382716 0.018495812424336098
0.04009169443795193 57.31785412346726 334.98651552346894 0.01659076624976547
0.04304075203051492 57.411969782437495 334.984211824202 0.02054491895438452
0.0446279307493793 57.296240552788625 334.9830687720017 0.018136545743247023
0.04727052666510355 57.3704168325785 334.98148919671803 0.018135091454337116
0.05076067042399803 57.31456693969251 334.97969987484834 0.024065070994658364
0.05159005025019202 57.3397741644351 334.9793041186434 0.021308802008611048
0.05359652264808911 57.30139076451807 334.97846495431133 0.016433027527140476
0.0553903848527505 57.33003663568101 334.977797452104 0.01478098493976489
0.06122037338011296 57.31170857173025 334.9760250790805 0.012543736235821772
0.05927647302029725 57.3643048710421 334.97656820698836 0.016307021686211693
0.06174468834460675 57.396291540429374 334.9758826709276 0.010573307402828244
0.0633096903550252 57.32336914706485 334.97557487712913 0.01372757655504054
0.06888802777813234 57.33365596847629 334.9746380103742 0.008994433007888046
0.0680979300518854 57.29390135058607 334.9747344986583 0.00837211416960376
0.0687251680808471 57.40337746798384 334.9746578991199 0.0070809704306115774
0.5192792541629894 57.360788140369735 335.0216375793351 0.005943340556588913
0.519151203759636 57.33240305904113 335.020589032577 0.007408179454738394
0.5183417506264352 57.312858300995956 335.01546337720754 0.013197506357250031
0.5185457773919406 57.29179429140679 335.01650084572964 0.012263388703878612
0.5194478993140261 57.30261487810793 335.0230185380963 0.006364154035608184
0.5181526451811127 57.38791044684413 335.0145017830442 0.010446169441236556
0.5187271979040425 57.410275402074475 335.01742336229313 0.007239496827744227
0.5174121646818138 57.33763580908678 335.0113718350285 0.017598907247320713
0.5169102391454544 57.30189353196014 335.00957539853283 0.017050867923624997
0.5177274825554612 57.3565821091656 335.0125003859687 0.014648136862995795
0.5166352502959602 57.320915694181124 335.00859118878583 0.0182057522821591
0.5166786000323448 57.397441749372035 335.0087463413789 0.013362329191680676
0.516480590942967 57.377407182152915 335.00805932653196 0.01709432772179826
0.5149924343880441 57.34670027234826 335.004060239612 0.02097187378439188
0.5140813753966085 57.310314434809776 335.0020622986781 0.018258836047755037
0.512912141568522 57.31969765654117 334.9996119499275 0.01734074766029416
0.512944843939934 57.40164876682054 334.9996804838794 0.017193528151366086
0.513259067988976 57.357362859915504 335.0003389992999 0.022328479829810333
0.5122130993306635 57.336490120673346 334.998416848063 0.02628430438173967
0.5123514367422263 57.37409890027563 334.99864828895386 0.023502826404740034
0.5107507928834458 57.413054462068864 334.99597038399355 0.01808806824222448
0.5095286040194912 57.34950426932223 334.99424636477966 0.02568731728040872
0.5084174155787844 57.292808745169594 334.99274102747466 0.02019604526133416
0.5096280459474825 57.365735489492636 334.9943810796834 0.023349135988620946
0.5086126722326823 57.3040363519411 334.9930055434779 0.018358300770477398
0.508673156358616 57.39561023848894 334.99308748188525 0.017435267772961383
0.5054617832100811 57.35672867373805 334.9893445533445 0.021787302174466373
0.5054397592975626 57.380466553304295 334.9893202040873 0.02033709860955624
0.504767651217596 57.3372620413676 334.9886135771027 0.021298495845784013
0.5030005937981049 57.28617437195784 334.98701525843427 0.017923105763407478
0.5017958417209456 57.36540340837481 334.9859255497952 0.02041891117052895
0.5030638911649226 57.41132006020479 334.9870725114482 0.02027132081312431
0.49896728400586127 57.29733126922749 334.9838193014142 0.02078896200041119
0.4934889559503819 57.33770721332277 334.9805157572527 0.01775178096162568
0.4926858904635383 57.32396553498528 334.98013255749385 0.017148101362343397
0.4925152372293309 57.30733462689956 334.9800511266775 0.018015353596254828
0.48991125687048004 57.36484315640362 334.97882514466113 0.016342397001968417
0.48876667858891343 57.40229278116627 334.9783992432026 0.014601691543984475
0.4816970682878976 57.289555891559004 334.9761305939985 0.01089980796975597
0.48511564253156736 57.31797485393851 334.9770857474185 0.01514203584537223
0.4827871984953588 57.37992179873721 334.9764351775827 0.014358680712203784
0.4844333361083708 57.39141247662097 334.9768951102502 0.01481901944679048
0.47911360159625566 57.39901017553027 334.9755519641286 0.009643820771355399
0.47457859702786986 57.348011932084454 334.9747511966576 0.007111802626367106
0.47564451881745307 57.32419433870494 334.9748813691174 0.010666164337039099
0.4737102924882109 57.299966745508215 334.9746451576041 0.008361628879872665
0.4718064730427785 57.374680735142206 334.97441265943905 0.0074129732932307554
0.4755213029779267 57.411460283264105 334.9748663217574 0.010288937343240632
0.4706757269647254 57.31514248751047 334.97427457051003 0.005735551669583738
0.13368683754844674 57.2498024555352 334.988249532156 0.01631599017043331
0.09883212692330215 57.25250823418976 334.9857735635927 0.00881958611200335
0.16396632276788725 57.25431588318182 334.98434305034846 0.013486673003458736
0.25110503764058084 57.25525509435773 334.9837090193088 0.010937036166249454
0.154928635956173 57.252718039983165 334.98570700450006 0.01129177796599599
0.12165506224344987 57.253783899420384 334.98473356449267 0.012707101876452917
0.18808608431910784 57.25583617822199 334.9831806216221 0.010425818415216519
0.29568390167636466 57.24929482701387 334.98872722602727 0.010910320799929792
0.24328833418947682 57.25372641816135 334.9850044020627 0.008990075803721251
0.27586287656247926 57.250356477055625 334.9878353711413 0.007782759426983776
0.40910238587696646 57.24999056082487 334.98807442468274 0.012238266679950822
0.3740745388321974 57.25343516299431 334.98511428234553 0.012715952870703678
0.34275501579711004 57.253295167757614 334.9852995964866 0.010422786740963313
0.4254547657546316 57.25318863678807 334.9852222783154 0.011467184851077982
0.3514832979119673 57.25381081161622 334.9848355658014 0.010322254616147632
0.3964962272689794 57.2545477999495 334.98415552709184 0.012981607411719838
0.41622377541972444 57.25502360444642 334.98379548845435 0.011030525741015573
0.44703922966737675 57.25611601698235 334.9829688664105 0.012554245265796446
0.2984579794845009 57.25653103491064 334.9826663986042 0.012164524386009207
0.32925227294385423 57.2615754485447 334.97986196854924 0.013150515122062847
0.31911783292724233 57.26161908402426 334.9798527244413 0.014810247954224587
0.35679777082680353 57.26141936234514 334.97990736245487 0.015233175199456016
0.34060000446222294 57.26151058089846 334.9798809751434 0.01489650798166938
0.2803199782943964 57.261724530391646 334.97985064510067 0.013735371382785437
0.45273105464373403 57.2647899933923 334.978188412477 0.009382228433429653
0.3715581954346107 57.26463668767957 334.9782615299823 0.01727250561945772
0.4624325605999513 57.263207639457406 334.97894311802406 0.010780264701201654
0.34852391512187786 57.26597991476287 334.97772875873704 0.017423550264332562
0.3951052691203775 57.267600348340906 334.977146921039 0.011140197766204653
0.4127114643223 57.26682444404228 334.9774255205915 0.014915593384471404
0.3050509620753565 57.26938367589058 334.9767020953926 0.02036164541970244
0.4041381300055339 57.273494516136495 334.97544306657664 0.012241539828296955
0.31870777444499543 57.27475258226456 334.9751539739573 0.015103787748839135
0.46646352420933257 57.27755776116184 334.9747398562858 0.009864441097069505
0.4560895526845101 57.27505048662043 334.97510999740547 0.008683866339205114
0.3363459888866176 57.28243437161221 334.9743354161317 0.007655652002032389
0.2867873622805969 57.28281031886062 334.97435727585844 0.0691783953968907
0.39403384696566346 57.278430985900755 334.97465982666387 0.01191428093178781
0.2933712728133101 57.275822772608436 334.9750350552258 0.05792281355557578
0.30823697769479963 57.27905001611359 334.9747007923868 0.045695567475395285
0.37225324337226123 57.27719603176687 334.97480681261595 0.011434900440428521
0.27204647722143716 57.27937906986442 334.97471140675793 0.06595019286888705
0.2525944367999079 57.27859226818868 334.97476738689613 0.048727144550728525
0.2296319009588159 57.282168832833214 334.9743892525532 0.03072541243993294
0.1640982463987308 57.28141281684462 334.9743857468241 0.005013130121979303
0.26358608532318195 57.28299744384998 334.97434820192655 0.06892668538920922
0.09447137710414394 57.282617129128376 334.9743224412559 0.011941899822303502
0.12080635255944909 57.27797067443553 334.9746788984576 0.01026955694764368
0.10565314582988361 57.27783937585673 334.97469828190384 0.012193733076954844
0.20011511384299233 57.27604886096146 334.97496260866507 0.01033106218210811
0.07410390083655918 57.2766394037335 334.974875430619 0.011380582886062113
0.21621270580335591 57.26818709259261 334.9770379959648 0.013284677163307638
0.22962431397570332 57.26841612535821 334.9769857695142 0.01531609580492756
0.08327405558430233 57.269703838886095 334.97640561112485 0.014708915573565571
0.25655181313594816 57.27005496504025 334.97652286193704 0.03831517706496331
0.15122730454655728 57.27286718195094 334.9755998830235 0.010190906230829683
0.09551532807794062 57.27298541558595 334.9755703278403 0.011536469553597313
0.1396084688943228 57.26293391180536 334.9790736713803 0.014166442454775259
0.1033967206619344 57.26231269647842 334.97936996147513 0.013595196074347414
0.23917318200369334 57.264611505482655 334.9782735391352 0.0176881113222957
0.077877880857724 57.26147099005851 334.97977141478395 0.010900876684076268
0.15129106901480532 57.2618993713093 334.97959903452966 0.014968382225015321
0.21789012985870726 57.25787793039579 334.98186777582674 0.012218682126310507
0.19697549610106374 57.261708454561415 334.97976695329453 0.014471697526996249
0.024099509356378508 57.28130088200277 335.01829644577094 0.008148555595168675
0.029144484011642685 57.2724113835728 335.00463829945704 0.016857392805709304
0.03642516698554128 57.269214358063266 334.9939468731112 0.01830300119702139
0.04295730497944282 57.26038540732364 334.9927112398052 0.020909661614479585
0.05657950500354676 57.26577105037578 334.9817015890245 0.019485429053294586
0.06804753320859455 57.26465530124889 334.9790629817429 0.014268474643475953
0.054428433307670776 57.27865050475175 334.97875004627895 0.017108591198897252
0.04276383235895593 57.28210058099174 334.9846199749459 0.021464420526596643
0.04701262020121448 57.27020544654256 334.9844962538843 0.020176959092467285
0.037098705542674054 57.27770630172275 334.9900056716208 0.019974881404297186
0.5176824578359093 57.28230179838837 335.01265601979094 0.012625542540542021
0.499232167971834 57.26356640008095 334.9901993272671 0.019692431979659985
0.4998466715763483 57.27563323645755 334.985661363245 0.022614113718630098
0.4933473497720394 57.26866469252571 334.98378162092024 0.019474208022220645
0.48262525503834736 57.267781710490766 334.97973345998537 0.018134574890692853
0.4890723076935526 57.27970894478494 334.978979399908 0.019638246822370895
0.3551514643433643 57.0849610080613 335.1653789574534 0.02155591430643878
0.09402090762172989 57.09002637416259 335.1602675757261 0.008667658593611353
0.27402979927320154 57.086276258980924 335.16405175831653 0.017837919504884583
0.18189736827008668 57.08833650285425 335.16197279843936 0.01738734535881174
0.16931921575779824 57.085598816695445 335.16473535473386 0.019390191790712573
0.2538827306168253 57.08776088993405 335.1625536404365 0.016768145802558525
0.34362251049325737 57.09025235167687 335.16003954534995 0.014414321725063333
0.31075776679846673 57.09008648024095 335.1602069236223 0.013157589981414279
0.4438002237175464 57.08777573718268 335.16253865831004 0.012567753286686209
0.36838004129164076 57.089835045538855 335.1604606424486 0.01591210125632494
0.2271767501240221 57.08927189572798 335.1610289081169 0.015533957538552039
0.42006169299359 57.086422435824716 335.16390425354916 0.017224885163583024
0.3832634760813264 57.0863646811666 335.1639625328716 0.017689083790490355
0.28828169785002294 57.08960540070524 335.16069237345926 0.013845569433419877
0.19503066792144244 57.090395381824806 335.1598952158642 0.01501260327488282
0.39948346375590177 57.0877306752319 335.16258412962 0.01772154521913168
0.19900335039588052 57.08296898123325 335.1673891504365 0.018788395147808803
0.14235000704258224 57.0828392173379 335.16752009811034 0.02069894598208562
0.17948320549870028 57.08239430704984 335.1679690671175 0.019834710699897697
0.23234397141710136 57.08262600219864 335.16773525831667 0.0189305461754444
0.33792413786050074 57.08394504356218 335.1664041839241 0.022590351431515762
0.2114492283811757 57.083470135145085 335.1668834247199 0.020189125622622255
0.2935812215978318 57.08440319823934 335.1659418497051 0.020504458909106182
0.15422905258931896 57.084461790427675 335.1658827230063 0.018456267749676895
0.4290647032045381 57.08282097863493 335.1675385031969 0.01991372508070908
0.4089738832254184 57.08234359910667 335.1680202376467 0.01983297458711641
0.31871079983508793 57.08245992484889 335.16790285071636 0.02379695623238117
0.3922136518967765 57.08351830512482 335.16683481530686 0.021326837906788448
0.249538275324 57.08179148785341 335.16820094644265 0.01905775839107473
0.1327485164522877 57.08183507579498 335.16824414009193 0.020303302235759397
0.2608322134071704 57.08179441406614 335.16820384543325 0.020156367028167962
0.370806452257189 57.08166203385467 335.1680726634721 0.023383807567003954
0.16230297549449077 57.078061753283755 335.1645048927805 0.020378810362018204
0.0939416961669921 57.08138121108515 335.16622112893003 0.01706044881075642
0.2132486905143628 57.09024168714948 335.15966347018514 0.015448544417128304
0.10529306254592659 57.0903786780322 335.1597992260483 0.011075299420074354
0.24533582745180252 57.089799621208776 335.1592253896198 0.014590993812304618
0.1154135294767424 57.08933319013515 335.15876316358157 0.012846009381715068
0.33302099594098233 57.08961182311878 335.15903928381783 0.013887617772717274
0.40916014435793013 57.08901936905417 335.158452166589 0.01423329049731109
0.31819726182469055 57.100986442047514 335.14226901524285 0.014144587599920757
0.298947663191648 57.10198319827949 335.1432567416484 0.01320967933447742
0.10045887209887255 57.10357254285553 335.14483174469376 0.010200511011633677
0.11225141680027095 57.10313648036312 335.14439961012204 0.012988274534490897
0.43254957028132224 57.10063786510868 335.1419235154318 0.01458642923864067
0.27855257775839476 57.104314371394395 335.1455668910628 0.013449229895264432
0.42176176988160935 57.10436229985426 335.1456143877974 0.016151105547786034
0.206975624808561 57.10348306560083 335.14668844989774 0.015790851123130212
0.14124551955578357 57.102970932832335 335.1472052544744 0.013838608972696053
0.13079169123084644 57.103520805439636 335.1466503657863 0.013357111209865189
0.18646290038746244 57.10262370933904 335.1475556454307 0.015076498204547076
0.3610171177253549 57.10203998816057 335.1481446914655 0.015916507914914904
0.38707339341594893 57.103611356331484 335.14655898886565 0.01585947590872843
0.4095318618006949 57.1038981608914 335.146269568 0.015312054882390859
0.4404915296545292 57.103207378663186 335.1469666517233 0.011760414634844974
0.3503528103080079 57.10335414349112 335.14681854806844 0.016056206969695667
0.2277810973829323 57.10402715810105 335.14613939404427 0.01492430447362232
0.1972518469655855 57.100346227638596 335.1498538893152 0.01513136899569393
0.2357375675636104 57.0992855937331 335.15092418742864 0.01512323639808832
0.30807165562290706 57.09915379926743 335.1510571827697 0.013163644958362147
0.17217741232738765 57.100534822821245 335.1496635757045 0.014966921623559894
0.12093690626287901 57.10029419157216 335.1499063995201 0.014153833176921673
0.290063372150021 57.10023869988028 335.1499623968372 0.013596039849800122
0.33653702582431144 57.09980862564021 335.1503963897969 0.014741646562251635
0.25905673083534375 57.10094943678082 335.1492451838951 0.014707092455683088
0.39948229210690656 57.101066792734436 335.1491267586259 0.014636554359941668
0.10709986253750506 57.09790787524197 335.152314434389 0.011737063893406684
0.13638037822246957 57.096862980412126 335.1533688214231 0.013141349649909198
0.22752511449660567 57.09655591419218 335.15367867714417 0.014809540544796496
0.09745518194367163 57.096952053865735 335.15327893879385 0.008919909353373218
0.1598437481742388 57.098713938661064 335.151501048397 0.014355190973140499
0.2671885651925382 57.09724750337813 335.1529808053108 0.013745041974698122
0.32459925241930054 57.096950528168996 335.1532804783506 0.015290661276777614
0.37659275517482815 57.09625178296885 335.153985571206 0.01585378475323642
0.3480513933273789 57.096053351972316 335.15418580482185 0.014652216046551562
0.42716567351010115 57.097589273478214 335.152635930447 0.01412123269832031
0.41775766621681093 57.096827165382514 335.1534049618095 0.014715232819469543
0.44859809875488305 57.09966195850791 335.14927041049816 0.010286247147524304
0.1503646836142704 57.09403789008651 335.1522946489806 0.013682193156332269
0.3904327481807811 57.094774729391496 335.1530248179331 0.014757767815517108
0.2778162196098022 57.09518772869277 335.15343410517744 0.01509412742913173
0.12790377220117558 57.09249552971966 335.1507662441332 0.012728668408619073
0.2991012937418642 57.095409255734765 335.15365362804005 0.012985722269947939
0.35152936998162104 57.1165139914669 335.1294871905201 0.01451224817148018
0.3102223857506241 57.116654475300486 335.1296264078826 0.013570433230603595
0.25180294212200555 57.11808955705659 335.1310485522822 0.013957608494080915
0.12919867063444998 57.11746994452709 335.13043452560044 0.01346482329483026
0.11890123349440251 57.11554627385042 335.1285281969416 0.01349279860882366
0.34071568108511735 57.117429567029646 335.13261508826287 0.012728859099567079
0.4398906696094222 57.11769773118451 335.1323444821782 0.012319828803023417
0.4138118610265181 57.11684272483508 335.1332072743015 0.01603252151150038
0.3737533878683181 57.11821386866933 335.1318236446935 0.01465902968747203
0.3641604357574769 57.11625654142275 335.1337987955591 0.013362050655814153
0.2371559104863394 57.11800095379119 335.13203849839596 0.014102234622554182
0.19098189877370775 57.11474560767332 335.13532349442715 0.01459415401733554
0.15741976928875062 57.11657041942556 335.133482062296 0.015480086238469503
0.2566515680089526 57.11174437366891 335.1383520633571 0.014318197317610958
0.28946639189362844 57.11380812496245 335.13626951337574 0.01402523115030169
0.21484293955139078 57.11687293226922 335.13317679234336 0.014121284641949967
0.3295973567292534 57.1142427191479 335.1358309595151 0.013021327434569418
0.41003416144013005 57.11088753352195 335.13921670665906 0.015365906886665818
0.42986141713397574 57.113129548989484 335.13695426700724 0.014739819259324993
0.4476519626211395 57.11280466297745 335.13728211264726 0.010738401910946925
0.3989139013322628 57.110533616845785 335.1395738474251 0.01519984858802329
0.38093797041718447 57.112120098760215 335.13797291306844 0.014767191776259608
0.19874021189788704 57.110143831134515 335.13996718409214 0.015781331753029332
0.16534863658613974 57.11209110257254 335.1380021770583 0.015460764789562646
0.09401725077282798 57.112060779769564 335.13803277603904 0.010054565426347178
0.14348271455128755 57.11224694823371 335.137844911967 0.01472513830661734
0.132148085345707 57.11120718483293 335.1388941454515 0.01282485287744843
0.10883110080882558 57.117816091715326 335.1322250451624 0.010965262307863054
0.23503372243337534 57.109514775832125 335.13946265335187 0.014473147913207637
0.1777278581147948 57.10819708769165 335.1381568392233 0.015846977068373645
0.15620137776275317 57.10896184537848 335.13891470549055 0.015135639905308033
0.26797697704357015 57.10827773194575 335.13823675677224 0.01478778107916534
0.3047141453292976 57.109656951521295 335.139603547861 0.013141220147797013
0.3543872199313757 57.11003780831684 335.13998097266233 0.014426642155994327
0.19673744641496876 57.13154361105977 335.1162120931848 0.013551233867743664
0.14491454974088414 57.13110299034349 335.11577544282807 0.014444181957633332
0.21725199644136628 57.130381391366626 335.11506034605907 0.013515211873230251
0.38218173903756303 57.130200528639804 335.114881113056 0.0147449194212919
0.3050256979546334 57.13231260448174 335.1169741573355 0.014588709168638598
0.175412968398626 57.13224007097135 335.1176699552527 0.013990947913611454
0.10412601377733136 57.13069096824595 335.11923313076784 0.012104846376128124
0.16044189081471577 57.13163421396939 335.11828131614936 0.014221180338448547
0.31894690058494796 57.13224187304871 335.11766813680447 0.013105211684895498
0.42899757117405785 57.12889094239422 335.1210495089149 0.013757989237234399
0.4121106440680101 57.13067260748714 335.1192516583246 0.01509941616467318
0.13231205460789125 57.128861782280424 335.1210789339332 0.014653575552436439
0.2537760299187635 57.130770609342065 335.11915276617395 0.013056055237761485
0.34709293096942523 57.12912222810506 335.12081612209414 0.013031557053431767
0.33079846654495615 57.12887522495509 335.1210653691388 0.012937268386308123
0.22774108746249083 57.128737228620295 335.12120461909825 0.012522794990587874
0.2906726348630004 57.13147973643169 335.11843719703484 0.013023618431210002
0.12223621655622227 57.129065425793044 335.1208734404255 0.01383928634527458
0.267741295457731 57.13134258449225 335.1185755949281 0.014057619428093597
0.2851049421415044 57.12521088698578 335.124763064581 0.014091424527395417
0.322794959046546 57.126008531432234 335.12395815670385 0.012642249004077172
0.2427289674727557 57.12543775940898 335.12453412623466 0.012901897378928096
0.1885530895639408 57.128212862816056 335.12173375245646 0.014635929003600931
0.21795085995834768 57.1262219424426 335.12374280235133 0.013731519739012502
0.36075902557864997 57.12692961354766 335.12302868712186 0.01390556490898645
0.1674914737440488 57.125539076601 335.124431886438 0.015144123873169574
0.14019889539744448 57.12522629232588 335.12474751895826 0.01463945778619303
0.15556898639942413 57.12617803739988 335.12378710719776 0.014617215759840438
0.20746653492830597 57.124378239981255 335.12560329375293 0.013666141221889307
0.09965872899647507 57.12520549639516 335.12476850425884 0.011190178135143261
0.4053193382755007 57.126053359153495 335.12391292077683 0.016523704728565736
0.4430798456392805 57.12645181129587 335.1235108402891 0.011242002996133255
0.39325180555863837 57.12585011883458 335.1241180118226 0.016414973998525925
0.11203722792689358 57.12077407100807 335.12245110759227 0.013543598526052884
0.2590329664781695 57.123890930387525 335.1255398808292 0.01430645100519537
0.19663945332404525 57.123637768696064 335.1252890003877 0.01381540089843287
0.1803196711103226 57.124157441669695 335.1258039905677 0.015119491299196548
0.42092838924957965 57.123912065853446 335.1255608258426 0.01587436803364464
0.27117409127831793 57.123244647245244 335.12489942136966 0.013625280010140493
0.34184509321128537 57.12036789260897 335.12204858928277 0.013726683388514658
0.2477892790568034 57.143796324512294 335.1001849461801 0.013173883335238527
0.1988869430180612 57.14402987785431 335.1004163829794 0.011856981890350105
0.4364810420479272 57.14468655112558 335.1010671061093 0.011863921814730383
0.3184556875908259 57.14307677403966 335.0994719131005 0.013574954210956329
0.12516085950514588 57.1462331182159 335.1035496452557 0.014894721831489708
0.09415246344849973 57.14474519484997 335.1050510825779 0.010385170184125435
0.17873056209398294 57.14635891596377 335.1034227049589 0.014101477164292428
0.40143212699278774 57.145496522416664 335.10429293016887 0.014067265752715283
0.3831318669595254 57.145684120052586 335.1041036288403 0.01320979298265822
0.3376266001149375 57.14610358090169 335.1036803586022 0.013164620540505247
0.29512597448013045 57.1464281343669 335.1033528576619 0.014571007834249219
0.41231085451664384 57.14412008845888 335.10568186455845 0.014001889933472369
0.3523495568481369 57.14417643431063 335.10562500742253 0.012208697101891097
0.2640282328122676 57.14501905897821 335.1047747306159 0.01331528854904316
0.3139072056662039 57.1408570707623 335.1089745968076 0.014160094911884686
0.20596435463362422 57.139705496347815 335.1101366389372 0.012959073409114298
0.09687877165810761 57.13837655167902 335.1114776662807 0.011318224805673485
0.27854715740394265 57.14101580764068 335.10881440833236 0.013844138013647023
0.1350215125191183 57.14008325538904 335.10975542769785 0.014380638838614939
0.1184233172479934 57.14183922037168 335.1079834697919 0.015127922746129284
0.2495870734063226 57.14149610089367 335.10832973645444 0.013392591362487232
0.15772801709715517 57.14250291389892 335.1073137364255 0.01438795216165028
0.17062109668968234 57.14232255468403 335.1074957416294 0.014465261321203557
0.32865918383566406 57.14257659555744 335.1072394053198 0.013405927914339455
0.30271736498771507 57.13971805366816 335.1101239797903 0.014069903227012154
0.21925113862713902 57.13847207438305 335.1113812780039 0.012879756894498313
0.4234070879956865 57.13835324781504 335.1115011840356 0.01432621613479516
0.3976995299314295 57.13902979667993 335.11081848915506 0.014555432515921254
0.36699002445261425 57.13883466445 335.11101539403717 0.013077856340414036
0.26222200154696856 57.13589510959177 335.1092664749164 0.014635979498332917
0.43424791722314754 57.13773877390061 335.11109351737616 0.012561977631105658
0.2406259433005105 57.137576067920676 335.1109322694665 0.013085631582416778
0.4139810628519741 57.13720002358985 335.1105595950123 0.014686320465503748
0.2290333588855479 57.137792773432395 335.11114703299756 0.011885540315193574
0.33987209494086873 57.1577668905906 335.08586017150145 0.014693567588604838
0.32159037736136137 57.158765299863546 335.0868495588645 0.014384165195687372
0.13524241016798155 57.160714583147 335.0887812283373 0.013823275043214237
0.26664430065388695 57.16075235401219 335.08881865793535 0.013968063425555411
0.3986249175829987 57.16019108177728 335.0882624569048 0.01577576299024348
0.3029855673380021 57.160653001628056 335.0887202032194 0.01463920722461523
0.4077764539425189 57.15921529040226 335.0872954819955 0.01381569024878885
0.1963924987424342 57.15983946181276 335.08981955996177 0.012600706823011064
0.18823536317939116 57.159493089564734 335.09016908694116 0.013061071535207084
0.11314980632859521 57.15792816919386 335.0917482604843 0.01322356581213147
0.38298073143509315 57.158439016269426 335.09123276065355 0.013327348743625464
0.4216460425289565 57.15818180409222 335.0914923154991 0.014769950053052637
0.28999992398527324 57.15893401836137 335.0907332501213 0.01522065119192174
0.12606330871660176 57.156994786226065 335.0926901446311 0.01310677171830817
0.2780082330699799 57.15676397287014 335.092923060217 0.014455620484725167
0.15353277227982126 57.156811990488116 335.0928746052583 0.01370304184546147
0.25737621298234525 57.15392127052282 335.0957915815613 0.013609472347788481
0.22453623329485228 57.15472305566674 335.0949825156956 0.013040896772904993
0.3342511352109999 57.155036097673744 335.09466663106707 0.014092306139172102
0.3148510419099818 57.15484006344167 335.0948644454153 0.013770211390343741
0.34502852060536393 57.15426967415024 335.0954400142062 0.013719598576901353
0.2700068077430043 57.15304140799988 335.0966794337985 0.013448172550952322
0.19912191885926078 57.15276608146183 335.0969572604776 0.013442305414735784
0.1206415701664987 57.15236291148293 335.09736409149764 0.014590022110174709
0.09632873569344268 57.15282579120741 335.09689700852937 0.010648060883602102
0.30207296318147514 57.15282147766912 335.0969013612373 0.013933301942765467
0.37070213252095163 57.15304838758474 335.09667239083456 0.013112551634115748
0.43785957100005235 57.153921990900784 335.09579085464185 0.010539021418569676
0.35648605399084976 57.153310883974044 335.0964075108102 0.012299371430073692
0.40406299936838863 57.15458069400589 335.09512617009136 0.013105909420445153
0.448598098754883 57.15988097504148 335.08838348380965 0.010604936632903676
0.1433088995978254 57.15152598947569 335.0965871351665 0.013611329468202362
0.24088139623328136 57.151062435947075 335.09612775520804 0.012755802155986014
0.389552848286983 57.152113253191565 335.097169103934 0.013537312393424022
0.21502133543927285 57.173005107015214 335.0727916538708 0.014230938115127201
0.1636606158073598 57.17155409827478 335.071353754627 0.014736339981861723
0.2441054905622905 57.17481171719449 335.0745819417846 0.01379862223496494
0.1298035472747499 57.17132927505339 335.07113096262646 0.015010196835762026
0.35242990931203494 57.17263689007318 335.07242676367565 0.014395090573850106
0.09588145827076532 57.1713176873408 335.0711194866617 0.011315685305890427
0.42889027475430536 57.16690781551672 335.0826869999517 0.013132799434137137
0.4005287581720557 57.1680999690583 335.081483988369 0.015456297435400421
0.2938289859417853 57.16903794021883 335.08053747424054 0.014993653141121
0.33087176128637863 57.16744034258783 335.0821496226657 0.015033296174469893
0.41619064335071 57.166783358860926 335.08281259014893 0.014055363059860755
0.3125586652551203 57.16705923986327 335.08253419644404 0.014355952974898589
0.3537795992301429 57.16825246778886 335.0813301006919 0.013946512374083184
0.3904342713362965 57.173926402604025 335.07560448812245 0.01336219009419667
0.3351019885848199 57.174766437024054 335.07475680273467 0.01504330153371485
0.30949934840879206 57.174439459615876 335.0750867582275 0.01459871946250968
0.2817753413009843 57.17455660157701 335.0749685493466 0.015069803232032358
0.40941909220056066 57.17257481355453 335.07696838733926 0.01583797886361867
0.4261787580593208 57.17406470636161 335.0754649247051 0.014444519002452107
0.34378674830782535 57.17268988793681 335.07685226486853 0.015070817411009262
0.3679415663365275 57.1747862644067 335.0747367947658 0.013346196774678206
0.1851892865079238 57.173422397232535 335.0761130839354 0.01418892879404079
0.1400534150947575 57.1740088613507 335.075521278348 0.015215332234834742
0.2680546262700995 57.17230567526983 335.0772399769143 0.013845465195871444
0.22895309849524592 57.172089111877995 335.07745851274865 0.013744164839031726
0.15971535029047365 57.16745651034752 335.0821333076513 0.014676982538819851
0.14601100955409269 57.169653614010514 335.0799161929402 0.013730170509680116
0.11795279613294249 57.171992554038994 335.07755595002885 0.014642570815947026
0.12800612688847868 57.168414961152735 335.0811661273512 0.015399027511692415
0.21515740719458704 57.167797779735984 335.081788930008 0.0144438244562038
0.09697713562641389 57.166810069478935 335.0827856362528 0.009833168172364537
0.17264945059306927 57.16840181678394 335.08117939143784 0.014779397125090061
0.23473833185824616 57.16703983452444 335.0825537785252 0.0123862742924643
0.19533083496201234 57.16871236482388 335.0808660149507 0.014761538692602223
0.448598098754883 57.16985264236558 335.0797020284591 0.01030408815389582
0.25588149743778077 57.16571369838152 335.082477526816 0.014907871455323444
0.1825094369942703 57.16628105494759 335.0830397675179 0.01410165245659311
0.2243750197745693 57.166311684819114 335.0830701207078 0.013017041631325445
0.27004665388778154 57.18862275184566 335.0600991407622 0.014295219102544813
0.11405602274735784 57.18884904041016 335.0603233842892 0.013236836803343744
0.2232008975678733 57.188597402580925 335.0600740184546 0.014431005241445853
0.3981441676280117 57.18843777891885 335.0599158360071 0.014938668058600819
0.31797670651473264 57.18878860925615 335.06026349875765 0.015783709864629472
0.35209945754519145 57.187768652288796 335.0592527508064 0.013919893244966963
0.2533278965699587 57.18314250254571 335.06630461933804 0.014197964596684313
0.2459582600734612 57.187462439599386 335.06194536016517 0.014692365096934928
0.2158614829201808 57.18298256917059 335.0664660085027 0.013644987491697059
0.20655431573430572 57.18411857406704 335.06531966315004 0.01368978982774251
0.231665112732582 57.18380541567414 335.0656356720594 0.013996879028439076
0.1767918611417477 57.18673354503159 335.0626808894776 0.014248527699992486
0.144999998839275 57.183250268536085 335.06619587241045 0.015707088027335826
0.13010267011630264 57.18280190651595 335.06664831563467 0.013621967384354056
0.18827013786442875 57.18730418517862 335.06210505509284 0.01459456610437557
0.16597986370025344 57.18815587176994 335.0612456160456 0.014979497971234873
0.11712868041739169 57.182539899874236 335.06691270718534 0.013369952794931682
0.10223319631372105 57.1832652536542 335.0661807508907 0.011100656177127886
0.4115774024587583 57.1830642710535 335.0663835583119 0.015461880821279923
0.4440905375779445 57.180513985561774 335.068957062316 0.012227267400910069
0.39214949428130114 57.18242901340753 335.0670245995211 0.014180140695352917
0.31950303478934056 57.18059602052348 335.06887428048503 0.014557122087278293
0.35766238795241356 57.18302775739354 335.0664204052381 0.012873948108536587
0.2805235014312826 57.18584350939351 335.06357902624467 0.015062843834855708
0.2930336243409025 57.18301192824743 335.0664363812493 0.016218743244828436
0.3304400407494916 57.18375537398843 335.06568616670256 0.015724582875778548
0.38288422457827814 57.18504834946384 335.06438141969375 0.012450359708622698
0.30765192741140823 57.18556340897601 335.0638616751021 0.01462341559713529
0.4403506483610934 57.188946869557086 335.0604474181964 0.012342617455430607
0.3751953100306535 57.187878409964426 335.06152560148763 0.01298467302790067
0.42853438161207924 57.1886475927136 335.0607494186598 0.01519971352212617
0.1546694746489807 57.180475809807284 335.06893723451986 0.014571058365858565
0.1689774140713258 57.179911332696165 335.0683778443614 0.013999218674609563
0.18224825038755277 57.176810956681535 335.0653054083033 0.014088902038701204
0.1904606708118425 57.17991433042353 335.06838081507385 0.015146816788669103
0.43452673338093867 57.180165440935966 335.0686296626296 0.012424497792480319
0.2722625978457652 57.1795328409507 335.0680027690256 0.015157441502404946
0.0939416961669921 57.1851580187267 335.06016377137917 0.010126886335294873
0.2798229876219627 57.20085630225409 335.0440531005936 0.014583915490656074
0.14120059327240128 57.202272059186114 335.0454560505918 0.015936683402872548
0.20695428970975244 57.202578425829074 335.0457596494271 0.015368447176300823
0.15463142483823403 57.202030244897486 335.04521642092556 0.016363298002514456
0.3363053237117136 57.20289093856245 335.0460693396992 0.014869710659696965
0.3830204458110307 57.20248441091223 335.0456664870489 0.014025839825965598
0.36173038751638825 57.1993984202887 335.0426083828686 0.01491361906861734
0.21417888260526358 57.19885185985953 335.0504523885386 0.013688660320183727
0.24722831675951693 57.20152075559973 335.0477591978196 0.014259640019348855
0.11941114732563338 57.19900845259906 335.05029437449485 0.014403430851633234
0.23520645301805573 57.200276057148386 335.04901522662476 0.01495054770738031
0.19055026015008134 57.19867166850594 335.05063422109606 0.01421968740578791
0.25629431293525234 57.19649557335309 335.05283012127205 0.01419751941713815
0.22448987915106353 57.1972163867277 335.0521027480801 0.013940866628555896
0.098113411465188 57.1998442299047 335.04945098878886 0.01124484404864768
0.14141629789818416 57.19534895068924 335.053987181767 0.015514549306468015
0.1727590355237602 57.19638196496794 335.05294476636584 0.01399717795367741
0.10706470229712688 57.19482174808996 335.05451918226345 0.012514850912238603
0.13288056306245044 57.197785104558 335.0515288572649 0.014835681631144095
0.15526935902553987 57.19615478332523 335.05317401551383 0.015196540112196733
0.3247467072771365 57.20154755617639 335.04773215455776 0.015762439609761914
0.28192561655750553 57.19529935020256 335.05403723282814 0.014894666868359977
0.3696886386032774 57.19982057350178 335.04947485898265 0.014111031078013104
0.2948841733547826 57.1993638387216 335.04993574796134 0.014816694885856668
0.3156562763237625 57.19832243349212 335.05098663344967 0.015967477447507216
0.3034006134256358 57.19487531504562 335.0544651278126 0.015347682996815389
0.42910251590161214 57.19688647597161 335.0524356639738 0.014920569874968037
0.4409102668240287 57.19651859644928 335.05280689144644 0.01245405431244595
0.36141323012726967 57.195450045669034 335.0538851667552 0.013373576019584976
0.3316781066225525 57.1955063596515 335.05382834027773 0.014175174731104358
0.3946915865642924 57.20056294905291 335.04872572622054 0.013915344893168482
0.4071865347397062 57.201289037952726 335.0479930268043 0.014698153706063087
0.4208807184219229 57.19993925188906 335.0493551016978 0.01521865969009848
0.44435413567333615 57.20302742673552 335.04623881124394 0.012288499067704142
0.3527070762011869 57.20163186174848 335.0476470818449 0.014221091288685947
0.24208681289128106 57.19387449673702 335.05404578073086 0.0137168847103094
0.34851907355632317 57.194359048917 335.05452596125895 0.014837239297102922
0.4116473476717882 57.192175155272835 335.0523617570883 0.01432269755789549
0.15415023170261033 57.21614569166309 335.03103526256746 0.014917366527960293
0.18447611048533907 57.2158509692646 335.03074320271287 0.01501473250467654
0.13479395421435114 57.21645803909699 335.0313447882315 0.014233290635350811
0.10728216433478262 57.21683938323873 335.03172268728207 0.012149316512972862
0.32947614389002755 57.21474889180388 335.02965106030325 0.015010325305520985
0.35605583575431393 57.21508380090275 335.0299829445332 0.01298436407373864
0.4147690280349332 57.21509754268143 335.0340589324594 0.015783082498754687
0.31392221223475475 57.21224729873134 335.03693509354883 0.015315416118785214
0.3445336086550155 57.21275864047134 335.0364191055643 0.014529102272189832
0.3886447935794313 57.21472707040014 335.0344327699321 0.014126703821774441
0.4375245562115282 57.216342700876616 335.03280244637557 0.013138605001005575
0.2988033801187759 57.21187553324299 335.03731023895614 0.013982866775973733
0.23399055435768337 57.21054334186069 335.03865453914614 0.01564811516701943
0.24810633854493092 57.2115534098116 335.0376352808851 0.01397840002908739
0.12234035053037881 57.21333369437545 335.0358388024523 0.014454288044811917
0.42732023874015 57.21687176686546 335.03226856466574 0.014308391606129853
0.36812449089132526 57.21689074327747 335.03224941573546 0.012032418932676025
0.277316137082768 57.21555824066798 335.0335940323821 0.013268763352888237
0.09407012006287198 57.217058082076115 335.0320805556276 0.010365504237638719
0.20807281084413992 57.2141872933079 335.03497744328797 0.014103784058222095
0.09709494014863411 57.208918024832826 335.04029461569496 0.010781629455534774
0.2238156435264833 57.211986726420065 335.03719801595213 0.014263064235460922
0.15868388084593948 57.21074517667148 335.038450852868 0.01585273193193217
0.1771320781793703 57.21139478771965 335.03779533608093 0.01370257555518323
0.2370824313257594 57.21606761830195 335.0330800238982 0.014529096710416991
0.39863112692921887 57.21051738658741 335.0386807346128 0.013594442944740956
0.13363150764835682 57.20889936132065 335.0403134514286 0.015160077219580138
0.43471567660630805 57.20914851271756 335.0400620377555 0.013911392834348845
0.16839792277308002 57.20872345111187 335.0404909588889 0.015134593394974733
0.284975834836224 57.210401737182316 335.03879743410596 0.014496801892681198
0.37326736044184883 57.20947782794989 335.0397297323654 0.013276348158364827
0.3315696991894318 57.21020412088006 335.0389968447495 0.0151096447070555
0.448598098754883 57.21487844423389 335.03358136805247 0.011733313337611009
0.27425956975665056 57.20730418895631 335.0391849966525 0.01494617673959967
0.14667558603713962 57.208466588859835 335.0403368840904 0.015591474205779457
0.19883815593690674 57.20862857466052 335.0404974049304 0.015290425435391228
0.41418920056836317 57.208660454000025 335.04052899596087 0.014736743723986897
0.21562083552706895 57.206965284424925 335.03884915709233 0.014629541408988544
0.10807884961734607 57.207654785498235 335.03953242422114 0.012701178467367112
0.35455956742583344 57.20600377828444 335.03789631135396 0.015686761658613046
0.2794792786946251 57.22911933331332 335.0157226052827 0.010294309975026252
0.39162946809755383 57.23028839688337 335.01688111683893 0.010378458018630526
0.23179407116125028 57.23064143814723 335.0172309715384 0.01045199854899848
0.17871483529059412 57.23115404792397 335.0177389544791 0.012283203430046862
0.12167180717638448 57.23042889180062 335.01702034094023 0.010407372261678474
0.44623972952427104 57.23014400759481 335.01887563797027 0.008826336457366237
0.23581817071702948 57.22406087129555 335.02501414304646 0.012912192233506684
0.3438599625401992 57.22857946514806 335.0204544209005 0.012267798893566568
0.15647063511552892 57.22393265035478 335.02514353105573 0.014862471022928337
0.3254614634176558 57.226001029715206 335.0230563252825 0.012571589643950722
0.17115524327270445 57.222987286470165 335.02609749965336 0.01464590409827546
0.37260335935818373 57.227254015518625 335.02179193478776 0.010619354305014027
0.29254967986950015 57.22732923320547 335.02171603246865 0.01133966829503396
0.3133378982439993 57.22317540432868 335.0259076695439 0.013132384434342892
0.4231898480518023 57.22986106040437 335.01916116054934 0.010869102213688359
0.3025007563383556 57.22303164004293 335.02605274237385 0.012859759846341698
0.38026695425585094 57.224652981152595 335.02441664379865 0.012198594619510594
0.14364598008883975 57.223905856151745 335.0251705691399 0.01438085080329273
0.25548721773412986 57.2240207843303 335.0250545948837 0.010460119106977268
0.3925546507526432 57.22363745972746 335.02544140851154 0.012613380220157004
0.4385396247404346 57.22547027237697 335.0235919135801 0.010870939830632831
0.35755296169317996 57.22880055764539 335.0202313160167 0.010375988137461802
0.3345450497141843 57.22484532241971 335.0242225518391 0.012750724456286947
0.4102949091495437 57.225969509192296 335.02308813270554 0.012335804185903037
0.09711453418002775 57.226076413875 335.0229802549752 0.008441038293389656
0.26599781768482667 57.22854892486843 335.0204852391581 0.010208300759900292
0.1684630491030913 57.23031801584009 335.01870004589995 0.012914692071444194
0.2056736373006208 57.228316228421214 335.02072005361106 0.012396419337089713
0.11186578798500244 57.2250858526301 335.0239798323199 0.011154418073245421
0.24720158910556836 57.23017698590483 335.0188423594913 0.010173018300025592
0.3160254970161146 57.22941400457568 335.0196122854853 0.012005048679890953
0.1337380151384585 57.22819905423695 335.0208382943161 0.011289825357254427
0.14808041209605766 57.2308464693627 335.0181667823872 0.011975705808278357
0.2152029115469052 57.229237043841394 335.01979085691823 0.011304521725961447
0.1906322532352756 57.2309048324842 335.0181078880439 0.01102268261046167
0.1829354045397414 57.225944327370684 335.02311354373234 0.013117645104679618
0.2859714980478016 57.2214521857911 335.02503617076036 0.012305730437490121
0.2158041831320027 57.21904127091703 335.0226469755931 0.013704616512839812
0.3007954688806934 57.22527930085418 335.0147329695511 0.011147353567295543
0.31132230787243953 57.22467435671304 335.01413347110076 0.010713379215868155
0.3221675677194362 57.22448735560158 335.0139481533683 0.011697427119307248
0.42933540273735415 57.22179231131355 335.02094497366204 0.011773133462845453
0.1046699187302434 57.226339572009195 335.0163563817264 0.009696775150220233
0.2765819291430731 57.21981856651678 335.02060158201596 0.01132663286739642
0.36024352023677264 57.21915766397215 335.01994664816914 0.011207497655492303
0.11920769806356968 57.220268686621 335.02104763702636 0.011942879859573785
0.3072663306538076 57.21228519982126 335.0300253621377 0.014889543284345223
0.11785532252467186 57.21034349948107 335.0281011352032 0.01330682142296843
0.15937616766645235 57.21050876986285 335.0282649183131 0.015998786256050973
0.37935090792263043 57.21155328314112 335.03127713694516 0.01333827829263525
0.3650708977428239 57.20540975126232 335.0344920077223 0.013785292042434484
0.22894635491603302 57.204808830200925 335.03389650985497 0.015489098463558467
0.25967475447530297 57.20632828074662 335.03540224765914 0.01355810949161702
0.20706532162367092 57.205318104611905 335.03440118816485 0.014527689989369135
