x y z curv
0.092230603657913 0.4501043799377814 0.09940572216925794 0.06676266585175747
0.14724947971544608 0.41054614513973575 0.09924512236585048 0.09998618116833534
0.029752069097284874 0.48230897506322334 0.09954086674679893 0.1250782629659249
0.1067784253457279 0.4285417027976125 0.0993222900928967 0.06843262419774518
0.05704505216280018 0.46483247547410267 0.09946920452064019 0.07459470486787323
0.16005447211414733 0.39921195109573876 0.09919998341255408 0.14698551305797455
0.13143630535141418 0.416636446266146 0.09927181643193785 0.07114700429202185
0.09691224375948951 0.4381711460448894 0.09936036322683021 0.06697536120784545
0.11844087026782452 0.4253076989098272 0.09930722361420954 0.07757586188020357
0.14287294046506407 0.39857932465093865 0.09920291126407754 0.10188800196652349
0.06515947790707491 0.45591723675647705 0.0994342559090718 0.06607672748065076
0.07734397008008459 0.44692007784895194 0.09939795797077397 0.06698937264943751
0.1199127993882684 0.3980800145791092 0.09920949512382587 0.06680828978248084
0.13232501122787832 0.3925235167009813 0.09918523517201705 0.09584070199372448
0.09307875835009179 0.4249150500928843 0.09931421826931722 0.06403667173406932
0.1150360882111697 0.41215243242665395 0.09926095770510837 0.07391762405805466
0.10944216174916468 0.39310280399946435 0.09919668772411333 0.06994435622128631
0.06848520373118935 0.43758396980723874 0.0993683287957541 0.06784280501175345
0.045796825218553126 0.4553158921685607 0.09943953874806076 0.06704846684349021
0.12015440467562447 0.38368513947218197 0.09915945332106209 0.07857918350637323
0.13171833159809385 0.3733188365881019 0.09911856792211915 0.11288672413249093
0.07567349523380798 0.4271678035433484 0.09932918823613757 0.0696345650289413
0.102545697364165 0.4089175876165173 0.0992543543255759 0.07051518082095055
0.09171003191178113 0.4128437188516548 0.09927266784882964 0.06424125572291219
0.1356890684953631 0.3628380095469786 0.0990806136728298 0.10305351168450613
0.02866455936963242 0.4674603698872393 0.09948921366938543 0.09918585526515766
0.0973389554346976 0.39109514925902 0.09919563794724232 0.07063946752222613
0.016528124809071912 0.4818828195323515 0.09954423780584602 0.14436788618196733
0.08730338856811193 0.3993247952886855 0.09922860652513851 0.07170843375976317
0.12058308180226385 0.3673377649428641 0.09910335662619162 0.10175605153180399
0.06725924669090359 0.41958951543099354 0.09930751561482284 0.0636606486726131
0.05435802771072519 0.4330167245562526 0.09935961449903188 0.07322169609596715
0.10215442851372725 0.37676721365346133 0.09914480254149258 0.06731044614459956
0.047773616715003034 0.4439136032779313 0.099399755668454 0.0724742062701882
0.09793801148112621 0.36594117893864486 0.0991120031603622 0.06564176841235583
0.03681381596896884 0.44780976720566823 0.09941950466055671 0.0651412610411117
0.1115212807731986 0.35154808377448654 0.09905594339286365 0.10227726716307911
0.08754474181768122 0.37440125141406233 0.09914665160503688 0.06869810716077376
0.023531077444413344 0.42663966108988777 0.09936956203416053 0.06968373444184679
0.07074888982390551 0.3971447832051921 0.09923196954375495 0.06666727082250394
0.03767650351570516 0.32991973149775555 0.09906481317452201 0.06612909515478284
0.030425426453168855 0.3552705332069164 0.09914837786485751 0.06439180771194392
0.07462154020145008 0.3512392565564021 0.0990902859485219 0.06690389247234325
0.011107899805440784 0.34156281433699226 0.0991273814284526 0.07618137724779528
0.00045359310993437374 0.35680251847864414 0.09918416934770527 0.09006182048426699
0.02510475744974792 0.3090136884388028 0.09901521012598041 0.06873884682801591
0.0031007817805385235 0.4165818590008532 0.09936066853819124 0.08439572689101746
0.04810058686718616 0.4162395160103718 0.09931280171605708 0.07306675608301162
0.05844235967798043 0.29876181466459817 0.09894976771235955 0.06431501810390974
0.08671825927783938 0.3258517884216564 0.09900156748412815 0.07911395763017207
0.010443406850872652 0.32583775528344106 0.09908091985327958 0.07830727920385505
9.934455159939808e-05 0.321259363521617 0.0990779581918131 0.09388239714657923
0.02452745312144691 0.3301850179254697 0.09907929550262703 0.0721528563624735
0.007501733282333073 0.28767028394643285 0.0989695326575387 0.08847782754795527
0.012123517886151373 0.3129044387924214 0.09904038911525163 0.08041798604451844
0.07111036795669406 0.38353874033216007 0.09919079412904115 0.07048749224215724
0.05545586453824827 0.34164558913141796 0.0990814678670041 0.06694929555590451
0.010416968534512797 0.4298607968193583 0.09939287141709187 0.07465776506469057
0.07200514946941781 0.31816271074146546 0.09899382584234545 0.06107867854890018
0.06552275493778237 0.3289795730631959 0.09903300886373836 0.07108884375841382
0.0009085021635235523 0.3760808944522946 0.09924150407360414 0.08366414556768471
0.028659609648601665 0.37851664316174 0.09921992181115948 0.06510937721629964
0.030351166872464648 0.28762731585966894 0.0989456198512315 0.06427602811260408
0.0454704614054047 0.37628079404587517 0.09919571897644122 0.072457481893813
0.06005896246480652 0.38060190032437374 0.09919349110648548 0.06385255516489474
0.03842951175639639 0.30200553469599345 0.09898032571007494 0.06499476019017825
0.043329458262979854 0.34832983282808316 0.09911413364476641 0.07068136987663909
0.06610823305106703 0.3625453202101363 0.09913304986737356 0.06880066835192292
0.0713671264059541 0.3393030527239663 0.09905788150179337 0.06742419342428498
0.029902724323216973 0.38962298013066665 0.09925193137477974 0.0705121012745025
0.0710505290646209 0.3057765633281123 0.0989576783388216 0.0652026756786025
0.10556447424505386 0.32790146806213166 0.09898809665030543 0.11429372865446064
0.04126872962385159 0.31894656522533554 0.09902816983388418 0.06449185621731293
0.04938369611214888 0.2903095798212109 0.09893385195369321 0.06998000291775847
0.05379117377739803 0.3197591203372506 0.09901757176120488 0.06648042853538093
0.0077558521959113684 0.3969456562260004 0.09929694185632663 0.08798500019982032
0.09443658395911439 0.3438292833752106 0.09904744089624766 0.07900276020028205
0.060910777766993274 0.3527183938533941 0.09910899282201495 0.06621967409386656
0.08609507122609089 0.35543468289398283 0.09909092358450425 0.06881630938652317
0.03333241128804912 0.4354115016367871 0.0993856631191299 0.0646232274858549
0.05710787918748727 0.4001145591503087 0.09925507364960046 0.0693679584263791
0.03206205890919436 0.40712402246009405 0.09930216244305101 0.061470898732586814
0.024422072560220043 0.45450979075528175 0.09945220611653263 0.0700170841728611
0.04059091205348463 0.3604972012494876 0.09915346933139933 0.06924383575672678
0.01787690324648088 0.4139566693492126 0.09933741617443904 0.06867933501753634
0.04905557057714111 0.39058542272506774 0.09923488117385708 0.06661775092989385
2.415143464442166e-05 0.30367460283571407 0.09902530670360564 0.08256229071573436
0.001025914726299956 0.47987935997020353 0.09955263248828206 0.13992213501233491
0.010775802594222665 0.273741517178972 0.0989243578067991 0.06884612459703848
0.012444731281875095 0.38022171882207745 0.09924191271742736 0.07579842848939385
0.012152388393322576 0.47100059782581966 0.099514427045124 0.14289963158622368
0.030423982554249402 0.34070588130289925 0.09910470572534724 0.0672828119973468
0.04399058351669554 0.4274817187223455 0.09935079074481658 0.0710029660238766
0.01646742638959427 0.2975267950773004 0.09898975605942585 0.07758371707036452
0.015301374404622667 0.3643420852791645 0.09919132248590028 0.07740992379933435
0.027453333054101435 0.2730954088270586 0.09890474173713065 0.07014304210714398
0.10475040438846657 0.31680251151780525 0.0989534719336507 0.11478946388276055
0.08425888578674166 0.3002626489207483 0.09892233700093747 0.08305266210821269
0.09455821265340483 0.30845361165415075 0.09893753640644101 0.09912764124815075
0.1049641983743326 0.30150447982870593 0.09889950650199883 0.11402563201599535
0.06558730909257682 0.2864181877687916 0.09889953565656448 0.07885137334120836
0.05843698355459217 0.2717033975220335 0.09886041146703495 0.06580869748541046
0.038295766385361266 0.2651653302642466 0.0988643049366608 0.06274538983823363
0.07677316127860007 0.27820522446801177 0.09885862616758778 0.06834142238389186
0.09178701816973772 0.27935642659062887 0.09884381052321137 0.09888988731372708
0.07805257126044238 0.2639387339966626 0.09881215870742399 0.08000396736250129
0.06758629391549703 0.25363211408354464 0.09879340267067552 0.06850431068430991
0.08427600212403921 0.2498492514094028 0.09876182443711735 0.08180124110802696
0.04867892144317761 0.2586426211360078 0.09883135521903555 0.06429031134007905
0.09700733175970778 0.24795117499817818 0.0987407030803242 0.099082563695074
0.09017853503766202 0.2330678765910349 0.09870516908077848 0.09448332919867654
0.05709962517405872 0.23937749274179654 0.09876403961746448 0.06886371089654741
0.0310818125094407 0.2529562600040117 0.09883558285022159 0.06921313305503207
0.0780483692311909 0.23736850286356975 0.09873257736229374 0.08323042319276353
0.010609921420924406 0.25497053942995973 0.09886647839010589 0.0674465551107371
0.07664974203150121 0.2257120472479199 0.09870068391987981 0.07997390546557402
0.04186691805139266 0.24233013681219923 0.09879140850670971 0.07068827534769542
0.09883613559118955 0.22416973601638734 0.0986686801265778 0.10351400220523369
0.061255645234159016 0.22301493879545292 0.09871299223324938 0.07208431106225846
0.08678628153590708 0.21449886822919842 0.09865640444206321 0.08377741206273236
0.09903551844709482 0.20325263035668245 0.09860990200630966 0.08884118779351634
0.08369046437257215 0.19825679186932182 0.09861967187007833 0.07104031530333511
0.0701995976343541 0.21513380326021508 0.09868059155270752 0.06681546994850494
0.10197252313179621 0.19179687797902495 0.09857717820779166 0.08734480540730906
0.03921885928068074 0.22957238188066545 0.09876112477138758 0.06269243178928177
0.0018458231927883614 0.04484208178485106 0.09824726686182442 0.10363968507759692
0.0022403989902241126 0.13115556308441387 0.09850565014290502 0.07725601188092615
0.00032137451801239684 0.030439816318307972 0.0982057081735231 0.19114138035272846
0.02251287247340699 0.22117458411167706 0.09875395077590152 0.06284190180166409
0.010244574116520744 0.14742930742971763 0.09854591175684524 0.08016217065210661
0.06993865216333595 0.1568679579389664 0.09851056817844199 0.06648907926906947
0.012004074463715333 0.19620623507083218 0.09869028947304076 0.0747245368124439
0.045058535312844594 0.19551841663121128 0.0986529851146361 0.06033583028075253
0.03172720973055096 0.10180155148146713 0.09838619628606513 0.060814230013010256
0.08342612621926228 0.15072273722699675 0.09847776216359742 0.06885441236366008
0.013327895890079705 0.1751307868122812 0.09862568502026386 0.07742963765772815
0.019878169295460435 0.06250527700168088 0.09828100280050496 0.08160344946129484
0.03127148140319927 0.15857196163815365 0.09855690364248938 0.05897737679040381
0.08611517323869189 0.16261396593474323 0.09851055004098234 0.07238304441378257
0.08230251884681877 0.13786963818617493 0.09844042115631126 0.0657540019518779
0.009097228143802372 0.1038354552448073 0.09841642240533871 0.08300745201926503
0.02996907990119573 0.1742385486970367 0.09860526722637784 0.06787700548289272
0.008147433710387316 0.16114458291122646 0.09858927182568655 0.08161684657792163
0.059141044366098586 0.19713346642754687 0.09864281322704671 0.06657999630426366
0.0498472482975249 0.18378284998290761 0.09861269134241096 0.06565940254538716
0.012353544839205323 0.12359258569121556 0.09847219073946972 0.06499348522499698
0.0017804855145167318 0.18107862246614007 0.09865583073578146 0.08781358020284698
0.025863484612219646 0.1970805329403942 0.09867813436440034 0.062271367116257394
0.020857097649139886 0.09617954685949803 0.098380928652756 0.06898073384947555
0.020896813478202075 0.16652629863698068 0.09859181533543787 0.07061303999481752
0.02261637472177419 0.14201540811840357 0.09851648805810934 0.07123436865894803
0.09359599319192177 0.18076264433576653 0.09855699148313606 0.08952162422481351
0.025976702395613324 0.07307691030002592 0.09830619885375401 0.07194841148109246
0.032489161444107025 0.11624355987537534 0.09842868709898617 0.06823771529832148
0.06853565579561502 0.14499743788346398 0.09847647123334842 0.06885345290316344
0.0649462902468421 0.16789160937368613 0.09854894445699702 0.0670909989273399
0.07141626313644679 0.19503002975412265 0.09862341865548016 0.06454551801491198
0.07518459683807883 0.17476927498694156 0.09855865070599883 0.06331640198343799
0.0016541711084273566 0.08718619655589915 0.09837443658946946 0.07931671445737867
0.06017766324535043 0.12204628890795893 0.09841656519637196 0.06261588761544108
0.034656919577352285 0.18981778395971236 0.09864698222027136 0.06810989209451107
0.08310882082762273 0.18454444336293352 0.09857951210949287 0.06838479350931569
0.009644934278229543 0.20805133595566674 0.09872832131392034 0.06649237624597396
0.008369925759324588 0.07178573527505512 0.09832109935563632 0.0842328109876679
0.03600401197799176 0.0908747776303222 0.0983488734021786 0.06801778319705515
0.03960969471231651 0.2070217332056369 0.09869328631843383 0.07213913790797519
0.05547538468511862 0.13269159859890176 0.09845349776696294 0.06900735507030799
0.003799282007467225 0.0604894879205884 0.0982921016015413 0.08449582087297315
0.036407379589308037 0.1326900075086396 0.0984738229135502 0.06636050137133921
0.05053193622432971 0.09765919869617463 0.09835372656229402 0.06962340726588999
0.02433953526361928 0.08447519058733129 0.09834212118641461 0.07381512615902039
0.013777968250568335 0.05289535282973326 0.09825869213236174 0.07627116256595966
0.04225849072132152 0.15316802419208378 0.09852898624976758 0.06447501041634773
0.028250472674248336 0.2331816511088976 0.09878383567989864 0.06470494029834167
0.059150028326054045 0.20901078037214232 0.0986784168106053 0.06466133922488368
0.04895553454499097 0.1132525911362833 0.09840216281144684 0.06691416839312195
0.011068976991301636 0.23524701313760826 0.09880834705990775 0.07459706375714695
0.04742718320968984 0.1653322943297038 0.0985599490724012 0.06077060426324838
0.09035253603100321 0.12828400722704242 0.09840726222756721 0.06568444704770772
0.10959380739028768 0.15593425313093878 0.0984698616431857 0.08878168149984408
0.07341112570994318 0.12244440033554088 0.09840384713450662 0.06479102806273851
0.10557055047473726 0.1395009550028933 0.09842701303501662 0.06770566511243913
0.06876356173779155 0.10246465319428466 0.09835156567233444 0.0629361869097148
0.04259344861329704 0.06989861402903706 0.09828050818991164 0.06851228856655286
0.0481486399710323 0.08569101310226843 0.09832039975058321 0.062457953158292195
0.10085583665645036 0.16329604189664987 0.09849708277011346 0.08575309064290948
0.11041839767020134 0.1734801367153007 0.09851825423288879 0.09798840386855534
0.060673537250662164 0.08735931185579521 0.09831552376598736 0.06114202230883259
0.032044813202454885 0.06138143704538086 0.09826474467186971 0.06386883669160535
0.07980660765949217 0.10768166210050216 0.09835792805878057 0.06807717874844041
0.07673404879381511 0.09086598249420587 0.0983158979210447 0.06211544492773222
0.11673296850559557 0.14552140025613433 0.09843670541390748 0.09818816818904898
0.10240589287416535 0.12431865079878557 0.09838921346895904 0.07091878591999128
0.09235785505170847 0.10895086183588815 0.09835461418865218 0.06915545428565002
0.022181827476855667 0.03677279093650944 0.09820421215480808 0.11358082615324436
0.11849925157601367 0.13203193545124195 0.09840076134076906 0.08192314744945733
0.05906487367499405 0.07287368194836258 0.09827849885244534 0.06688378287410765
0.04137692692192226 0.052144001163624824 0.09823407644488837 0.06525917502005504
0.08776872701495628 0.08276357607165111 0.09829007886542675 0.06730684350463413
0.05235055416590737 0.06064275783411499 0.09825049297863962 0.06268573468420267
0.09344396299576438 0.09761125205377251 0.09832494764735854 0.07308801875275925
0.125849132383043 0.12170192593220683 0.09837088641819745 0.08351923558712993
0.10438140278160822 0.10627238302937543 0.09834179055811951 0.06938111420146822
0.069820564188313 0.06706833202567379 0.0982588083539143 0.06616156844664374
0.03843339140193863 0.03885628011058978 0.09820235586637371 0.10582429058900956
0.12805471692002282 0.10869687984117765 0.0983374925283721 0.0797718133982116
0.0821138789457708 0.0685217270964415 0.09825758346332585 0.06389057949697276
0.12018406159191108 0.09824306969445698 0.0983151189038182 0.07120137099245154
0.1042472993565366 0.08834928517271241 0.09829722973560706 0.06854327138161606
0.11640296974336242 0.07885495692937003 0.09827028640182864 0.06313660363461174
0.12458059932330182 0.0865187353217404 0.09828554850065963 0.06900038769918679
0.06821129640323995 0.05576745251687512 0.09823212767503747 0.06584666963529054
0.15570276414684187 0.09527901402810998 0.0982957665383104 0.08414029561354837
0.1416331086340581 0.10017977451579765 0.09831193219304041 0.08964433785837449
0.1367837259226332 0.0817381371327825 0.09827068341136776 0.07076964106697202
0.08499330435117697 0.05619077916547501 0.09822779022433081 0.06664044864621181
0.16817324221511584 0.09023874539235875 0.09828106265614378 0.09685286494657672
0.10434371158797452 0.06747288958615992 0.09824770078043844 0.06547442491024051
0.15252142291012716 0.08363706767453079 0.09827060252236543 0.07984232050549481
0.060958123881595674 0.045808030566989184 0.09821117930841554 0.08639239096960495
0.05556669020605028 0.03535041354719608 0.09818948463896371 0.11953889851412897
0.12275733668531412 0.06283949129803976 0.09823254324249892 0.06146472539126983
0.15511953965143052 0.07093525402413017 0.09824235151339974 0.07119000547749986
0.10343739455746262 0.05293949801560524 0.09821592142931233 0.06483574482493316
0.0754663014255712 0.045426674870544935 0.09820634855420822 0.08188030371529742
0.04120378260079016 0.028010923712747937 0.09817717577650883 0.1443440651787028
0.15844185981050943 0.05967426922856041 0.09821843971760226 0.06748573795505103
0.09183634247448878 0.04473058503522825 0.098201178298679 0.08936397218063906
0.0263228261988102 0.022356444059134478 0.09816861801935982 0.1608894684321775
0.17326555133785 0.07126125216892999 0.09823905222383796 0.0839814068257664
0.13385146692166025 0.05748896144668359 0.09821883078326779 0.06627913734102056
0.18917276730154764 0.073570596100383 0.09824061759020528 0.08588260456124443
0.1728649792750583 0.05922125532659009 0.09821509712821255 0.06710153883708457
0.11687427259738292 0.04258072650811315 0.09819238487421827 0.09603778603134557
0.19658836271287322 0.06520231062338398 0.09822266033321524 0.08922670691195055
0.14721721157809473 0.05093001517635201 0.09820340538387912 0.07900429259825914
0.12750250972554272 0.04553231606753155 0.09819629719042498 0.08182703291802333
0.08255631689270465 0.03651452310225753 0.09818642458257099 0.10820526197898331
0.07335065360385588 0.028668894581564033 0.09817311830038515 0.13376622141363997
0.1043762354323937 0.035853484793043615 0.09818177745664519 0.12116291543417929
0.18465066004062888 0.049604668079430654 0.09819542803114065 0.08932208024390453
0.1663058774329481 0.04502854083914315 0.09818971451730513 0.1027064240568754
4.978629208153673e-06 0.24274522785922295 0.10163352597969669 0.08042563850998154
9.355583306415296e-06 0.225589452634467 0.10376973851656376 0.0843367621140004
6.821107184999008e-06 0.19548119128050412 0.10008149193933648 0.07977384490470604
7.103518882009471e-06 0.16939995054624934 0.09869047218037089 0.085602904396274
2.11815466130553e-05 0.1583531246298357 0.10974180172680596 0.08752099813598196
2.127729218846136e-05 0.054829920035050564 0.1100413935056772 0.09188449578912959
1.967366529357499e-05 0.017633226463725733 0.0997129538940936 0.19365536545560547
2.1513910066011004e-05 0.1017022432277778 0.11168946224780141 0.09014810643626199
2.1635168546215774e-05 0.2172175236542694 0.11280838844382786 0.07266110032596979
2.171515682222083e-05 0.1471635273812281 0.1131079461952299 0.08627545762368473
2.1643610222032087e-05 0.11487450391778417 0.11255529508684646 0.08062297591523837
2.1773335653668976e-05 0.23337244490598674 0.11373710880656604 0.09490301691864184
0.01801379603895182 0.04091648684169705 0.11321941858577303 0.08469615637954338
0.045182425020482066 0.07025089759159969 0.11328005350031564 0.06723696935569706
0.034946177753680176 0.045490900560403044 0.11321610545090884 0.06785474978689496
0.004076629821726692 0.07795549167860145 0.11334449746630401 0.08470846962462177
0.01485244396748893 0.16629165875570087 0.1135985364777965 0.07879408287238035
0.01450647455882041 0.08691156627939334 0.11336086262669308 0.0737597007968822
0.021862456791798636 0.15581087995433632 0.11356005954345262 0.06973511207195927
0.050967493897379014 0.200158959161085 0.1136637655357938 0.06760991228979127
0.08931459958757844 0.1639430082444351 0.11351660457171948 0.07265836970947132
0.106476535178825 0.1389358541149901 0.11342436001141576 0.069235306496667
0.07219389108519766 0.11696054701187814 0.11339294626383567 0.06708557263029118
0.01144379411728106 0.1496277524477484 0.11355199783960418 0.07770708751775979
0.09972645774248479 0.12275528286801882 0.1133826312595563 0.06762541796442989
0.04155515772365207 0.05872858774483776 0.11324915184987543 0.06677428285996653
0.03605431885967857 0.18536601277301654 0.11363440752941514 0.06364282961725885
0.04863832407575107 0.14984461967235327 0.11351524014529119 0.06116905752796018
0.06652363924446066 0.1051398006687661 0.11336320445760671 0.06473522667676315
0.006597892640846737 0.06651969304811851 0.11330767140668548 0.0859717293706753
0.027059349568443143 0.20175574642638514 0.11369259885666291 0.06587256397132099
0.07619285302818887 0.17485345919566886 0.11356251668741903 0.06767035342794929
0.05485215552819512 0.17956088309563134 0.1135980950954638 0.06295090325165445
0.039002399102255704 0.13347209245325226 0.11347583822009553 0.06713795056307809
0.024591351636499937 0.2140520145551495 0.11373195147001063 0.0684710039586723
0.022916754885790785 0.1037412658027852 0.11340286806455005 0.07257020021474515
0.0018471462945921827 0.01444600614805788 0.1131563060725459 0.15675935052642204
0.09344360613279865 0.14709983718750028 0.11346194749527427 0.06704281231862985
0.00031833887056643197 0.17124121381391805 0.11362799526562742 0.09613777228069527
0.10464599160658869 0.1554586802326305 0.11347574487834618 0.07067545806720343
0.08916572824504462 0.10925451467947198 0.11335277043702217 0.07267226534158316
0.03030676082829691 0.12227943899344326 0.113451022502853 0.0672855313798485
0.01714624979270733 0.027773471138778587 0.11318088167877682 0.11134658814508905
0.07884948483426159 0.1508612489112567 0.11348790398696447 0.06605895344968174
0.037956376494238074 0.10747209674090705 0.11339892906214623 0.06050951849653527
0.06278695974594338 0.15207023594977498 0.11350768384427515 0.07490763820781085
0.1083675585743794 0.1677448660104638 0.11350884217571232 0.09480106598110047
0.009750038475651908 0.12083177427688538 0.11346735635724599 0.06863015873409492
0.03759016778255129 0.08160922239255528 0.11332174734860409 0.06671060314951822
0.061348434558688936 0.11984539272221612 0.11341250418908341 0.06246251429850434
0.0029629248205589828 0.03823322713356196 0.1132265100525757 0.09579981406525138
0.005360896291097603 0.026182453670550672 0.11318796398514562 0.11829585866825922
0.06731496749318296 0.1624011154076927 0.11353410707232309 0.06655348969835255
0.03479691936640039 0.1461891934590664 0.11351820015641426 0.06105803151944192
0.05064736259198775 0.13041386731751778 0.11345495632036603 0.06588024644082979
0.08363223014590962 0.12668460813751714 0.11341059995600025 0.06728436603181161
0.017392990914561524 0.07390477409583406 0.11331895858149996 0.08097771411429218
0.0007973272007208813 0.08956316689769334 0.11338260128901449 0.0915275349515826
0.09554332907397657 0.17784791131561506 0.1135520340551206 0.07664623510184473
0.12787344379983498 0.1569913660288052 0.11345697990436626 0.08506954495469166
0.04606066726976165 0.16484836984338894 0.11356282145211505 0.06411635619322838
0.008396969142812594 0.1869073538941604 0.11366684531496245 0.07663822705413936
0.025099464281002785 0.18889875593611422 0.11365601820589803 0.06705951064115866
0.024009962382333463 0.13200217161576955 0.11348650912282401 0.06097132837017256
0.04191644368258295 0.11793479512645999 0.11342631874995221 0.06829813668416264
0.05646053789750136 0.1404625966481658 0.11347924097658381 0.06462259314138505
0.015090342588934765 0.05495856927055935 0.11326446410563284 0.07597607233812922
0.025057272075614374 0.09237388181031847 0.11336663007729349 0.0685207858113243
0.00903724974831705 0.22476928269185956 0.11377973063908545 0.07417610969904787
0.035529527667487126 0.1715931261292711 0.11359363722768498 0.06208816340484532
0.027506370694323157 0.058041270907794915 0.11326122033173686 0.06849130531772854
0.049154745876061216 0.10102835531842434 0.11336834482320858 0.06872767982578779
0.012860264969110595 0.13800008753891269 0.11351570759936533 0.06660553753144652
0.07789785062194128 0.1872965936344665 0.11359811273807012 0.06599835187365762
0.0728096103903548 0.13932464780036022 0.1134593859360549 0.06361056318956783
0.006994033975334085 0.20702844755608 0.11372858955200443 0.0751826191823611
0.11629280395755268 0.14879374991759314 0.11344404638646845 0.09542739036885328
0.03671555254547198 0.21131445721710956 0.1137115491075474 0.0631020625347943
0.028321857455229024 0.0692981962632419 0.11329415414083457 0.07219261666595238
0.06173906686438282 0.0843093508550996 0.11330555622561261 0.06354749964351031
0.1015717398477553 0.11076250377074578 0.11335125902812224 0.06789950240068772
0.12592166949293218 0.14205543326161185 0.11341975571177863 0.09232531847554011
0.07523210589764234 0.086966470738056 0.11330223430105493 0.06268235421341428
0.11442492746227463 0.12079126898457151 0.11337123443118743 0.061383563712457005
0.12184837680706546 0.16752215166619824 0.1134919565031431 0.09066953120215435
0.048487243466839094 0.046933391122068936 0.11321275533502129 0.06676768585832223
0.13042610700379584 0.1262365576024487 0.1133782068099086 0.08032661911854623
0.08950091863586211 0.08534781234480351 0.11329232930319898 0.06818837779150105
0.09849734174567296 0.09521381928059232 0.11331342961880325 0.06959218699866115
0.057248439943394555 0.059009239103398406 0.11323955279587174 0.07674571596946328
0.0736970351960179 0.06847151824606129 0.11325641526018843 0.06423904992334654
0.08770297667524782 0.06943124598992881 0.11325326630403651 0.06535502045687001
0.1281283013655972 0.11252019310282743 0.11334458915353963 0.07128759889271898
0.10897876807889298 0.08784656476147709 0.11329075032589894 0.07409878859315641
0.1502968670971444 0.1156214496956774 0.11334371880283374 0.08894240979398467
0.0362319268817044 0.02872506520024573 0.11317212637093682 0.10850481385901709
0.11217756313278329 0.09864537815820973 0.11331631660346683 0.0669282917429788
0.14072696272295163 0.1065079155204217 0.113324797655804 0.07979326179254669
0.057950412289543986 0.037119167568209835 0.1131853846826454 0.070512572139666
0.15199180082803293 0.10183337917371606 0.11331043991692669 0.09595267989042759
0.11195700656984199 0.07541650693079952 0.11325987465803716 0.06672540099995146
0.07510509603689247 0.04735319008033962 0.11320449097743408 0.06744198950067325
0.09811058511967986 0.06357686314904272 0.11323600943768888 0.0661996323841001
0.1609079784125031 0.1089241745861094 0.11332454981679543 0.0968459881251348
0.030815455388417734 0.01844145611894458 0.11314928935311756 0.11343867790333914
0.13962131375013126 0.09189503379028371 0.11329062663352356 0.07662899741196315
0.12644708284649547 0.09022702937433465 0.11329055932509824 0.06667083489870074
0.048652235274592955 0.02352768525393258 0.11315664491327196 0.10798760557181425
0.16978726788791185 0.08370641912891683 0.11326433998093957 0.07920763963574229
0.12406015012636808 0.0706924280235179 0.11324543523670555 0.06338255560439005
0.1512967321010697 0.08485817669160425 0.11327107298745176 0.07150424609617795
0.1489401262182391 0.07310761011871053 0.11324526306043932 0.06789046341972935
0.06930814530612359 0.03335054521185229 0.11317402546992247 0.09030036957255987
0.1124171609359037 0.0630944093126415 0.11323101818293585 0.06654323443029503
0.164491214344288 0.09558328906992133 0.11329215112519271 0.0949909790777582
0.08676328888502842 0.049080980980074844 0.11320536652378099 0.06509032340673346
0.1425641933706137 0.06172716424895436 0.11322167558641212 0.07083551602049756
0.19038639048891592 0.07802564442938759 0.11324814429861511 0.08897424035567544
0.022351566319347368 0.008710995807636148 0.11312952511686987 0.1507948982320263
0.12198822447757024 0.047497980374501064 0.1131949415708528 0.07325633818146886
0.10027345776296179 0.04145813883105219 0.11318581661118937 0.07191543664241058
0.1379133549666254 0.05037191968210474 0.11319849222054511 0.06234326506129551
0.20369189190434064 0.07287690800862973 0.11323532025260476 0.08496028079175147
0.08509348214758992 0.026612635891732087 0.11315741064232543 0.1072091313759839
0.18922532423348654 0.06371909959297685 0.11321870561813552 0.07776192551372132
0.17583091977589035 0.06296957802122677 0.1132189623362081 0.07043483058957863
0.15545027812991555 0.0505528712162913 0.11319653662811918 0.06904686892109127
0.17701244791203127 0.05029240289586213 0.11319441033732454 0.0677147883283348
0.149118441782857 0.04006817191658185 0.11317781318079331 0.08024276003879369
0.16653070766259287 0.04471277194119011 0.11318510787314635 0.07078431848958744
0.07172405374825377 0.020753045034679975 0.11314773482488244 0.11989442956857008
0.11026242738830992 0.033122202261256506 0.1131675662383437 0.08569016186510216
0.20899958990700868 0.060987060308859184 0.11321162596342703 0.07464654080086103
0.1217109345948912 0.03082957805561042 0.11316292983277201 0.09425327641852588
0.09627854292954513 0.029771187101823644 0.11316237665180807 0.10382919630754431
0.22521660261325266 0.008249523182666422 0.11312768079806647 0.14524599966476856
0.11603225615731137 0.018178200313581663 0.11314315279549998 0.12678223911003203
0.1946703411827248 0.027091791698835896 0.11315704297051703 0.0914298127552108
0.1804263000309071 0.02461227244274555 0.11315317910073247 0.11040872908791548
0.24232077972920785 0.037966586451072364 0.11317398931636731 0.09189976609213471
0.1811503021472303 0.037393109848376516 0.11317309565969907 0.08828401218158985
0.13356451797569643 0.0007638385693863833 0.11311601575028643 0.1503218740451795
0.2585974608726044 0.03239524816876021 0.11316530742144129 0.07978586248781805
0.07290152550979337 0.0003878651670323773 0.1131154298656374 0.11340769897900223
0.06232523056761198 0.011993923311043273 0.11313351574953205 0.12285498616056613
0.21184866074658149 0.008925679455179972 0.11312873446191063 0.1300455406135387
0.177393751609929 0.009647691646368698 0.11312985958367877 0.18479771035159842
0.23094951414418463 0.025192526812332937 0.11315408331929037 0.10078328117992712
0.13617368904952662 0.015778856964677908 0.11313941386496101 0.12646111013305084
0.14028310942381994 0.02968931205593044 0.11316109072307948 0.11588606850525071
0.22134240592400733 0.043245488342398705 0.11318221550354587 0.08002077536878761
0.1642951996260996 0.010867970092659062 0.11313176116077109 0.15163391395791093
0.2153578920538868 0.030725310524590668 0.1131627051340868 0.10605679259334502
0.10892442674843299 0.0019138796504706073 0.11311780787550316 0.13729728367293337
0.26005416314858376 0.020817098901684147 0.11314726502834269 0.11656035590206393
0.24817099769274703 0.011140659086203738 0.11313218609587097 0.13512254125561307
0.07980249893151932 0.00973007366908491 0.11312998796074525 0.11879425824470974
0.2847572275318299 0.010086855986744877 0.11313054393965667 0.1207668225078402
0.12510353351977427 0.008437429776757932 0.113127973615559 0.13173889299437547
0.2371516812149361 0.050158343135710035 0.11319298790254828 0.08873873753552243
0.1984062633725225 0.01493548841383829 0.11313809963186813 0.1230422234561245
0.04771806847878923 0.010882562749358138 0.11313178390071357 0.13559698584844884
0.2494502725288574 0.05000345608586652 0.11319274653987671 0.0819060963848505
0.1644633770098667 0.02592416459204156 0.1131552234407487 0.1256331574948486
0.2107569179074173 0.048838115539249584 0.11319093057328733 0.0729521735290826
0.010460087481665901 8.03476121523496e-06 0.11311483797056551 0.11236640803932348
0.27141641916750725 0.024260732062846804 0.11315263129040651 0.10332881439948921
0.14538431932137386 0.005282146229837739 0.1131230566927609 0.14957038618229673
0.03490886480037863 0.0016410027955477968 0.11311738264765624 0.10440550051295877
0.09060797437204575 0.014062310175304868 0.11313673894591898 0.12233170291590001
0.198165213495705 0.045236129614129726 0.11318531754788082 0.06558775462578552
0.4272323868338246 0.0010536602173860945 0.11311647436331324 0.12259038310307775
0.4013249865111385 0.044531781492700796 0.11318451494875888 0.07418050033762182
0.3554693154726188 0.04757154691626681 0.11318927199467002 0.07680395680376387
0.41360263426899246 0.03639837443063198 0.11317178666699466 0.08481781455609473
0.40835795140389736 0.003164096520176415 0.11311977706631364 0.15028592887222328
0.40747387361136933 0.014656517787527051 0.1131377619986953 0.13692611851321534
0.42412054972738145 0.02372558883508731 0.1131519545370439 0.1118319409049832
0.3475690040084861 0.030398858146890296 0.11316239779304237 0.09185140794730408
0.4801587749078016 0.0054910395588627006 0.11312341858903834 0.1378993708376822
0.33107059913621817 0.0035601973396763645 0.11312039693973189 0.13202689382665686
0.496047337845967 0.005750449143407453 0.11312382454908179 0.15014404781795226
0.5431467987963035 0.004156654290653225 0.11312133035817196 0.15865977914324852
0.44967224323683586 0.011285447977260414 0.1131324864817976 0.14214590601749816
0.48508400103792676 0.024330602721319972 0.11315290134656128 0.10803455049261246
0.371559637098946 0.028137795422691018 0.11315885936895755 0.07875410482419914
0.350783666539877 0.015398517706548303 0.11313892318292797 0.1312881294120328
0.5255046079727007 0.010232700022585974 0.11313083899600332 0.1488412162017126
0.3782549264578232 0.05030069889178062 0.11319354294964087 0.07463027311886447
0.3905419906016052 0.0016709798443229715 0.11311744043055791 0.15471467322169202
0.5594047334626474 0.009367388895947824 0.11312948483731564 0.13350900963659254
0.34396962867786546 0.0028550915885470892 0.11311929349260261 0.12967191700021072
0.43678624985297376 0.028760453152394148 0.1131598337900047 0.08997802934824417
0.3635265541399682 0.01600259957325379 0.11313986853389213 0.1139352427476134
0.4691172554590252 0.031820476902337864 0.11316462253895053 0.09789808008838144
0.5694554276610619 0.0007919508624101829 0.11311606480427051 0.14433648520173525
0.46248162439255625 0.016891189515155038 0.11314125912249381 0.1488134876525984
0.3664795493279294 0.04333887904953194 0.11318264812981105 0.07517164476734438
0.3846822284403889 0.013038476580388349 0.11313522986373226 0.15290980881139943
0.4272695409539827 0.045207450829700936 0.1131855723297107 0.0798381821176917
0.4999822867029127 0.018403020698439652 0.11314362504530254 0.13157781049550785
0.5143022492160833 0.014483031187363785 0.11313749050283725 0.1493469534104429
0.38786737420386164 0.03590785247448306 0.11317101903030542 0.07762159441466102
0.33712960116116775 0.015593756195441132 0.11313922871915391 0.13037345974250775
0.3991257811107276 0.032029987559938994 0.11316495041024262 0.08416787144084421
0.3326504119137752 0.029164022699694616 0.11316046535152255 0.0953661725346199
0.4382139277854822 0.014719028975295978 0.11313785982485908 0.13451059483509537
0.4477718132754399 0.03301961617862029 0.11316649911815854 0.08300397664477388
0.268963268862523 0.03834614550672537 0.11317242939995945 0.08807013735756403
0.276560181512154 0.0485192001787029 0.11318509220509446 0.07849346985919337
0.2933156648144455 0.02268886034272801 0.11314743995145465 0.11063700693015484
0.28814178961421744 0.03635250904862012 0.11316712669347315 0.07756600976228607
0.2977973101768638 0.009704587018681082 0.11312874956651789 0.13300596395428732
0.2980532215360051 0.047059403226342555 0.11318197390672755 0.08073992071746003
0.07131362432379701 0.2026254790884082 0.11364728578250197 0.06862609795194166
0.1192250503343661 0.17942956377397254 0.1135256327943986 0.09500559989084051
0.04932695780117344 0.21907041644228895 0.11371779143526314 0.06419188541294114
0.10330835426709635 0.18762662375726316 0.11356729013237117 0.08655312375532587
0.0989074101911402 0.19859998199297463 0.11360084290801475 0.07736123110222277
0.012013633484236877 0.2370647439375803 0.1138123558605875 0.07676266280435966
0.037389335967354734 0.23079746848415073 0.11376397258020593 0.06055517612965929
0.07708990574146501 0.2166717043966238 0.11367657033404616 0.0742826478609452
0.02600889486547041 0.23457411247973162 0.11378828567064067 0.06841270050953378
0.06501515397896016 0.21727715424966726 0.11369311584361533 0.06778924833525361
0.11194711560770827 0.20295231122389581 0.11359624942782982 0.08854757224701441
0.08895331404918147 0.2141422202232597 0.11365505305287188 0.08364046531111799
0.1003167063370767 0.2177364501508915 0.11365122993784908 0.08935348841689413
0.08674408862477925 0.2260646271238017 0.1136910801285551 0.07765659353534078
0.059349789046759506 0.23165464527217847 0.1137398544177847 0.06824294874513032
0.1055016270107657 0.23032259848479633 0.11368076610218367 0.11057015681774134
0.08950361344528847 0.2437505838770298 0.11373899496054182 0.08042869862307486
0.07507819751551932 0.23998931633968246 0.11374520808641646 0.0732160342601639
0.10083436489837026 0.24274737938997176 0.11372257020245752 0.09792804004790452
0.04543117690025515 0.24108131254956044 0.11378371205010257 0.06672668742514207
0.05199775091221041 0.25079464838349075 0.11380522719211605 0.06516761732608801
0.06832258316022125 0.2542555067925929 0.11379630043762629 0.065342892974683
0.06213897159045504 0.24449271518033894 0.11377384815174768 0.07001723504702528
0.08926663475129137 0.25750744841797124 0.11378121603039326 0.08359462713786661
0.019362985974196306 0.24682202930630037 0.11383214572327056 0.06644926456939775
0.09956809588791223 0.26194135090474613 0.11378252358241396 0.08667485635403661
0.10595033425088442 0.2763559651790132 0.11382000533813441 0.1081715790923631
0.03261273720894464 0.25096655854815686 0.11382911261218753 0.06020823177172805
0.08249183691107176 0.273968055389336 0.11384136139246057 0.06713328031034904
0.06531449957799636 0.2710262875419099 0.1138533357309827 0.06123645424049699
0.04897279438984944 0.2636451112605564 0.11384971248175114 0.06375174118773551
0.11375112415708613 0.28682493173070134 0.11384415630984909 0.09379822459159964
0.11396862390171378 0.29895907062035726 0.11388405945197813 0.11058233071733906
0.102855624636715 0.29269054753894586 0.11387737466181803 0.09427899982274855
0.08915800205588664 0.2890923908812679 0.11388314851202096 0.08347951857101128
0.11806903783970843 0.310500445144905 0.1139185533938051 0.11958570227756996
0.07438515249152215 0.2839934393541933 0.11388545501420784 0.06813580521755785
0.11401683398099476 0.2587212409853238 0.10919189453311293 0.09701697429912501
0.13453541006452344 0.16425615071717437 0.10665671189973656 0.09553115284733606
0.14363759275981658 0.13957206845744163 0.11022692696176078 0.09150912852270073
0.23568417582088255 0.06543981522718437 0.11109718790559897 0.09467385760905123
0.22480919050713397 0.07185374496187581 0.109902503589868 0.07254389179410511
0.22692591353578168 0.08763949788862625 0.10009174294158249 0.08938049400945212
0.30017489627129046 0.07524106268002846 0.09825475702508413 0.08058020145179028
0.28807262273734113 0.08084546360777159 0.09525704967361949 0.07997900851667622
0.2808490443392492 0.06780901344519956 0.10326184873242206 0.08667371366004166
0.2895288236995501 0.06093132828965962 0.10701620580505841 0.08444156986505524
0.29541077345737665 0.0886071130957614 0.0906737357294573 0.10157147258960864
0.30736335687652805 0.08506866734375934 0.09275853269553962 0.0951635430542984
0.31691922009726303 0.07900367644838291 0.09652797920329859 0.08433654849759682
0.30342112453751113 0.09802195636575203 0.08554065131952582 0.09862027630398526
0.306769828997784 0.10935156755870198 0.07975124187398369 0.08447196401958487
0.28758902241377027 0.10471117094974516 0.08227740415980965 0.09209291852552519
0.30847901898730673 0.12254119063337242 0.07332780317775497 0.08707164772225122
0.29663025466653214 0.13218544765550866 0.06879418871004947 0.08914196310252172
0.31317975423357863 0.04316641680059158 0.11317585051134585 0.0817393903958257
0.3118859115177656 0.030715919902486497 0.11315860341117577 0.09778566902144428
0.33481646661688647 0.04316567369424156 0.11317902974916311 0.07707835698523613
0.3125923553220672 0.017539592289603428 0.11314066523858335 0.12295974690220299
0.3397715291924055 0.05782021680546513 0.11148716449561852 0.08714410447752635
0.3234070673345598 0.02250363811836411 0.11314974752333576 0.09637273512442103
0.36133131085950093 0.0654338235706656 0.11048870463679515 0.088849880344837
0.37704018049689286 0.06894852423264672 0.1120814941027797 0.08829430100198059
0.3727215608901297 0.0822272986575095 0.10311845618347609 0.10253660812075456
0.3867794046883203 0.06285078889379875 0.11321421525540087 0.07454148947049276
0.40574273165104846 0.05773544532494451 0.11320622852418097 0.07910132994731173
0.5469592962873402 0.016171966864904845 0.11314051429978517 0.13474982724901546
0.4643233826925136 0.04330726543614066 0.1131842081759229 0.06316932001677693
0.424314496960847 0.05688975254828961 0.11320634283187403 0.07717903281232402
0.5353061500876717 0.020992376515984894 0.11314861313560357 0.10724072820887767
0.41174090662636054 0.06783928313907811 0.11322707350127172 0.07632133924456423
0.44390124810857257 0.055500097702896406 0.11320635090691303 0.06538795673064451
0.4841995435602418 0.03739470950834762 0.11317493365612492 0.07921429972138974
0.4354519362096321 0.06353516163401501 0.11322179607569496 0.07526652573253678
0.4970807952642573 0.043285671560173336 0.11318914982685643 0.07024410132294508
0.5135037807514385 0.03240079033225086 0.11316896815924951 0.07300383613893818
0.4781489656227988 0.0543381298129854 0.11320953592395833 0.06422047471633073
0.44664607657110966 0.07008754553881855 0.11323771985347114 0.06964071902205413
0.4908079565843506 0.05367430098603701 0.11321052164593379 0.0695409884607008
0.5808890098723057 0.008150852805748144 0.11312886889586313 0.12924684097348188
0.464428373061652 0.06286846528204677 0.11322544229817016 0.06811933744724753
0.42090278489594457 0.07936783930425938 0.11325294974497259 0.07675008728590814
0.5286585917018091 0.03150935044100464 0.11316961296033948 0.09438981488087012
0.43975176551086714 0.08296364867423742 0.11326460324033337 0.07261970314935558
0.43154622520051544 0.09718926058553137 0.11329503024862728 0.07541505644887045
0.5534765609492343 0.02577443355454556 0.11316215618257601 0.10302055086565022
0.47667199936513655 0.0728734893437786 0.11325067712835829 0.0665931997495086
0.5161670393159222 0.04725401566831554 0.11320196435535505 0.06388913368656843
0.501968775748521 0.05735028426727833 0.11322149766021064 0.0655284130086485
0.45464664043352165 0.08029125611842262 0.11326217437225404 0.06703609783369528
0.41914746782461343 0.100880944803834 0.10873910164183438 0.09166734051763589
0.4269491981486836 0.11903361292714967 0.10283546615888209 0.08526672866141077
0.40915692336844256 0.09428222284094287 0.108165614763712 0.09067960333233115
0.44842452417344913 0.10952726791976054 0.11332871927164608 0.07145146848460684
0.46384488703544435 0.093560656496125 0.11329553280432107 0.07440602748165988
0.5140342943741252 0.05837690075307807 0.11322727090581122 0.0751247885509831
0.452166409544049 0.09453916813563595 0.11329434366320681 0.0743404828907193
0.49053708142993224 0.07035113597187227 0.11324857619639972 0.06826725028204508
0.4600544664006478 0.11521472332977928 0.11334669172594958 0.0849843390873675
0.5054957813736191 0.07299457330555459 0.11325966433440762 0.07395359949259876
0.527057339770785 0.05299462949204735 0.1132184515120089 0.06782444243474071
0.46844319266518386 0.10663267790966262 0.11332870300433065 0.07954191262712565
0.48256267535573166 0.09083838791243731 0.1132951321286291 0.06396987605318286
0.5456473458327206 0.0421096716672283 0.11319843633042331 0.068787130224611
0.568460502751052 0.02530029864316032 0.11316545075808865 0.10386434754562876
0.4457631986510117 0.15126523540731684 0.09834301354737364 0.09217976197423776
0.5235871884990759 0.07195021243704167 0.11326401899396445 0.0628928866565398
0.599382421198152 0.0005506435581912217 0.11311594519921897 0.1281332039652935
0.4991580024698985 0.08525778797461858 0.11328744393022304 0.06851041803779809
0.5627696154719547 0.03475534443279769 0.11318675901616186 0.09166690824005448
0.4799220052404433 0.10322480132503173 0.113324639302543 0.06913805787157508
0.4769431845668806 0.1316537784725511 0.1133955059988659 0.08573212678478415
0.5448344661990738 0.055370732875586914 0.11323127799361826 0.06591273305079462
0.5802896319930407 0.019782271963481944 0.11315642319754102 0.11349981472430594
0.5179086929839152 0.08698581158246496 0.11329990602949466 0.06713693019375769
0.488222144885443 0.11304239976565139 0.11335297448688178 0.06465166110902358
0.464753283216533 0.14131642486742058 0.11341463497374771 0.08855482292262155
0.47701022432334383 0.11856781493050682 0.11336193603950014 0.07349804991192158
0.48798410856344154 0.1438287131316727 0.11343301257450375 0.07691951640777447
0.4937923278305974 0.13259799351474755 0.11340662818209366 0.07385331217858257
0.555480587396092 0.04935207930237178 0.11322081336567422 0.06303878022912182
0.5354331753030115 0.0720530401485034 0.11326979633683198 0.06308825325083457
0.47866814570009164 0.15052216288133238 0.1134456729817289 0.08326332568935312
0.5101231837833771 0.09971396151462641 0.11332901974843884 0.07047540347160498
0.5327121365380696 0.17344067319284373 0.11356689538623506 0.07127711022553337
0.5009466748656461 0.148307057737449 0.11345944400064166 0.0672257043491691
0.5771536002849225 0.10841390003445447 0.11341680490027398 0.06656407740420273
0.5918559780571039 0.019029611299347868 0.11316363712427277 0.12350584457734147
0.5665556435181103 0.13600627589978023 0.11348883526400849 0.06429630853782661
0.5402949737469545 0.19508160753735126 0.11363944573399667 0.06412598529631512
0.5680804972637642 0.1756779444268586 0.11360933139935214 0.06065405624859073
0.5211455510693628 0.17723704234011212 0.1135665947795555 0.07087589991027844
0.5424590734992828 0.1158181160012558 0.11340395963593244 0.06819232326042049
0.5395097810841519 0.13938216128943093 0.11347163735931173 0.06518780021737526
0.5566965065864242 0.06189476844029294 0.11325665209215258 0.07144923091272397
0.5986972777457805 0.04181462939105755 0.11323886894766047 0.08800052272254286
0.5664733875446246 0.11383559333475365 0.11342227321442683 0.06893797772215832
0.572485737664033 0.06733704638497229 0.11328892037957772 0.06866949888448663
0.5939800255306215 0.2154530059652243 0.11375475976708403 0.07005796555647277
0.49659199270622356 0.16102613190294374 0.11349318333465888 0.08343440563657858
0.5297456827532003 0.18561185447289835 0.1136003941856261 0.06807277720934135
0.5896360832190206 0.22999281326694943 0.11379396943200662 0.07175315655905903
0.5856982412167778 0.17862853768595757 0.1136359754335723 0.07265422178439036
0.5877228934681564 0.14208921914437578 0.11352845722564081 0.07260489867616818
0.5537216335977874 0.12535516593715862 0.1134439334870739 0.06601331844796714
0.5592983565770038 0.09532437133371387 0.11335951928029797 0.06769914350532157
0.5227519989571009 0.16285269209226882 0.1135250859591623 0.06380903445372271
