x y z curv
0.103426313076702 0.29835856248675274 117.18226356972633 0.1875547881574322
0.10028925285536204 0.2984105799061554 117.162023588162 0.18464226141795811
0.10038406462705696 0.29278544861710176 117.20521913361085 0.1562063518104755
0.10040125702731958 0.28991354048033824 117.21748154571227 0.20672362029553107
0.09969742908380727 0.27639644235054134 117.2191894544979 0.22752991863042904
0.09892145436637714 0.24464651970053436 117.20877736748369 0.27946457954639226
0.09905737165494552 0.2719343710288342 117.20759422008027 0.11320731645732642
0.09773461658532893 0.25513621305970263 117.18468015511041 0.0807260121616523
0.09743667305905793 0.24317168222645583 117.18065107626634 0.2292514647519653
0.09840030498152993 0.2563153269943526 117.19721865291342 0.12400683113508781
0.09868899258478196 0.28241580754609846 117.19911476981551 0.0602869783453886
0.09818782493387099 0.2663913357530968 117.19176994681185 0.030210544126543185
0.0982679835024507 0.24460409046974319 117.19631467434289 0.18861087806706753
0.09941727796849394 0.2525081028828535 117.21714993160879 0.25210777940191803
0.09646066019603837 0.288101552725292 117.15581008987078 0.17543969968740403
0.09741403258103747 0.27299184802014526 117.17609208581935 0.018462725913316533
0.09629579441066818 0.266122428223747 117.15570619425924 0.15235695609416783
0.09810842075472773 0.28886891044397034 117.18714406181209 0.05705614701294703
0.097174918283297 0.2880137746363161 117.1694506725207 0.14459022075887928
0.09704850319524608 0.25858385239114073 117.17111160145542 0.11955332266040215
0.09545610836884395 0.28489400009778626 117.13708658640843 0.13373042768560475
0.0964286754730937 0.24214953925989047 117.16155897451443 0.17218331063757833
0.09598639541987374 0.24906906890704927 117.1521622983359 0.15638913746053282
0.09560827187417686 0.25890336462065944 117.14358687148362 0.12952622406479872
0.09581177246555922 0.23587705924015911 117.1506565175382 0.16889072393885599
0.09536638836071575 0.2462315256769803 117.14072555161958 0.101783341148736
0.14907703500237313 0.30040095956188473 117.16867365717927 0.16878813446611507
0.15897215455313235 0.2999398479174902 117.17526794284032 0.16882521064048459
0.19251220647542167 0.29884747729788824 117.19088950939579 0.16937427813104386
0.17443569138753395 0.29829995402470527 117.19871918303143 0.19767450026734323
0.16790565574280408 0.29908768498069976 117.18745422632992 0.16898354945719463
0.15166154712157792 0.29852495745778596 117.19550193994218 0.14899162800909066
0.20030604326906265 0.2995413864904274 117.18096640656984 0.12928149145896511
0.21208592642284652 0.30160750328161845 117.17763769796724 0.12910422295613327
0.2158362460598086 0.30112584676604703 117.20291471995311 0.21120566366330426
0.22751539266836607 0.3015417063891739 117.21531959489579 0.24942079738874542
0.2287351111160394 0.303368664479097 117.18717310383556 0.17340968288346706
0.23235310628823694 0.3015874523086827 117.20551528684945 0.19915394774010126
0.23600459167912274 0.29880385145192373 117.2267687624329 0.18787456776161254
0.2449498304947495 0.2977438805815722 117.20759522356087 0.186993094648856
0.24538345401098283 0.2985275258831613 117.19546710507262 0.1729510200265908
0.26383522332803067 0.2996483376818066 117.17943663474577 0.1744546339905801
0.25418380347480224 0.29901822551852814 117.18844864686315 0.13562025805027106
0.24794770322100054 0.29685229869300933 117.21942186771886 0.22815691414656225
0.28785541233932677 0.2994812094201582 117.1818266502435 0.17620501969664293
0.2650372487941743 0.2980407324402127 117.20242638777424 0.16765262395929953
0.27714193939299064 0.29887252660877994 117.1905311446984 0.1665715101706166
0.2560043703570565 0.2974547687328262 117.2108060755323 0.2034730738469512
0.28919707916103843 0.298219958671597 117.19986359897858 0.17638631100035465
0.2995882592417439 0.29980625921592957 117.17717795800345 0.15515607427723854
0.31460272414344936 0.3003316675150838 117.16966373213597 0.15307598627382216
0.32085425405794643 0.29955316536110993 117.1807971466382 0.16036165369487543
0.32571616642229384 0.3005420240638816 117.16665531780582 0.16743701445050344
0.3418511999689826 0.2999173381315419 117.1755884639637 0.19870632927722073
0.3347751212391702 0.29718519958544937 117.21466117675632 0.2312083254472764
0.3228865798190341 0.297878639926441 117.20474455087245 0.1825616396599867
0.2903552571159684 0.29702354608586734 117.21697296337217 0.25091585040823117
0.32619201181301277 0.2963611332344487 117.22644591023484 0.2009567786803911
0.3112599729442832 0.2971720215738455 117.21484966457896 0.22609383271558933
0.2802881008498863 0.29751233543820677 117.2099828542508 0.20442687638116017
0.3011240290905174 0.2979071790128248 117.20433642833139 0.1773072838975337
0.34491019992493693 0.2953385996755664 117.22170884530695 0.25782763407022213
0.3484417353142015 0.299807117815201 117.15752745593323 0.17597423679728416
0.3476309945119237 0.2969001306517843 117.19089758616946 0.14566177125315022
0.3472951626181413 0.29512945792827316 117.20788785347723 0.17017068135941826
0.3517446318868791 0.27759085974690717 117.19150650605668 0.057548267022659694
0.3518885819838377 0.2594589145485675 117.19126966306473 0.06707461781868376
0.35185603537255705 0.24404499436606664 117.19402420893846 0.20512119814583327
0.3525097830003164 0.24681554653787863 117.18116701947771 0.10250325100297662
0.3509548815985136 0.26188045267535226 117.20874976389118 0.11506109217694524
0.3508671342253359 0.2738366105051425 117.20876942903655 0.12920619096116095
0.3500830818290276 0.2545843305500829 117.22639415078376 0.23392082614889503
0.35035384272497083 0.2692194440465131 117.21920243483633 0.18253706496128128
0.35109585369561086 0.2857984420118024 117.20274985749234 0.08744328551401964
0.35322059256398675 0.2545000446373338 117.16654062063142 0.09620755262059537
0.3527616753477734 0.26567365679371824 117.17375049487576 0.10256003782394067
0.3540881053679118 0.2847286543342008 117.14580300230159 0.16548224884232907
0.3533164821172385 0.28724181581693425 117.16017850874161 0.18724940624220837
0.35268378230814296 0.28866138080136533 117.17205459258274 0.06710040673927621
0.3540632581986054 0.2686229965103914 117.14850661559903 0.16105164508467776
0.35341966455905466 0.26944822449002515 117.16067283939613 0.15558023062911372
0.3536604970810008 0.2449669877089643 117.15946532818522 0.1453434030440404
0.3544235327790316 0.25687513876695156 117.14325794348366 0.12790891167391014
0.3546946909821335 0.2817079348364421 117.13464674031476 0.13248377533518127
0.3545104313257764 0.23038645925025922 117.1452666699654 0.15390430476416025
0.35463806325450853 0.24497532155650403 117.14081194145956 0.12255309613083336
0.354725329889534 0.2675674856920195 117.13601946839286 0.11383778913502705
0.3396501838051478 0.30205374746476354 117.1450366632564 0.12359216207135988
0.24395732617577096 0.20277078062754383 117.12063393895501 0.07471234203846491
0.2571822201308674 0.19018020639871283 117.11786309964609 0.08392233406470859
0.26113878786229267 0.19660272666857057 117.13408066992345 0.08503919303135864
0.26815746273635593 0.1694390131247862 117.12616371028528 0.08890295649483372
0.26447534725338384 0.15450061328732323 117.12211943455718 0.07976929013315065
0.25652540551822856 0.14690329226204013 117.11240369118113 0.06938759545868037
0.2561370309592446 0.1388029454222201 117.12339757407194 0.1009666391918469
0.26387199112367693 0.14155876405065015 117.13346148247592 0.11081013125629632
0.2484871843141314 0.1310826303067416 117.12521774348187 0.08021219052608179
0.23287835111526245 0.13116918448603201 117.11077737545506 0.07525000508850262
0.2252103492091047 0.12685295917142153 117.11878170352219 0.08046022096015307
0.22845303347203263 0.12179118116074697 117.13124062997949 0.11271251897439169
0.2125029801702898 0.1296590060993535 117.11784514900074 0.07336334110211624
0.21259057675857593 0.12297709905807028 117.13199135299065 0.09909011132464583
0.20219297073219955 0.13137564826171755 117.1239605087477 0.09673517860720204
0.19421205606093786 0.1418587356364727 117.11822678634718 0.07702903016206428
0.1941900711787567 0.13289749750698093 117.13256314868285 0.09606996133359232
0.1831053968251594 0.15156245408509456 117.12944707677973 0.08618032823274643
0.18831614103737215 0.16044141251673547 117.11216335996144 0.06258351278673614
0.18151387134945957 0.17222553510747685 117.12753604404934 0.08440779079756504
0.18723787254688576 0.1823827241224568 117.12024090679793 0.0832615738008882
0.18418354998157066 0.18959967846124864 117.13417984636439 0.09827891790355767
0.19532109513579365 0.19725010920135097 117.12397250863098 0.07055719265757826
0.2058067958084811 0.20009634565741902 117.11470553884024 0.07382547543960774
0.20008894488152507 0.20545983054872596 117.1321508474728 0.07853767327233177
0.21247762078308627 0.2091128253237028 117.1278393494342 0.07531539342487908
0.22317125224508977 0.20820358605591155 117.12161297232697 0.059845808468455906
0.23089302731752917 0.20424580564927966 117.11336317802548 0.06121298384246749
0.2020511333911012 0.20942412600986943 117.14546287966365 0.07519541078944238
0.21817918212560097 0.21470533434739988 117.1443599545876 0.0628294612113341
0.2273508960960397 0.2144847816509799 117.13739112167625 0.07123697988140658
0.2538321591722793 0.20497049217017935 117.13925920664516 0.08482882871443866
0.26806519828461284 0.18831852738897817 117.14356892817972 0.11756618659542123
0.271472886096218 0.17718198936486282 117.13740806573415 0.12574072248242082
0.2716806496628934 0.15577030297117705 117.14271411541755 0.11668964262194997
0.2572503206469486 0.13217171315005127 117.13646341590886 0.11024798653465748
0.23874954507959603 0.12145495214624896 117.1371217088135 0.1182444590703137
0.21422476733522544 0.12017069455796248 117.14340262208219 0.12387567108162723
0.1870419534088195 0.13761138816419477 117.14258216264332 0.11525006267929348
0.1783275016535899 0.15772256152671715 117.13849540405106 0.10284230797477117
0.4030001500944404 0.26321127678414447 117.24115841846762 9.711400243516239e-09
0.4290260417470206 0.3057348509677136 117.24115841846762 0.11220207447419193
0.28291819509963057 0.26450950215903085 117.24115841846762 0.06251852475220017
0.29449596716309506 0.25829901622433005 117.24115841846762 0.06753505775580483
0.24368135854118342 0.2555979145544081 117.2411584184676 0.0812991297223063
0.34022749143423664 0.24249061275122014 117.24115841846762 0.14636937082468804
0.3638923702051275 0.23862923617831652 117.24115841846763 0.08431001660521456
0.2569933432938411 0.2404865793765676 117.24115841846762 0.10906038737824254
0.23349624288260729 0.24609288507689064 117.24115841846762 0.09109590475324837
0.21512198241362046 0.2410125359232865 117.24115841846762 0.1055675807828728
0.3046907847865205 0.24605834582691277 117.24115841846762 0.08300991557055579
0.28079734270263634 0.2476600445552442 117.24115841846762 0.08312150731203764
0.269735149721459 0.2628737496614598 117.24115841846762 0.05895499518351646
0.2551733741447807 0.263250102082525 117.24115841846762 0.05688947050177865
0.39240314615167254 0.2997082735432548 117.24115841846763 0.020795071729558495
0.3188386463765155 0.2872115913176667 117.24115841846762 0.1263642992396114
0.289343203727198 0.27403119176837337 117.24115841846762 0.0728649665277143
0.35397548353413893 0.29750884887771634 117.24115841846762 0.0896123065328842
0.285203451830475 0.28714055733744837 117.24115841846762 0.09723374000526154
0.3849249626608218 0.27214664009912015 117.24115841846762 1.0740139693389247e-08
0.36905605895285976 0.2682273347123569 117.24115841846762 0.07833416934676445
0.4037100991522261 0.31555233085998297 117.24115841846763 0.06845308136958972
0.3053640615785871 0.2883770828113076 117.24115841846762 0.11660393641869844
0.3296289777552436 0.2911446008109134 117.24115841846762 0.16078361019697707
0.32406608414922683 0.2754311234050768 117.24115841846762 0.08612290418990362
0.38758987933393807 0.28438382320355116 117.24115841846762 6.765522536270859e-09
0.3384417958006527 0.2792508199692987 117.24115841846762 0.1419018800931542
0.3459588674688254 0.2889849802649358 117.24115841846762 0.1659284671117068
0.345538824928202 0.26858670743193747 117.24115841846762 0.12017985290186037
0.3784825047192695 0.2921729505154126 117.24115841846762 0.02551465985056391
0.3553733580323172 0.2538228084046078 117.24115841846762 0.12368074294631508
0.4164736972106521 0.31164552234825055 117.24115841846762 0.0786488037216513
0.3330946923555754 0.26803388404992734 117.24115841846762 0.11707476493967443
0.31066717868582266 0.2748089651576988 117.24115841846762 0.09218539409991394
0.38836864062255355 0.2491740586925916 117.24115841846762 0.0300874491703056
0.3595480456910972 0.2833438491918261 117.24115841846762 0.1431411947925381
0.41693661413036154 0.2952405545091375 117.24115841846762 0.05242696105863216
0.40894555476910777 0.28110239077321597 117.24115841846762 0.018909114508728682
0.34433343890428536 0.30367145585473915 117.24115841846762 0.10068390524421636
0.3835333535249633 0.2598637796110124 117.2411584184676 0.013814719158997686
0.2558838006136078 0.2765988288495104 117.24115841846762 0.08485160095661018
0.309826671015105 0.25770342663065343 117.24115841846762 0.07263994136976831
0.36978461098083115 0.3017204868181645 117.24115841846762 0.055481936982315704
0.32543670424524035 0.25589644389073873 117.24115841846762 0.09910216871284212
0.39731140393665737 0.2726604757750371 117.24115841846762 1.217235935267329e-08
0.38093670415342296 0.30680212409482105 117.24115841846763 0.0526128834524845
0.2682535205136775 0.2798701289855856 117.24115841846762 0.10869903570320588
0.3986695424696703 0.2433678315032877 117.24115841846762 0.025923154714315024
0.38802913397749605 0.23544407321664143 117.24115841846762 0.0580732277366286
0.41588199743138965 0.264368631902059 117.24115841846762 0.06566576700661396
0.40982006328445725 0.252213502640736 117.24115841846762 0.028540295889511107
0.43015156680667527 0.2804895653560918 117.24115841846762 0.11175866194535389
0.4230612981511607 0.25508948966817435 117.24115841846762 0.08311704854513212
0.4096789996870254 0.2142007607627603 117.24115841846762 0.06882650310828647
0.4270828770666725 0.26599873604496227 117.24115841846762 0.09518930102622054
0.4088163650710412 0.1944658059430268 117.24115841846762 0.06669479810007942
0.4152778450540192 0.2346615139181178 117.24115841846762 0.07933466060440174
0.423642326122724 0.08522655173190047 117.24115841846762 0.13607086182426667
0.43656753867668396 0.03389081405664312 117.24115841846762 0.11995174594243983
0.429029300215442 0.06589705626448956 117.24115841846762 0.13552952214582084
0.4145740929370648 0.07637973293883289 117.24115841846762 0.1082103915244039
0.4257411184176938 0.053316207326260676 117.24115841846762 0.11815450607878374
0.4071135857116798 0.11641895973780061 117.24115841846762 0.04185456930337429
0.40966413176977395 0.08716976364167933 117.24115841846762 0.06199850925748297
0.42375482695382327 0.036432366516475106 117.24115841846762 0.09864912197973902
0.4145729578401741 0.06353891769022628 117.2411584184676 0.06329686407096759
0.41029012250947516 0.10540438606257058 117.24115841846762 0.08786235937977863
0.4249151794287182 0.1684620464202107 117.24115841846762 0.11029925236115817
0.4448422493881514 0.188261374558811 117.24115841846762 0.10965736404529045
0.42048564996893467 0.22170682934215163 117.24115841846762 0.09286850413744355
0.4429415767053668 0.09349388492837861 117.24115841846762 0.1403764202339246
0.4414633264749055 0.2998080052579511 117.24115841846762 0.11805327659711493
0.4310733325937596 0.23248083122001345 117.24115841846762 0.08293405545532984
0.4405168749548114 0.17464742688577203 117.24115841846762 0.10491998558248097
0.43743508476587156 0.20554200462229155 117.24115841846763 0.09825106001655434
0.44099752821652544 0.24086723917147068 117.24115841846762 0.11424858056996806
0.41466670275778683 0.18469309311024046 117.24115841846762 0.07356386260016162
0.43633244271508637 0.04885307001287567 117.24115841846763 0.10287015383493786
0.4363500194673177 0.25165019559463353 117.2411584184676 0.13552867051942125
0.4432405680198294 0.08181214407873706 117.24115841846762 0.12223069111188455
0.42114709914157467 0.15549773663861133 117.24115841846762 0.12171019872646185
0.443224709530169 0.10987726851344545 117.24115841846762 0.12956015778131785
0.4256450249393554 0.14160788345548242 117.24115841846762 0.10769856877016548
0.44188570645790404 0.2852176322463099 117.24115841846762 0.09983104682012282
0.4324623489746047 0.130674720615792 117.24115841846762 0.10596794913763741
0.40848439881962134 0.14792319567853063 117.24115841846762 0.04446833180702914
0.4045951404974536 0.16889567705753844 117.24115841846762 0.05257984396924549
0.42397936346172316 0.09800960905609307 117.24115841846762 0.11620622008193739
0.4130057789498359 0.12852642514815305 117.24115841846762 0.07329735349939182
0.441852707590692 0.2682699076993719 117.24115841846762 0.09851204460397758
0.42552575418611904 0.2103721824595682 117.24115841846762 0.10774065265002872
0.42311146573709385 0.1943865911220831 117.24115841846762 0.09787688777150197
0.44181704953764533 0.14661345749260668 117.24115841846763 0.12074565117793286
0.444276129115478 0.22852105596907768 117.24115841846762 0.09545834866396564
0.4328395942919026 0.116334843702755 117.24115841846762 0.09824623139089135
0.44017628992722596 0.06951028389509947 117.24115841846762 0.13222744813002668
0.41251801651833075 0.052000673439574985 117.24115841846762 0.027773563496084907
0.4339582289861821 0.017383052549863953 117.24115841846762 0.1364814489034197
0.3840507013425463 0.006227886827791709 117.24115841846762 0.10999959191681534
0.4141787987404516 0.009045550172690538 117.24115841846762 0.13533660133879696
0.41928314749696993 0.023832114027057587 117.24115841846762 0.1216780761078224
0.3907959964738603 0.01762624235464471 117.2411584184676 0.10016511008705904
0.39563671985236204 0.030797550805623304 117.24115841846762 0.07320459719964338
0.40327065455673955 0.01891167978372335 117.24115841846762 0.13016023066649104
0.3980452797820277 0.04799914279293982 117.24115841846762 0.050513541411203164
0.3859676280477733 0.04753389649709504 117.24115841846762 0.059118967611984576
0.378404632650946 0.03700695065669492 117.24115841846762 0.0953650565329103
0.3746151268939088 0.02240943612156852 117.24115841846762 0.1316791218688174
0.36029931096831413 0.040618334120856164 117.24115841846762 0.06205109832466707
0.3621238391659576 0.02756484518904173 117.24115841846762 0.12513956865672332
0.33677209133674924 0.012028320028128349 117.24115841846762 0.13619171254877832
0.3311236753056833 0.026348815016811928 117.24115841846762 0.11986888476741374
0.3236196878246133 0.009865954065392306 117.2411584184676 0.12732161861705424
0.34025960182714754 0.036850190614918246 117.24115841846762 0.08061538765762603
0.3503356508946365 0.01653232628703706 117.24115841846762 0.1425116227563464
0.3130135890980272 0.004812730846237913 117.24115841846762 0.11039855766407328
0.31113759256822293 0.04298626224666739 117.24115841846762 0.04858921774453528
0.3098318383105016 0.01979204275081515 117.24115841846762 0.12432615395583217
0.3255727930935214 0.03608811080857316 117.24115841846762 0.11528763336203579
0.3159426098600244 0.029232854454040093 117.24115841846762 0.12898684857699563
0.2794125379995801 0.02021554335532184 117.24115841846762 0.08952942915928108
0.29181471053338504 0.013917287176592068 117.24115841846763 0.11383674715472172
0.27523465482034176 0.0063198422004132615 117.24115841846762 0.10266435906340723
0.2627983058264255 0.017089059021447996 117.24115841846762 0.08344754295159992
0.2585541507384597 0.034235457263714214 117.2411584184676 0.08970416223440227
0.2993445343022956 0.005363935519165815 117.2411584184676 0.0947258858637454
0.2715706381046738 0.03533578568178711 117.24115841846762 0.0679081011782614
0.2952629011986665 0.03401546976110027 117.24115841846762 0.10953991400639673
0.19896111260606228 0.03599581564513251 117.24115841846762 0.05798302530813982
0.20891895321254256 0.043964429308565305 117.24115841846762 0.04642853098209916
0.21625715124031772 0.03517395267680613 117.24115841846762 0.07213246389409325
0.18983091479742256 0.0178412230462582 117.24115841846763 0.10808646884153975
0.20288318955301443 0.01972283141365703 117.24115841846763 0.09927408532424224
0.23703086316555133 0.04514229984538971 117.24115841846762 0.049323255389108554
0.22308716060731967 0.005533751607043659 117.24115841846762 0.12450062190563636
0.23048208382285515 0.019293643244007334 117.24115841846762 0.0889870505641575
0.2429359796383918 0.03406712616945581 117.24115841846762 0.08359629986608974
0.21804202140813292 0.02195477162348982 117.24115841846762 0.11223572714658571
0.23031424095508843 0.031167666772548213 117.24115841846763 0.11830704869853077
0.24180413208644075 0.014412801128320772 117.24115841846762 0.09497382483866688
0.20982739510228754 0.010650720033656462 117.24115841846762 0.11607956507164788
0.1620583893246681 0.019593261734675547 117.24115841846762 0.08541960336353467
0.17939442644636677 0.012941252003412283 117.24115841846762 0.0771643116519378
0.17244507967795064 0.024840215704955062 117.24115841846762 0.07575579923544103
0.1462224493494742 0.009916454264086032 117.24115841846762 0.09020590358254889
0.18944795484745278 0.004708080029822618 117.24115841846762 0.09885045185799494
0.14610960149280833 0.02364052453065507 117.2411584184676 0.06697149876633547
0.15950577180761516 0.032151109087234966 117.2411584184676 0.08942565040642016
0.14513534896309815 0.04136643761693672 117.24115841846762 0.05361918321471647
0.12309074873113753 0.032371226716263746 117.2411584184676 0.1019136216661179
0.12238653325254198 0.014913817213007906 117.24115841846763 0.0951128205793653
0.1722614332010958 0.04844078261110331 117.2411584184676 0.04929767920290706
0.1341941736053945 0.018165521297448122 117.24115841846762 0.0720799875364531
0.13798780410558487 0.032142083324806295 117.24115841846762 0.08492765583508435
0.1116051637819566 0.020814554831681507 117.24115841846762 0.08255066352196345
0.10089705470331853 0.04651307291640758 117.24115841846762 0.05539843349129713
0.11181002404821218 0.0332002392955963 117.24115841846762 0.11798617385224025
0.0989883561770343 0.03490210168967066 117.24115841846762 0.060151837853302324
0.06441129367421541 0.024545521449469178 117.24115803569613 0.09324553620448298
0.07713357669575037 0.025408052780737978 117.24115820146281 0.10358950330975143
0.08156926280321933 0.015283864188657124 117.24115809606504 0.10668278372259477
0.09865148180753228 0.018661765601720125 117.24115835338884 0.12006418893423192
0.075972430119617 0.0382537882933121 117.24115838865484 0.05889671254943633
0.039731139626623266 0.03792150237477051 117.24115844914597 0.06596229622202285
0.045716671903228395 0.01097370155193833 117.24115805029058 0.11841130705709964
0.02945437890897193 0.013753461783006491 117.2411583180362 0.12985048460693727
0.049124298686620736 0.023369273306637284 117.24115819023054 0.1052723378479752
0.056040876065087106 0.04401984355563474 117.24115840615718 0.035282142219489776
0.009695071149771098 0.011259590102919924 117.24115848874409 0.16577317566489627
0.021817092798877783 0.027211800745422107 117.2411584777214 0.16367601785922037
0.04860447438067294 0.06708093180160792 117.24115841890446 0.06323574168439007
0.019215870935286507 0.2727735099910865 117.24115841846763 0.12104957393964344
0.037296499845705516 0.19496621141790427 117.2411584184676 0.0778298035288522
0.019881206235326288 0.2581643585861481 117.24115841846763 0.12848759836049364
0.028773226127904068 0.2211459265980658 117.24115841846762 0.07202650964743992
0.02518477636324159 0.23819973168730693 117.24115841846762 0.0898191737368588
0.044274625521814624 0.15782690969035904 117.24115841846762 0.03776528414972043
0.04261048784673846 0.12403501297082936 117.24115841846762 0.051510448603933924
0.03575762836345167 0.18323971604098754 117.24115841846762 0.09352615983597312
0.042606528136362454 0.17266399044113442 117.24115841846763 0.043461506929927764
0.011077879114444938 0.171131417241246 117.24115841846763 0.11504756460327564
0.010666993376590616 0.1588172643780051 117.24115841846762 0.11915279367085943
0.02550820295727887 0.1670710919573162 117.24115841846762 0.11061853042822525
0.017650905664437767 0.22116409516711422 117.24115841846762 0.10223974236153881
0.033287123776776346 0.15641757537262635 117.24115841846762 0.07491618983529065
0.011087517059868365 0.2804402536774506 117.2411584184676 0.07706818188341055
0.01004444728521112 0.20744012998692532 117.24115841846762 0.0939662498230907
0.020197407784745908 0.1800262637181659 117.24115841846762 0.09854043119116503
0.020383200123130128 0.09540199260776416 117.24115841846762 0.1189110274342509
0.0367634553992472 0.05531529421460243 117.24115841846762 0.08270802991184291
0.00428236211471678 0.12883488500149576 117.2411584184676 0.12259508293965525
0.025394223569007522 0.06390398619843486 117.24115841846762 0.0896956657979997
0.023077508392040168 0.04353635342743771 117.24115841846762 0.09536808571314097
0.024354804168664108 0.19131998419974097 117.24115841846762 0.08217535532970968
0.015412553196826544 0.05377750728397384 117.24115841846762 0.11664013515875905
0.02865823709614515 0.10843035287037094 117.24115841846762 0.0947381326233102
0.019059527323104786 0.14635307329499647 117.24115841846762 0.10607135081480584
0.007558110108148421 0.23996327796556713 117.24115841846763 0.08424659589579106
0.012201555596277749 0.19095648487686526 117.24115841846763 0.12378603167676697
0.008569592624731136 0.25188706043876186 117.24115841846762 0.1301956672728905
0.018559862094180056 0.11447603892265741 117.24115841846762 0.1223960133052955
0.02716365478526741 0.12768181687157448 117.24115841846762 0.07398267202855079
0.013089814314648746 0.06707189775076582 117.24115841846762 0.10354919317717158
0.022970397702052274 0.20358936512390174 117.24115841846762 0.07880047896230548
0.03498656184141967 0.13692039416232243 117.24115841846762 0.08845904757963473
0.007128842554092608 0.11392631314367033 117.24115841846762 0.11943047707110005
0.009326697626294348 0.028017873831194633 117.24115841846762 0.13428343455091643
0.0410468988323305 0.09504035232874819 117.24115841846762 0.03576242235297355
0.006232859543088025 0.29874879652944497 117.24115841846763 0.12306714869456536
0.03739511344227726 0.07846474571970721 117.24115841846762 0.07557227797132755
0.010484167346200956 0.08255778367840472 117.24115841846762 0.11927894724660244
0.03061038849634344 0.25314995381977823 117.24115841846762 0.06347401981138612
0.008424295246550646 0.31442355755466406 117.24115841846762 0.13988090059626437
0.046350408393053225 0.20596767905461488 117.24115841846762 0.05120995740585282
0.0447071414694515 0.21971574746632694 117.24115841846762 0.04430554100163846
0.022990859461427638 0.2840360780172522 117.24115841846763 0.0649585936544872
0.035334465444702694 0.2685866534832865 117.24115841846762 0.021439304890256895
0.04745154918434587 0.24613697843711793 117.24115841846762 0.019990913167981843
0.05288765403306761 0.23506148340225683 117.24115841846762 0.02680736824521089
0.04513639028389746 0.25801805223078506 117.24115841846762 0.0020653464769535166
0.03811471908749982 0.31601049890261446 117.24115841846762 0.06741234903942672
0.17191371592617266 0.27804947853909223 117.24115841846762 0.07357408687510143
0.1354902412034912 0.2668028610965647 117.24115841846762 0.07418280560643453
0.12296406830813988 0.28422567439282853 117.24115841846762 0.10554703674913532
0.1573050338699029 0.28298428409754073 117.24115841846762 0.12307684759433955
0.1086657049969906 0.25372918170251746 117.24115841846762 0.1326554044279086
0.09004902084889863 0.28388919857128153 117.24115841846762 0.11230761512385233
0.0390261616329016 0.2802702035022953 117.24115841846762 0.017123207317705138
0.0776724929041804 0.2929495611566935 117.24115841846762 0.047963776334370295
0.08029130665770288 0.27035707169889195 117.2411584184676 0.08371253613696002
0.02216951953276334 0.3072712092250128 117.2411584184676 0.12974763520354307
0.14669804468034295 0.2561897446011473 117.24115841846762 0.0832899382812246
0.10198230200012141 0.262505046178213 117.2411584184676 0.1161402655340323
0.07338509182335182 0.3063102935716382 117.24115841846762 0.06462731755101825
0.07754480696837733 0.2579971298166659 117.24115841846762 0.06179731841954779
0.09729958435755257 0.24520546266019258 117.2411584184676 0.12132992251847477
0.16063023551006023 0.25972468083972117 117.24115841846762 0.07613036747437635
0.1865411666200687 0.2697960858159233 117.24115841846762 0.06888854969395981
0.1539940675051335 0.27015698363872553 117.24115841846762 0.07020520880424284
0.06889671847206824 0.24634891147570925 117.24115841846762 0.06605655301390272
0.031116825575011293 0.29689029407111 117.24115841846762 0.0643049055458089
0.10973455864151059 0.2917377586711317 117.24115841846762 0.1600076392843825
0.049059990854702334 0.2718745529794516 117.24115841846762 1.155676557733107e-08
0.06532077003235193 0.2651300954126323 117.24115841846762 0.01003247155736997
0.060169486757863 0.29882123457243953 117.24115841846762 0.03809096934959522
0.06112727296254271 0.2871316917888014 117.24115841846763 1.258161697814132e-08
0.08466571114941593 0.30265137851617263 117.24115841846762 0.06790828633251138
0.11692577012796976 0.2640223157172822 117.24115841846762 0.09661159300375743
0.047830507184016074 0.2878873288741404 117.24115841846762 1.49108011681528e-08
0.13461006846431728 0.2818529072189112 117.24115841846762 0.1093066863440595
0.06756934693428396 0.2774660670464169 117.24115841846762 0.026621781074594997
0.11418709753417956 0.2769644684325874 117.24115841846762 0.11327691644030922
0.08432221349629318 0.2447806791291905 117.24115841846762 0.09717445728582064
0.12306433207896322 0.2519416817989267 117.24115841846762 0.10017566952210562
0.05033582920783518 0.311576755797132 117.24115841846762 0.04197702898109415
0.08888734773357834 0.25615245602461123 117.24115841846762 0.13941334331557176
0.15100463917056317 0.23965013313674455 117.24115841846762 0.12135186523334185
0.13628557910904224 0.24127754264757245 117.24115841846762 0.12371717288747884
0.20277085550181095 0.2430047212010857 117.24115841846763 0.1312397981643843
0.11446223904997543 0.23731133648854863 117.24115841846762 0.12014913297774826
0.17895611273698836 0.2509635550050096 117.24115841846762 0.07520398806934538
0.18965293419504833 0.2565143124136475 117.24115841846762 0.06705542756563573
0.20131561443803866 0.2558418982106107 117.24115841846762 0.07810535512375161
0.12465825698781882 0.298301272641855 117.24115841846762 0.13174119942733048
0.14577672719659068 0.29083563447385047 117.24115841846762 0.12524727336969055
0.19711057053645578 0.2857846456969828 117.24115841846762 0.10948755167515112
0.11010694664426435 0.30372591686602635 117.24115841846762 0.18518768567524832
0.2133848843572249 0.2836126005239731 117.24115841846762 0.07715732139057657
0.09829402085252482 0.30887940090891625 117.24115841846762 0.1493832369007918
0.0911249538599684 0.32215913634930743 117.24115841846762 0.09658508939188315
0.04728386244658257 0.3260402515259681 117.24115841846762 0.08347216218586533
0.14836643535885535 0.3074912051336637 117.24115841846762 0.12504175446502214
0.16299604820476812 0.328791127599755 117.24115841846762 0.11993525076673053
0.20684319398044415 0.32974640373683084 117.24115841846763 0.09261489084726143
0.18872197975800287 0.31472806505433815 117.24115841846762 0.15618163931812015
0.26053975520804135 0.3296156099706389 117.24115841846762 0.09529916703530722
0.2852085414447011 0.3032070559338089 117.24115841846762 0.11024752661717331
0.11992307099330135 0.30997812487915744 117.24115841846762 0.13106690525833983
0.22438937187828759 0.3271388000096056 117.24115841846763 0.13246410267257702
0.30232745925812277 0.3172576399210805 117.24115841846762 0.12940471109248158
0.25222166251154005 0.31293083281038697 117.24115841846762 0.1220712966671421
0.023464949574290676 0.3273724617517293 117.24115841846763 0.10710624940108497
0.19806285260894116 0.3222116213427581 117.24115841846762 0.14324447078755576
0.41885113891691644 0.3257586892252653 117.24115841846762 0.10409641591701994
0.1746368398813005 0.3285299750606869 117.2411584184676 0.10951506180198042
0.20147485970670598 0.3048094766071898 117.24115841846762 0.12010593818647099
0.3235476508698726 0.3284574425307097 117.24115841846762 0.08087884704066764
0.3319452749595326 0.3127018356454268 117.24115841846762 0.10881375076187462
0.3669136877876994 0.3206683493721669 117.24115841846762 0.0923922631414962
0.15816151420580224 0.31692555544550854 117.24115841846762 0.145844687887166
0.27463769059043236 0.3155217444207943 117.24115841846762 0.14809423080092046
0.22738957214239208 0.3004651877871935 117.24115841846763 0.15790227045698363
0.31662310164286933 0.30775277773520726 117.24115841846762 0.1268916415957478
0.21537895079554165 0.3048368010501702 117.24115841846762 0.17309310728023197
0.14025712306719046 0.31760400370575664 117.2411584184676 0.14002938118406205
0.20690374434251088 0.293178728857012 117.24115841846762 0.09665824586976983
0.11351151653616835 0.3283686733583588 117.2411584184676 0.10991526634527206
0.2468842963196921 0.2940654940287206 117.24115841846762 0.12492807020009516
0.0769717927841442 0.32967436202358286 117.24115841846762 0.06935294547304516
0.14615112983483314 0.3286224161764459 117.24115841846762 0.09817955845105976
0.11059169553860551 0.3165276440874956 117.24115841846762 0.13213268515531656
0.06963298832177986 0.319989459802966 117.24115841846762 0.08115256719388002
0.28826299961432167 0.3157709840902905 117.24115841846762 0.14717447941401943
0.35054164691075573 0.31407572251440974 117.24115841846763 0.11284869757284002
0.4047736490304223 0.3288630108233138 117.24115841846762 0.07560773843704534
0.38605786623594807 0.32050518438240605 117.24115841846762 0.06521174571520251
0.21531685632483777 0.3204179111449845 117.24115841846762 0.14739702517619838
0.2846077438073369 0.32750280992648007 117.24115841846762 0.11904485709319874
0.23497658699534563 0.31545113898062466 117.24115841846762 0.1634471905775634
0.1703630237998603 0.3161891054113991 117.24115841846762 0.15139280237275451
0.16794207954034698 0.29714238904635804 117.24115841846762 0.10830538787422968
0.18102206121399006 0.2912679024059404 117.24115841846762 0.10489917116681403
0.2571891962691446 0.28920691203061966 117.24115841846762 0.14045598416952454
0.2718585006572034 0.29321161558116904 117.24115841846762 0.13807892128592344
0.29690832723753485 0.3004608159321662 117.24115841846762 0.14057402243988368
0.24135623591058253 0.2830661398338288 117.2411584184676 0.11000364683277135
0.07842752548497368 0.06858365200159645 117.15721633639038 0.16784207956496744
0.06645034214411379 0.08144296950872591 117.15302215142547 0.12168595745903518
0.09979225310276937 0.1967269921193852 117.14831290286449 0.11609590630020782
0.10004036261556748 0.21049648007797056 117.14932868076205 0.12706705177087083
0.09735999864646261 0.22223250211055548 117.15180736478628 0.14765175108870826
0.09503072124160027 0.18359033363662758 117.14652663348086 0.0781605118596021
0.06509769571770598 0.24975878405639979 117.15168341631201 0.09060638862620819
0.06198747781001271 0.2889591562305657 117.15280869316553 0.10414021232928146
0.06346272426656274 0.31847343527822847 117.15154905274782 0.11139264380082907
0.3841263118854479 0.22000151915278343 117.15205051806723 0.14684618639860442
0.3842581850593034 0.1895482293873385 117.15273245671752 0.1587207602382082
0.3691741742772118 0.05723579100960045 117.17186728808639 0.229190881464664
0.3656155332318397 0.1753472856338752 117.14871128136497 0.10763245101701371
0.3524799461852089 0.19865237185247114 117.14643583887774 0.10988809743246039
0.35213022969585883 0.2149423364868984 117.14849523148334 0.14041287119764173
0.3513073263586523 0.23187893491630135 117.16600803753512 0.23659179704780725
0.3493686711753021 0.2390551531808314 117.2066839569778 0.2075280451522497
0.3491907115102501 0.23339244267535342 117.18094092866268 0.22396197204356463
0.06841588472130503 0.14405342929677015 117.15172525444375 0.12742452158857726
0.07530342699881754 0.15821952777990977 117.15003833936223 0.12899976555892675
0.08953302300253148 0.14380507756002453 117.14933165112691 0.06167729648636267
0.08026237938696971 0.13186149429752336 117.14974386411059 0.09223328690064368
0.09257852403904802 0.12977606844039463 117.1493420198866 0.04284204479090079
0.11040245931952901 0.12979647107955788 117.14875465329379 0.03550173158559563
0.12730069074868727 0.14542511437920125 117.14779412222329 0.036106879027354835
0.14752465232529716 0.14344278401076827 117.14704166503033 0.042478282694079425
0.17054021815859788 0.1526916525559751 117.14582024939278 0.09632220401406037
0.15916983646850186 0.14202761185281593 117.14661464446934 0.052730837333433665
0.13955584897383652 0.1320431460113911 117.14768792237977 0.03658780542715726
0.1535280468341795 0.1306113044313296 117.1472458653407 0.0470225398157383
0.17342864281368725 0.13489329326436428 117.14629657406975 0.08615677638536455
0.1495635568383279 0.11809684217059027 117.14788078667084 0.03869376778695097
0.1396464392644799 0.11122892262677586 117.14841754471239 0.036281987582508106
0.16098549014308855 0.11645088484398253 117.14761035808802 0.04503764442396784
0.11910459533471206 0.10946635813872335 117.14896218772375 0.038931400739665264
0.15284873756929596 0.10560187171077542 117.148358215413 0.03630308221456395
0.16404082478162219 0.10162319236278612 117.14833121768079 0.038697663306790774
0.12049918070104759 0.09550867285235382 117.14932939257237 0.056960231032305804
0.09573981665000764 0.09308423460847084 117.14970970105888 0.06659041044811569
0.08352407892411552 0.10090768730008953 117.14980357165251 0.059081154948260606
0.1040721777711795 0.10777058992958066 117.1493410283336 0.046828527894547986
0.09556085961575689 0.11593305163949502 117.14941902194033 0.04587587149139607
0.07138102421599415 0.1189990037535656 117.15066504459588 0.1289527896441837
0.12616286593191312 0.13146840956976863 117.14817016063083 0.03717747881640365
0.0719353235277443 0.09639728520449128 117.15083530305748 0.12859880805955987
0.088094924005457 0.08123739653932957 117.15061394066889 0.133112221068499
0.10022131322255363 0.07818484340526657 117.15124268524585 0.08392318921249409
0.15347328117339135 0.07354307350936949 117.153126776218 0.07746910221963031
0.12412287975871567 0.07599459679189705 117.15206415640232 0.089058576239227
0.1398826566171077 0.06821361459322349 117.15731475860278 0.14104393491319756
0.11358743214631445 0.08395157454404142 117.15005220038066 0.06679778498454327
0.1349406339866767 0.08963226372756929 117.14935928778034 0.06836430990248
0.15327921713805234 0.08583860600156729 117.14934520114414 0.056698012045016434
0.1657423882911974 0.08272869413668359 117.14975087881103 0.05543537101118545
0.17562394485407412 0.09588844621275724 117.14845892658721 0.04739657844075847
0.1949671001993486 0.10478520275894279 117.14744369964608 0.06595070353293675
0.20954428878913117 0.0996693852458479 117.14764308977284 0.052151035870162114
0.21951273166112428 0.10772771841778968 117.14685262089648 0.09117904019765935
0.2210172119971795 0.08992635967169274 117.14846886688886 0.05322477936636477
0.21270522886143345 0.079862298484876 117.14994527540387 0.04823907891474036
0.23324809080404632 0.08958069040812221 117.14850671292751 0.060874014168571626
0.23476275969772126 0.10640045173969159 117.14699399293197 0.09355685668218336
0.24885124693037408 0.09863089043161517 117.14785192766821 0.06396280560035973
0.2662417627839496 0.11219341760678556 117.1471918918783 0.07893148555077294
0.27144906197694507 0.12554639501547815 117.14654370927396 0.09951593464320291
0.2790276264514308 0.13581027768549522 117.14635820288521 0.09058061122525467
0.268144468450831 0.14240188458002356 117.14561533099474 0.12333955940309843
0.3136068726676229 0.12691129446433158 117.14796434736374 0.041765462592913326
0.30237453135879794 0.1329608671500916 117.14736700007379 0.0391718118352519
0.3256858179256474 0.1275392879242242 117.1483348421655 0.03745450860016883
0.333399587680845 0.11932762414384777 117.14877386917004 0.0385156438579313
0.34424751149066724 0.12462309756083449 117.14898446058018 0.042148423669848695
0.35772823065537984 0.1292866430987291 117.1493563093253 0.07120331592522848
0.36481088223699554 0.11289961334310707 117.14969083022842 0.08057989881686224
0.3487531994348664 0.10935907626990765 117.14936848298748 0.04201854606932575
0.3040980940843853 0.11662762519804146 117.14804034972404 0.034848384158147304
0.3267228129396663 0.10447052714684966 117.14901378534498 0.03872057366238014
0.3696246489742214 0.0950291762814583 117.1498730756314 0.10991691573720008
0.3572132268120434 0.09387964922064138 117.149737454422 0.052226336513083116
0.3425448620837571 0.09322209211209352 117.14954653936562 0.048593107617284845
0.33139887889926 0.090656420583988 117.14950748035167 0.061276009669673365
0.34863770849065756 0.07526560046489451 117.15274735447532 0.1026490270607394
0.3360533684164385 0.07174235661282662 117.154569511005 0.11965263453459192
0.3120521125503667 0.0753764214277686 117.15223026424796 0.0780441708030714
0.29992655574523114 0.07807609949273397 117.15092091732909 0.07096715455780495
0.3225263581217189 0.08304668817774363 117.15006545884236 0.07031515872764299
0.28180196351135955 0.07208262085055041 117.15381951567791 0.13895146594587138
0.3099823995155077 0.0874209278372916 117.14939413357979 0.06584376828895318
0.2978214540721779 0.10174979107457786 117.14855989466778 0.038351168713536304
0.3117435400648901 0.10119114206943189 117.14884536062809 0.03699981303650482
0.279536804016669 0.10244696450319542 117.14813764827626 0.04418356518767971
0.27619985570977795 0.08639871048339334 117.1491232540513 0.06231461913117029
0.2894313392403593 0.11751901067315497 117.14757435900358 0.04897157544004325
0.26076187443007987 0.09195404840394902 117.14855072696427 0.058522048707417666
0.259485486840591 0.07988764490705 117.14995387464744 0.056246265286823464
0.24394142646957712 0.07719542205282662 117.15069132825334 0.08061481936800909
0.26533822520667016 0.06980917829843707 117.15506777885818 0.12526706191431394
0.2455597328623095 0.0651193715195959 117.16015977859162 0.1200019100011696
0.2737704724739205 0.06121255354776084 117.16834178973664 0.1846325282089083
0.26045522837651147 0.061329913836601455 117.1677814741956 0.18538545188946462
0.23853756816731644 0.060823610297865996 117.1693003580054 0.1839237270873604
0.24925975484340446 0.05949227212750029 117.17452816004773 0.2471822453233156
0.2227880231362684 0.05978202117691348 117.17330003761299 0.18224825763023825
0.19434015188296488 0.05893180603596131 117.1767383586261 0.2536427708244856
0.20925879732713623 0.06127598360868488 117.16778482667951 0.21361070142981062
0.18471982623279226 0.060852791577713686 117.16941453189462 0.20724496879066573
0.16466764211630927 0.059322394911501396 117.17566592303952 0.2294615227052887
0.1527958925316 0.060228551780476314 117.17235376221498 0.24794102981502703
0.17378703076110494 0.06272402583173299 117.16496101561185 0.14643539338651249
0.1956179080966145 0.06316417265341918 117.1632774245561 0.1909385606606282
0.2038939895315539 0.06782910438161194 117.1570388710016 0.1292228818610916
0.2240936366550619 0.06621940916197606 117.15882803362173 0.14483564688198958
0.16526153102644056 0.06677028912398089 117.15861341052357 0.12943262596839428
0.19172220213385333 0.07422921723232888 117.15233912983966 0.0887105316846026
0.11949384231293214 0.06478561128191349 117.161421694665 0.1933056121493263
0.13135828878466863 0.06138297199323114 117.16875270420377 0.18506528637162975
0.098705395243697 0.06358955418157788 117.16406985483204 0.2314212641037928
0.1094368431302943 0.06183936762264626 117.16819805266596 0.23248987664346504
0.0868494622760948 0.05956904672894019 117.17704665043851 0.26600547510955536
0.18705552823653215 0.0919079764902784 117.14858667446804 0.042695004783871685
0.297087115822148 0.06109491815840432 117.16900728016329 0.19007865867031373
0.31484766345370196 0.06034999050491914 117.17235146617672 0.2056870871082832
0.326439669103784 0.059027253030551924 117.17780026937689 0.24589041278147625
0.2925360799868474 0.06710886158869897 117.1583286578305 0.1507546657688788
0.3053186044661941 0.06517105789407945 117.16067088028257 0.15271492867077816
0.34716753767371994 0.06619811205342122 117.16010331867008 0.16367518771310277
0.32446891638739694 0.0690899534104641 117.15657395923404 0.1253377839427518
0.3416015943104231 0.06157341256423966 117.16882124056431 0.21634635133045452
0.3574590375438612 0.06181475899556374 117.16841371263536 0.2222242712695039
0.36073692714932626 0.06814850953233095 117.15820362648839 0.16282272281852345
0.3722042725541824 0.07926024222878592 117.15112129562104 0.09949270701288347
0.3805945160165305 0.09186386253007758 117.15129120106653 0.14334794616094354
0.3789711683043894 0.1268355901897249 117.15074494525557 0.11326814478828436
0.38100200060837597 0.11393266861279654 117.15153147232132 0.14437408849781377
0.3823407486873969 0.140823140054037 117.15201402893348 0.11335322736121259
0.37849290651154816 0.1565000105305692 117.15063419309612 0.13877542807353926
0.37043526577094754 0.14519006399491752 117.14973406828346 0.1061834240129884
0.3449884336850958 0.1587600968676083 117.14852654218218 0.047098082765219415
0.3566107536012898 0.16331940072841455 117.1490137035777 0.060630873056664876
0.34188124011818954 0.1705371371271614 117.1482727178078 0.049733634048275126
0.3530365218434976 0.17539755879827426 117.14879894494315 0.06875916017488784
0.3263194744253888 0.167593456872964 117.14756435562826 0.044494125425271355
0.3268052288422409 0.1817446902416468 117.14758922690037 0.04333902082892356
0.3089933854366497 0.1690491062075295 117.14679183886304 0.04104743407290901
0.33850962488337943 0.18192687682204234 117.148124250707 0.05698652138824148
0.30585374152838385 0.18507492404073006 117.14676093633052 0.04308415839377471
0.2937269794542917 0.1804432806399459 117.1462198590845 0.0589628139761306
0.2989646660568085 0.19415688407711768 117.14680513959202 0.059370889524255704
0.28096308614255583 0.18208315202289174 117.1458100166775 0.1012855619986676
0.3037917067638209 0.2065564045440415 117.14775616999655 0.06805394938232404
0.2910219119727453 0.20836284177146638 117.14786309667963 0.0716826359301278
0.31160971618994987 0.2172203168704944 117.15163297110259 0.07973878856168365
0.3246302165635448 0.2155051501926911 117.15093139605102 0.09382332190206785
0.32783902785677665 0.22431032574291598 117.15818806586799 0.1326935848044541
0.29769876375475357 0.22183507556767948 117.15429338495876 0.08358449983249017
0.31611592205413175 0.22491160161992882 117.15864740407308 0.08526657173016565
0.30065845733068486 0.22825908409865647 117.16439436524834 0.06340307262574219
0.2791017883896316 0.22466568441372534 117.15754626049957 0.08364482285412181
0.2674921939693509 0.22172215448857446 117.153562887903 0.08529219770077259
0.2505955021597508 0.2262074558728532 117.15878541732008 0.055452863546745744
0.2545062764913463 0.21650640360119633 117.14950164562069 0.08019279987818345
0.23395502188794173 0.2266142817681929 117.15880770936494 0.058364304529224906
0.23996000495611042 0.22967352369925229 117.16750955245494 0.061055599155792326
0.22139151111122246 0.22798280232257817 117.16153110578277 0.04939883069119621
0.21396783891515145 0.22264582436852345 117.15332044732666 0.05807602615938545
0.19387675865478615 0.22970516049521625 117.16801293632037 0.055074198015718466
0.1802223623101475 0.2252382562402791 117.15807155342623 0.06233830722315874
0.1997506239483455 0.2196926505625698 117.15155481683169 0.06924645484437252
0.15569839498973914 0.22619449353163867 117.15983214532739 0.07776527431437501
0.17703352674786416 0.21621259135927762 117.15002361099607 0.06989259594762905
