x y z curv
0.5099928173867241 -0.023381013748686747 1.2384155423576293 0.23290119395343667
0.503132811005847 -0.025543497675161283 1.2290246374538918 0.29972975661530066
0.500554535931584 -0.02730415591286408 1.2474713618822737 0.2377432891890946
0.5100486789422609 -0.022428409056976784 1.285353946125392 0.17086408382070228
0.508585358332914 -0.02318442129872936 1.2559413126314756 0.22436387017759601
0.510782626806885 -0.02159813877375909 1.3202446248438306 0.21027708976015302
0.5122487506859115 -0.02051727442205106 1.364697910860488 0.18055845519227479
0.5115891420963613 -0.02001872228323891 1.3996840563862136 0.14877584124971951
0.513651069735044 -0.020030252851838844 1.377947170436545 0.15716888117825412
0.5018682735690576 -0.026154758983105233 1.266825788266627 0.17245831255742558
0.5056639598138416 -0.022902918038947926 1.348796749790779 0.23380776933827546
0.3837436497684067 -0.11901781088432548 1.2622189742102208 0.22537622367718926
0.38272977242826933 -0.11671173645650301 1.2490822810114401 0.24980893328337056
0.3847868437528067 -0.1224492093847793 1.2892544314193828 0.19553543640980575
0.38632385792664786 -0.12218564591641974 1.367314108164052 0.1875581345127714
0.3802507037549536 -0.11271040974691544 1.2715703305753276 0.22288309740666715
0.38666438048856666 -0.12182228645568408 1.3952021670224823 0.14464602828393908
0.3844232826452196 -0.11775599445152993 1.3433730166362818 0.1889178883377708
0.38237019475160394 -0.11528353435914035 1.2986783055027338 0.19969411620234964
0.3858801506212405 -0.12084554992318604 1.3549048011588125 0.2052968001694421
0.38502400994247876 -0.13635235419319838 1.292604575813566 0.16204602939001725
0.3845884623505563 -0.1577047678843461 1.2745748047522667 0.18462284212375102
0.38589923891677536 -0.1328053772296011 1.3288348465162856 0.1640243743688106
0.38556429496444805 -0.12607845730743014 1.3149698581597287 0.2102293735491594
0.38445885739940966 -0.18177271780718696 1.2692095483660835 0.1777238716985958
0.3850352830758661 -0.15886498049133296 1.2930710044791982 0.17977380894818873
0.3836529715922566 -0.2145818849587823 1.2358494568564562 0.15873004350262568
0.38536397901228786 -0.14128351616885684 1.3066775975648097 0.16909367873832448
0.3840588099121385 -0.1988058105058057 1.2526493525412166 0.2139476782842292
0.384848707507221 -0.14654368252652858 1.285347803495562 0.1689200969241663
0.38479674265697067 -0.16634812703464755 1.2831965132874734 0.1725144519233011
0.3837327503606811 -0.1993505770804447 1.23915207914153 0.1950283797402513
0.3840713750894953 -0.16766578633963392 1.2531698415431425 0.19883469226041792
0.3840102500741209 -0.18182604284642254 1.250639398242525 0.22779216709377068
0.3849698426755542 -0.1791845547735108 1.290361870049733 0.15647389339356688
0.3855442742838589 -0.1536066284199489 1.3141408220849535 0.16050122372943643
0.38459353303376415 -0.19389049227091418 1.2747843244200148 0.16269912409649018
0.38527850914515943 -0.1705907284304126 1.303139246960624 0.1611948630264976
0.3840653974370946 -0.2229254156047138 1.25292175728339 0.2115061518094976
0.3843522697339417 -0.20100413937334802 1.264797124936187 0.17752719512240717
0.3837694956709544 -0.24107648525033734 1.2406726599387514 0.20404572524570047
0.38538524092915666 -0.18325115121321173 1.3075572864944096 0.16259103516096746
0.3840280472739184 -0.23650078028678254 1.251375489317188 0.22214928879532894
0.38436348456304936 -0.21602860746043798 1.2652611821266588 0.18228790017446433
0.3858901010050361 -0.15544747839623937 1.3284563383618022 0.15369755314079112
0.38493514584031124 -0.20377906471947363 1.288925316128793 0.17035719862513218
0.38620267339238984 -0.13246887130254584 1.3413955614820936 0.1656597801426931
0.38709388765582825 -0.13968543710145404 1.3782874348245313 0.15917725616304224
0.38662636274677864 -0.13486749204820592 1.358934221175589 0.1564417454575206
0.38555359945661505 -0.16863167312303565 1.3145266670828994 0.1563819112640571
0.3850197244881334 -0.1919437918675057 1.292426586618599 0.15063989211590073
0.38727905067045487 -0.1305376529982707 1.3859523821134478 0.14676108562011986
0.3864146877666441 -0.14561244127602554 1.3501717902526866 0.14079434987692338
0.38599325646809324 -0.1684075243020793 1.3327263379621488 0.15298039215923012
0.38395341275834427 -0.2570030744034199 1.24828574171096 0.2497231059373396
0.3842772001353354 -0.24404956683859955 1.261689109697167 0.18893465866898457
0.3846087116308971 -0.24412878531156648 1.2754120623715925 0.1973125825556913
0.38592214547448805 -0.18538578093843555 1.3297824992850602 0.15550916600082473
0.38551812606042063 -0.1983780122615035 1.3130579171259382 0.14942625121770103
0.38444865355781055 -0.23359636649576263 1.2687865674994017 0.18297698249125363
0.38619618977696296 -0.17843588304552396 1.3411266755379427 0.1517033285360574
0.38480033527855306 -0.2156830732997476 1.283344684188628 0.16444288856781908
0.3847532583851422 -0.22896994563864279 1.2813957721139855 0.1757976731158463
0.38649409914530136 -0.1661243709956456 1.3534588129175713 0.14648162149250066
0.3837293382680669 -0.2653654641219647 1.2390100542397675 0.17729245355743956
0.38472739273996237 -0.259204725295434 1.2803249346368513 0.17922690977852093
0.38758766287964885 -0.34989899638590655 1.3987274664220228 0.12190128319108981
0.38445822012499736 -0.3191003268089562 1.2691823790240473 0.19593039030342196
0.3864726039246947 -0.20144619859651877 1.3525689579914957 0.12045170973720362
0.38483528708586956 -0.2901910758820969 1.2847912833021253 0.17202722872410497
0.38674973857352224 -0.30543567798921334 1.364041106587286 0.12534653831365072
0.38619199145805283 -0.26403696550869143 1.340952843121831 0.14178875215423045
0.38683751662533744 -0.2766146312783699 1.3676747296587162 0.11820699502881583
0.38631723073067914 -0.29882735517745823 1.3461371950304624 0.14418121740329665
0.3870691077065028 -0.1714551338886534 1.3772615760087796 0.12253636705656179
0.3844989545287287 -0.2656998709307349 1.2708686031556873 0.1865383084953654
0.387333071168119 -0.31340503101958755 1.3881884957148891 0.12138974315617217
0.38484150256897603 -0.3363497184649541 1.285048576809428 0.19378292397623398
0.38755648377698076 -0.13397869055910758 1.3974367894878894 0.14920223114934422
0.38525153062265405 -0.29190299819521026 1.3020219245309632 0.18483026916663728
0.3863923402158927 -0.23832171477439976 1.3492463954821865 0.12399128526093652
0.3862434168154527 -0.22638358897617752 1.3430816254454339 0.1373657829209826
0.386764042301906 -0.3498621860760747 1.364633217671864 0.12164754038704463
0.38712394685412505 -0.28604775649255726 1.3795316741471753 0.11771781168980024
0.3869274024299347 -0.1535200593239155 1.371395604371978 0.12575604508117996
0.38725816249795225 -0.4130028312995375 1.3850876081178238 0.1275057491020347
0.3874665937515508 -0.16999423838315006 1.393715740050822 0.12287842734017808
0.3873390702665074 -0.21778312456965065 1.3884368318520108 0.11823885627339184
0.3848113887362018 -0.31521167922657667 1.2838019973368249 0.16880138986948748
0.38699307675428185 -0.39701495982138324 1.3741142308989247 0.11408853384112065
0.38608813205569115 -0.23829968032263946 1.33665352327134 0.1430888703208477
0.38666195507132384 -0.17968838949952667 1.3604072578940989 0.139880521592867
0.3851576477053283 -0.2276974231161063 1.2981355870314004 0.1652384310906914
0.38649083240623805 -0.21829884171912797 1.3533235364963003 0.12397369280291448
0.3872078724096383 -0.30004852756403344 1.3830058209126748 0.11185928041547002
0.3867254074289411 -0.4163348543992305 1.3630339048269833 0.13647913805968537
0.3843037583648846 -0.3054194178691007 1.2627883453949893 0.1832594363037889
0.38727843389271754 -0.24258007191705575 1.385926754193477 0.12338677554541586
0.3853081167435254 -0.2763419085081898 1.3043643396343887 0.16709298759937388
0.3854151606889422 -0.21451063721632999 1.308795485480987 0.15267167295909684
0.3870518527176319 -0.20115738725262958 1.3765472957945086 0.12810210351281487
0.3871464390879559 -0.25627498414500327 1.380462753136579 0.11263038704390582
0.3871158139749973 -0.3792091789130888 1.3791950089259182 0.12783409154357123
0.3870217508125643 -0.3658200766999199 1.3753012100762023 0.13960843954723862
0.38672844806573137 -0.37699747643220666 1.3631597737402728 0.14183240615651052
0.38608737338445337 -0.3192512352338023 1.3366221176379665 0.1605024673442747
0.38503549794001624 -0.2387250930529066 1.293079127059581 0.17716224223084578
0.3863570047350633 -0.37328922342524296 1.3477836628773197 0.13198435268167685
0.3867832538813335 -0.22877977387087337 1.3654284920804791 0.12565751610304166
0.38630879314477334 -0.3911177405395823 1.3457879162964204 0.1443081459748762
0.38686823472096776 -0.2900970831944876 1.3689463229406886 0.12391213797451696
0.38682108856248576 -0.255270592071993 1.3669946805238535 0.11375733322699753
0.38587124234074055 -0.3262243392794144 1.327675248453168 0.15364044896176857
0.3874486623066459 -0.380407029811469 1.3929734575489516 0.12766522155371013
0.3852153230202338 -0.33895266858836276 1.3005230899499431 0.1618248366300055
0.38626575919495093 -0.18975026751162813 1.3440065011283253 0.1373113829619458
0.38491901336409773 -0.2781447627249751 1.2882571808694958 0.17760740272524714
0.38581926236158604 -0.30127449747069723 1.3255235072422085 0.157476833118829
0.3871792041523213 -0.16084260537547695 1.381819081869707 0.14051697635786162
0.38570242117489584 -0.289808317322101 1.3206867989435949 0.1509881537378834
0.3858660843975175 -0.33993510199062177 1.3274617324191635 0.15165667169864
0.38759122455080103 -0.2568910482944197 1.3988749038531798 0.1317417703227303
0.38568341914999216 -0.21713180099112234 1.3199001991653363 0.143735534966673
0.3859973501044346 -0.2503507582394252 1.332895552050359 0.14200604414002205
0.38572166758473625 -0.2735510374165625 1.321483515177233 0.15835053690358622
0.38576327111533676 -0.2305346565689 1.3232057173167981 0.16482349189888695
0.3864355460878104 -0.2709852306598439 1.3510349274645548 0.12471433947297499
0.3850686437641827 -0.3072079033768518 1.2944512175642364 0.1884473067769495
0.38732533430280003 -0.20357506407981155 1.3878682237136077 0.12136106636494377
0.386789011103459 -0.16528451260967433 1.3656668156102203 0.12657312479366903
0.38707574296132463 -0.35136672267311403 1.3775362462082943 0.11148169388688038
0.38669978213525674 -0.19237940248184873 1.3619731310182868 0.11181306657543551
0.38547837501609394 -0.2268082910340881 1.3114122790054887 0.15307908619727223
0.38650107579783555 -0.3138294183266957 1.353747567598251 0.13198371558298178
0.38587172543943765 -0.37474284746362907 1.3276952466023082 0.14771410267462756
0.38696434443377714 -0.2379214919208125 1.372924839923362 0.11475937537123568
0.3868835818021221 -0.31646734060350856 1.3695816242148515 0.11973983613944629
0.3837663820366708 -0.2804053706222872 1.2405433424146373 0.18304935701069855
0.38561153320091024 -0.36336283765935073 1.3169244388506058 0.1616444825490699
0.38592827214016345 -0.36094712401473145 1.3300360298860774 0.14945851478510785
0.3860641699646475 -0.21417687519889755 1.3356615986950309 0.15429047934177512
0.3873887177650547 -0.15000206344090278 1.3904920186832253 0.15368974950186834
0.38422625289669854 -0.2612176823426074 1.259579961846493 0.18797783992744216
0.3866873060342893 -0.3899357449883063 1.3614566756244928 0.12989774931921502
0.3856277076955751 -0.3159102735571322 1.317593991384157 0.16574984741388987
0.3874825791012605 -0.2952479330030062 1.3943774628198842 0.13812241083812393
0.38649615327392506 -0.28366941869520185 1.353543796882441 0.11694413671599842
0.3870078241512309 -0.3352165692511269 1.3747247078996077 0.11595275583801035
0.3875461154123504 -0.4449298603571874 1.3970075850551775 0.14919853978817274
0.3873384459024298 -0.2778247407495949 1.388410985940983 0.12004920638624031
0.38756016976025154 -0.2107404965073312 1.3975893728908784 0.13452512481854123
0.38709864385579307 -0.2271191934624728 1.378484241940444 0.1162116238307227
0.3857080612348115 -0.26162587320120906 1.3209202724760996 0.15025166384339575
0.3853992997568924 -0.24888470677709754 1.3081389130526995 0.17210069857612634
0.3867719380105188 -0.21571847116633744 1.3649600650828915 0.11802694710324609
0.3864905692813174 -0.3379312219600346 1.3533126442884804 0.13427757084847688
0.38594751374188924 -0.28312295619234673 1.3308325470850382 0.1522856939784209
0.3863784807251101 -0.2523715546257426 1.348672673869272 0.13880029251454135
0.3873476501851465 -0.2653401516763029 1.388792002531621 0.12463862605643768
0.38415612313513514 -0.28764249435455697 1.2566768999267868 0.20281313455130312
0.38534114962835303 -0.3498978895870932 1.3057317549499872 0.17717650044180977
0.3859425646246743 -0.1973372151145105 1.3306276755240538 0.13661546986571338
0.3856853020306209 -0.35197734569084765 1.3199781420947099 0.1548194446254506
0.38505384447134955 -0.2662385861754996 1.2938385923035103 0.16951150604541249
0.3850998635024421 -0.3206100876450316 1.2957435766321055 0.15809655052434043
0.38448046868985336 -0.28458104396303013 1.2701033711957261 0.1783022495408908
0.3872124279533038 -0.1828734466042697 1.3831944002696275 0.12175703898243724
0.38614961114632357 -0.3431386262691772 1.339198485679513 0.14865975490754807
0.38729506305837946 -0.4284523827028935 1.3866151280951364 0.12347899588271463
0.38455734132814207 -0.2977345081398088 1.273285558385706 0.178686759644197
0.3873101320254991 -0.3379039531225797 1.3872389166784558 0.10560463650231992
0.3873017465155121 -0.3604771440467028 1.3868917936571017 0.13771789716821126
0.3864461240472676 -0.35432758292987987 1.351472808195985 0.1324313239733392
0.3869238298412352 -0.42673594858418207 1.3712477150026576 0.12604948845012204
0.3867113475285092 -0.36252848893158246 1.3624518871410685 0.13913293768115287
0.3855795002219819 -0.32927512457393054 1.315598415216295 0.15153847477865018
0.38497893563710545 -0.2509215914566971 1.2907376979143712 0.18081853423252212
0.384659395733992 -0.3273615478926412 1.2775101593647529 0.18754440802977365
0.38535559870994174 -0.37223523920109686 1.3063297768677191 0.16824182312363886
0.3847041343143666 -0.3488655236183442 1.279361994389129 0.18197051510019693
0.3850674460862388 -0.3604784958692973 1.2944015310575019 0.15910385849160075
0.38426061368113545 -0.33634630459519277 1.261002140010061 0.20424278506377477
0.38606260480550714 -0.40219281336818924 1.3355966944675768 0.1533909162425203
0.3864706729317292 -0.4094919535456162 1.3524890117535222 0.1462519618404127
0.38561023163650227 -0.38164523895074287 1.316870465681701 0.16326443206628513
0.38440044676423973 -0.34720097155956253 1.2667905572702427 0.17088297583999904
0.3837991034579261 -0.3020482532754225 1.241897819691002 0.21125481491749074
0.3839974371355548 -0.33298277638160184 1.2501077151531834 0.21179693466618507
0.38393396580904215 -0.3148067727874231 1.2474804482179354 0.19484976228466097
0.3857942547173292 -0.3925968596381926 1.3244881717822277 0.16300333140636825
0.38438155488397174 -0.37188876535326776 1.266008919046399 0.18196731449592646
0.3843383849540211 -0.3591539163707215 1.2642216784632474 0.20624640613974138
0.3861527827214339 -0.43740601447146527 1.3393301737607337 0.1738590279919478
0.3856521645971348 -0.4447885294944157 1.3186071674162598 0.16858491869819664
0.38530671870806665 -0.41078333100466247 1.3043068230700012 0.16667223937355133
0.38464922204194274 -0.3894556424775416 1.2770893251306932 0.19274455792041592
0.3850929884333051 -0.37782617656642914 1.2954588763496446 0.16082357434851852
0.38666194902194917 -0.42970610511608875 1.3604070272111528 0.13427894440804372
0.38500472833067256 -0.41143550569971893 1.2918059153024717 0.1670123709396538
0.3855934482508248 -0.4025760580308383 1.3161758782127566 0.1604639496262553
0.38503621210099837 -0.39305427119858943 1.2931088749651138 0.1829519394244695
0.3859001604155949 -0.4328958914425895 1.3288727736235624 0.18017623567603094
0.3853105302427221 -0.39660479349842287 1.3044643598004415 0.18133658742419778
0.38576189925812443 -0.4200706956990149 1.323149221560133 0.15768156969740074
0.3865140287904816 -0.45246245308890565 1.3542842444428767 0.18681548501905157
0.3872379825394856 -0.4448483026778746 1.3842522451553863 0.19274603359573256
0.3863321117965759 -0.4227991320374744 1.346753267592482 0.1516398191386188
0.3848375481563982 -0.36975476300789883 1.2848847652390472 0.17917111561471222
0.3851971087428262 -0.42709416198088923 1.299769765809991 0.1755768934862126
0.3843740980714988 -0.3836578552690476 1.2657001721185321 0.17747621033444558
0.3847647075284651 -0.40261376799712884 1.2818699716555064 0.17730487653993798
0.38390779830793376 -0.34906507083898886 1.246397177202707 0.22135815654750457
0.3840641872500109 -0.38047897875745895 1.2528708953253078 0.2121795692709223
0.38525236147403935 -0.44014338709724915 1.3020569346090032 0.1727081737592054
0.38388761831824364 -0.36937319702007804 1.2455616112983579 0.230611146830664
0.38491672720590536 -0.4232884747373259 1.2881629113644764 0.18871942681120438
0.38438348143640144 -0.4075925864562173 1.2660884013235831 0.17474366229103325
0.38420577720068033 -0.3935000064012903 1.2587321458093865 0.20810327268200865
0.3844782969865447 -0.44603822774082064 1.2699232317848959 0.19107482101532308
0.3839048508308969 -0.43337814869524915 1.2461654542942318 0.20133110793182005
0.3849550302857549 -0.44914065809458725 1.2896961012673818 0.19849559969715194
0.38405288553870565 -0.40477036049363285 1.2523925110912952 0.20431717247643522
0.38456975330830656 -0.42964390749400205 1.2737665538431147 0.1945183761024941
0.3838472008256367 -0.3966107012604472 1.243881699906922 0.20822579485797144
0.3838763120137032 -0.4448861869134958 1.2449473000739328 0.20779558537146958
0.38477927259296424 -0.4392539312085332 1.282432203141827 0.18381151354915762
0.3841231850719813 -0.4209761645627351 1.2552617941553943 0.22748427657596076
0.38420698872419456 -0.4406190597742825 1.2586812936472658 0.1912653617261362
0.1440325277548548 -0.022720486699173967 1.2627576540468946 0.16011259205604753
0.1635458648541086 -0.02302058211006419 1.2503352034520858 0.2126831514442479
0.14169991701865484 -0.023107420302519475 1.2467413647619678 0.21554047069236046
0.15498695434686688 -0.023207004007546356 1.242618891642278 0.2574641121979525
0.16807228848982136 -0.02248340370142868 1.2725705164225485 0.14154861899184198
0.14412631441569135 -0.023442037629143864 1.232890461979033 0.2574127268391705
0.15499464673011765 -0.02256845647870177 1.2690503172341416 0.1511825055737559
0.17101291624603251 -0.022168007020258722 1.2856256564302684 0.14884849053421684
0.17922826818729773 -0.02250941544462283 1.2714930585188438 0.1454947878969555
0.18498246894505604 -0.022148558173031897 1.2864295756233934 0.14215363715007245
0.17356018374306922 -0.022807528949845845 1.2591553013587813 0.1417245658712323
0.19618486998081175 -0.02110777735247978 1.3295150676095524 0.09849473938450874
0.1857278162210192 -0.021529358777773008 1.312061315867588 0.12383856152469186
0.202799232781795 -0.022883243919768773 1.2560185212005421 0.13760210129531414
0.18262869895617934 -0.02336799704543927 1.23595397285708 0.2280205147972579
0.20012268073913153 -0.023469267825074816 1.2317616205027657 0.23756043266943624
0.18503675050305415 -0.022780298895251478 1.2602801824314889 0.1387206469851062
0.19815872307406218 -0.022386410915559606 1.2765838010585004 0.1530449362256414
0.19507080914855576 -0.023184621423246836 1.2435439843012461 0.24057457408759966
0.19362614137513387 -0.02194293350297063 1.2949405579909739 0.1348761867864365
0.16883710430114263 -0.023288336719015923 1.2392517083726016 0.2202335460102037
0.08407273595794729 -0.021580616438250724 1.3099391955839832 0.12557576801250955
0.16056027149299926 -0.021467202172128264 1.3146338557580333 0.12751670451665592
0.17577443953395885 -0.021258163636346653 1.3232864648314437 0.13018692298631004
0.12514264967042726 -0.022059399508860073 1.2901214084781283 0.14236372163168007
0.1263675621373454 -0.023134853944334895 1.2456060510932432 0.23286235432753633
0.11988815570598454 -0.022363594175121165 1.27753012037405 0.13306764672458687
0.08266624164861068 -0.02205576329480582 1.2902717615116308 0.13078457633232368
0.130333144735984 -0.021460230910975535 1.3149222989957463 0.13020673381380798
0.16467797543559617 -0.021071686978062117 1.3310050918313696 0.11998999196242885
0.14525256360089714 -0.022361813853753718 1.277603905828304 0.13799598025058465
0.1558299259383994 -0.02225878531147176 1.2818685170642699 0.1315729987821441
0.09953457160801384 -0.021971030686803835 1.293779088200166 0.12575684600031717
0.1743747639363145 -0.02156842825215704 1.3104439428253345 0.1311298824106954
0.08504873740427357 -0.02232727448944062 1.2790333406274574 0.1332655465939686
0.12418899068816555 -0.02266298955227609 1.265137520587552 0.1422266041668967
0.1078665226481098 -0.022274701269473667 1.2812095434646 0.14263083097677154
0.09783400538006062 -0.02307708280544886 1.2479972163327273 0.21504705964298965
0.15402883166729264 -0.021244252219810734 1.3238622074406574 0.13547229076987163
0.18111468084864157 -0.020980124169487652 1.3347951335449717 0.1171117200248927
0.09915917599888988 -0.02247383156210346 1.2729670819417915 0.1500697938877066
0.06133769278036829 -0.0220589747706499 1.2901387524882901 0.13699455361912843
0.07765259409415722 -0.022547162284140294 1.2699316865129622 0.15764846931133042
0.1492172712501235 -0.02176777156751358 1.3021926027805584 0.12352220609781968
0.12742348630972403 -0.021779892861844 1.301690795564934 0.13398322119157377
0.13786604837919142 -0.02199355844378298 1.2928467583689327 0.13857987153746865
0.13174921351757246 -0.02244868136174471 1.2740082235470245 0.14990903246187567
0.16188335536205695 -0.021789058548116753 1.301311536082568 0.1392666334761914
0.08879110780154374 -0.022785113899994488 1.2600824009531042 0.13790996519547183
0.11119496151518696 -0.02256903985518001 1.2690262514950803 0.14284484092121966
0.11373890128203368 -0.022974279327957932 1.2522525314283528 0.16401058585262546
0.1134010660952661 -0.021999896064630892 1.2925843398689798 0.15544643999342078
0.11797453330665063 -0.02158282628640469 1.3098477680266343 0.14632123325884913
0.05139958652161647 -0.02187817099850763 1.297622570882838 0.16810906387940028
0.07061311986152044 -0.022278941028969757 1.2810339124735315 0.1460268556531859
0.04482697636226971 -0.01977531022319468 1.3846744507324216 0.15839027549779452
0.034223760115094815 -0.019210702545581992 1.408047259064567 0.16883777517221443
0.11505401458411293 -0.020911041182579547 1.337659848357804 0.14543184842612417
0.0678759946099534 -0.020786889345253152 1.3427986290731562 0.12292884073346606
0.1417837093981828 -0.020774026453791592 1.343332227171811 0.12467422816249384
0.07188972960901162 -0.019703901606412406 1.3876309494744634 0.11598796981552983
0.05244560092774161 -0.021468167372699524 1.314595645236773 0.17243738366398917
0.056968138671251195 -0.02034841926924296 1.3609497358976728 0.1231302031579937
0.07504254264067423 -0.0212615320656523 1.3231500329697883 0.1297821480133659
0.05721844378061482 -0.0196255925956163 1.3908724729510318 0.1158039102307014
0.15502399781093962 -0.02063425929187542 1.3491183444576678 0.12148601812899357
0.09012467743858503 -0.020722630850500544 1.3454590627881935 0.11832435787988109
0.072763639353183 -0.021564443980587666 1.3106104053905907 0.13455488222201145
0.04496875217333724 -0.021121855004243916 1.3289317668329363 0.19143643721785455
0.13382228788881628 -0.02028989483556023 1.3633736215767092 0.1206870125804026
0.07799922214841082 -0.020997965538494884 1.3340608964275291 0.12395436584436186
0.06838627169474527 -0.020355712576727258 1.3606479883673197 0.11766405791412615
0.09603279628912013 -0.02032220499129531 1.3620355133476978 0.1280013711375284
0.04303796888258883 -0.02051926424955002 1.3538770850227921 0.20462761024797257
0.04728238486325117 -0.020799556752190206 1.342273927847522 0.1856380653008568
0.06419047315324918 -0.021139580992110014 1.3281982571462736 0.12773187536801225
0.10027004085335223 -0.020866982605464376 1.3394835107370195 0.12042743971850527
0.08338265817282361 -0.02016433955295441 1.3685704512653776 0.1222949210115848
0.0837200244403687 -0.02049105191901217 1.3550455999214022 0.11835850450095697
0.10734059815564866 -0.019951090172279737 1.3773986612186588 0.113894323119517
0.051608374849817715 -0.02007381057067515 1.3723175847702636 0.133110534851856
0.09180808329594925 -0.021233351212027865 1.3243168839580781 0.1282732188524765
0.12932718553340133 -0.020890555484434442 1.3385081066928968 0.12291861840907486
0.10422654185533352 -0.021305956890900056 1.3213114263544223 0.13539261313469994
0.08582191977905236 -0.01967044588880901 1.3890161203615197 0.11361988857382138
0.04376446854082573 -0.019482603414286696 1.3967915688502472 0.17340851156134474
0.11532613820867173 -0.0202035318418761 1.3669484967059014 0.1170523278649764
0.17226045532526513 -0.02071338238824828 1.3458431591232376 0.10400652309543587
0.11595901156254322 -0.02118886941582818 1.326158653737762 0.13199612315882206
0.05740876688959462 -0.02064440355356806 1.3486969313023225 0.14739212138491126
0.0951816535105661 -0.01982326301901404 1.382690116752488 0.1089335788321866
0.11308856962150098 -0.020623044507125664 1.3495819682554537 0.13024522924864648
0.061317137660470554 -0.021691861502610123 1.3053347658991112 0.1320765705202506
0.1360693592388971 -0.021134098602014463 1.3284233265076848 0.1325766929897687
0.1549750603931182 -0.02023431092065066 1.3656729396701193 0.12498286109351378
0.1821728177831409 -0.020282014832976016 1.3636976249938433 0.10851908455265445
0.16959867842149973 -0.02021139924581756 1.3666224908859086 0.1119828156040453
0.14039534209869936 -0.019835298135443356 1.3821880861149467 0.10951452473410231
0.15363620729418384 -0.019911396035328075 1.3790390186315629 0.1133078251218375
0.1291460316586496 -0.019274078319410855 1.4054211838579531 0.11998534111142438
0.11774685819960244 -0.01963528889265319 1.3904707905924987 0.11140238323354337
0.20983133747757837 -0.019707493278677178 1.3874784709008763 0.09630493030417549
0.06422881065401573 -0.019218442341161438 1.4077266264578743 0.1217666649967214
0.24620319276603234 -0.019510751516111688 1.3956203357534054 0.10799003769208551
0.2315132713744589 -0.019728154439295792 1.386622411883056 0.10333882960435671
0.15941062758343916 -0.019446338169660887 1.3982899635807446 0.12496139423306568
0.1748865898530514 -0.019480453744534932 1.3968772635180595 0.11092447477095016
0.10386483634445481 -0.01946248264051806 1.3976239667889754 0.10927960963635941
0.07896203773723105 -0.01924141164972301 1.4067753109960932 0.13132527902598665
0.19696830968802181 -0.019897504154331832 1.3796142565725424 0.10417025597852941
0.09549089095525155 -0.01927961652108564 1.4051933085942794 0.13552166468045207
0.16984302332823714 -0.019918434829990637 1.3787490088858414 0.1163772130660468
0.22124343145300226 -0.01992546693948598 1.3784558718014015 0.09865268493140712
0.20507986767174066 -0.019403441671885378 1.4000636504682198 0.11091234899205424
0.264964432128007 -0.019518779554276434 1.3952872915072387 0.12279704529238422
0.18836709333450116 -0.019407840321762838 1.3998822596101657 0.12003423248569303
0.13895191951161687 -0.019494957199220224 1.3962783996795023 0.11163611857993615
0.18161617450922235 -0.01994880601277992 1.3774914420232995 0.11133808310418225
0.27205799835792666 -0.020444552261636155 1.3569693470792483 0.1609268758566772
0.23635038457845742 -0.020411681464745896 1.3583309093140565 0.11361272270510597
0.2528551778489254 -0.020228576116497237 1.3659091468074025 0.1158051536263338
0.26255005720017977 -0.02062367907189094 1.349555576856378 0.12571368960708487
0.27519293957771135 -0.019764543457334798 1.3851147782292332 0.13814405388107434
0.26376304332587236 -0.020116661107200954 1.370540983867471 0.13983299222236933
0.2514984152682824 -0.02052753037360493 1.35353548806498 0.11181332594257784
0.27617898913195343 -0.02073944811058757 1.3447635057566953 0.17443127703259845
0.27900875604259134 -0.021184461643794523 1.3263427512687462 0.1774948679925815
0.23334595119011897 -0.020764621660592064 1.3437223732921721 0.12449880057590092
0.26793679975084134 -0.021493632095270547 1.313542714501588 0.15299239960384942
0.2820484003003687 -0.0218082434229029 1.3005183676330232 0.2261986602339709
0.2809674364772694 -0.02147117754044101 1.3144728178061236 0.18027772220334376
0.248169747752211 -0.020908144054336074 1.3377811161617486 0.13041007212801242
0.2614478563637057 -0.02109864503515011 1.3298948928849343 0.13465038298939713
0.2778270859297134 -0.02239635606924136 1.2761761242736702 0.15291170843124133
0.24230042593197793 -0.021298742173953673 1.3216121270677947 0.12168404260188395
0.26223641540259124 -0.021794441612851264 1.3010918642258527 0.14611440006696658
0.23436164854486202 -0.021050718796477363 1.331879101951396 0.12541853358719593
0.2589773668480329 -0.022065271193331838 1.2898828454603914 0.14632313998534074
0.24871798543352025 -0.021667505247571876 1.3063480230658058 0.1358764570839095
0.2747972483180972 -0.023079628714854878 1.2478961467875496 0.21584750813251158
0.27626910901231383 -0.022051468926143614 1.2904511849245175 0.1858452027468994
0.2375917970989015 -0.02155918172577283 1.3108285773316235 0.1355934120434052
0.21829201212442548 -0.02091715958176752 1.3374076178377283 0.1079135651948268
0.22263283675166357 -0.021170824761009212 1.3269040700104848 0.11590856137247697
0.25840490978037717 -0.022729423455058503 1.262389752734574 0.1582727989115186
0.2542705344795854 -0.022414003374650823 1.2754458203983197 0.13519133208181883
0.2713306899727206 -0.02344897333585416 1.232606165613507 0.24624302354811411
0.26092015309156014 -0.023206559478493323 1.2426393258823578 0.22363980532022537
0.2358793111025823 -0.022148850319848097 1.2864185014993321 0.1430668633980311
0.2487132178228904 -0.023069921570061512 1.248291217753808 0.16543159542714067
0.22704945631867646 -0.021744913661534943 1.303137346789057 0.13534146918834522
0.2399207445272152 -0.022772787790487786 1.2605881454780419 0.14906791856903098
0.23987485651302548 -0.023236862207602172 1.2413741306601833 0.19403791112666388
0.23682304925875347 -0.022503626845667167 1.2717303177045376 0.14086083875183802
0.22321981062513493 -0.022013797030622912 1.2920073471847882 0.14279261633067641
0.21565189005503102 -0.021491181149396906 1.313642075476785 0.13744096628948496
0.20806211034961725 -0.021129665425305946 1.3286092153653903 0.10198046318017523
0.2125697447113512 -0.021876196999868616 1.2977050474685807 0.1421106460216047
0.21798040568659027 -0.022278946614488142 1.2810317800897755 0.146032956563584
0.22495589487584672 -0.023229476459265104 1.2416823856891313 0.22882704024070166
0.22246237772288835 -0.022778208024030744 1.2603635225031242 0.14683438694221163
0.22503188166153146 -0.02353889628452979 1.2288736880964612 0.2704382819228723
0.20658651939880962 -0.022176745957117917 1.2852613068822871 0.1684193015597679
0.2046064685716505 -0.02167141633527297 1.306178722462172 0.12456290032160068
0.20825936823300667 -0.023232481035815787 1.241561338021013 0.22190053053045963
0.2096702196335536 -0.022545468680730693 1.2699980687829333 0.14673400425670935
0.39343367384605354 -0.01939640474476344 1.4003523109185214 0.21244249643738217
0.3138468354048027 -0.01939358356074858 1.4004691597544023 0.1924090582273388
0.2439567043148001 -0.01922425600818245 1.4074824305285447 0.11021889726896038
0.23100228496939634 -0.01932474474615653 1.403320351064904 0.13845434842565993
0.3370122196114756 -0.019410575970945122 1.399765361866772 0.18553270084514542
0.6037052037776187 -0.019145816980259283 1.4107312470014022 0.13712740125338635
0.45210592910036684 -0.019169695574534004 1.4097422346120037 0.16751453443417857
0.628251866341089 -0.01909829639757529 1.4126994719515487 0.13172868144366476
0.2128430283719842 -0.019157468952532588 1.4102486413334712 0.1298227433114872
0.4967687662105513 -0.019154458737861306 1.4103733195105188 0.12775241447474314
0.42054159948207426 -0.01915241288577898 1.4104580553636026 0.13293899535801196
0.5126419799872192 -0.01906889364466377 1.4139172859726494 0.14566466272300488
0.6493077146057304 -0.019070577101375358 1.4138475599441558 0.11037246659123562
0.35717821374211434 -0.019160244503289296 1.4101336825526394 0.13733656550855863
0.47631196624502425 -0.019355016382473028 1.4020665493117537 0.20917567089683214
0.4634421535691832 -0.019358066851980226 1.401940203845124 0.18128399354287417
0.37883310005819953 -0.019230566491376565 1.407221060617474 0.1710820623935987
0.14695271666458304 -0.019065773841279828 1.414046503135257 0.1280716819858144
0.5804865040114697 -0.019171461391369257 1.4096690973616537 0.10197903406758552
0.5464538290461957 -0.019347878435948394 1.4023621914030135 0.11333494011909852
0.6654039128506205 -0.01908212160714578 1.4133694053633177 0.10689954122660154
0.5221347297267944 -0.019306032417733248 1.4040953851574556 0.1438836462063312
0.20188297484090761 -0.019058799667135706 1.4143353620418992 0.13854461306688964
0.11225506916638772 -0.01907281772869085 1.4137547568189166 0.11711953130775021
0.1580907569320777 -0.019125661082127005 1.4115660713944536 0.13931607706085097
0.31023940173388476 -0.019111078415332345 1.4121700616446524 0.12689914351389625
0.27448054820400636 -0.019215998486848313 1.4078244435805374 0.1409534357804767
0.1741313863295507 -0.019131740433819464 1.411314274572824 0.11115434001739426
0.5598967848561048 -0.019221708239936477 1.4075879549296704 0.10892555953734163
0.6031452758705624 -0.020192112623311987 1.3674165394534161 0.11941632524059985
0.6288465009720927 -0.019998404037805798 1.375437642485239 0.10410426325301952
0.6783698775366227 -0.0196420873278848 1.3901886556724157 0.11344818650009905
0.6182947631211315 -0.020171032272547792 1.368295101035954 0.11693027311214872
0.6501479056038373 -0.01995706155911644 1.377150137342385 0.11975693854250995
0.6411253252667224 -0.020147518783245482 1.3692631820199548 0.12030215861083826
0.6633214662541758 -0.01996516581049159 1.3768129044448205 0.11943200012931568
0.7318080802176955 -0.01934437237696452 1.4025141101559615 0.10156749759402425
0.6974385777703755 -0.01944264827790963 1.3984451842629175 0.1095231892282669
0.6203544612154005 -0.01930590188225541 1.404102142634562 0.12810417468340146
0.658154369377828 -0.019653577482560167 1.3897130387896992 0.11956169605722913
0.591384285876592 -0.02005067908002134 1.373273931513511 0.10285145031206444
0.5544516578464058 -0.01977958018867878 1.3844934867599166 0.10336709897598348
0.6834503127538909 -0.019223911017339314 1.4074983659146434 0.12071384261357597
0.5389484112901186 -0.019677156372048248 1.3887322821795167 0.11662975055785824
0.6086138427806859 -0.01990207189977275 1.3794256197754993 0.10297226936175541
0.6409637914344055 -0.01965580936793568 1.3896199661695938 0.1168967068130361
0.6690582779121776 -0.01942240383212025 1.3992819776619647 0.12712814152089277
0.6028811575990767 -0.019421034896757765 1.3993359724275465 0.12062558557849254
0.6185396607041752 -0.019644349133844292 1.3900934126276274 0.10603316663509214
0.5700154763827563 -0.019616699975762663 1.3912358824301054 0.10559473985171304
0.5852131512213836 -0.01942528962386328 1.3991591532057248 0.11353277139827252
0.6345318509496216 -0.019438585433542405 1.398610814299383 0.1299039425398066
0.579484180367674 -0.01996603102088572 1.376777116452216 0.10156642550139977
0.5932820083965752 -0.01962264903956711 1.390990582551402 0.10614703420713714
0.6486604810380657 -0.019383248927495763 1.4009018147949637 0.11413871087928407
0.7121255843654919 -0.01956120995899476 1.3935380971051627 0.10340298726038273
0.7324927739434927 -0.02050762690125512 1.3543591280688383 0.12549536212273485
0.7120544833698114 -0.0210816248661481 1.3305977400031743 0.12589358854941796
0.7467353339702633 -0.01995944455093315 1.3770519249989677 0.15896242147250542
0.731027054603844 -0.021115275765297484 1.3292044131666678 0.13230707602796965
0.7344164832194635 -0.019946390011943812 1.3775925274102903 0.10383640207332423
0.667471049080131 -0.02104667099908856 1.3320453920124926 0.13086153881243132
0.6458558645617251 -0.020694784362049835 1.3466127096171774 0.1361668076303518
0.6975556485290269 -0.020678632850529243 1.347280550926208 0.1146634269967635
0.7519138433116687 -0.020219267636055343 1.3662959946524091 0.20062251390892513
0.7085198485565192 -0.020437686354262914 1.3572548067535277 0.12459488473022254
0.7032992933138195 -0.021334567316806444 1.3201268563546247 0.1324440656097306
0.758464472079859 -0.019581026013056998 1.3927170760871044 0.2060101872649354
0.687663280957957 -0.020348802280459405 1.3609346403850096 0.12937548732155205
0.731102864672467 -0.02079492851276991 1.3424657729312863 0.11932394924704391
0.7036309472907669 -0.020172479648397447 1.3682335975656092 0.12137299671289073
0.7169114044398781 -0.020704809156513536 1.3461966427741778 0.13603056526530938
0.7411591387621955 -0.021229747956364987 1.3244654743994766 0.14126726610202392
0.6878586387899382 -0.020855964016718853 1.3399397490140952 0.12453474000961755
0.7423629204254498 -0.020865357157263086 1.3395500803760196 0.1448498082435969
0.7438987267673522 -0.021619991121499423 1.3083106029089284 0.1370213173061381
0.6933700981468187 -0.01977779331727581 1.384572515530356 0.10834770958663549
0.6760255741198294 -0.019976501464024222 1.3763468897678166 0.11161559455895152
0.7212635051345411 -0.020178094671874643 1.368000887340614 0.12239187647338015
0.7359230012861218 -0.019660301789827493 1.3894356503131446 0.11277974427834853
0.6616768888239817 -0.020798414059840044 1.3423225298682673 0.11731181941144248
0.6665756657440016 -0.02023084624418911 1.3658179646047046 0.12243410247440654
0.6703627390435913 -0.0205489376720407 1.352649930546439 0.11142818711930857
0.7487567063633943 -0.020618064533230535 1.3497871147396785 0.17953930244619615
0.7087220390918472 -0.019920463439756734 1.3786661930163446 0.115168226714952
0.6258040332266973 -0.020577849450976928 1.351453746861685 0.12318061715411491
0.6922228040605345 -0.021167876664447766 1.3270274881616697 0.13075910037493144
0.7173948161212946 -0.021401230747052257 1.3173669889521649 0.14099538080602522
0.6125316613749682 -0.02067381735999024 1.3474808952652166 0.10878051272443698
0.6390578565302482 -0.0209649181162531 1.3354257359311192 0.1231855988868314
0.7098977995673605 -0.021983040431939698 1.2932800516166811 0.13920106280640657
0.6500221449222339 -0.0215246992538724 1.312252319385844 0.14299804792492574
0.6982747893207581 -0.022652048460286272 1.2655850029861466 0.15928968546447778
0.713084642591282 -0.02167240456859643 1.3061394441481955 0.14769679897489219
0.7282645805762793 -0.02171079458574364 1.3045506181691822 0.13610508777413896
0.7052360139084459 -0.022421768731709476 1.2751180124316595 0.14126806330532257
0.7334360585567742 -0.02254843573376189 1.26987514680511 0.1443651976040276
0.6786938042309034 -0.022481235765629885 1.2726555804438024 0.15800932539594795
0.7228443003242345 -0.022111010209695532 1.2879828581489845 0.14490579879432727
0.7114531689740947 -0.0226769652830909 1.264553871102752 0.16744119793712708
0.630034999880982 -0.02124070571331227 1.3240082034003675 0.1293351172977942
0.7226492439452392 -0.022764981742266696 1.2609105688733107 0.17598662098827883
0.6537010831743755 -0.0212387211580258 1.3240909737409177 0.13263234613655492
0.6830606623795393 -0.022198408233042886 1.284363829688959 0.14274525288911397
0.7207957660804482 -0.02243735018718851 1.2744733962547103 0.15067444524359194
0.6523426222107946 -0.022203621414695777 1.2841472211435483 0.14634726971002193
0.690241976053529 -0.0217320866785938 1.30366820504547 0.12772978443346003
0.6320673030779146 -0.02162623722763103 1.3080485115863292 0.16627447709024665
0.6626854799312951 -0.02159316152210535 1.309418534961916 0.13943276241780414
0.7022356538616993 -0.0230606575238499 1.2486700262708796 0.19212235806451955
0.7133770408268103 -0.02317289447489571 1.2440240734092722 0.26978033580192756
0.6733532545277823 -0.021375692216617604 1.3184213312717075 0.13454644829000456
0.7416693720367374 -0.022297064101774396 1.2802813252448588 0.165521699071073
0.6851968404348305 -0.02143886553876303 1.31580647058562 0.13080896307263026
0.6674922324612927 -0.022604755609084558 1.2675419709254128 0.14678013059914444
0.6680573418472706 -0.02217929666339056 1.2851545955447123 0.14887495796102285
0.7539697787816518 -0.021948674109914853 1.2947038526189092 0.2141246028075601
0.7339140008605238 -0.022029251845088468 1.2913676754904737 0.14465803750263867
0.6807906493172954 -0.0228216188026256 1.2585648897212816 0.15944983396245282
0.6079256692556624 -0.02200976232684242 1.2921756249289367 0.15397352998823602
0.6020446214122753 -0.020888536714041214 1.33858644519766 0.11372769253406638
0.6252925806692107 -0.02297264164274183 1.2523176959201012 0.16625438600492784
0.6183424092687204 -0.022624390982758532 1.266733008305163 0.1410009900325499
0.6183278256423554 -0.023295157327903368 1.2389675894822259 0.2197790077696645
0.6307959239795254 -0.023212441766360874 1.242391533329855 0.21771376132332204
0.6349485231434582 -0.022257912747588454 1.2819017174705643 0.14532268874861412
0.6201263097162251 -0.02168422336960735 1.3056493447420916 0.1325261124466153
0.6362508629077996 -0.022768170934538066 1.2607810787004832 0.15783522957867607
0.6617914230042117 -0.023262994589003744 1.240296688687862 0.24841793342366383
0.6385904810114197 -0.02186541302060717 1.2981475898704447 0.12963831641086748
0.6489798284173058 -0.022544167575902347 1.2700516052244069 0.15645232403208179
0.6679475407435445 -0.023521687120033476 1.2295882785370953 0.2896447720310369
0.6269254088925664 -0.021948281224296217 1.2947187849094801 0.14166304823982406
0.6556988663242304 -0.02298211220830565 1.2519235695197999 0.17379672212622843
0.6821673614559055 -0.023172519953701377 1.2440393979682327 0.21925661790365886
0.6109600110205435 -0.021336141587428522 1.3200580604102023 0.12122640694673092
0.6434757576354339 -0.02325202616112616 1.2407526668920008 0.19838010815197482
0.6056982209158159 -0.02325957684902278 1.240440524720901 0.18490786664039233
0.6115502520197145 -0.023535583466498554 1.2290156709604152 0.28040460836602227
0.5922337258028013 -0.021307564748731325 1.321239723089924 0.11857720409711084
0.5984538023610012 -0.022800647396873448 1.2594370680372762 0.17011093766722785
0.6048257409005666 -0.02233586883405578 1.2786753943194604 0.1488558472850113
0.6002136587820096 -0.021768097031820678 1.3021802646036245 0.13939431061870627
0.5764096574720338 -0.023169767368774265 1.2441551458185187 0.19898868299422445
0.5865309118518387 -0.021872655479223947 1.2978468239679533 0.16223423490326824
0.584490108392562 -0.02343822498164949 1.2330415391614937 0.2794146539310253
0.5903886777566145 -0.02224479443921914 1.2824447294387935 0.13450026992943695
0.5873086915148815 -0.022961307536808542 1.252784308860102 0.17155286551531607
0.5891791964565088 -0.02260246364701031 1.2676390637757293 0.1392224734498958
0.5599093811589622 -0.023496867575401474 1.2306195860576454 0.2728417938646011
0.5608761117686552 -0.023149259166382507 1.2450080587122385 0.23848762430832846
0.5744314439120022 -0.022094057472587202 1.2886884424102973 0.13303152314282005
0.5671350453605609 -0.022572021783588837 1.2689026788669078 0.12918434890870928
0.5831122731149441 -0.02149863203440557 1.3133365124816223 0.13864551147622975
0.570011198295408 -0.022889381243158424 1.255767238605821 0.17687591638968791
0.5754866958929808 -0.021767468512592234 1.302206761226324 0.13712806420502985
0.5839612022391646 -0.02106852047705796 1.3311401698645096 0.12114549787824472
0.5566375898706346 -0.022719370150053986 1.2628018476769842 0.15981108380327172
0.5507830795998655 -0.023257426540059956 1.2405296611472174 0.25520007754250884
0.52708836416004 -0.023465521641570414 1.2319199242173031 0.2782652753905784
0.5577678343368072 -0.02241098010967682 1.2755677027132035 0.1431096061956126
0.5652683765532489 -0.021608122741466142 1.308801238667448 0.12754324328772554
0.5375978966391197 -0.023332975523926543 1.2374047717106818 0.2337152206049923
0.5648395964235817 -0.021920514804331336 1.2958695820816235 0.1391018416646046
0.5329767862645434 -0.022799886772911167 1.2594733253481762 0.15592140009952749
0.5420830017770589 -0.022432225138197252 1.2746912511744692 0.14038405692698788
0.5443301287431556 -0.022808720325055532 1.2591054778922368 0.17467403778459603
0.5532029904775225 -0.021746087352178645 1.303092490873913 0.1269079287873921
0.5769572158838245 -0.020693926206075495 1.3466434050786178 0.11784639765746928
0.5437938498748689 -0.021923863716378764 1.2957369858796355 0.13461529959009258
0.5205486749589803 -0.023021440846546566 1.250304588003594 0.21531241961272682
0.5425946902768932 -0.021357230973445412 1.3191895762097579 0.14311692302086368
0.5351094466650106 -0.022200282944572557 1.2842945870490963 0.13235294323053118
0.5305874859056038 -0.02166014863210659 1.3066498500553339 0.1533901434918043
0.530969218996519 -0.022493132259528717 1.2721729216525843 0.15118795297999818
0.5139040096960626 -0.022569906086575622 1.2689923766589264 0.19951889690801822
0.5592816055525626 -0.021134736405928303 1.3284014036389555 0.12712373826891935
0.5227692634925153 -0.021879422588820672 1.2975728272707017 0.16734434810693768
0.5167836084415246 -0.021589428533862785 1.3095764946153503 0.2072820141395212
0.5580341646219501 -0.020749588431325246 1.344344248640049 0.11688500466217272
0.5224252543456642 -0.021158949814115386 1.32739724851626 0.15554387032350772
0.5333283743589838 -0.020941094223473223 1.3364160511523415 0.13065098352534482
0.5136442027059087 -0.02095460501823786 1.3358564463199187 0.19262924450890767
0.5266177110044613 -0.020345571187140848 1.3610667903660367 0.14072364779946633
0.5367763340855588 -0.02052819570733617 1.3535084577154994 0.12307324889752383
0.5643304162617842 -0.02044366314102913 1.3570083343967794 0.11871629253828157
0.5522761635385993 -0.02033587530606149 1.3614691351773442 0.12051760440404796
0.5388643552193032 -0.020073598955057514 1.3723240882518726 0.1263774182258984
0.5159656987106234 -0.0205443055033578 1.3528408398737044 0.1757444392062802
0.5222159069443055 -0.01964786299760935 1.3899444269078864 0.12905406492447552
0.5696398593878143 -0.02015189619034303 1.3690845635811453 0.11088279383785718
0.5847054401731869 -0.02029913958412635 1.362993436104253 0.11744604547583773
0.20754631601977883 -0.019623050355625744 1.3630334918696065 0.09191471579595761
0.21773689885479286 -0.018362757885214853 1.3515751774571738 0.0985056563700547
0.21587899478020806 -0.0032779530192522037 1.356060579416595 0.10870466604702815
0.21327544007936391 -0.0024416009297328874 1.3387493843227545 0.10825849030993748
0.6040875206607027 -0.016691743769244302 1.3554924642841957 0.10244453662558763
0.6031364697780924 -0.0048495733270747035 1.3577883998203728 0.10264844777537005
0.6051919052813146 -0.005884855238147735 1.346583268858023 0.10948084210822165
0.22099878159002403 1.3532272524484397e-17 1.3198209242374992 0.11878743252694833
0.2633022583290672 1.6122613393548083e-17 1.2796156589123067 0.12869130486357017
0.31567193022656115 1.9329330946631236e-17 1.2272022388879886 0.18829757459182261
0.3246281564632625 1.987774163629203e-17 1.1959543428901356 0.09443405736660546
0.24831415794421016 1.5204856935467365e-17 1.284028216138943 0.13027139795318052
0.29095690310954014 1.7815972004146246e-17 1.237949334847607 0.19439365603867162
0.2691341779361049 1.6479715477530254e-17 1.2621222904885379 0.14517889333861095
0.3016735089839406 1.8472174858236655e-17 1.2316507310165195 0.14609671287870085
0.15962269109994023 9.774070886341426e-18 1.2950068817138831 0.13681029128086486
0.25867954438638013 1.5839553801883806e-17 1.195965030835277 0.0698600671785147
0.12674769633368246 7.761058030717247e-18 1.2568463908524345 0.14286528099795184
0.2379325209789548 1.4569165011496872e-17 1.2533132672741658 0.15444605462004746
0.24044822680796227 1.472320756605139e-17 1.2750138137892084 0.1390556584372931
