x y z curv
0.5109639121529281 0.2306268384532348 0.39812698960304255 0.06323697904561432
0.2660835956533883 0.15528946868917198 0.3981269896030426 0.04468311956234032
0.344319632229854 0.19099652942959214 0.3981269896030426 0.04243404733177673
0.6826533606654892 0.2914802293655789 0.3981269896030426 0.039740888632342285
0.17132370316354678 0.12337618126847401 0.3981269896030426 0.04270568341824
0.6347256741436841 0.27394280580908237 0.3981269896030426 0.04234027169706332
0.1446533533455841 0.12184405217099822 0.3981269896030426 0.0388255572463412
0.3197518850519821 0.17066701708976725 0.3981269896030426 0.04174732780597618
0.25319578179040647 0.18248894723548914 0.3981269896030426 0.044411489008270716
0.18838731089282573 0.16663111906866057 0.3981269896030426 0.04600060523397464
0.5021012094486609 0.23888735054133353 0.3981269896030426 0.04686452517962392
0.3008668748159534 0.180823550350442 0.3981269896030426 0.042727868223057575
0.2647885298783932 0.1848921714151378 0.3981269896030426 0.041125198108481184
0.6933775267628342 0.3010327062931703 0.3981269896030426 0.0418630231914095
0.5177312437200473 0.24626815886809003 0.3981269896030426 0.048978190111227796
0.15099607057149325 0.1058365796374742 0.3981269896030426 0.03964023142560364
0.34979778298761505 0.20377553063065088 0.3981269896030426 0.044750883003964695
0.2339667944141731 0.13627328010005849 0.3981269896030426 0.04533975550591696
0.14763143917854157 0.13921765127000665 0.3981269896030426 0.03958098352503661
0.5289177930715542 0.24131317529320984 0.39812698960304255 0.050070882296716586
0.44638502588509266 0.23510703744579503 0.3981269896030426 0.045371490947153696
0.15993784231685482 0.11446169946273758 0.3981269896030426 0.03994130251121695
0.7429033591944473 0.3131301004939391 0.39812698960304266 0.04397638591121179
0.28995284129893956 0.17953307458189932 0.3981269896030426 0.0387776172868123
0.2074274761582718 0.15112417978533 0.3981269896030426 0.046677160281135076
0.23152601307633747 0.16071806552298068 0.3981269896030426 0.04208434243946943
0.40045313795988263 0.22019664640307332 0.3981269896030426 0.03914114132910741
0.22262557241989486 0.13280677440619099 0.3981269896030426 0.04237798459299536
0.4822523894870778 0.24242109121991917 0.3981269896030426 0.04420819611001443
0.3850172397073338 0.20656820966713527 0.3981269896030426 0.04343559600484676
0.12897021185107882 0.12266561425245044 0.3981269896030426 0.04703147461044802
0.34846774911135786 0.17677205544735924 0.39812698960304255 0.04569705412459191
0.16009478773626773 0.14861239190953254 0.3981269896030426 0.04323392707705045
0.4821020317083071 0.2201407731241714 0.3981269896030426 0.04829561790680107
0.3263068938449276 0.20273426819150026 0.3981269896030426 0.04109869502260897
0.5330816734800565 0.25492283034378976 0.3981269896030426 0.044469453757006505
0.6202850417655755 0.2750636927116763 0.39812698960304255 0.044785069345478136
0.600713303309492 0.26974460906468106 0.39812698960304266 0.04398870134765777
0.3712627068220354 0.1879111467712328 0.3981269896030426 0.04583278884950707
0.20067885827055576 0.16114402250756904 0.3981269896030426 0.04768496269047875
0.20446648571256723 0.12278678921782837 0.3981269896030426 0.041753038845990395
0.20157797089246757 0.1355588343632133 0.3981269896030426 0.04403999037980334
0.1833283096861091 0.15277333620914244 0.3981269896030426 0.0443102545226886
0.15963207106038582 0.134915164012745 0.3981269896030426 0.03860952214545259
0.4170883219447296 0.20902774517949238 0.3981269896030426 0.04615478028159001
0.17422355908212264 0.10953773016355041 0.3981269896030426 0.03662039813066724
0.6604691357010191 0.28294358933872527 0.39812698960304255 0.041881481555129295
0.5465138339639766 0.2555518978301906 0.3981269896030426 0.04122381201755903
0.2849606122295956 0.1469921449671931 0.3981269896030426 0.0446642412629166
0.43545717122338157 0.20277107041750148 0.3981269896030426 0.0407435308275405
0.7059902247086695 0.29917004062215774 0.39812698960304266 0.043506678833210535
0.2548188893033718 0.14851478855563466 0.3981269896030426 0.04166380384455251
0.24202246068475364 0.15255734209516317 0.3981269896030426 0.04529358255281109
0.4683697253503881 0.21966146578822027 0.3981269896030426 0.04174607110918168
0.3643300702905197 0.20803526485660778 0.3981269896030426 0.04488744496751991
0.3076859851784117 0.16452614395597165 0.3981269896030426 0.0457171716437702
0.44724783862344125 0.21406956432035582 0.3981269896030426 0.041750233903793094
0.4235298965740783 0.2237974027340287 0.3981269896030426 0.04059706542668051
0.2738004198429006 0.16924008228398402 0.3981269896030426 0.04175306013630013
0.24595607323807944 0.1393307917257513 0.3981269896030426 0.04440092390695919
0.5901889411855712 0.2599441313797932 0.3981269896030426 0.04340735711706788
0.12749344982434604 0.13391579139320597 0.3981269896030426 0.038242274764530064
0.3557374901490492 0.18692197213749384 0.3981269896030426 0.041399610982497496
0.21946865822560369 0.14731082552612929 0.3981269896030426 0.04892558815183269
0.17210990350705338 0.16171363894651278 0.3981269896030426 0.041495321956695745
0.42100402030363626 0.16656272694259228 0.3981269896030426 0.043635294866923885
0.38207898610458224 0.17837274405550738 0.3981269896030426 0.04311429880952336
0.24441903639554574 0.1105065918042481 0.3981269896030426 0.043169140292492185
0.31937348964606377 0.1304746600827485 0.3981269896030426 0.0461064564524995
0.46510351630861835 0.18084509699068224 0.3981269896030426 0.04212420160421344
0.4847542615369026 0.1990411903475345 0.3981269896030426 0.04899844931344188
0.39002745428506075 0.15477658779950565 0.3981269896030426 0.04831871027097276
0.3431034371278205 0.15840111777227092 0.3981269896030426 0.03958962122949258
0.3158579358163316 0.11456300867952394 0.3981269896030426 0.0422690081193709
0.21595296447851448 0.06389057997757723 0.39812698960304266 0.04259324134372371
0.5637096903226915 0.22885636315114874 0.39812698960304266 0.04799071509906371
0.7178346173601888 0.30178745561654013 0.3981269896030426 0.04526415289052566
0.39657015016934866 0.1453827227442715 0.39812698960304255 0.0437329027198738
0.4985511021372611 0.19630490920259608 0.3981269896030426 0.07345826224742019
0.21460755047414348 0.11705930904123704 0.3981269896030426 0.0427061487036424
0.5485446486450308 0.23234448962911236 0.39812698960304255 0.04278003487182442
0.5407642700791148 0.22414593366485652 0.3981269896030426 0.04958504947047729
0.2116183571716674 0.09967806155201864 0.3981269896030426 0.0425223784005123
0.22670017614311028 0.07191799285389944 0.3981269896030426 0.04786560224893334
0.47231127718648536 0.20249356799924742 0.3981269896030426 0.04454381037194252
0.3039342865890395 0.10633630745934808 0.3981269896030426 0.045071787289406244
0.23252081326829532 0.10802322164866418 0.3981269896030426 0.0423239173395185
0.6580571359947771 0.27116745955725974 0.3981269896030426 0.04370324476042141
0.5910695192596552 0.24138703467553063 0.39812698960304266 0.04709450443410541
0.36570125981901086 0.14287691959564164 0.3981269896030426 0.045182966724172
0.2621106877531152 0.13660807556651644 0.3981269896030426 0.04378436820149156
0.5772543239378939 0.2503904175176621 0.39812698960304255 0.043819216725976114
0.27453030504038317 0.136304771166669 0.3981269896030426 0.04692243767858978
0.2595728222234861 0.10662544626704748 0.3981269896030426 0.04203432352819907
0.2729365516679823 0.11892120331991962 0.3981269896030426 0.04332551693714619
0.2996188987860899 0.12502543422340023 0.3981269896030426 0.045974302549279436
0.41301556407417256 0.15740591680815214 0.3981269896030426 0.04282960896915851
0.28692947745375413 0.09439529087478084 0.3981269896030426 0.04447861879983232
0.4529942318576275 0.1814445805825169 0.3981269896030426 0.042251648916778045
0.5212177692093413 0.22106857077152464 0.3981269896030426 0.0694654245479069
0.44101491303070917 0.17897684167052508 0.3981269896030426 0.042586329435957096
0.3597880224586602 0.16983412570847684 0.3981269896030426 0.04445202440421259
0.1983143180626586 0.11050825411198707 0.3981269896030426 0.04152625744845127
0.30598174916659726 0.13520687162910253 0.3981269896030426 0.04685607844827494
0.29108516494213066 0.13682795553377647 0.3981269896030426 0.045634658789140116
0.6009002629728092 0.25589473770192955 0.3981269896030426 0.0420407347247941
0.17079674044547294 0.08765975202167187 0.3981269896030426 0.042107962405605534
0.43418442679702807 0.1684266407971624 0.3981269896030426 0.04500321881960838
0.4082944998430425 0.18112013529668966 0.3981269896030426 0.04410291705882771
0.18804620501557262 0.10490169420541473 0.3981269896030426 0.03907250482319265
0.24258915870302725 0.09755272801254807 0.39812698960304266 0.043457177207220456
0.2685296870676081 0.09547272552396287 0.3981269896030426 0.04351053598765863
0.401658799239641 0.1617106864354459 0.3981269896030426 0.04474627083976048
0.29178231780927966 0.10742600583833779 0.3981269896030426 0.042831468027758994
0.3751426111453614 0.16879410251353275 0.3981269896030426 0.04281427880666625
0.24254401054966207 0.07748557751015779 0.39812698960304266 0.04442851766526008
0.16292178995183446 0.09947781834111899 0.3981269896030426 0.0403484093838465
0.4938866179898926 0.20685359858909785 0.3981269896030426 0.07718833613016358
0.27983179083272003 0.10745702972903975 0.39812698960304266 0.0416597503734014
0.196730754910409 0.08099220265262014 0.3981269896030426 0.03662294281206609
0.25478299268337007 0.092480806177024 0.3981269896030426 0.04421789168999159
0.1837443324947065 0.09385781846263103 0.39812698960304266 0.03582338763579647
0.4249052797028491 0.19279488429528296 0.3981269896030426 0.04323425182890064
0.21099884234570332 0.07556976433028699 0.3981269896030426 0.0419167444097608
0.5629761130786861 0.24585133102268686 0.3981269896030426 0.046849520906995
0.5790984131569232 0.2327248643463386 0.3981269896030426 0.04139845946076063
0.22030610102672082 0.09121641860364636 0.3981269896030426 0.041595633863288704
0.5090974748529842 0.20656950873101784 0.39812698960304266 0.0875806070797115
0.6452190815909208 0.2673633225993779 0.3981269896030426 0.04303160033936051
0.3279351737982529 0.11971556596783403 0.3981269896030426 0.0438158459493224
0.4757953178632128 0.18765748981898875 0.3981269896030426 0.04314501364869194
0.38035345310239127 0.14721385666161593 0.3981269896030426 0.05025797056351809
0.4264898937616241 0.17998216827612495 0.3981269896030426 0.04399287821051473
0.4583068148763862 0.1929256112414279 0.3981269896030426 0.040845347619368005
0.3601673323828018 0.15498704227500748 0.3981269896030426 0.043222139003027654
0.31648323162433356 0.15211974990926924 0.3981269896030426 0.0447755056354665
0.391578214556868 0.16936673892529946 0.3981269896030426 0.040837180049882994
0.4972766170733621 0.22009461602377953 0.3981269896030426 0.08851606264017266
0.2864440628373669 0.11779503538143402 0.3981269896030426 0.04878387546395667
0.2324628100925555 0.08454770713181378 0.39812698960304255 0.04344804482747387
0.4577118161771923 0.20561269369239346 0.3981269896030426 0.04562399005047663
0.3447978366623098 0.12739611914796187 0.39812698960304266 0.042725572785984045
0.23104383703438788 0.12491126528868096 0.3981269896030426 0.0445273815200793
0.5272624288527265 0.20878773812194695 0.3981269896030426 0.06986585658431098
0.6259287141501627 0.25741395892699903 0.3981269896030426 0.03983357599911805
0.3321735675980233 0.1352950809901792 0.3981269896030426 0.04063639500505304
0.2705612589999459 0.038284360462209524 0.39812698960304255 0.043778490208874865
0.2558586002953386 0.06245800362377386 0.3981269896030426 0.04119888119343018
0.37386704454765857 0.10155580796303189 0.3981269896030426 0.044299613766550214
0.4554222585740096 0.14485360241871048 0.3981269896030426 0.04432799456817619
0.5259048721605123 0.18366653089335272 0.39812698960304255 0.04416182126025024
0.42632172556037845 0.13272186050804574 0.3981269896030426 0.041372710943468956
0.28325545457745493 0.04433285147573677 0.3981269896030426 0.04124632268276344
0.608716149734078 0.24115180925616095 0.3981269896030426 0.04592682093764377
0.3892464275204605 0.12297687244302358 0.3981269896030426 0.04419092714358741
0.415863680870284 0.11681773491508522 0.39812698960304266 0.04026299530963192
0.47525386642233897 0.15459343725474145 0.3981269896030426 0.039134983683327726
0.44136601008935356 0.1377723026784479 0.3981269896030426 0.04226311965565312
0.3388306786722247 0.10743992824517168 0.3981269896030426 0.042835280123589344
0.3709010425573291 0.11344699902642616 0.3981269896030426 0.04579963660812806
0.40304790240638144 0.10643413687086604 0.39812698960304255 0.03843410104165601
0.40746381371134605 0.12568806286035267 0.3981269896030426 0.041133168101500084
0.6797675206120202 0.2692743130943817 0.3981269896030426 0.045060119216802134
0.6040015568591437 0.22261862618963726 0.39812698960304266 0.045404545426850164
0.65080771471065 0.25665553223649723 0.39812698960304255 0.046092563687162955
0.48374467308077185 0.1654359853541331 0.3981269896030426 0.04418744908398941
0.36596827841431806 0.09259173432094155 0.3981269896030426 0.043096408895916524
0.45965123226679094 0.16250548157695496 0.3981269896030426 0.04196351030789376
0.6377823880925004 0.24695390059007397 0.3981269896030426 0.042297494105827435
0.2813567764056887 0.0671244443676924 0.3981269896030426 0.04542028170602232
0.5703740169449368 0.22007446742554887 0.3981269896030426 0.04797579370574354
0.6922170735632505 0.27294539322271283 0.3981269896030426 0.04333124399497993
0.25005694693763164 0.0375083347651891 0.3981269896030426 0.051261293297289394
0.4091079266572405 0.1456606605842407 0.3981269896030426 0.04459966129319973
0.2388537352798859 0.05932781442393165 0.3981269896030426 0.041994234276139256
0.5698513068376654 0.20228540571795534 0.3981269896030426 0.0443664708341507
0.29731670989559444 0.08244373901168979 0.3981269896030426 0.047792040513063246
0.3353727762032482 0.09481615540553648 0.3981269896030426 0.041538091667184224
0.310018785441244 0.06446068097554904 0.3981269896030426 0.04177379702553697
0.7272968590097599 0.2930079821763337 0.3981269896030426 0.04163603676797975
0.2981807821212135 0.07065495585440654 0.3981269896030426 0.04429110181221157
0.2673319556591975 0.06598496513093664 0.3981269896030426 0.044782385956766244
0.4292603225123306 0.14491888940620848 0.3981269896030426 0.045031262033906366
0.25706966989428104 0.07647095058235429 0.3981269896030426 0.03970342233617681
0.3394246271776274 0.07122555297777387 0.3981269896030426 0.046492065692571964
0.3499556236268124 0.10089240171862707 0.3981269896030426 0.04429188835278371
0.32685942282486524 0.08087475303253186 0.3981269896030426 0.04360313763371934
0.3172266148401246 0.10240853230987174 0.3981269896030426 0.04115039064040863
0.559006564344341 0.20105874269384838 0.3981269896030426 0.045980106312262896
0.3824663962000946 0.11254423306527661 0.3981269896030426 0.0486997270750422
0.537875262692402 0.1917005945923911 0.39812698960304266 0.042166905381353016
0.2987490314875723 0.052361684837232254 0.39812698960304266 0.03998242535177234
0.283937736123455 0.08106604841504172 0.3981269896030426 0.04245066283271386
0.5930039627858792 0.21578848416514476 0.3981269896030426 0.04397387201286203
0.3839750228767994 0.0961553880292189 0.3981269896030426 0.03890245564097136
0.21905711355473595 0.05182428236043286 0.3981269896030426 0.049985354441744706
0.5001543919789682 0.1851324137235599 0.3981269896030426 0.0494633321541913
0.38961271226509375 0.13419125473674937 0.3981269896030426 0.04357717262416541
0.5393927312976382 0.20311577135662867 0.3981269896030426 0.047110516071644445
0.31427879918953705 0.07728398044712612 0.3981269896030426 0.0451151638834968
0.5194773781383003 0.1937428688398832 0.3981269896030426 0.046942936245191566
0.3611050566929904 0.12725562391559203 0.3981269896030426 0.043531781926239514
0.3412940459526542 0.08308627935531768 0.3981269896030426 0.04337891411730816
0.439493779856449 0.15010802930280306 0.3981269896030426 0.04865015830656019
0.5113510284619127 0.17157190128301752 0.39812698960304266 0.038747498227000396
0.49856911338416343 0.16755186419466467 0.3981269896030426 0.04376245269947005
0.4453757746700581 0.16679656656567676 0.3981269896030426 0.04356260819737888
0.7075549744254923 0.28085105422745027 0.3981269896030426 0.04560182378734186
0.2685879475309305 0.053246466789293595 0.3981269896030426 0.042354876020299116
0.4906606477524046 0.1782491801009055 0.3981269896030426 0.045952422088874435
0.3724786795743827 0.12701205891494324 0.3981269896030426 0.044625462988134024
0.551104651855231 0.21492497534758326 0.3981269896030426 0.046801531262411815
0.3621651253073312 0.105606554895015 0.3981269896030426 0.04588944194704511
0.39326636355801553 0.05522093768800594 0.39812698960304266 0.04414178310294614
0.33637008593896944 0.026446393474697415 0.3981269896030426 0.043041899011355675
0.3951539222825612 0.07432967323935942 0.3981269896030426 0.043678694392779
0.29972945610345986 0.0294531183513695 0.3981269896030426 0.039726422293239215
0.359819875213949 0.052818209887911936 0.3981269896030426 0.04684862019357592
0.5717834251232812 0.17667912277830508 0.3981269896030426 0.043978130074857964
0.46504701983621527 0.11721680754670258 0.3981269896030426 0.04667353787553779
0.31089348156106633 0.03282181645490199 0.3981269896030426 0.03857098709424674
0.5138635334760356 0.13447332665518963 0.3981269896030426 0.0422562439487092
0.43582193872832153 0.09068139801320321 0.3981269896030426 0.04369443219166911
0.393339747080423 0.08830641452359651 0.3981269896030426 0.04334166949376145
0.5322261346656941 0.14997004794487734 0.3981269896030426 0.042432629409877944
0.38403723210091323 0.07669685622424455 0.3981269896030426 0.04357615197686001
0.4457769089120599 0.09947276954707611 0.3981269896030426 0.043033976699992774
0.3238849950640522 0.031328835645332405 0.3981269896030426 0.037676655952934554
0.45462864125675706 0.1217871544100131 0.3981269896030426 0.04295709112883701
0.7632986631754197 0.3096530738598261 0.39812698960304266 0.04186136015675045
0.5467630147480499 0.17811045071085496 0.3981269896030426 0.04240089959354423
0.5136970302298548 0.15449228599806406 0.3981269896030426 0.044663531954679085
0.7531735028476714 0.3032420614590623 0.3981269896030426 0.04092993083668713
0.48335525592035533 0.11613928186778723 0.3981269896030426 0.04471199421437205
0.38049389422817786 0.05448096314835651 0.3981269896030426 0.0448664235773805
0.3579904844408728 0.06500050551223625 0.3981269896030426 0.04539318380090799
0.4625967116715655 0.09964179856228275 0.3981269896030426 0.04255360018430074
0.4219770518047485 0.10449680819534665 0.3981269896030426 0.04244714163438088
0.6681714120816775 0.25484688705547914 0.3981269896030426 0.04545862671160864
0.49054996063569334 0.14145064584634487 0.3981269896030426 0.04295314416151669
0.34718789540161427 0.03336742138132193 0.3981269896030426 0.04001070522007892
0.4072780310672839 0.09114850536926751 0.3981269896030426 0.041809783303807614
0.501257774282729 0.13659967314590737 0.3981269896030426 0.04231214730843533
0.7409609022146032 0.29829835567560864 0.3981269896030426 0.0428177360935624
0.43804680096487025 0.12465718549196969 0.3981269896030426 0.04835159938242612
0.6152493876863537 0.21069423346954733 0.39812698960304266 0.04362467594287892
0.5996004614939932 0.2040728456108412 0.39812698960304255 0.04182268179138188
0.3801947234306728 0.04178146883486653 0.3981269896030426 0.043269550088873655
0.6884226178519975 0.2587595505728516 0.39812698960304266 0.04790018353372088
0.4759386929691848 0.14069543454873318 0.3981269896030426 0.04313131176643855
0.5841824326685495 0.18663153749481623 0.3981269896030426 0.043888994108324066
0.4941126556526183 0.12234112427897331 0.39812698960304266 0.04113497521999052
0.3458785813136745 0.057817842222754025 0.3981269896030426 0.043324247527994915
0.3302593676388533 0.060011541402539385 0.3981269896030426 0.0433836588791558
0.456420810847349 0.13302900090896905 0.3981269896030426 0.04598195266945249
0.3132144153738746 0.05049935309069163 0.3981269896030426 0.038728753366302174
0.5843237364201739 0.20696815686471354 0.3981269896030426 0.04596692846160208
0.36104394886402363 0.034326365968772615 0.3981269896030426 0.039681780521198744
0.6153945902749749 0.22529726048717627 0.3981269896030426 0.044662454885599286
0.373186845481952 0.06406364452418792 0.3981269896030426 0.0451102003141107
0.542782660061719 0.16373131303182317 0.39812698960304266 0.04062100486192778
0.5687440930230696 0.18933903395645957 0.3981269896030426 0.043191691019787794
0.4179578768866456 0.08168935121671841 0.3981269896030426 0.043383214556627345
0.6621346182681243 0.24436282379977345 0.3981269896030426 0.04178149079762223
0.5288249706819337 0.17109631058602448 0.3981269896030426 0.042600483956279286
0.5582492264575479 0.17391305454766168 0.39812698960304266 0.04495511536820769
0.6497426978652872 0.23876819050804174 0.39812698960304266 0.04134599227581011
0.4912039373195103 0.15364856214898778 0.3981269896030426 0.04409653421663257
0.36150412714758795 0.07621508187850637 0.3981269896030426 0.042786486233550344
0.40732429680739135 0.07855954925480016 0.39812698960304255 0.04384903514569574
0.40831138769160874 0.06550158042257326 0.3981269896030426 0.043390185201673766
0.32030469295940917 0.017703085866810915 0.3981269896030426 0.040653237522345925
0.3405045571844323 0.04693697223832788 0.3981269896030426 0.04170622967018821
0.631010886713389 0.22999007277014735 0.3981269896030426 0.04285373427017941
0.29482322979094394 0.03956088955455467 0.39812698960304255 0.04311142415198145
0.41363119358712847 0.030747989684464124 0.3981269896030426 0.04157869368893832
0.560237536981271 0.1609608459515522 0.3981269896030426 0.042608115305091065
0.6192163825692657 0.1958039689970987 0.3981269896030426 0.04141360551471833
0.48745860160537396 0.1012397349065318 0.3981269896030426 0.043551362605894164
0.4437803585389322 0.04540059426746374 0.39812698960304266 0.043738610560058205
0.4972119259720691 0.10816138246431879 0.3981269896030426 0.04449361531146238
0.4457784195700161 0.08153573743509039 0.3981269896030426 0.042693690797070964
0.37079340080389217 0.01368700479611277 0.3981269896030426 0.04066211530825295
0.5918683833495958 0.1778768618032883 0.3981269896030426 0.04333435333545703
0.7182239919957216 0.27432185873795195 0.3981269896030426 0.04012568923680706
0.6741420147300073 0.2372125485428518 0.3981269896030426 0.040334260480019604
0.3858177248813012 0.029290592296878554 0.3981269896030426 0.03794857538765952
0.5221853536090132 0.11098496760983659 0.39812698960304266 0.044301880649202874
0.5316295139353845 0.13192873486789827 0.3981269896030426 0.04258161115138181
0.5756444192947999 0.1543379721854285 0.3981269896030426 0.04155704206617836
0.638224816538427 0.22039185709683382 0.3981269896030426 0.04194976705033901
0.5634329064348 0.1446040080924159 0.3981269896030426 0.04359075129598354
0.361273270421829 0.0040359787440334945 0.3981269896030426 0.04845449343211748
0.4563702139513457 0.059787087298728635 0.39812698960304255 0.04321053812401202
0.5889805166619793 0.16315486724420017 0.3981269896030426 0.0458013738522314
0.38890287193636847 0.012756577132173376 0.3981269896030426 0.03904896629622906
0.5034557761068907 0.09559724251868182 0.39812698960304266 0.043676902828188
0.6516977696183766 0.22489697648440463 0.3981269896030426 0.041285831825054964
0.5473161930748599 0.1319942891075568 0.3981269896030426 0.04491066730912202
0.4613592494752478 0.07007797203821339 0.3981269896030426 0.04453542247870224
0.680689980343376 0.24948443989153013 0.3981269896030426 0.04489143756416094
0.3459576950582276 0.006507026722767762 0.3981269896030426 0.057845756541868305
0.4754248261188967 0.1066035278939701 0.3981269896030426 0.0404539502981341
0.4748525980012941 0.09518435891061623 0.3981269896030426 0.04336226818105509
0.3564260822089325 0.020080595268661305 0.3981269896030426 0.04473491987500377
0.42589274337667604 0.04627025030910671 0.3981269896030426 0.04300023463754804
0.7290158677809319 0.2790849467023266 0.3981269896030426 0.041211761195653764
0.397469660433569 0.026716955028782487 0.3981269896030426 0.03813902613423516
0.4304245900882171 0.0576762652141008 0.3981269896030426 0.04532449065684967
0.5096824431340441 0.10744664605246204 0.3981269896030426 0.043249149734497554
0.5987182644645992 0.18904293608339165 0.3981269896030426 0.04593256413217674
0.6301559533083947 0.19893893020654466 0.3981269896030426 0.04582557720668474
0.4915449525690123 0.09046616099039989 0.3981269896030426 0.04339278726846152
0.5420464475123716 0.14345316576914421 0.3981269896030426 0.04691776948231247
0.5101457821004617 0.12348129277960805 0.3981269896030426 0.04155811590544199
0.4325000232489363 0.07451111359200274 0.3981269896030426 0.045405977344963454
0.4290861971282696 0.02706617111383584 0.3981269896030426 0.04111312011857489
0.578074909125573 0.16660432600772973 0.3981269896030426 0.0423111483730947
0.39227841425780186 0.0409144212615008 0.3981269896030426 0.04130999165311782
0.4737011077309309 0.07014108892570982 0.39812698960304266 0.04493124196021995
0.4114714671900698 0.050549378183983765 0.3981269896030426 0.043241604873297805
0.4460185466597688 0.06961831547105111 0.3981269896030426 0.04160732338810697
0.7030470759564513 0.2650457283751908 0.3981269896030426 0.04198953993911375
0.47283062321974223 0.08249763462361721 0.3981269896030426 0.042489874826729904
0.5317841395922296 0.11775995780651659 0.3981269896030426 0.04411752536085665
0.4344093570072939 0.037519134111556766 0.39812698960304266 0.04213746564460737
0.4010362026857223 0.011621863318352132 0.3981269896030426 0.040807772986216316
0.6080518901887851 0.17739025461294414 0.39812698960304255 0.04310627405207113
0.5499858498600334 0.15394692173788443 0.3981269896030426 0.04598930889745632
0.5688670075264898 0.13465636899742106 0.3981269896030426 0.04188991064608311
0.5435368025155428 0.11396803814948679 0.3981269896030426 0.04291333400408172
0.48340188122194055 0.04674891857017964 0.3981269896030426 0.040733767121211406
0.4635011470971314 0.02613233332392436 0.3981269896030426 0.03762533123386914
0.449503804296295 0.03571882143260459 0.3981269896030426 0.04092119989754378
0.5344525059137953 0.10032480566148659 0.3981269896030426 0.04032465538358778
0.49830193750183394 0.059147224812753016 0.3981269896030426 0.04455905872281323
0.5959261385917206 0.15415227928569356 0.3981269896030426 0.043946735575057155
0.6114156899497836 0.16295993654379448 0.3981269896030426 0.048268921761367635
0.4548777849178163 0.015063745669472864 0.3981269896030426 0.043694575437220794
0.5390444337246232 0.08774449698265101 0.3981269896030426 0.04285200599879814
0.6553737125392812 0.20891345891609375 0.3981269896030426 0.04410627120693165
0.589848254394143 0.14450088215244508 0.3981269896030426 0.044530663454951686
0.6119518671132671 0.15164844125695712 0.3981269896030426 0.04373594044374514
0.47142052223642644 0.04341378604206105 0.3981269896030426 0.03977105431121471
0.5644449989899283 0.114010190278795 0.3981269896030426 0.04246340041731255
0.44200888287081164 0.014836053647190735 0.3981269896030426 0.04316932408036062
0.6704886484795021 0.21623156395259632 0.3981269896030426 0.04353576490842825
0.6319852888909065 0.18041408425980446 0.3981269896030426 0.042337073539814446
0.7424475549258609 0.28600935736132355 0.39812698960304255 0.04061323132310782
0.42748356459569803 0.01438629102440193 0.3981269896030426 0.039469576716117165
0.41990948279892515 0.0031394132516575426 0.39812698960304266 0.04997520311454092
0.5509949335264389 0.09367889334729616 0.39812698960304255 0.04609342714228339
0.4756192890107702 0.02996216194412734 0.39812698960304255 0.03824753754935023
0.7112159261070504 0.25644961359892865 0.3981269896030426 0.04582073395221802
0.516922574513847 0.05628462077675924 0.39812698960304255 0.03371960602224546
0.48626308385051387 0.05787470344624962 0.3981269896030426 0.04557923035894334
0.5080909364612679 0.06707794552110315 0.3981269896030426 0.04363229965892271
0.49065561787214307 0.07348397492650069 0.3981269896030426 0.042185500241702124
0.4318529881257787 0.003365137951122735 0.3981269896030426 0.040042730106974664
0.6447120462271614 0.20225102890420635 0.39812698960304266 0.04330894888925789
0.5004354754280091 0.08015664908592847 0.3981269896030426 0.04266881133004238
0.6033196678140927 0.14075805471967137 0.39812698960304255 0.043520785148479554
0.5783901372959139 0.1267114300603672 0.3981269896030426 0.03962971958750869
0.5271510058986305 0.08930358369066696 0.3981269896030426 0.04392046175914981
0.619993861036186 0.17289542020497128 0.3981269896030426 0.04091443163403421
0.5580735465714344 0.1288713676044088 0.3981269896030426 0.044739407940445106
0.6859223912438277 0.23557848841467668 0.3981269896030426 0.04432104760384676
0.5257692823850195 0.06808416763396595 0.39812698960304266 0.03995211500662588
0.47495488265744457 0.018099012097408225 0.3981269896030426 0.04358426390392328
0.6430855064118306 0.17121968896921425 0.3981269896030426 0.04146777039470667
0.5314202522677761 0.02509471374713956 0.3981269896030426 0.04004308507262241
0.7024978140356922 0.2376314370126043 0.3981269896030426 0.040951091687768386
0.58458571833029 0.11623203306568057 0.3981269896030426 0.04124755512013143
0.6386088559499201 0.152730198846424 0.39812698960304255 0.03988208636920417
0.5386664026145109 0.0672469444696393 0.3981269896030426 0.041846359613475596
0.6530909488382914 0.18906278945114668 0.3981269896030426 0.04213515826865066
0.7382503055697414 0.26610371705910063 0.3981269896030426 0.04258408167345352
0.6708040502333469 0.18845294832491896 0.3981269896030426 0.042786449417122785
0.5798824061370002 0.08156529475791417 0.3981269896030426 0.044472504221032924
0.5739850590583824 0.10544345105909232 0.3981269896030426 0.04561579741001864
0.5615392881446222 0.08204783823440415 0.3981269896030426 0.04248272980994626
0.5011674834877934 0.037438007355244315 0.3981269896030426 0.0397024882144505
0.5669342779382844 0.07128391260574743 0.3981269896030426 0.04253514457068222
0.7129261182099785 0.24530692878038482 0.3981269896030426 0.04228052905984745
0.5417280002493986 0.03930564470718072 0.3981269896030426 0.047042636541222295
0.6910759339574094 0.21540828007184323 0.3981269896030426 0.044454141834593425
0.5788780760962295 0.09295313737812393 0.3981269896030426 0.04949372255779084
0.49097130717372 0.02334931857886221 0.3981269896030426 0.0424130211322456
0.6175292276240901 0.12181951754190704 0.3981269896030426 0.042092343200258175
0.5503072188292467 0.07000784724292099 0.3981269896030426 0.041870106482127
0.5882659974022357 0.10082265539922351 0.3981269896030426 0.044058581240299335
0.6639507446847164 0.19721674634919428 0.3981269896030426 0.04448881997497132
0.5522263411595318 0.05840407085142554 0.3981269896030426 0.03573946647321004
0.6146257190892073 0.13370114543012276 0.39812698960304255 0.04152703690010516
0.6040357537866234 0.11351306565388723 0.3981269896030426 0.04059847776633847
0.5328110866813303 0.04963748300019839 0.3981269896030426 0.038137652494546
0.515441977631742 0.03823388177225792 0.3981269896030426 0.03912973309670269
0.6251352832905244 0.15731182841440408 0.3981269896030426 0.04588791680300071
0.5639102938006088 0.0932182451808571 0.3981269896030426 0.04375604158919295
0.7285086536707283 0.23876824174284497 0.39812698960304266 0.03799811173446739
0.6716299797902399 0.162114521865775 0.3981269896030426 0.03959519274769737
0.5812829498929539 0.06544206413801218 0.39812698960304255 0.04332248038084099
0.6349414482237454 0.1200163931174328 0.3981269896030426 0.04181591188822016
0.6231203831187114 0.0892677150224727 0.39812698960304266 0.044074888012334994
0.7514124499111128 0.27699092203270587 0.3981269896030426 0.042220195437871
0.6606608279800554 0.16326314805439665 0.3981269896030426 0.04723046833821258
0.6787409816704837 0.17219284139434307 0.3981269896030426 0.0455514608066293
0.7388708369401578 0.2530384731380479 0.39812698960304266 0.03848723582227925
0.7046263726224661 0.21522100416954199 0.39812698960304255 0.044614668744029876
0.5541271048931719 0.04398603793985993 0.3981269896030426 0.03894826662231531
0.6463771336503041 0.13208311680517174 0.3981269896030426 0.040244787042273855
0.5944967300555772 0.08614752246452428 0.3981269896030426 0.04690771773160432
0.7674470516608219 0.29807510530237397 0.3981269896030426 0.040929630412301486
0.595199485102947 0.06784800724738928 0.3981269896030426 0.055141544429569304
0.6649663915521792 0.1765717676698664 0.3981269896030426 0.04497679832151193
0.6008455504522192 0.09716107467137125 0.3981269896030426 0.04238339769037942
0.6067610545775862 0.07754592480994978 0.3981269896030426 0.046457434400663224
0.6529259111841257 0.15304447689319706 0.3981269896030426 0.04444361633157006
0.7607838736918385 0.28365555283285965 0.39812698960304255 0.0445394608249415
0.7094820949922687 0.22737340940533762 0.3981269896030426 0.04220234317897269
0.6209889215446016 0.10357728609416217 0.3981269896030426 0.037914175089940376
0.6307028462311572 0.1346129153997477 0.3981269896030426 0.040076511015009975
0.6841058940147282 0.19946153801104619 0.3981269896030426 0.04228821863669523
0.7508796622934586 0.2651168280644737 0.39812698960304255 0.040920384369940006
0.6244682217224271 0.07756767758894223 0.3981269896030426 0.04008244357690339
0.612970303999603 0.06745727234780843 0.3981269896030426 0.04894019720467784
0.6439698131821164 0.1083023730429773 0.3981269896030426 0.04361260467527171
0.6676705754293131 0.14501392668706553 0.3981269896030426 0.041525261807083075
0.6910524225271687 0.1568463573994625 0.39812698960304266 0.0443507588888186
0.7106242461599156 0.20147272101228972 0.39812698960304266 0.03775210089918698
0.6623507231837193 0.11221028359327664 0.3981269896030426 0.04570323903902607
0.7016412208576533 0.17340369804374073 0.3981269896030426 0.04617745664535585
0.6783712291805057 0.15051418238538833 0.3981269896030426 0.040418838902166014
0.6489363313513917 0.1209769136397657 0.3981269896030426 0.043893221535061644
0.6589894922955151 0.13012651783427195 0.3981269896030426 0.04247533256536573
0.7236822192634154 0.2285739993298203 0.3981269896030426 0.040044646498352286
0.6976636440301693 0.1853440205241632 0.3981269896030426 0.03577924249478216
0.6885355232221602 0.1780443658221067 0.3981269896030426 0.039413689398314036
0.6440036503644445 0.09691917984006879 0.3981269896030426 0.04546628619987402
0.7220911068184949 0.2085976489704399 0.3981269896030426 0.0382332750163752
0.7241367123631162 0.1922303418871184 0.3981269896030426 0.0405929524032141
0.7411389340294824 0.2378912786308238 0.39812698960304255 0.039272457820221825
0.7569387609393782 0.25441403866061524 0.3981269896030426 0.047655924950276485
0.7364092670088201 0.221798484692186 0.3981269896030426 0.036442431875054485
0.6951048074272456 0.14586561528417494 0.3981269896030426 0.04540549045628099
0.7140630518997496 0.17453266096443182 0.3981269896030426 0.040107732019235
0.6786163669807411 0.12429485089583882 0.3981269896030426 0.044383380510227645
0.7454738904905358 0.2119581663736378 0.3981269896030426 0.03932294902906944
0.7559463297377167 0.2416634611454243 0.39812698960304255 0.04589328133330785
0.767794658742455 0.26028445593435146 0.3981269896030426 0.05087708641598425
0.7831241693618843 0.3062350392494749 0.3981269896030426 0.051476371932802585
0.7115276049747711 0.15077932676705108 0.3981269896030426 0.04972279222392783
0.7922526031277852 0.3247495268128456 0.3981269896030426 0.04539301905820899
0.7743735758343344 0.27373822278120713 0.3981269896030426 0.045449574655519895
0.7850105304624271 0.2973160213901451 0.39139144857555397 0.054160947125971984
0.7667207811594607 0.24357621321666606 0.39187226153084953 0.04776857714264368
0.7557724112619226 0.22009733779099094 0.39684344859363785 0.04337194961435426
0.7467943558773009 0.20084382394478917 0.3953187645049199 0.045108571043459667
0.7605039211908174 0.23024409901294 0.39805008071266146 0.04908426543805083
0.7400728276579968 0.19096166645987508 0.39576527586847726 0.042434654595497986
0.7200955340284392 0.16243114800960345 0.3973745657119128 0.04434608345272101
0.6751711246400844 0.11164634198246125 0.39144089129868254 0.05454597019480762
0.6921297217705369 0.1286049391129136 0.391434480952778 0.05349308924117883
0.6575270674778173 0.09400228482019415 0.39518823697876254 0.048812868231814195
0.6415263682809841 0.08267214126569418 0.39787401345527346 0.044463220759028144
0.6011297079917342 0.05438608010996689 0.3971664667629902 0.05315459006758747
0.5865681141799063 0.047329666899460776 0.3965959647514621 0.05097766755669535
0.567402849213422 0.038392765730988 0.392854325290806 0.035857381971629514
0.54310754053378 0.02706368452217712 0.3964459437817378 0.042546070794049935
0.4932531909485175 0.01245416955722608 0.39149625852788944 0.04525919985651838
0.5198651656774793 0.01958483445352438 0.3925244840157278 0.051430864027533066
0.47115573734834043 0.006533168267799792 0.39260508079813006 0.0424116838079043
0.4601176278683296 0.005260112711300585 0.39229735742071725 0.04911226035495208
0.44662134801932185 0.004079346947295365 0.3915272016888661 0.04566991036834047
0.39279149576670613 0.0006301905261469871 0.391394329814579 0.03282360364327513
0.3723382630882174 0.0024195982514782933 0.3936478065979359 0.04753813291437199
0.3268731393223695 0.007058282473491818 0.3942993504898481 0.04425149402889893
0.2946714011560203 0.015686721598405003 0.3936777153336589 0.05139810165195974
0.2742444247372842 0.02116011938906481 0.3979907970898394 0.05273998750330835
0.2044544678174014 0.0515105997431232 0.3975881855437504 0.050358882639111084
0.2270364014387306 0.04098047897378617 0.39808356070112993 0.04884630160245884
0.18752755196567586 0.062320392415980856 0.3964105940791592 0.04123038393728913
0.1514844608341359 0.0875580508384441 0.39206305758718074 0.04987976217244455
0.16043895387013898 0.08128804355618025 0.39786038813371427 0.04371351171214163
0.1768337678859516 0.06980826463737475 0.3975195225912294 0.04126695272516345
0.13586106381710678 0.10060278095904676 0.3980184679068478 0.041031020110291784
0.11827252261580505 0.11819132216034851 0.3977233340358808 0.050060581564803135
0.10671677216406136 0.1297470726120922 0.3978609668292336 0.047277940392865085
0.055050299994874624 0.19791032799122785 0.3913733408540734 0.05133783123494691
0.06828487464267406 0.1790094024530609 0.3917625198650925 0.04173233723285742
0.09057222318677771 0.14717977993131862 0.3952604478804657 0.045623413017334996
0.06253188814775668 0.1872255062452144 0.3973212550250884 0.0419994909519143
0.04402267982318933 0.22051237918323366 0.39408899730946334 0.047137410893433276
0.01658981922571558 0.29130099859394637 0.3923617367789826 0.04872633204317667
0.019724271261408327 0.2796030770710459 0.394414080587439 0.043420317349543686
0.0240620790695783 0.26341417555219326 0.3925307587666951 0.04707741967171795
0.007225403258573704 0.32624943674007706 0.39706795749983514 0.050797527007998416
0.001784619255682913 0.379596264067784 0.39126163297153815 0.04165061781919505
0.0053817906095312016 0.3384802080841724 0.39200363031467095 0.046656143300022525
0.0038738130892343224 0.35571649068948785 0.3968809996889277 0.036591899433482414
0.000624427000985643 0.39285725915292924 0.39446294611120114 0.04434493366460682
0.002512277484470084 0.42870957875451843 0.3911982133904315 0.04405167692028957
0.0016685644631671127 0.41906609169880965 0.3967569834045699 0.043058561541237994
0.01469444275613888 0.5016139952525294 0.3911578871622243 0.046679721649173174
0.019800018705202066 0.520668243363922 0.39469339449493446 0.04304173788987488
0.02914034735913245 0.5475609610297107 0.39773132772034714 0.04473541053343929
0.04465079352050183 0.5808232452138558 0.3971742970822035 0.03949958105811171
0.08817034891114132 0.6493786182979542 0.3919210066497968 0.04763434958019252
0.060586770962071795 0.6099852034637997 0.3941798142179952 0.0457035148327355
0.06937367719698598 0.6225342047156046 0.39788577980956186 0.038907391725087656
0.11458012290531183 0.6781049055629351 0.3926990191785279 0.03628395723823094
0.09852506587843315 0.6620498485360565 0.39803175118421547 0.04191641749914043
0.13753223209575588 0.7010570147533791 0.3977757048768006 0.0499399107530734
0.12449943772573777 0.6880242203833611 0.39805029731862895 0.04048364756035459
0.14687763752520686 0.7092048417909768 0.3963748705467707 0.04362641956933712
0.19376362966449884 0.7420347838355202 0.39640249688817986 0.04665018697266498
0.1602521147942556 0.7185697567273527 0.3974922285304513 0.04614749252542145
0.22561823180524326 0.758346845664066 0.39795847958107167 0.058188152982543255
0.2953769432114334 0.7844909554650455 0.3931708906446431 0.0393998453042262
0.3517983044668458 0.7957720136304705 0.39252636588039386 0.042926095769813676
0.3881509599673867 0.7989524483716222 0.39347375225538317 0.03861319445953099
0.3730204519947099 0.7976287095296868 0.3956242271129036 0.04222002155672738
0.4150246006163278 0.7986736462679537 0.3962889117754621 0.05087646391396676
0.43458889537795636 0.7969619935440311 0.3965831230178859 0.04483360239135862
0.45120694342864776 0.7955081026456118 0.3977848785089868 0.03905642520037482
0.48027508969343924 0.7910119334108815 0.39401347665013964 0.04170540327850604
0.4924424143999861 0.7877517050343523 0.39230691619974634 0.044089891195863415
0.5489613901119867 0.7701952488394995 0.3950602624119917 0.040313428425332476
0.593140644814692 0.7495941392392681 0.39572150975107495 0.04240766831150683
0.6309626392242452 0.7247132891654875 0.39143156878214735 0.04594141548681659
0.6198012463029986 0.7325285894120048 0.3975031977558211 0.04358077061048003
0.6613257836263615 0.7021876264650386 0.39692675698114765 0.04540621029160862
0.694648581322284 0.6688648287691161 0.3970833782650087 0.04771102516500614
0.7344543817799627 0.6170509298940026 0.39744662776017514 0.04249533669611327
0.7630647228738829 0.564252862157679 0.3917422971012368 0.04720963094310605
0.7538479591483783 0.5840182965060969 0.39754299705814683 0.04178286192967212
0.7817024800097507 0.515018404973891 0.3933135301372609 0.04466119766267666
0.7848165728098881 0.5033964650698124 0.39280596176586513 0.04408403129188483
0.7913521418020087 0.47900541607408825 0.3918494337834766 0.04225874007352931
0.7971138966286925 0.4328524557787778 0.39224388785620673 0.04653119319845212
0.7991959701252178 0.40905421656720226 0.39378857661564115 0.050339073170242936
0.7968122798773898 0.3636884971146053 0.3953063773522064 0.045175678756950374
0.7945353079066902 0.33766258990223896 0.39667299973885184 0.04477962294675772
0.7655712274366012 0.270386899090994 0.38851719640898114 0.04812972931604543
0.776395348227523 0.2888138534223154 0.3897740120731955 0.052039375488623064
0.7822708754128286 0.319753827268612 0.38925843982233105 0.05316170388386761
0.7754765744982678 0.30352593606214845 0.38873619970425466 0.04446877886908314
0.7834883575074371 0.33086295331115817 0.38888284512507065 0.04080978361961558
0.7642564784541072 0.2993080700488271 0.38658196788377047 0.03933804287704754
0.7679721219682415 0.3125816916198885 0.38661591239665805 0.042354672557090314
0.7541364493510694 0.27619369760828244 0.3861270248889923 0.04056773851154889
0.7032809608090012 0.17806595406010942 0.38612702488899225 0.0362697145611115
0.7430509580093092 0.2586415312977266 0.38612702488899225 0.039331886965767504
0.7143285685395997 0.21106008381749325 0.3861270248889923 0.03553018016408479
0.7330578456305651 0.23697758484802373 0.38612702488899225 0.03470766430018017
0.7080202395956944 0.1953723989865328 0.38612702488899237 0.04095860510590724
0.7233088605733404 0.22151478546446546 0.3861270248889923 0.03814777304732982
0.652748162034362 0.12295692015119296 0.3861270248889923 0.0421412615930209
0.6809487444816849 0.1744715336623197 0.38612702488899237 0.04993650331700747
0.7493616235114285 0.2931370527943338 0.3861270248889923 0.03921521857839419
0.7257568772018299 0.24560616326319842 0.3861270248889923 0.041231836964047114
0.6843434784987354 0.16086041796236894 0.3861270248889923 0.043079406363734404
0.6626716079610426 0.1317712541544801 0.38612702488899237 0.041378245444855924
0.6945077240736418 0.17001028339170374 0.3861270248889923 0.04133563647179877
0.7085586236237946 0.22340813667063517 0.3861270248889923 0.046547288951505776
0.7420878965166847 0.2844859718991423 0.3861270248889923 0.04184332018331412
0.6311031318874404 0.1288958301015436 0.3861270248889923 0.04452521308391507
0.7339246914359 0.27382700550892536 0.3861270248889923 0.04116398575781449
0.6437888292015825 0.15187295001846865 0.3861270248889923 0.04494772728789278
0.6540689545539017 0.16033673833104764 0.3861270248889923 0.04311485453338036
0.6781477294759952 0.19912155324733732 0.3861270248889923 0.042188861352014766
0.6269460673590023 0.11787510050292475 0.3861270248889923 0.03935173701447085
0.6616352698719167 0.14471780401009615 0.3861270248889923 0.04158531185705966
0.7134455591666865 0.23614709018277608 0.3861270248889923 0.04833253619571786
0.6692905763240247 0.15759706834048787 0.3861270248889923 0.0414001847530133
0.685447342312298 0.18764580886113708 0.3861270248889923 0.04484968513111492
0.6484850938120326 0.1406145405766543 0.3861270248889923 0.04366296619765396
0.6927723216703197 0.20132753551069912 0.3861270248889923 0.04272936273731751
0.6992709711866374 0.2147082405364131 0.3861270248889923 0.0462093221471621
0.6417711239682774 0.11626154359858897 0.3861270248889923 0.038416475678364856
0.6130132705559338 0.10641925981125491 0.3861270248889923 0.03915770935532764
0.6610470985735173 0.17504639114959825 0.38612702488899237 0.040548748236808645
0.5843461936359199 0.09177154413454193 0.3861270248889923 0.04593911841604112
0.7079618168418441 0.24620890148587873 0.3861270248889923 0.040033439294254056
0.6021786257961813 0.09875151602857962 0.38612702488899237 0.04305130017849092
0.72164691660177 0.2689381386432691 0.3861270248889923 0.04142806877484436
0.6958851625112251 0.2317224638453327 0.3861270248889923 0.04279354757844115
0.6179222550870094 0.13302556143939495 0.3861270248889923 0.04277699639558718
0.5892804763639552 0.0802193177224255 0.3861270248889923 0.04319836431543661
0.6558791314507788 0.18554067315494424 0.3861270248889923 0.04409088603616777
0.5982614089114731 0.0877975071448364 0.3861270248889923 0.04101757513527196
0.6781938273216132 0.22272675942550624 0.3861270248889923 0.04141777088607601
0.5678332348013921 0.07519344115030256 0.3861270248889923 0.04317089039898852
0.6438682556436166 0.16806280526441172 0.3861270248889923 0.041570409559603595
0.5925615150910346 0.11204700318299321 0.38612702488899225 0.042549073115038985
0.5527386334785785 0.06996635151890696 0.3861270248889923 0.03978195039836561
0.6632685837426213 0.19669382361222784 0.38612702488899237 0.044204622481822824
0.7684396920578909 0.33022576149463745 0.3861270248889923 0.04149788819354712
0.6220438413181433 0.1445551227457365 0.3861270248889923 0.04159035608233432
0.6859653981806626 0.21487360132779298 0.3861270248889923 0.04160851692660064
0.6338816400301129 0.15817834434638206 0.3861270248889923 0.040735091150588994
0.6060534880434911 0.1208376554550611 0.38612702488899225 0.04400999500658112
0.5770865146629208 0.08208331734817423 0.3861270248889923 0.04145115491741702
0.5329218201767167 0.08825689204506432 0.3861270248889923 0.044989876823504846
0.5221964624133583 0.04762654038165634 0.3861270248889923 0.038180712920044775
0.6125484587395889 0.1598844828675372 0.3861270248889923 0.04511627758931826
0.6838809510544821 0.24261847497543235 0.3861270248889923 0.0470044446547415
0.6106413873798877 0.17210909972493496 0.3861270248889923 0.04403356623904512
0.6221355655924442 0.17951551044629696 0.3861270248889923 0.042656123762350104
0.5743632602044325 0.1196794248486884 0.3861270248889923 0.0421562217704603
0.5722450775306999 0.09803943775509286 0.3861270248889923 0.042250009480792966
0.5066532413301985 0.058533617500889354 0.3861270248889923 0.04255222687644731
