x y z curv
0.6728218671610791 0.4309999942779541 0.6435038994160496 0.1015318419133764
0.6843829301794503 0.4309999942779541 0.6438937250629345 0.11337755048342246
0.6494218865834595 0.43099999427795405 0.6716701347411215 0.10986199813826615
0.72761677513694 0.5157238724931695 0.3870010432704448 0.18274298436718753
0.722808458610857 0.5171046753533456 0.46551753974064586 0.1906742845828121
0.7186547922893943 0.5163042172762239 0.42000114174343806 0.16526570684718647
0.7180415804146523 0.5173902406644395 0.48175561660894106 0.15746568672331535
0.7064192549775874 0.5184810961060283 0.543784846149019 0.13436725097324956
0.7417507477377758 0.5136188303945823 0.26730218785022697 0.15311614791841607
0.7357432459228196 0.514450658496034 0.3146023681673319 0.17666258709171798
0.7477894021054705 0.5124966490517823 0.20349167058160922 0.16765635623765282
0.7257681351374738 0.5164592205420313 0.428815088595729 0.14950124476334165
0.7330365189802249 0.5142382598672365 0.30252475664505035 0.1270019883585011
0.7134384018324613 0.5181692554528824 0.5260526783164904 0.15062646215895753
0.7096444920260785 0.5179616774423091 0.5142491802936507 0.13211358203884363
0.7137778601459024 0.5188526891229146 0.564914721782222 0.1900867611002619
0.7289313957317289 0.5160630030413405 0.4062850021926241 0.144677821017537
0.7193525025690214 0.517639476366701 0.4959278909058154 0.1318747743737346
0.7493001231483154 0.5119407543992214 0.1718818714419843 0.13070064784870464
0.7791810370770353 0.5101908111428392 0.07237494537135894 0.1697006179647526
0.7159201752597609 0.5186375639698245 0.5526820761220508 0.17897652089112978
0.7601731572056609 0.5117876630816621 0.1631766413492946 0.2082633950094989
0.7397313030458216 0.5149293642436765 0.3418229749008814 0.1560498328882806
0.7623184091948473 0.5121164176438884 0.18187058117910493 0.17422417084912098
0.7274254844990231 0.5167339699140862 0.4444381420190753 0.1608071897091803
0.7760151700996853 0.5093380348738011 0.023883603987182672 0.16250337101001774
0.7639325786554991 0.5111179775312433 0.1250963598079677 0.17042149367256224
0.768418951869112 0.511338899568902 0.13765862332359943 0.16712029118265154
0.7671994227654115 0.5108961646316219 0.11248342505727171 0.20735028880208495
0.7546166584216663 0.5138010053612024 0.2776611688063774 0.136034061771177
0.7687595578789409 0.5099841932690834 0.06062606924569315 0.18300796515862783
0.7558684214205158 0.5115821427310082 0.1514901623680545 0.21886457754705851
0.739132216710024 0.5147218598392729 0.33002367003520494 0.18552502513974836
0.7610992017968093 0.5132540433618861 0.2465593015114096 0.18909659373709228
0.7731692947148638 0.5104253854757769 0.08571353749611743 0.17161307771955936
0.7638211161828171 0.5106685057136691 0.09953808083596502 0.1614492178106123
0.7704512579381981 0.5097398411072065 0.046731489159831 0.1616288454863914
0.7500087230442092 0.5131501071396101 0.24064920495739203 0.15152381884699487
0.7776883170422723 0.510823647726443 0.10835988296998961 0.1582837055092644
0.760638821670212 0.5127129355061926 0.21579033064375214 0.16442650021231384
0.737488713049958 0.5151655846194266 0.3552551589084139 0.16497761004393524
0.7477833933244372 0.5133734453702641 0.2533488725709715 0.1865858068098547
0.7471081014197924 0.5140992729910043 0.29462155040394666 0.18459791810250636
0.7685965944095212 0.5115414714656417 0.14917745218285686 0.1912097595923747
0.7766409902945564 0.5095587016604779 0.03643136026975519 0.17220878698228395
0.7620932053268771 0.510274824894938 0.07715224383063626 0.1332236643133276
0.7413489108454556 0.5154302484321944 0.3703047085508951 0.1810873717944236
0.7831639409315891 0.5097393155245513 0.046701579673419216 0.15837656893637772
0.78917700292337 0.5088095749427273 0.012309165986769115 0.14946243752944974
0.788363298275004 0.5001201223764513 0.0013604954602500707 0.15451845307612014
0.7777982991037435 0.4910448799769013 0.0 0.15229424536118893
0.7861950464361211 0.46741635354384664 6.143188511487097e-05 0.14521141713246227
0.7802205936682258 0.45424127536615144 0.00020605797812359636 0.18489500207465298
0.7963555142382429 0.44416660827720833 0.005758861423982672 0.19011262200012785
0.7802909008725938 0.4411462865880158 0.012617941671471282 0.15713796604266014
0.7305658155748569 0.43191121201032073 0.5215198006328374 0.16423860961750167
0.7333745189273124 0.433095822074388 0.45412641621457767 0.16914944758797446
0.7407747695282474 0.4335286259748458 0.42953370232234955 0.15503413467183383
0.7446577211250431 0.43404662682070483 0.40007665913411217 0.13324682773124769
0.774264135660115 0.4382268910552388 0.16235037505589356 0.1738879019711589
0.7570100357847483 0.4356362546083917 0.3096816788273081 0.14421303960928575
0.7782904418488723 0.4384801150690613 0.14796030049621278 0.14558999912037152
0.7388371499111555 0.4328505886037781 0.4681062290984662 0.14355218273088974
0.719681307032643 0.4315941427831066 0.5395106859794224 0.15469918380708597
0.7403575923353156 0.43382927360246726 0.412424336554297 0.1449603229151248
0.7505393753266925 0.4345996024142709 0.3686388426964573 0.14045555334537274
0.7424526554347006 0.4332824670481494 0.4435484600030021 0.13003251090549742
0.7513596638961008 0.4348008430628375 0.3571917124575611 0.14684499816142843
0.7751741629487137 0.4379286545412975 0.179324850840515 0.1528332134129001
0.7255226827340142 0.43414766733149324 0.3943049858737853 0.1395511763047504
0.7137330224690884 0.43140586652909446 0.5502118111022402 0.12442269386787795
0.7049664155231571 0.43162287741644756 0.5378719274955749 0.12681765148641586
0.7053714969882721 0.4311273538656718 0.5660488504540879 0.13701504361256608
0.7305027203844284 0.4346627113086169 0.3650180791327917 0.15967820929805598
0.7142611935348 0.4323485177623839 0.496609897433691 0.15840378414501308
0.7624813082328055 0.4400555617972814 0.05836481100479135 0.1639244815109503
0.7551624919970276 0.4386587538392358 0.13779140199406018 0.1489527542476245
0.7319058344959061 0.43552038734789145 0.3162481050479221 0.0802120526322162
0.7408036157337236 0.4369443450834589 0.23527769951379335 0.13295564629326537
0.7375810946933142 0.43586960147230813 0.2963907707861594 0.13239764182470276
0.7148080227722078 0.4326087448572749 0.48181262200800956 0.14807495205723217
0.7088467492473068 0.4319875846233351 0.5171336094803529 0.1843914104319858
0.7497731266014517 0.4382477113777101 0.16116447712252824 0.11634158482379432
0.7185736683901496 0.43187850104344905 0.5233364306843015 0.1623039333182108
0.766581988358928 0.4383957722079579 0.1527452858720098 0.1514449570835447
0.789852516914804 0.44056865972509474 0.029188518128699777 0.1429304803024084
0.7690042972069158 0.4391875647307169 0.1077216480092219 0.195794700222145
0.768987293230532 0.43868354044271224 0.136381939878241 0.14962694755039446
0.7314005338205658 0.4336268895006875 0.423917937499201 0.18798045594540969
0.7638901285181965 0.4376240136493267 0.19662973456676275 0.16027518687266415
0.748096967622923 0.435776936744783 0.3016599463934707 0.19273333253658748
0.7575129661689748 0.43646500348532274 0.2625344463650187 0.14887589156725944
0.7229663775907383 0.4322167542135396 0.5041023603956938 0.1451484573721171
0.7306350525695513 0.43330599949578863 0.44216468098945216 0.20093216787639578
0.7733049217130876 0.4389718351495315 0.11998865363815837 0.17739818698579063
0.7787914225275794 0.4393704606845939 0.0973216323970826 0.1459134233043159
0.7352546461146747 0.4343877729865629 0.38065187504421927 0.13474087688000747
0.7554906497694461 0.43781291592033245 0.18588821560076818 0.15588733965811633
0.7473769433123261 0.4360724122090403 0.2848583505730481 0.16566596386627058
0.7238011953799655 0.4327801441774947 0.47206636145340725 0.171348919936595
0.7400752177707097 0.4348077935797686 0.35676826958470875 0.18778674114457192
0.7497317672996984 0.436303878822655 0.27169647914685713 0.13925700609436606
0.771416223046638 0.4401958490067436 0.050387657317811904 0.16755504862480808
0.7443711210003081 0.43525807488816587 0.33116395251645786 0.1290072125525555
0.7612310483098486 0.4381394195135534 0.16732225797012382 0.18753031377395268
0.730776651122974 0.43397232093617405 0.40427569919894685 0.18386696728136787
0.7752244041750198 0.4405092142866257 0.03256878606814938 0.18916253416967604
0.7604697580653519 0.4393326004031788 0.09947451209382903 0.16210873873871484
0.742278132145253 0.43504553385266925 0.3432496598626869 0.16659316504575616
0.7542002924453604 0.43710783838300893 0.22598098426707414 0.18822760630234758
0.7785791972903429 0.4399941211920069 0.06185847639580743 0.14367377816457985
0.7483525779119342 0.43547573234073433 0.3187873073003972 0.17060048677482997
0.7534582374167453 0.436774252142842 0.24494967270129264 0.18440004193756815
0.7767050891116484 0.4396448169985434 0.0817209355988053 0.1652493310066169
0.764159148748268 0.43741559941396746 0.2084807756811461 0.15487565199794354
0.819619835910566 0.5177841653740437 0.6818772912496791 0.2310188346617414
0.8117824944521628 0.49766187420221214 0.681212284260674 0.17699754906013765
0.7992728573307162 0.5100430925224757 0.6788412132554603 0.12880378455264674
0.7992860003018221 0.4745272051050774 0.6788446245092131 0.12160030240740777
0.7996259572043387 0.4953997145329767 0.6789328602095095 0.16605449784026513
0.7991951353723911 0.4548595180781577 0.6788210405471833 0.11971213611264017
0.7793049983540052 0.5101211689049197 0.6714461887992309 0.06700082265470514
0.7876535593194042 0.49372792211876193 0.6752069376413775 0.046011008505094424
0.7875440543253615 0.4514165746103601 0.6751576092863159 0.034428518379611237
0.7831131595465831 0.47086498420856765 0.6731616386659867 0.04635552725351605
0.776790439232953 0.45699042015180014 0.6703134636095605 0.08501106848677731
0.7855571109513408 0.43661833952708234 0.6742625574295673 0.0514749173902252
0.7762371084228528 0.49462545426134724 0.6700642064966241 0.07735106910382376
0.7687841197814672 0.5080464913074706 0.6651131581833942 0.09752306000355476
0.7624749550569087 0.49076803887514275 0.6608655900724609 0.14072942338281677
0.7644146408322037 0.47434900491006304 0.6621714598355857 0.11020440665542645
0.7645009171487129 0.4361683372863751 0.6622295443121735 0.14819385988618253
0.7634567855848363 0.45240518507773786 0.6615265954864633 0.1582647230097038
0.7741306138599006 0.44264636528556484 0.6687126200367912 0.09745033375485572
0.754684040232374 0.5008650514310637 0.6534734819658006 0.1544999027950881
0.757135308822994 0.4810023582815274 0.6558118844071854 0.13544833802888273
0.7509932812201494 0.5113895954106195 0.6499526601685587 0.13567664475149227
0.7541426856438399 0.4504086745758399 0.6529570534943033 0.14762793959534348
0.7475070962788273 0.49485781155967257 0.6454735029687467 0.07325227596125956
0.750130241440906 0.4699637580171128 0.6489991407575415 0.10034451114405184
0.7412327643323035 0.5178940386638055 0.6370404882313631 0.06973053301327442
0.748535730008851 0.45921211853752947 0.6468560379507325 0.09990993559809136
0.748941802346492 0.48167944525445383 0.6474018194039546 0.09974780084813138
0.7387202012881429 0.5032977233908139 0.6324471731417483 0.06193638540928939
0.7406445438701688 0.4876254990101065 0.636232071780087 0.06136454134529544
0.7345611581559361 0.5146566083610794 0.6242669474195127 0.1187338920100114
0.7384777638743538 0.476688427625722 0.6319703344302301 0.06215246252026158
0.739884297980711 0.45883075099525605 0.6347367800068401 0.057331472094002314
0.733514025605911 0.5016188013419632 0.6222073918082773 0.08889227599524388
0.7399919973472001 0.438457635667763 0.6349486088097688 0.06668019021586477
0.7337171279092729 0.43260586391125266 0.6226068641468403 0.12482392482790018
0.7328352076866352 0.4748162705779493 0.6203654395864733 0.11375252979527191
0.7324733483575767 0.4621169439993058 0.6192000603605473 0.13494288623693454
0.7304179546899021 0.48564282252337565 0.6125806011147693 0.15871750234371507
0.7309620021741265 0.44311442009223323 0.6143327229619022 0.1777281619618687
0.7289577466325745 0.4740914364170815 0.6078779556421032 0.16980307538314712
0.7291215018006207 0.45440931834901205 0.6084053342548793 0.18399066754791737
0.7298817329178284 0.43136214048456956 0.6108536822170596 0.17320395965802807
0.7281766821289064 0.5076999022096077 0.6045025336331072 0.15501320523595394
0.727358660211129 0.49552019188836993 0.5983307067911172 0.1862109703263523
0.7266206321434459 0.5079367603629938 0.5927624190236629 0.20492216539837724
0.7275043830109267 0.4826545186930806 0.5994301588568085 0.16576870256708015
0.7277832491701254 0.44359265832825007 0.6015341533944382 0.19810971845737896
0.727015754432672 0.4708045428047295 0.5957435449538098 0.18418788080198972
0.7262884161590185 0.49036802718731354 0.5879320580835242 0.15514564393937072
0.7263657387012312 0.4794148392408961 0.585872502818072 0.1883826644615764
0.7263083487262223 0.45788605052689857 0.5874011362777503 0.16458028979997022
0.7265268811193637 0.44402057234526104 0.5815803299761654 0.17663127525574956
0.7267597886603617 0.45427373231337825 0.5753766287177858 0.1576114480268769
0.7267709194600604 0.4880523585610707 0.5750801498841607 0.15364111331741778
0.7266759856674398 0.4682365619637316 0.577608796600445 0.1600953282074243
0.7459168055791087 0.4427819943605005 0.4179499047706234 0.14619209382228263
0.7671620650244333 0.45436449945033497 0.24492114185354166 0.18549346827322355
0.7556835255411798 0.4354616925924962 0.3384063493179908 0.14985015640404015
0.7666929433262439 0.46703953401246007 0.24874183170221714 0.18147522725721424
0.7471778817055346 0.4482224307574184 0.40767926332887966 0.18231978409894414
0.7846565895818656 0.45236345092118185 0.10243966499583157 0.19481420896248752
0.763037416020792 0.4471755120904507 0.27851371418262416 0.169123596748943
0.7815420724158231 0.46473696380889007 0.12780537322411906 0.16657580364630525
0.7701284657537585 0.4782986263665663 0.22076174526756842 0.20267614003728138
0.7745252665645181 0.4795546320188248 0.1849526742116726 0.2030194420801476
0.7715945972178703 0.4720080808775911 0.20882106202187953 0.20788570534820675
0.775000553772446 0.45143585575277256 0.1810817703128656 0.1949575403843896
0.7293630799352194 0.4332322105945674 0.5527691889126819 0.14585299006857413
0.7934835626788561 0.49728160211357864 0.03054973401121619 0.16052630323615086
0.773355215282743 0.4465706864005222 0.19448197774200238 0.1727329386329339
0.7917645021200925 0.48196936447916516 0.04455035954501573 0.17711894365067685
0.7887151030349012 0.4544061891934358 0.06938572353334513 0.20947660409167274
0.7920661147051558 0.46891359121318654 0.04209392202265895 0.16804174769225116
0.7771027625903103 0.4839755520995656 0.1639606524425689 0.1715340050989536
0.7950907389471331 0.46521387596012387 0.017460332951872926 0.18874677540172335
0.7898045606222777 0.4807354325693526 0.060512803008203664 0.18314294886879826
0.778980399434352 0.45290779011566873 0.1486685266312462 0.17510679160032122
0.7821719515115084 0.4507601334298066 0.12267541936338759 0.18342338091028082
0.7684171812979942 0.4391905573018498 0.2346990395210072 0.1281507089083574
0.7740660211579644 0.46081835431519624 0.18869292811517746 0.17255378500552748
0.7619951658484087 0.460696106939005 0.28700216114378096 0.17328903479233757
0.7908596799333674 0.4575218330847579 0.051919545317112556 0.1636254038350817
0.7868799602125307 0.4734402988458861 0.08433176329097318 0.19070247902858992
0.7643977710468749 0.4525126200302491 0.2674345109421605 0.16951852570495018
0.7881469780066136 0.44037173947810176 0.07401273084666261 0.10314477791496938
0.7836218490579254 0.48622907218075995 0.11086695077496289 0.17746301771112422
0.7831232304319371 0.47492547510440875 0.11492787383613957 0.1654845742188979
0.7488402853666593 0.4480363172285467 0.3941400712237666 0.14870300809514317
0.7773987652384574 0.45890601888615534 0.16154990419254675 0.172372877306305
0.7853947850294507 0.46658759083968604 0.09642754519021651 0.1777766424507188
0.7572664585894481 0.4366652044647359 0.32551439345238675 0.17026662423970046
0.7687298682373325 0.47061123195728216 0.2321524086157326 0.18738437044686626
0.7720667352349158 0.4527764197346644 0.20497580622607592 0.19131511825969946
0.7640637447461147 0.46840768281044587 0.27015493700949245 0.17847801699182667
0.7506558645463488 0.4483929502407852 0.3793533645587732 0.1164998878551644
0.7699785249303348 0.4642977425057379 0.2219829153481005 0.1829685719747473
0.7444958576841512 0.4474533903051133 0.4295225973549087 0.18190794724004503
0.7786491270278224 0.4787513363755214 0.15136652402863937 0.19474048089637924
0.7501372511558788 0.43527982235543317 0.3835771319180834 0.10725576625713855
0.7833011107028237 0.46268765069824935 0.11347915520325656 0.19210969428215102
0.7658463258006919 0.4452029835487322 0.25563697852248574 0.14812585672348258
0.7521239081255119 0.44749142444637846 0.36739710838479356 0.17621744299261216
0.7874594922250571 0.48571415684377495 0.07961185354092604 0.17099933726338423
0.7689589141647482 0.45497613216509597 0.23028697912667695 0.16128871136246237
0.7754987716897387 0.4670066888742927 0.1770241107623138 0.1593121379726445
0.7914141526897032 0.4970077638115062 0.047403726842552764 0.16971302805931687
0.7586087753916758 0.44649118733446147 0.3145820997644704 0.16553585903827361
0.7885621434110892 0.4654286276209616 0.07063147977146368 0.19115915825937105
0.7600454943710206 0.4508778981382065 0.30288096199793474 0.14767657874639828
0.7949181886054154 0.4809731602506608 0.018865642792647675 0.17432852454019168
0.7950029229345515 0.4452132382664484 0.018175537021768825 0.1752722889636499
0.7937514940656664 0.4513036316827942 0.028367607851460322 0.17924518149153246
0.7935580714940732 0.4737929485001843 0.02994290837293182 0.16379995566483554
0.7850370110979317 0.492593267900595 0.09934138020051682 0.1573043669828591
0.7419873676163325 0.4441507271390419 0.44995261066406456 0.17681780112585296
0.7544659664916212 0.4497411509149394 0.34832257258962374 0.16822168677289057
0.7868949954615387 0.45094188438810784 0.08420931100731419 0.15167178254239186
0.7536727088098011 0.46083421835061095 0.35478313833197495 0.16602690987155735
0.7377205340153454 0.4342311849130276 0.4847031836778636 0.1407736055785223
0.7805433201292755 0.47956565667231266 0.13593955831358187 0.1968633644704881
0.7915518860015178 0.44722497305392933 0.04628197897135831 0.13169080320785256
0.7888185608097072 0.48935572193287596 0.06854312752575584 0.17981211677260378
0.755493285378377 0.4598642380223068 0.33995573119829403 0.1432206853320561
0.7945560630091042 0.5044546761135272 0.021814919270612115 0.13988809219786585
0.7702076076876275 0.4509388761716743 0.2201171859037507 0.16580420878972194
0.7608723133315256 0.43676845039704115 0.29614706155954557 0.11761788140472941
0.7642398990567808 0.48416212515664403 0.26872027519538233 0.17437537792215294
0.745313006080883 0.49083493723345395 0.4228674573426135 0.15636123251365455
0.731872184888158 0.4505408148057125 0.532334167765804 0.17993861105864387
0.7435940197654896 0.47670259700635886 0.43686747821265104 0.20155701209909307
0.7354993164705974 0.5130170196905045 0.5027935499041069 0.14975460128406623
0.7756694404050147 0.49588762524662566 0.1756341255400174 0.18796730158113983
0.7491378514636258 0.5094688922629032 0.3917165897041975 0.17184810796787633
0.7517830723785093 0.4820129151360062 0.37017299294452655 0.15234412162835342
0.7564751408640544 0.49172078069343644 0.3319591595166283 0.15644447480370754
0.7643572482250593 0.5045092888333774 0.26776454286041945 0.18687106446931476
0.7729499973671295 0.4856571686969151 0.1977822130171169 0.1610682056377066
0.7432069172903647 0.5023548937597195 0.44002017505616947 0.15802752927194538
0.7469277399986246 0.46061148911689254 0.40971650416427524 0.1693304434039761
0.7297796725502697 0.45084651665533165 0.5493763141394624 0.17499613771489242
0.7694478396869598 0.49631743014640683 0.22630500006520307 0.19936648757588604
0.7406253990352597 0.46613690871519053 0.4610449552561105 0.1546424943593562
0.7317949758209734 0.4758987665730573 0.5329629851928317 0.2296681403634402
0.7499998961399961 0.4979974208052497 0.3846957988159783 0.1488981484656323
0.7485827889025158 0.46711440292748396 0.39623721175344107 0.16459047547615135
0.7301322232666432 0.49193748505012413 0.5465050188052423 0.16966219566441196
0.7279899596763113 0.4721077421158767 0.5639523566375424 0.14831206766771332
0.7406718904022962 0.48709790318020935 0.46066631343508047 0.1789718558199014
0.7369347123767724 0.4452824671833824 0.4911031877044417 0.17850635808909399
0.7488489475632178 0.489077424651128 0.3940695232900716 0.1989220646332838
0.7657442753221907 0.4969407535893447 0.2564681130207773 0.19877975668709785
0.7299969532777484 0.5073352353798255 0.5476067045200488 0.1622157204897369
0.7536204714872159 0.47543710348858803 0.35520857720827065 0.19384191940374418
0.7368113766180893 0.4735742755077065 0.49210767690841156 0.1963370242046088
0.727856069678092 0.44863233770451394 0.5650428032295685 0.15281086210962275
0.7466175722760195 0.4857516297642576 0.41224261769455717 0.20975894388385852
0.7327967349692003 0.48828207687019703 0.5248043111787702 0.1841423140626235
0.7676878756607546 0.4917227644549092 0.24063875762728654 0.1950396376319449
0.7615823504133384 0.506603457237514 0.29036427325293485 0.18241889273648143
0.7559013809244012 0.5083822436849864 0.33663205950286157 0.17460060448423323
0.7612024661973051 0.49033390913006636 0.2934581820903935 0.2091195967331901
0.7332273407311163 0.4576365496153412 0.5212973084763064 0.22178574378664884
0.7396377169213162 0.44855681551910037 0.46908898101963664 0.16222815752676545
0.7670536705575359 0.5029721964952624 0.24580394399406463 0.19687976145560676
0.749583190127609 0.4786808259346996 0.388089597136446 0.15643388639795167
0.7781255756504741 0.5116493422519988 0.1556305080660759 0.12944005496611755
0.7292638499442055 0.48285594659944076 0.5535773523824477 0.15283289281500548
0.7353855291821516 0.4806456999556513 0.5037202730540932 0.21016566604571907
0.77412776891327 0.492955003617627 0.18819003297563278 0.1849263417485204
0.7601868608650324 0.48250676821791644 0.30172962423057426 0.19761158227755657
0.7621348560511918 0.4796110726558097 0.28586447567369117 0.1762920838629324
0.732652616489307 0.5065726294051376 0.5259780620738148 0.17971530878514932
0.7715779498115083 0.4858421522482186 0.20895664427428853 0.17919587692311162
0.7823866365315536 0.5106958126927406 0.12092695008576688 0.16776626814850837
0.7775835345866987 0.4964717617495342 0.1600450785238628 0.20306269057152215
0.7474956961833201 0.49430604906831715 0.4050908719717443 0.17991991211757632
0.7626158787897084 0.4948705979703672 0.28194685962411126 0.17759016762262866
0.7923867244845461 0.5074546201158402 0.039482764759563346 0.14175932857580117
0.7470432221000469 0.472351209687773 0.40877597786947734 0.1876658202812314
0.7365921999598235 0.5009287715289782 0.49389272764585357 0.1660035434996029
0.744974124121589 0.5125288485444967 0.425627429577476 0.1102633230121824
0.7866990037703409 0.5005071491151994 0.0858055353300745 0.15841006320736822
0.7540483751671774 0.5104542818209681 0.3517235811985985 0.1613563958976225
0.7789816047110192 0.49192566038938407 0.14865871043995757 0.15426934178368315
0.7575061321421156 0.46685875186534775 0.32356240889655136 0.16172903035172154
0.7388961521292761 0.483293792341834 0.47512854193532156 0.18440246448582995
0.7726672876189425 0.4972649672632312 0.20008469927854883 0.1997715680080464
0.7580730725579014 0.48453421735694474 0.3189450494783926 0.17669045108830184
0.7380062608525387 0.5094856523060879 0.4823761251969349 0.16889445382462254
0.7804694723288338 0.5024446518030826 0.136541000418229 0.1620242904206818
0.7374225468509165 0.49045637133442566 0.48713009451691414 0.17199645349827666
0.7666924797299878 0.4788358751955289 0.24874560739094992 0.17702980633940138
0.7593291662463807 0.4936366799713265 0.3087149867396972 0.20793774059816433
0.7518686067353699 0.4963826387975766 0.3694763714703282 0.17637964076144608
0.7598018900578455 0.46917175232922476 0.3048649600309283 0.1573862921947941
0.7382049674268683 0.47225232051821997 0.48075778992415424 0.19819010527765543
0.7656910865512141 0.5129542976436298 0.2569013008228297 0.17351606237374098
0.7828510215335531 0.4985885245419991 0.11714483753402251 0.1665934212246782
0.741330458880829 0.47709319115288945 0.4553027032880739 0.19997012814677467
0.7284932489715332 0.49577570820303285 0.5598533940258702 0.1557904016181699
0.7268437297908897 0.505750541045015 0.573287650452311 0.16813358951763896
0.7377424927359499 0.4598442366719194 0.4845243442397647 0.17302636916119807
0.7393779108729213 0.49530132392376236 0.47120493160465293 0.15400236031769976
0.7454231903116119 0.4710997303487131 0.4219700787445757 0.18608959921792131
0.7348133144584788 0.49912383524952686 0.5083805882653453 0.16262400264142265
0.7414619970260008 0.5012119545771754 0.45423141100312736 0.14408710379332543
0.7447031994738788 0.4606653198874535 0.4278339338923651 0.18601784316731465
0.7535574896494444 0.4956605600691576 0.3557215231435215 0.16030970209650536
0.746675055734062 0.5095013781940516 0.4117744524712104 0.14246367511835575
0.7590862973921058 0.5064801922900026 0.3106929949402748 0.18478679778642682
0.7565699314631517 0.4772196814665182 0.3311871519946602 0.17648635181823114
0.730657605731586 0.43957075757675856 0.542226121755228 0.13238334896691273
0.7435061962245901 0.4885841846565751 0.43758274359578014 0.19015542804002988
0.7349028360908696 0.45793888893219226 0.507651493036042 0.1793926629751102
0.7687383127315489 0.5125449164706309 0.2320836337254332 0.16398645275430956
0.7576419154578984 0.5001033579576702 0.3224565424694957 0.1969777125704619
0.7341631634920271 0.4704665774433785 0.5136756432739209 0.2057500895033474
0.7524148944995795 0.46599374546034833 0.3650272144110235 0.16516885087540967
0.7343324308577758 0.44099070762217246 0.5122970711283056 0.20857175000472283
0.7902793699905497 0.5053175722691359 0.056645790801317264 0.17132077465053133
0.7407229478520145 0.5124527290645716 0.46025048385271194 0.1443751611778283
0.7545073162197258 0.48484684398059885 0.347985806059694 0.19495595999001067
0.751381033001103 0.5088916132876249 0.3734473411018441 0.16214993317956133
0.7428936772393462 0.466704768868396 0.44257131069484207 0.16559238660500844
0.7270475809737033 0.439049485077235 0.5716274157033677 0.16919689111722336
0.7303879164772136 0.4688180397981325 0.5444225645982161 0.17731534088824688
0.773967272361944 0.5121787264561138 0.18949717256599 0.1422188622880584
0.7813100628679888 0.4935992822363928 0.1296949394659452 0.18640595729779721
0.743111500669573 0.4555126146340782 0.4407972811159852 0.19196839810224733
0.7969946556297554 0.4590341169019059 0.001954172062422797 0.17593394540428584
0.7963603736055868 0.47018594447516737 0.007119962597936617 0.15097172064256592
0.7964555958292477 0.48316866912910317 0.0063443766052237935 0.13907296182767653
0.7959050037255733 0.4988306889803842 0.010828660809569433 0.13364608023799796
0.7146303710502477 0.4850995548775658 0.6007711413208306 0.22881241354361112
0.715214432415325 0.5103620252947071 0.6050592766237336 0.24878018329399668
0.7143156595012847 0.44153861550171125 0.5984605524272111 0.2507691375025967
0.7155338483149843 0.4312981303311381 0.6074044045118906 0.18782279020891054
0.71402616219815 0.4570410164834099 0.5963350846597905 0.21079218435901187
0.7169791329418741 0.48854455141424413 0.6130492659068951 0.26060264046495185
0.7198716980930562 0.49638864798250404 0.6221712177602028 0.24670017919912118
0.7175105691098882 0.4680894329974411 0.6147251953620185 0.250946125488597
0.7189949509897576 0.4552293891349611 0.6194063207066138 0.23990605051901323
0.7196506109516579 0.43346364181749913 0.6214740005312679 0.19588391665707772
0.7173559208383959 0.4425031684941867 0.6142374987975447 0.252496107272017
0.721412667795469 0.5172976478033232 0.6270307976479957 0.18392807577832768
0.7223212373640517 0.47738326794103614 0.6288824888824489 0.17488362593952952
0.7259495798386156 0.5076584051241483 0.635872925865061 0.1649448086679458
0.7236624725779613 0.4551213157632651 0.631466539397918 0.18764802981381593
0.7295211510420347 0.5181114526915007 0.6427539861843227 0.13447296546206214
0.7272985437039664 0.48075255185808763 0.6384718665545526 0.11332541346898772
0.7273137348305289 0.44188408744791297 0.6385011340819909 0.1275161748237709
0.7261837439141878 0.4680422513064165 0.6363240710437077 0.1220206787958558
0.7284657189896778 0.4930522941219816 0.6407205697405465 0.11128498368650284
0.7327276593591081 0.46440482792841087 0.6473746344591327 0.14361773320769214
0.7347917537296592 0.49787766193255767 0.6500872146379876 0.18210833293237066
0.7389643769793622 0.5121810064381976 0.6555707696936377 0.1590273327733656
0.7335736362708185 0.44774983556948467 0.6484863957406004 0.11030999852483042
0.7409346589150141 0.49031531256061406 0.6581600639631524 0.19172729826181134
0.7464298223659225 0.47716135706771234 0.6635247435180169 0.23164936248850765
0.742195279077288 0.5019921523375741 0.6595906109821275 0.2416790946844638
0.7441209042084106 0.46032402208368417 0.6613796266950164 0.20282064140097977
0.7526280692083446 0.5083764836682202 0.6692832687959837 0.20835842631768484
0.7418122547737276 0.44716274916178433 0.65923475953087 0.22300860368382538
0.7517350699948109 0.4404813572851292 0.668453621530382 0.20697940492371
0.7549752458480605 0.4859914147657501 0.6714639299337668 0.1875750954313909
0.7537591209342511 0.45724211624416433 0.6703340804399702 0.21013562478421693
0.7543989189081753 0.4712377763734176 0.6709284892944899 0.1648791468672693
0.7707213199402491 0.4956556036280613 0.6818374701296745 0.2202800004754282
0.7612038080581677 0.44471628533338925 0.6756434267511404 0.1425274770018076
0.7631720110781363 0.4613185442223786 0.6769243429227711 0.17284755211398536
0.7825670934433459 0.5050822681286545 0.6821736693382263 0.2536860500878282
0.7935940033135216 0.4848784861716599 0.6821736693382263 0.22300850310329284
0.8113891420042154 0.4448606704942466 0.6821736693382263 0.19968177076268517
0.7919175441789278 0.46538443826340015 0.6821736693382263 0.20409621471325348
0.805549400641496 0.48513639066324254 0.6821736693382263 0.17823852094746845
0.8175476786555453 0.47784069213786845 0.6821736693382263 0.2055976613404104
0.5837834473829693 0.49699533951718855 0.6821736693382263 0.19510560985857672
0.6320001381175173 0.5116533996286987 0.6821736693382263 0.2105636753090795
0.5903234065315965 0.4715011234706292 0.6821736693382263 0.18140432625374003
0.6028628345112992 0.4748182225780227 0.6821736693382263 0.21103018687496516
0.5827788111201664 0.5104258651897013 0.6821736693382263 0.22586532796901834
0.6323312220573434 0.4523211409751249 0.6821736693382262 0.23953291814569982
0.6148526275422188 0.47647707128432315 0.6821736693382263 0.20369085873758677
0.6212409797555207 0.46592855202908023 0.6821736693382263 0.22711817498151388
0.6242397344593285 0.4829885256943234 0.6821736693382263 0.20933578681254653
0.6333228641610721 0.4906970767299614 0.6821736693382263 0.20393596792205104
0.5907078712843915 0.4378876340603783 0.6821736693382263 0.22494236948693333
0.65624703380189 0.5166213649829328 0.6719246602380441 0.15132434902487654
0.6512457963424131 0.5029910344765078 0.6748830026031719 0.14968618428536296
0.6519542237812339 0.44193064795729786 0.6744639521337903 0.17697150781245483
0.6517475291935041 0.4908572480709612 0.6745862165454442 0.16436308798580263
0.6694168200796046 0.5183103587924718 0.6611381235001135 0.21574662409108286
0.6663014248756264 0.5071525338943375 0.6637644472762849 0.24712444210529766
0.662273333091012 0.4670133178861791 0.6671601876346913 0.19953703600548314
0.6644800311571522 0.4841321048861863 0.6652999088519111 0.20721507292493088
0.6727100544467062 0.4921554613764088 0.658361878705302 0.16950726810036015
0.6646841426063427 0.4376464207670908 0.6651278399114077 0.21327960802998264
0.6715828377177271 0.4557066107362554 0.6593121389138419 0.210397298521411
0.6722053541942252 0.4792129961825541 0.658787348408548 0.18107204956738518
0.6622642971468596 0.4506834720373429 0.6671678050679265 0.2077636647506355
0.6746818604499343 0.4428107710890398 0.6564747848349852 0.17757005655179098
0.6806717689714035 0.5140556147137992 0.6494222602065234 0.18497485739167926
0.6804086501769486 0.5001178787969615 0.6497320565534047 0.2008614852361434
0.6861578136897921 0.44823343872164306 0.6429629853527254 0.12240280909908649
0.6826774542336231 0.48114014021183027 0.6470607642574537 0.14512548751301133
0.6861964891295946 0.4645029279756754 0.6429174488489966 0.049330972508350515
0.6793641906289879 0.4523377547759742 0.6509618043298561 0.1716714724678526
0.6919076857001433 0.517187560881284 0.6342357245858624 0.1633679423003314
0.6945849951384827 0.48917610118298593 0.6297473254602599 0.17980603280921909
0.6906628680796081 0.502603439747095 0.6363226101133754 0.1429369874049145
0.6896786772812951 0.4736437328337254 0.6379725654959384 0.1303571769317689
0.6925830944014735 0.43303697719841383 0.6331034296852198 0.1717574036084678
0.6981551267845721 0.47843473272753567 0.6237621466351582 0.22477808519241177
0.6960598826272161 0.4559046330778475 0.6272747372640672 0.17411033607736495
0.6999139284226777 0.464927209606235 0.6200409393490809 0.19358384576596782
0.7008149692300443 0.5000272761428104 0.6177286400842616 0.25360693252862
0.7040235429635084 0.491841076852824 0.6094946260148095 0.2498584908723618
0.6993687888593593 0.44384762345160045 0.6214399057456967 0.2437292673572959
0.7048415282876197 0.5186568872680255 0.6073954681874263 0.15893570584927882
0.7034761355252648 0.4341036930126532 0.6108994123537397 0.1935918120747837
0.7034149915521047 0.47194970455221674 0.6110563232983165 0.2437355729646771
0.704486640258988 0.4534587817961727 0.6083062008878646 0.2579404874788029
0.7083779359532852 0.46633649840899444 0.5949807465739192 0.20931513571591334
0.7077750919917525 0.5019520410124751 0.5978756972670912 0.24127841821357246
0.7102839072453507 0.4806190593435008 0.5858279752678907 0.18145423750973372
0.6966545357847844 0.4878309806272982 0.5874340470459297 0.1643394879487809
0.6981990258118851 0.4973351057310248 0.5802830168960995 0.20412438490975723
0.6958788250187796 0.5093505437263242 0.5910256086474389 0.20097944975061924
0.6962485029508754 0.47344673477340915 0.589313989930738 0.1775541743573006
0.6944242590550578 0.4917219082786188 0.5977602879778187 0.191747837362611
0.6974314919094801 0.44532532565775473 0.5838367194003611 0.17584165291757367
0.6954695101271877 0.45839431804698527 0.5929207475471333 0.18256166346196961
0.6921679867035723 0.46089699875770385 0.6043202068339609 0.16198973755165813
0.6909016917700062 0.5094616388063127 0.6073678983066243 0.1734581149955814
0.6896873119432829 0.4963195226795012 0.6102906416141851 0.12802417161882942
0.69184014693296 0.479102522085656 0.6051092445587516 0.1897431699331597
0.6883354553136078 0.4536835229820694 0.6135442611409738 0.154031047132565
0.6918159676467139 0.44513628911100406 0.6051674387460252 0.1946085348179882
0.6874384865810298 0.4369269038897885 0.6157030662384761 0.14249199679914232
0.6831827956275441 0.4532213600981882 0.6236877488737648 0.09022975844271974
0.6787209715231933 0.5094962711657507 0.6305748118444284 0.060608793174021944
0.6831032205643077 0.4817058857665516 0.6238105772189855 0.11076028503544244
0.6823714971600239 0.4986695600539648 0.6249400312370176 0.08739797835286828
0.6856028680786541 0.46797239760588927 0.6199522382452505 0.10722097572412005
0.6796638706874939 0.4310624850045449 0.6291193968016903 0.07136109831342291
0.6760780322490842 0.48955827403573365 0.6346543292755796 0.05199179597793401
0.6763338389644223 0.47511432042014057 0.6342594779960022 0.05532752707645785
0.6770929105990224 0.4495954321767962 0.6330878105289595 0.0570356900037007
0.6675130330472707 0.5108365819489024 0.6446003894103078 0.08019670188333099
0.6704636114703213 0.4979656879247512 0.6414706780413405 0.05688906432053184
0.6677065770041122 0.4732864420754238 0.6443950951814239 0.07684637440282724
0.6709231581915751 0.4579360661602412 0.6409832317200213 0.05771801534588738
0.6605334563033664 0.48792599485465393 0.652003704135084 0.12375603483395431
0.6600470779963391 0.45863405828123505 0.6525196110180296 0.11885292695493467
0.6715483188952855 0.44255480589874524 0.6403201168044681 0.06748706997068445
0.6610891738138647 0.44668997384744225 0.6514142483873725 0.16175254102453843
0.6478883508866656 0.5080612868866476 0.6615417578662521 0.12856862232236718
0.6553769115597198 0.4973204240439836 0.6560383349371297 0.14028879869137184
0.6594974771959613 0.5162812551128124 0.6530100874015192 0.12309922894047276
0.6478323897671554 0.4451162384331374 0.6615828842884978 0.12705555072008437
0.6547086855695563 0.4363297285706297 0.6565294213283149 0.1488328373615236
0.6464483676886648 0.4608659732081657 0.662600016842232 0.10224644933732832
0.6481526425317716 0.4828454659945358 0.6613475271237699 0.10313153928639071
0.6518523327791355 0.4701732000197936 0.6586285853902459 0.10776142782080748
0.6412835188097961 0.5172970926828951 0.6660354973501443 0.07612894902090374
0.6375341689344745 0.49160520680326003 0.6678591112741227 0.08629616551075438
0.6317904825560653 0.5004714903721702 0.6706527333160595 0.07089584809181758
0.6270291209452732 0.46189740804684143 0.6729685708930451 0.057890455447503514
0.6322682989952587 0.4519806954303934 0.670420332302392 0.09425235982722198
0.6363373377602624 0.43539811453157407 0.6684412276587017 0.08507209728670774
0.6323438115548796 0.47214392896105006 0.6703836044002919 0.07077567930397188
0.6094965243651487 0.5105090359042005 0.6785420390184609 0.14646607630742797
0.6116312634060641 0.4988921412501682 0.677947513082765 0.10581497777645689
0.6216709260215496 0.4936022603254746 0.6751514618108578 0.041669898422103765
0.6152641630301153 0.4469581915837584 0.6769357486437019 0.08965750514143342
0.608205626617939 0.43299721300143507 0.6789015547139803 0.10803620527933665
0.5910811165486418 0.4582068419266693 0.6813723461502303 0.20986305242859862
0.7417834123907157 0.49506984319865366 0.22596218922168476 0.18507755481034058
0.7663080882957741 0.4602463401355079 0.026224744504096287 0.17518710959650788
0.7459963665926056 0.5105412496895676 0.19165043275830249 0.18802409565244646
0.7509140543099957 0.48829932194093717 0.1515990827468645 0.16181905130441157
0.711560786658823 0.5166748935679721 0.47210570849645395 0.15055155549128954
0.7568619822917886 0.4753329210397402 0.10315709961743678 0.16101478133928313
0.7644950515884632 0.4561364549145957 0.04099074265629967 0.19307840655867103
0.7207827930970994 0.4947890738032894 0.39699849777198887 0.18302273639942657
0.7587981201592756 0.5039934351895838 0.08738852303074075 0.17211744453534922
0.7665872109830653 0.48426478595289724 0.023951472778179182 0.1602021859691178
0.7148581844023265 0.5033524734927849 0.44525056056077505 0.1782358643630166
0.7537952011306062 0.5049421727488448 0.12813402632643558 0.15864425760252965
0.7360697657348038 0.4954776749039071 0.2724961041850879 0.1858671317748841
0.7396474346304533 0.4810727372107294 0.24335833102841042 0.19308733085115304
0.7495538998904864 0.49433296431258694 0.16267665087562846 0.18426763829230985
0.7505083136804138 0.47706051405472083 0.15490357479742395 0.15602951299833975
0.7522293192116574 0.5028001118849741 0.14088711038068066 0.18338476302913564
0.7236204361589392 0.5117682040378514 0.37388775101282035 0.1526269784073796
0.7645152688156588 0.49622464585977943 0.040826086564004965 0.17067461441584633
0.7610524951567815 0.5019025844236373 0.06902811316517499 0.16051393333387687
0.7523303715494019 0.47956099165668276 0.14006410518371176 0.1709836613964079
0.7321145390390876 0.5011409251270509 0.30470883867909165 0.18835979175033485
0.7394500297664546 0.4931128042113121 0.24496606453170267 0.18970520447670816
0.7339457883910748 0.49995267039667557 0.2897945104481032 0.2033723408822987
0.7491710771906738 0.4740218097543558 0.16579449137784297 0.179889617874637
0.7564267225518936 0.4629388374743531 0.10670200551432331 0.16217663737258584
0.7587898673711684 0.4803814572513933 0.08745573659208093 0.16395631163638208
0.7555740202037914 0.5108673312793761 0.11364670842391326 0.1593878779168318
0.7122888737647727 0.5040151059541895 0.4661759152287605 0.1914854960170779
0.7250384269522494 0.5113434427837098 0.3623391434477182 0.12998805286469703
0.7655172706492382 0.5056989111928658 0.03266543699553358 0.13307758562872674
0.7628531050260791 0.47724124753943126 0.05436332348073303 0.16204875541844468
0.7305188902613469 0.5049552059155098 0.3177043543289819 0.18848624277084094
0.735396296719668 0.4844621456960575 0.27798106882643353 0.18002183766827876
0.7632232067880763 0.4641679693479678 0.05134908669681075 0.1813858418878382
0.7254079492254899 0.49936194210745916 0.35932962622070047 0.18909721745108357
0.7383482837383192 0.4849543300056204 0.2539390653264702 0.164677430209768
0.767494365183282 0.4691570537897003 0.016563295147717115 0.16244521269479953
0.7161260045850574 0.5156863963551904 0.4349249943987449 0.16015050716638704
0.7476405736686589 0.4970874281617986 0.17825944152853798 0.17513532718335037
0.7085148636574862 0.5084786934261484 0.49691275913593197 0.1512340876772127
0.7457260034322282 0.4688919289645311 0.19385236386673535 0.21264535079007557
0.7297168437034842 0.49372417297657545 0.32423649895883155 0.18056734832870194
0.7225604551661191 0.5003014163006936 0.3825206029116474 0.2070142495568745
0.734036553797022 0.48516829753888047 0.28905528558238675 0.20125360945780602
0.7676997204496232 0.4536573795756807 0.014890810817359884 0.2312354664821192
0.7654274969876429 0.47515229073890874 0.03339658475216065 0.152773836464673
0.7353797220015117 0.5114106775871152 0.278116059065011 0.13280293237665355
0.7427106017861309 0.4714231356293159 0.2184108380304828 0.19841194505147133
0.719080502546216 0.5092716942210487 0.4108625409143571 0.18950850162705193
0.732569276184007 0.48717070210461866 0.3010053020576089 0.21386409139460832
0.7601932031503906 0.48621947307422625 0.07602648453151487 0.1687426356698575
0.7477425708556771 0.4767602256159245 0.1774287411522214 0.1849048589724797
0.7415586293123586 0.5111181834447324 0.22779290037401972 0.11910769973485609
0.7450011392027182 0.4786406843565851 0.19975590891377248 0.20288709651113535
0.7133357256792903 0.514377664319289 0.4576499910855461 0.16822439988238566
0.7548315475798357 0.4711418222585597 0.11969366232682278 0.16412283079112527
0.7569550209538286 0.48896327813619417 0.1023993605676827 0.17748315274076842
0.7400480397950291 0.5054046016292415 0.24009566398144164 0.17163395704863346
0.7536626313883216 0.4914539859860325 0.12921372016921326 0.18028446036705825
0.7660792942649818 0.44645462287239257 0.028088122240626564 0.18707917546705383
0.7579200921291082 0.457135526613778 0.09453948705631965 0.17016465391411015
0.7617036619668568 0.4696220255702144 0.06372478539713963 0.19500673047551892
0.744238171859074 0.4984890268837182 0.2059697789038351 0.17701680047030277
0.7438572408379742 0.4869541193627064 0.20907221292019776 0.20144060202324016
0.7268487212436049 0.5060930579519368 0.3475954804797763 0.15736039967486481
0.7282990641125158 0.5066198394922499 0.33578338641899885 0.16550656999218252
0.767516824079834 0.4937450470135294 0.016380382124691305 0.1910912375301593
0.7567928411680565 0.5023651083422068 0.10372020884801852 0.15763125483533555
0.7481777720749021 0.46468374832948955 0.17388431186791528 0.15796807238308608
0.7614024398469594 0.4812035027446234 0.06617804254735073 0.1633916045303721
0.7430351078853874 0.5077334630873149 0.2157679480974344 0.13519866783520978
0.7412792152977106 0.48434954998494184 0.2300685447707126 0.18963529566297763
0.7532985929690093 0.46460957550854887 0.13217857499273675 0.1534424657054192
0.7146872234377932 0.5161665386318199 0.446642925798731 0.1320481162867018
0.7211489840267586 0.5070654995318571 0.39401611215955235 0.18542171795312434
0.7173492821098622 0.5038284960628259 0.4249621990520972 0.22026330769193583
0.7100785560578702 0.5094920002232216 0.4841775072783279 0.1714305653289294
0.7594067483892639 0.4703666190991012 0.08243164417487099 0.17538773784494802
0.7552953475939294 0.48272773685579135 0.1159163145635452 0.1605878663222837
0.7672784805779505 0.5053082598258645 0.018321534057364357 0.145649766015209
0.7456600072106959 0.48912778878488855 0.19438985992584296 0.1714910632597264
0.7631370436313736 0.49522081952626273 0.0520508292525622 0.14326852252475192
0.7283090437565725 0.4942579648325451 0.33570210874541134 0.20772661815188304
0.7618242354628071 0.45682471858145257 0.06274279313452868 0.1836022341597024
0.7382803377154277 0.49880877606475393 0.25449244124236886 0.16434386053045755
0.760147966765798 0.4529722166020991 0.07639490529686162 0.16634092719430987
0.7692474140101769 0.4986290955351433 0.002285793955708276 0.13043155026827602
0.7693773194934189 0.45795181317500994 0.0012277065047853976 0.15530968861657418
0.76902075047662 0.46905610364015327 0.00413176174000219 0.15181422070364814
0.6989591137873934 0.4853450804308448 0.5747382620285777 0.1700324894126305
0.7203703505710302 0.48315847429190806 0.40035768958853396 0.20387774998626665
0.7457919317965831 0.45325170477324234 0.19331547473474905 0.1908282226715156
0.7242196483660589 0.48783863789041604 0.3690076671786983 0.18829145435028805
0.7282655857540813 0.44225203025109383 0.3360561434106218 0.15341841924457425
0.7053100856800117 0.4533901176411618 0.5230137341380732 0.17750810570809963
0.7323868514722953 0.4464922210682546 0.3024911194756703 0.17553617631104565
0.7475211245714888 0.4490415650564138 0.1792323262929143 0.16441833268507258
0.737883335148871 0.44938662581623195 0.2577258413362439 0.17057993144601438
0.7101236883614627 0.4710998139175682 0.4838100767514135 0.18079581887592652
0.7038518605826316 0.46470455985402287 0.5348900274039499 0.1736794023392618
0.7037741770309915 0.48477476950434484 0.5355227093149033 0.14672906025149807
0.7335908349843863 0.45771723726707914 0.2926854582628974 0.18542365290620993
0.7084773898232621 0.47608014017388767 0.4972181056476248 0.18374660774446644
0.7303785818468379 0.4565328997786141 0.3188471670239771 0.18058564902191862
0.7584844796187297 0.44717310717875597 0.08994294295087502 0.17776534449501527
0.7059643617767067 0.4840797546510957 0.5176850816445981 0.1652316338233648
0.7161951352555431 0.43792965949596574 0.43436209784072377 0.12849404398273995
0.7381848192670375 0.4606272372385328 0.2552704496352084 0.1592650745674952
0.7036474202310359 0.5077614357813758 0.5365550608581748 0.16558059214775622
0.7029035568115778 0.44244895820164937 0.5426133437221272 0.15531062215613398
0.7052801831773896 0.5065523149587189 0.523257270538017 0.14681846925290015
0.7278379593028934 0.482664591089499 0.3395388822221253 0.183951241723197
0.727230798696192 0.45261486478132323 0.34448380974917603 0.18777642069289882
0.7012614944106226 0.4643632595533346 0.5559868720406618 0.1483619630976901
0.7230266746950489 0.4345152291816555 0.37872366040967415 0.11916687722252323
0.7259449949258181 0.4349798953823375 0.35495584365310984 0.14680069039372806
0.714066448074234 0.49198570641761596 0.4516988679196066 0.18342332314594348
0.7457917897758093 0.44069908906288086 0.1933166314014139 0.15405872595485542
0.7046754858817184 0.44149657049911695 0.5281821360017763 0.1404905950850562
0.7038585422293472 0.45167889023756247 0.5348356097450879 0.18301534415020032
0.7442821484222544 0.4396666698651128 0.20561167657195958 0.18530611865825422
0.7645644388751504 0.44040312351187094 0.04042563639541996 0.14802043878770607
0.7440830032284943 0.45856708477120595 0.20723358441583986 0.18953790748353874
0.7397747798611352 0.4642615792377092 0.24232125658496056 0.1904516002074544
0.7099801510895396 0.4909009112815706 0.4849790943050166 0.17157733336632008
0.7541836472375114 0.4540129001750826 0.12497042035370697 0.17049825312544598
0.7167119692191724 0.4566069615646545 0.4301528219663371 0.1939576396579315
