x y z curv
0.06826245784759521 0.2318158029136359 0.451626362773871 0.03538121785875021
0.06826245784759521 0.15238996997967505 0.476293800371181 0.011277888969232201
0.06826245784759521 0.07242431018524709 0.36255423191198544 0.12460297091529478
0.06826245784759521 0.1256514676396175 0.44006562001018157 0.012502732805179113
0.06826245784759521 0.17896616891333916 0.3960758935120425 0.01099243199939562
0.06826245784759521 0.1843457038229795 0.477656788100505 0.01182346081547037
0.0682624578475952 0.06134272757676891 0.3601104158393146 0.15526150150979823
0.06826245784759521 0.2960375287468325 0.41204641007610243 0.015376414982192197
0.06826245784759521 0.14183258449134173 0.3998967765141687 0.012944732683729483
0.06826245784759521 0.20721123712435274 0.4441178484302496 0.01267289134802241
0.06826245784759521 0.21417442945841791 0.3777500447391143 0.06849334866222533
0.06826245784759521 0.13320382150880822 0.3904008285411834 0.026296534902948213
0.06826245784759521 0.23134187146357815 0.4048013517699286 0.03576634438233522
0.06826245784759521 0.13004466754108196 0.36389492648527955 0.10907557326675127
0.06826245784759521 0.06996658217876822 0.4200369078444685 0.08373415758377008
0.06826245784759521 0.11640825089887152 0.5128275886385261 0.011395318871577556
0.06826245784759521 0.11344798678302499 0.43632233215593386 0.011725057057189955
0.06826245784759521 0.21437492450296344 0.4365551269855028 0.011779014352976177
0.06826245784759521 0.05752849708131796 0.41192832793509726 0.11567016625094714
0.06826245784759521 0.18893117506027848 0.38472882237298744 0.04671192327948077
0.06826245784759521 0.08094765404241111 0.5008974416633398 0.037871646628458905
0.06826245784759521 0.0915524832432606 0.36039347866021054 0.12148555724095463
0.06826245784759521 0.20855422943159668 0.46002633465868703 0.011604019060654528
0.06826245784759521 0.2688902698168227 0.42916341319371 0.06033221988560478
0.06826245784759521 0.2965768975359126 0.3607535399744438 0.1536866674709006
0.06826245784759523 0.0629229846218742 0.38105927279654817 0.0945188972733829
0.06826245784759521 0.20634853240963405 0.3856565561843469 0.0592634761680149
0.06826245784759521 0.2652075305478329 0.37743321573449307 0.15303252091801453
0.06826245784759521 0.2913890640513895 0.3981442142445499 0.05821707317108649
0.06826245784759521 0.13320606689702896 0.5171741278164569 0.012061523981280515
0.06826245784759521 0.1163779877624723 0.49444604741638737 0.011650383040010105
0.06826245784759521 0.12168212462090829 0.42678980625980245 0.01245237895928139
0.06826245784759521 0.304142109266833 0.3801170785682042 0.10119609880583795
0.06826245784759521 0.21681759470873907 0.468160180619086 0.012956242752443496
0.06826245784759521 0.35263871057411156 0.38828018203005665 0.06871905715640708
0.06826245784759521 0.11295528110718811 0.462880235614762 0.011496390277151455
0.06826245784759521 0.17506716209827283 0.4320491939047041 0.010979428795690428
0.06826245784759521 0.06268260594259122 0.533674918354339 0.10478236719027947
0.06826245784759521 0.2048515279019239 0.4313702665848348 0.012174731011540119
0.06826245784759523 0.07438440080609882 0.3745503161312173 0.10422101848317336
0.06826245784759521 0.3343419568520382 0.45517421652547563 0.012392419944531705
0.06826245784759521 0.3825304992212942 0.4592459086098421 0.09574478311409576
0.06826245784759521 0.3278095184357499 0.5334834070732754 0.012136977213524426
0.06826245784759521 0.24473064692955032 0.49188623839565054 0.07748908073454842
0.06826245784759521 0.3878519320556222 0.49189575736695745 0.0853006723706207
0.06826245784759521 0.2901525417404639 0.4702035144885595 0.02810799004296796
0.06826245784759521 0.16487190928518342 0.568236497894864 0.1294688976711956
0.06826245784759521 0.3038492401891723 0.4909276110084444 0.011268442606208311
0.06826245784759521 0.3455829587667399 0.5135907370175377 0.011152573760472543
0.06826245784759521 0.3671699181183875 0.3822084048866332 0.10313498717224977
0.06826245784759521 0.22886451212800402 0.5170402460951651 0.019407845000087205
0.06826245784759521 0.11792312954003281 0.5552564274617682 0.09076713320274042
0.06826245784759521 0.35222922767254583 0.5678509091381979 0.11830305402619587
0.06826245784759521 0.2934858521397501 0.5086122172500758 0.01793456706024282
0.06826245784759521 0.33117114883010534 0.5151132964188089 0.05438117133811552
0.06826245784759521 0.30963263275118824 0.42541227532334736 0.011069451387992313
0.06826245784759521 0.23485129056070225 0.4733227936655318 0.04589436822857938
0.06826245784759521 0.33794867646379956 0.4733583977436564 0.04856913618234375
0.06826245784759521 0.21337176605631136 0.5294405605516597 0.011730704426215625
0.06826245784759521 0.2665153746565839 0.5350043543690781 0.10201553598650935
0.06826245784759521 0.27930320979885803 0.5035991436249998 0.053266866165497535
0.06826245784759521 0.3428031986158221 0.5401584816741244 0.0601868362202085
0.06826245784759521 0.20893133354707596 0.5408380746475429 0.010850482930494084
0.06826245784759521 0.2407699530489358 0.48276112238604274 0.07310919548069028
0.06826245784759521 0.3490637299492476 0.4514205657615593 0.011455756645108534
0.06826245784759521 0.3726876485606288 0.45375878300580286 0.0690071506400162
0.06826245784759523 0.38913716652714303 0.44884573723806714 0.1637961873906613
0.06826245784759521 0.27877793766488956 0.5178418871105185 0.06712702206722503
0.06826245784759521 0.26054564820732706 0.522362237475784 0.11392747835900559
0.06826245784759521 0.33392274065966543 0.4428020402532126 0.011624787458750075
0.06826245784759521 0.1577309448828676 0.5482563570681719 0.04088785790642371
0.06826245784759521 0.35730279089263295 0.49449229712113707 0.056258104992728805
0.06826245784759521 0.17132154460533322 0.5547813926820858 0.0546957540280654
0.06826245784759521 0.38094917321106664 0.39038784226891343 0.055927093388558335
0.06826245784759521 0.2836746482936892 0.538664810138539 0.029275799105993323
0.06826245784759521 0.21783487591862272 0.5509926641839626 0.03799961780549794
0.06826245784759521 0.2232278020001197 0.4774504387346168 0.01625850038899585
0.06826245784759521 0.31632035479083387 0.5541122032913066 0.08316597527259773
0.06826245784759521 0.1507780757252575 0.5232362031650867 0.012295227847626797
0.06826245784759521 0.12794095134381858 0.5700246306220396 0.12875991135678447
0.06826245784759521 0.3725826883593285 0.4761102675258088 0.06444764686875515
0.06826245784759521 0.29664993536244794 0.5370519553960917 0.049468832541516135
0.06826245784759521 0.34119086480600236 0.5647495157086455 0.1345755274783943
0.06826245784759521 0.31499425880148074 0.5287514953748066 0.012416203607361379
0.06826245784759521 0.16771224867189224 0.5080549609188179 0.012775050821519852
0.06826245784759523 0.209060183709597 0.4869682973342758 0.012249646322755312
0.06826245784759521 0.2219995925771597 0.5030691681730093 0.011774766659740334
0.06826245784759521 0.3693067696833863 0.44062827657397613 0.056029529915092746
0.06826245784759521 0.37077765477627767 0.5577333874479294 0.07602605531282385
0.06826245784759521 0.13681666355876448 0.5598423252388545 0.06829624226077166
0.06826245784759521 0.2939419490996002 0.4819117594332243 0.01932856807950011
0.06826245784759521 0.19188828418337037 0.5703445531496867 0.12676619968239636
0.06826245784759521 0.2622116438586268 0.48114936605469916 0.1261062526746025
0.06826245784759521 0.20336890085950152 0.5037670173011276 0.011257514356944507
0.06826245784759521 0.31513885948200887 0.5407856886450149 0.012711538096460716
0.06826245784759521 0.3818321435934644 0.5014973405557581 0.06057336814462163
0.06826245784759521 0.279724998473598 0.5607219083414479 0.12770008588883103
0.06826245784759521 0.34101269846346405 0.5534804908312981 0.03269864629320939
0.06826245784759521 0.24307580564959314 0.45578609868573267 0.04225004777019988
0.06826245784759521 0.3089590607453113 0.4993750431058165 0.05564425211133067
0.0682624578475952 0.15640796390763118 0.5097042987730172 0.011911717171789751
0.06826245784759521 0.19850829227109312 0.5614836548182127 0.09393205703929233
0.06826245784759521 0.23293192892465597 0.5653421808000845 0.12168721878404148
0.06826245784759521 0.37596427490527934 0.5234062161585414 0.025537274296921306
0.06826245784759521 0.4017139640901367 0.41521812272673003 0.2630077503529682
0.06826245784759521 0.32398823432819185 0.46965190046756733 0.012198757205952971
0.06826245784759521 0.21595746009194372 0.5188677336604562 0.011116356583447113
0.06826245784759521 0.23736623443437666 0.5259119173443152 0.04532106075433434
0.06826245784759521 0.39533641622228266 0.37677602443350994 0.202510181748925
0.06826245784759521 0.3215087194972626 0.4224156050979036 0.01098403130055058
0.06826245784759521 0.32244575811983667 0.44098345406714184 0.011343242351048735
0.06826245784759521 0.3392244994988593 0.4019137425387213 0.010258783760203118
0.06826245784759521 0.14907157739670043 0.55429473652264 0.06819446204476369
0.06826245784759521 0.20565156544839008 0.5541140674824375 0.065405847704614
0.06826245784759521 0.1874066122993131 0.5314516706719528 0.011704092928997305
0.06826245784759521 0.36224321069186216 0.5176049363103572 0.011387580124132442
0.06826245784759521 0.2272499987094927 0.5319017662533057 0.02054371933628026
0.06826245784759521 0.35879532751941834 0.4585577926558709 0.011925389172013358
0.06826245784759521 0.37253310571359555 0.4912854981056349 0.0565318179196857
0.06826245784759521 0.10903842299598131 0.545749207329434 0.022746565446572827
0.06826245784759521 0.33706999916135916 0.49154237065906814 0.05495995101775912
0.06826245784759521 0.36174809294524396 0.5323707753411642 0.01127194770665667
0.06826245784759521 0.3148070713775227 0.5123355490903365 0.012970302607155893
0.06826245784759521 0.3988248962525964 0.5523396644016818 0.1627225412634193
0.06826245784759521 0.24802651983683285 0.5451330468911804 0.09537746923477444
0.06826245784759521 0.30168743080516053 0.4334211396384798 0.05276630289798713
0.06826245784759521 0.3295133953201277 0.5549383421576561 0.04430190201789338
0.06826245784759521 0.3844375060897299 0.5406835033481292 0.10448443348683863
0.06826245784759521 0.3165591363454215 0.567740219021059 0.13580150867290502
0.06826245784759521 0.3960915556037691 0.426151427157469 0.1679504112049561
0.06826245784759521 0.3677960812705351 0.5451748347472245 0.03162621504578076
0.06826245784759521 0.3897575732257378 0.5252847549307637 0.13763528826985139
0.06826245784759521 0.37414176228620655 0.5358056305091614 0.024856606926264693
0.06826245784759521 0.22833431182511835 0.5552372121853767 0.04914527331336158
0.06826245784759521 0.3494375967513212 0.4686073634061647 0.01270436824298717
0.06826245784759521 0.32924661197401234 0.4822363787979089 0.011575168506018446
0.06826245784759521 0.26647662844377046 0.5701482887898847 0.1949790009080418
0.06826245784759521 0.1747212773678879 0.5220008695981591 0.012192777020680815
0.06826245784759521 0.25465483074620926 0.5099892138113824 0.0981150051674034
0.06826245784759521 0.19092970675647902 0.4956429358315397 0.01127889282308919
0.06826245784759521 0.29791582092371943 0.5542759253086493 0.045988355387900644
0.0682624578475952 0.27763833804911336 0.44048599896435575 0.07947509171452749
0.06826245784759521 0.24580564045895376 0.5194381960198258 0.08228968121457488
0.06826245784759521 0.2595027783941817 0.5470458317857617 0.10096612565205258
0.06826245784759521 0.1588286037585437 0.535576749803427 0.01142812699319994
0.06826245784759521 0.3980296856637311 0.4669294051604823 0.18684137930106337
0.06826245784759521 0.25780248496143354 0.49349588380281906 0.09713736733527599
0.06826245784759521 0.37431629025541735 0.42405884760258705 0.07829642229895342
0.06826245784759521 0.3166879488423009 0.487699637027471 0.05958212365898974
0.06826245784759521 0.3964184968500588 0.5040093304279873 0.16329377447986712
0.06826245784759521 0.2703918290953602 0.4613080101140119 0.0894563694123236
0.06826245784759521 0.2927110472315223 0.43801189229198056 0.02511981875454623
0.06826245784759521 0.07553769048853534 0.5696975629532725 0.13029015944846625
0.06826245784759521 0.39608048116352534 0.5142870933525158 0.16082440197755193
0.06826245784759521 0.3717626566026513 0.399341715900371 0.021761526468351444
0.06826245784759521 0.1897761508830121 0.513050510116956 0.011069174317507448
0.06826245784759521 0.38767821597748314 0.5655548365406424 0.16888087452046063
0.06826245784759521 0.39981609046866073 0.493339681307867 0.21413857103880726
0.06826245784759521 0.25680901473957957 0.46929191983684393 0.10979108970865674
0.0682624578475952 0.10243768721990748 0.5583539592752748 0.07509207054057712
0.06826245784759521 0.2333587157531476 0.4946884014332802 0.049391517770192475
0.06826245784759521 0.19719094897170453 0.5360504302905456 0.011488662265081358
0.06826245784759521 0.30520297247969547 0.5615191435636753 0.10840559897693221
0.37893331808339664 0.4054078087210655 0.4694854278018876 0.06814951654246679
0.5134522793228496 0.4054078087210655 0.5536698443974426 0.06608721238862657
0.5328534726991497 0.4054078087210656 0.4313474965988001 0.0448610580024908
0.18236250523882286 0.4054078087210655 0.5578695854896367 0.10720524984716437
0.6306362520070794 0.4054078087210655 0.4919055722779272 0.08240846696509369
0.42914964816970025 0.4054078087210655 0.5307013082999147 0.014369472924512818
0.6012871547748319 0.40540780872106547 0.41421508516040056 0.03937345139376874
0.5803871908483952 0.4054078087210656 0.5160967052913973 0.02229048777577707
0.5052613921309861 0.4054078087210655 0.5692334779623893 0.1396100335651424
0.5709599867210936 0.4054078087210655 0.42750050018943786 0.04418976895547104
0.5861731200035782 0.4054078087210655 0.4860505373780986 0.07538488847654701
0.7038936383101276 0.4054078087210655 0.46652669294565974 0.1451044005103397
0.503810946573822 0.4054078087210655 0.4649762267825456 0.06269496407940095
0.5239941991003856 0.4054078087210655 0.48364123385417157 0.08370545992945447
0.5992294869383197 0.4054078087210655 0.5593912786745802 0.08984655759188993
0.5996075264368453 0.4054078087210655 0.3999000256461155 0.04134513950806948
0.6625431778132476 0.4054078087210656 0.550186430092733 0.061184808317624226
0.6604568743974174 0.4054078087210655 0.5268571046021415 0.014104832457067359
0.2662708644497296 0.4054078087210655 0.5537174459557122 0.05900306117228778
0.643225736112939 0.4054078087210656 0.49031660401245125 0.07457260030663067
0.688131757292267 0.4054078087210655 0.5290492251408606 0.030103101283422272
0.630139658488053 0.4054078087210655 0.5609811277839218 0.09766085135504551
0.700563707458323 0.4054078087210655 0.5044246999367944 0.08756326819323389
0.5623917751099116 0.4054078087210655 0.4831737350924794 0.08830015602173732
0.5843463964783471 0.40540780872106547 0.444917818375921 0.041829582504161716
0.6242112062490024 0.4054078087210655 0.410452637376901 0.04153658795626948
0.6678388783882206 0.4054078087210655 0.4736978995330614 0.08935470365930204
0.3949992917876142 0.4054078087210655 0.4919848776211339 0.10498524702129446
0.40828445717676576 0.4054078087210655 0.5420201516391392 0.026230498234316897
0.10608813741602283 0.4054078087210655 0.5591717729242784 0.08161386614321724
0.6963760438558987 0.40540780872106547 0.5531904397845477 0.08702801353647459
0.4627380656182264 0.4054078087210655 0.47355549681358045 0.08765768060965967
0.7112681469831068 0.40540780872106547 0.4503650123050066 0.1800235872463692
0.3411871891893373 0.4054078087210655 0.5291096000040592 0.016660084470194157
0.45047080322757826 0.4054078087210655 0.4462822598064363 0.04754110999835856
0.47370560422124963 0.4054078087210655 0.5332088929754822 0.016491779061375486
0.7085431584924585 0.4054078087210656 0.3982754862343567 0.13453614673319866
0.6726687435325449 0.4054078087210656 0.43953094760861555 0.04747395109939062
0.48496756555726483 0.4054078087210655 0.5057995536868746 0.04017331298591542
0.5293338004184708 0.4054078087210655 0.46495908495428745 0.07390099112903022
0.2930586078744126 0.4054078087210655 0.5073565243444506 0.0483038160468812
0.7206467478848357 0.4054078087210656 0.4182796137963873 0.20953620577605586
0.4091890363480866 0.4054078087210655 0.5302283166725223 0.016820315966781383
0.43254739995086866 0.4054078087210655 0.4740181409413052 0.10573891084627252
0.6312445032703353 0.4054078087210655 0.47546130117497337 0.08470952167331763
0.5481193072830026 0.4054078087210656 0.5012383692580563 0.061269422596966924
0.5242124810890314 0.40540780872106547 0.5522854338780422 0.05791334960957983
0.5346324846803278 0.4054078087210655 0.48206946737818457 0.09398513406014984
0.2703079865704823 0.4054078087210655 0.5172479900901994 0.012299076960439356
0.44633816361728185 0.4054078087210655 0.4936520740434056 0.10242593202494767
0.6531089187779349 0.4054078087210655 0.45848376031648774 0.060328247870324564
0.6872513627472474 0.4054078087210656 0.4797796274132192 0.10635049831212821
0.7082349840690392 0.4054078087210655 0.37398602150099536 0.15354546712223197
0.6100503457562504 0.4054078087210655 0.46150705688124527 0.07336502064044156
0.5448797123572136 0.4054078087210655 0.45681643879805445 0.05246263228602184
0.4013200062978921 0.4054078087210655 0.47312697764095074 0.10371146236174353
0.3674865415677248 0.4054078087210655 0.48244759708464513 0.07453839192741236
0.6744394054340684 0.4054078087210655 0.40066427809606026 0.040765755560099926
0.3518045138530786 0.4054078087210655 0.5650086790410302 0.13004441885615786
0.3552565251535481 0.4054078087210655 0.4947180632468383 0.07354073091468981
0.6041856447535237 0.4054078087210655 0.4933009943690122 0.08452747279499073
0.6182036441649923 0.4054078087210656 0.4508663359116253 0.04158261140643932
0.2103588992973478 0.4054078087210655 0.5439355748278737 0.02208898986408122
0.6781592249033019 0.40540780872106547 0.5231934726344807 0.011952521375151405
0.7055558051203427 0.4054078087210655 0.5603191683250627 0.13852096005280962
0.46871016670013227 0.4054078087210655 0.4953159911224496 0.07192947970367079
0.3190817798217146 0.4054078087210655 0.5047543105656338 0.0549833762799893
0.2399632665293166 0.4054078087210655 0.5484697797030982 0.034348235623366676
0.6645363129979786 0.4054078087210655 0.46303262720333743 0.06355934942566423
0.2879057476764747 0.4054078087210655 0.5230850275349153 0.014497415909650898
0.5536745681959557 0.4054078087210655 0.42657415693211637 0.044505769528607984
0.4874762587303739 0.4054078087210655 0.47639529176299733 0.09144178663741317
0.3448378666454535 0.4054078087210655 0.51007827353272 0.04734532391284058
0.5063027949450811 0.4054078087210655 0.4782224435117568 0.088287880307226
0.682433315719397 0.40540780872106547 0.4972348277921858 0.08373917572628765
0.5724608252870551 0.4054078087210655 0.4562393796465102 0.055072129275771604
0.6620931689908595 0.4054078087210655 0.4039847946424617 0.041738930978657565
0.5433695948480746 0.4054078087210656 0.48824104730601015 0.08301386587258588
0.22622806820574065 0.4054078087210655 0.5410970273967461 0.021291224106169834
0.7051854080179282 0.4054078087210655 0.5421699525599726 0.08328744834174048
0.6677380894660548 0.40540780872106547 0.41355784074045204 0.04367010744256273
0.5819260524337133 0.4054078087210655 0.5701202035109552 0.1285464656161708
0.5512631044351447 0.4054078087210655 0.4688952629458415 0.091980697231716
0.5953348981444216 0.4054078087210655 0.47499938687746973 0.09827795856287064
0.5981634902836908 0.4054078087210655 0.5154485543429399 0.016974588321319616
0.47353058154248795 0.4054078087210655 0.4724380013022563 0.07924336661227879
0.30273345252827566 0.4054078087210655 0.5396861608419796 0.01863626143221778
0.5153132646773643 0.4054078087210655 0.5177652005307175 0.01802111396519241
0.6987306455954991 0.40540780872106547 0.4173464330013333 0.08184542570564403
0.7003360466466885 0.40540780872106547 0.44345528175159127 0.10643805482136516
0.30983045991399166 0.4054078087210655 0.5310477742973575 0.016636659327694623
0.5384588212943996 0.4054078087210655 0.44694848652965263 0.04363713824760603
0.39946445771275585 0.4054078087210655 0.5347953011336244 0.01789142330992832
0.6371472654510308 0.4054078087210655 0.540755006447094 0.028065440294951748
0.6170260969049122 0.40540780872106547 0.5333292729703509 0.019466284896590445
0.6723472324754646 0.4054078087210655 0.5449558625438065 0.023040916711594726
0.5133966193054174 0.4054078087210655 0.48961483845336085 0.09695924497097841
0.6152481799439414 0.4054078087210655 0.43976054349069515 0.04319473968915972
0.5791387527438688 0.4054078087210655 0.41961521427279524 0.04508241481291583
0.4907366161389155 0.4054078087210655 0.562417955694866 0.11546533968422297
0.5546194881570069 0.4054078087210656 0.5557736256758974 0.07746975894691256
0.7198213556785048 0.4054078087210655 0.5165725502511079 0.10260338939074398
0.6961122262555733 0.40540780872106547 0.37561496290107255 0.11825302777368167
0.621908772760977 0.4054078087210655 0.4613907424325139 0.0651266062945165
0.3407116728045006 0.4054078087210655 0.5632912570513373 0.12669773328248432
0.6370810466585081 0.4054078087210655 0.44217900146730954 0.04512045303098278
0.28585434514624763 0.4054078087210655 0.5343240770198323 0.018854364643935334
0.6821292075731514 0.4054078087210655 0.3821108991017514 0.09131535456367304
0.45952259284802127 0.4054078087210655 0.4873385413729419 0.11090469312774066
0.5720630725810159 0.40540780872106547 0.5222146934297169 0.013796254337275639
0.6438705399053011 0.4054078087210655 0.45195398678401405 0.04650141100681273
0.6428602111341292 0.4054078087210655 0.526425327015561 0.016601017909899485
0.6783484045715512 0.4054078087210655 0.5673654689428078 0.13212968523225097
0.3025555284409676 0.4054078087210655 0.5009674856824937 0.07160432191473122
0.47026883266992753 0.4054078087210655 0.4426341082478512 0.042351994540472136
0.3419919229468924 0.4054078087210655 0.5402387993372351 0.019277134491692702
0.3256802617369374 0.4054078087210655 0.4885911711070133 0.10411921797261078
0.6698248187839129 0.40540780872106547 0.5137843291570197 0.017131860869392824
0.41182601775044253 0.4054078087210655 0.47646522278219094 0.09107334926134486
0.4053182733912049 0.4054078087210655 0.4897890504117464 0.08781897198136063
0.605494105842074 0.4054078087210655 0.44179029865569786 0.039699471712501905
0.6088194212970996 0.40540780872106547 0.5049196554667394 0.06992103435126647
0.41601066315278196 0.4054078087210655 0.5674395099075126 0.12674002419318298
0.20020352591658325 0.4054078087210655 0.5493111338381081 0.04775834515057061
0.384841628889209 0.4054078087210655 0.4990759989156086 0.07136140452009279
0.5545922818505682 0.4054078087210655 0.5399755812800664 0.021476180363654788
0.6645414341767995 0.4054078087210656 0.5031587101896204 0.049557168132627595
0.6085759822882814 0.4054078087210655 0.5452250656289417 0.03614950792831875
0.527041083745352 0.4054078087210655 0.4414645669576049 0.04644090439476562
0.4457963825974625 0.4054078087210655 0.5061664830813061 0.05402526877439769
0.3407808081216697 0.4054078087210655 0.49732592924303737 0.07298657018993714
0.4776688477127746 0.4054078087210655 0.5187172379792735 0.012728113926177459
0.4581090293164874 0.4054078087210655 0.5184445701065921 0.014846586918912632
0.27742926107317134 0.4054078087210655 0.5582824878806449 0.08225441776282491
0.48479232315759563 0.4054078087210655 0.5473583836203936 0.03740197878315084
0.5639093490185945 0.4054078087210655 0.5008057563173345 0.0647376668713696
0.40257076785732276 0.4054078087210655 0.5066876357817152 0.05530994676908145
0.17754831192109416 0.4054078087210655 0.5474891132965759 0.03724746224718276
0.27685430132602473 0.4054078087210655 0.5475712177628953 0.054091591024134446
0.616828529656294 0.40540780872106547 0.3989826251907186 0.04627552541159045
0.4677995895514842 0.4054078087210655 0.45372914392896513 0.04798671526733094
0.7202236022745948 0.4054078087210656 0.5368541482103844 0.11055319426808631
0.3297849124697831 0.4054078087210655 0.499419010519739 0.07130509205158642
0.5868101532700993 0.4054078087210655 0.4076274678385662 0.04253785035707878
0.3626583320469982 0.4054078087210655 0.5031257300122403 0.0548881604798235
0.562644855895052 0.4054078087210655 0.5665908748694448 0.09878285038655366
0.4834888540900707 0.4054078087210655 0.569230036380746 0.13989053639360072
0.5624808607621513 0.40540780872106547 0.46332766137942916 0.0713520793484124
0.2981748354429921 0.4054078087210655 0.517477065239829 0.021344681973829
0.24760562584109164 0.4054078087210655 0.5328769409232315 0.015965473382045108
0.5144889517293877 0.4054078087210655 0.5294164046559643 0.015649231799831582
0.6814343366628657 0.4054078087210655 0.43207597997504804 0.046436925485505466
0.4881371311642721 0.4054078087210655 0.49191842572633326 0.10810201513502576
0.720652466792022 0.4054078087210655 0.3693565899176064 0.22697821615510427
0.6248933064533113 0.4054078087210655 0.42411599067341854 0.03985664549438838
0.372776704305435 0.4054078087210655 0.5490357566617565 0.050717556881375095
0.5593586654468398 0.4054078087210655 0.41464541959852064 0.04407845582170675
0.6234963239533158 0.4054078087210656 0.542861214684121 0.03202345203589747
0.6057194846249861 0.4054078087210655 0.5251800265283247 0.01381506246761081
0.6872660446739433 0.4054078087210655 0.41996217366632055 0.05143066519633417
0.5737969193743782 0.4054078087210655 0.44532869049188273 0.04269104913478555
0.35475260086058225 0.4054078087210655 0.5365876398829336 0.019192634903221498
0.5763354814918381 0.4054078087210655 0.471128173150694 0.08654931681983707
0.5339073887216989 0.4054078087210655 0.5226435658770344 0.011116134873161907
0.6534321545937584 0.4054078087210655 0.415475951617942 0.041273618634681146
0.4741367333887313 0.4054078087210656 0.5080415794761788 0.049898123461767974
0.6523542607742658 0.4054078087210655 0.44467444710939713 0.04411409782009051
0.43633553412426707 0.4054078087210655 0.5480015077081561 0.043323975135427274
0.6562359157951078 0.4054078087210656 0.48073652256787813 0.096216134153711
0.38587843163667396 0.4054078087210655 0.5700534052005826 0.15964232784092325
0.540967958858767 0.4054078087210655 0.47045135962854734 0.08305038840634923
0.4527504406988224 0.4054078087210655 0.4597269991152261 0.06724318980988327
0.19023500879885782 0.4054078087210655 0.5327449700080682 0.02115717342555921
0.7022911393594884 0.4054078087210655 0.4546631774492166 0.1255690142268961
0.6552965086042881 0.4054078087210655 0.539527694702141 0.018604902507046116
0.6855017906506775 0.4054078087210655 0.40409575167981154 0.04887381265559285
0.6114987218759199 0.4054078087210655 0.48226269072878236 0.11470629904176591
0.48279602529175036 0.4054078087210655 0.44856580284001935 0.04433377378912941
0.5127066181451678 0.4054078087210655 0.540035603850762 0.018119786459851628
0.6288041583367681 0.4054078087210655 0.45023032661682216 0.04671199770935033
0.6551125366619529 0.4054078087210656 0.5135865418386801 0.026097898432440765
0.7122602850282266 0.4054078087210655 0.5009111807356516 0.1539683061769722
0.6103037887554321 0.40540780872106547 0.40769660403513797 0.04252171822809549
0.620718534383673 0.4054078087210655 0.5027880236188625 0.06792040458314187
0.401939915522135 0.4054078087210655 0.5216038740780824 0.01182310973640497
0.709435578444389 0.4054078087210655 0.5319625881497879 0.10148294013077729
0.7168556448021267 0.40540780872106547 0.4320557365302965 0.1736169624414201
0.3845268128234468 0.4054078087210655 0.479619627310341 0.1026630439174327
0.5018578634438196 0.4054078087210655 0.5020347984212358 0.05183947745303325
0.41902380157956665 0.4054078087210655 0.4652155383756422 0.07339894455940067
0.441421406230479 0.4054078087210655 0.467105645117996 0.0721632674396665
0.5145247297048741 0.4054078087210655 0.44296987945025695 0.04437240076732639
0.5758987045174356 0.4054078087210655 0.40662794850740946 0.047614020407279585
0.46143080758512145 0.4054078087210655 0.545260602517829 0.031179066820220997
0.3345761394086717 0.4054078087210655 0.5509980408165747 0.05582075923858197
0.5267489286431 0.4054078087210656 0.5670045391119387 0.10495486502329325
0.4389570723232852 0.4054078087210655 0.5362491579030371 0.015977626638119274
0.5240357626541307 0.4054078087210655 0.4973302626659787 0.07063232945006621
0.6893876960105901 0.4054078087210655 0.5692543500046199 0.1339392156891022
0.3840880636909407 0.4054078087210655 0.5280721846875046 0.01658643617564064
0.6645382577488349 0.40540780872106547 0.3931082911734869 0.05044903150215085
0.49192884542707643 0.4054078087210655 0.4550281668169416 0.04739350369303573
0.6268761272877593 0.4054078087210655 0.4002117276066826 0.04223110726585678
0.6652014940868376 0.40540780872106547 0.37985212176697813 0.08139739023046516
0.6979937385864612 0.4054078087210656 0.520903631398234 0.06055922991791095
0.4508114898186415 0.4054078087210655 0.4726197407217452 0.0925070464785101
0.7187761288162412 0.4054078087210656 0.4044181417780134 0.19166903148486722
0.25886528471312065 0.4054078087210655 0.5334893372551418 0.016418327549121925
0.35615819209376454 0.4054078087210655 0.47799460817744055 0.09116626521132702
0.4302812912478923 0.4054078087210655 0.5148127897571058 0.023501180711790904
0.6824622133035501 0.4054078087210655 0.4431556051214267 0.045657859347723456
0.3610128544103294 0.4054078087210655 0.5466650222458411 0.04919743983448089
0.48729712223297106 0.4054078087210655 0.5367604937778451 0.018684850280362156
0.38197959605556253 0.4054078087210655 0.5429037370135351 0.030175090551477886
0.5140168671191238 0.4054078087210655 0.4568438782714014 0.058033524431657865
0.29530971520020927 0.4054078087210655 0.5523365712578057 0.052791119380807
0.5841181194549092 0.4054078087210655 0.4630318395653284 0.06861926235590089
0.49266571716499385 0.4054078087210655 0.4429260982342742 0.04410827845160039
0.5024816214654024 0.4054078087210655 0.53126849127232 0.01695731067621833
0.588873656848901 0.4054078087210655 0.5298135704947625 0.014719823038635173
0.4346435742461591 0.4054078087210655 0.4523646162818533 0.051787157211085344
0.55876083430395 0.40540780872106547 0.4449304897764709 0.0428859706276856
0.37373036261603765 0.4054078087210655 0.5168919134949838 0.014916027194409646
0.5636631044936458 0.4054078087210655 0.5118785549677194 0.02942722060549475
0.6693496072746844 0.4054078087210655 0.4867303861187918 0.08510723488753896
0.7192781617628944 0.4054078087210655 0.38217187718482964 0.20582620836142082
0.6505748276439945 0.4054078087210655 0.40193894302408517 0.04040863765423659
0.6501110076305006 0.4054078087210656 0.5037187813829377 0.06170933629746493
0.6400092149052359 0.4054078087210655 0.41816904876693906 0.0410062338460448
0.43809941603105584 0.4054078087210655 0.48598788855311925 0.110200074710184
0.701368856455177 0.4054078087210655 0.43225218995210124 0.10932538719272646
0.18882196534351858 0.4054078087210655 0.5465072284310936 0.030058533273902625
0.6840328190950558 0.4054078087210655 0.5564252944766899 0.08908808557327096
0.5181442380913956 0.4054078087210655 0.43165684268428023 0.04525880220885812
0.29088997150144974 0.4054078087210655 0.5621930583046952 0.11229970969530112
0.5969912262153069 0.4054078087210655 0.45852645258800867 0.05116039617601551
0.4818223636758181 0.4054078087210655 0.43847332961387053 0.040580748545000905
0.2529156300265106 0.4054078087210655 0.5197002395882714 0.012755618958700083
0.6838231749432712 0.4054078087210655 0.46280255343014753 0.07268565362046832
0.5464544533225542 0.4054078087210655 0.4373143793856009 0.0428507881918478
0.37643560581164137 0.4054078087210655 0.48880329709568215 0.07869073948779726
0.6824704718678938 0.40540780872106547 0.5373765280447451 0.021341322320670247
0.671326882172464 0.4054078087210655 0.42477655240697376 0.04364444436338841
0.7184733909209419 0.4054078087210655 0.4602430680813473 0.2247680499593769
0.6560710979298304 0.4054078087210655 0.43332959979775126 0.043700639026784546
0.5264225482245293 0.4054078087210655 0.451741930773128 0.0466624835269752
0.566371609857241 0.4054078087210655 0.5498406359784405 0.05233636129029591
0.5786530670905313 0.4054078087210655 0.5501981922782336 0.049472511915844675
0.6553908783008586 0.4054078087210655 0.4698103869867436 0.08253530119117733
0.70559627970647 0.4054078087210655 0.3838407336370853 0.127890016248602
0.55195605920587 0.4054078087210655 0.5240600063544983 0.011209556779041526
0.649271382077077 0.4054078087210656 0.3874439484479332 0.04782403922952528
0.5430897302168338 0.4054078087210655 0.42024970186546073 0.04190635867748816
0.42137924440487656 0.4054078087210655 0.5405977817656444 0.01839742238249925
0.32192482936218064 0.4054078087210655 0.5161516983046768 0.02166101157569879
0.7151217322078144 0.4054078087210655 0.5470738697759393 0.13469425424294104
0.42525366413665516 0.4054078087210655 0.5024885890358108 0.06928158417789919
0.5370342068852821 0.4054078087210655 0.5614459192184744 0.08376547187866844
0.713891669440484 0.4054078087210655 0.47759850450413566 0.20074672835252416
0.4035365538624195 0.4054078087210655 0.5658701338154863 0.12271111445178953
0.6274546360160185 0.40540780872106547 0.5122212133769841 0.03187807080435139
0.15272771600555796 0.4054078087210655 0.5576060431493715 0.10044274929179953
0.26814658850099926 0.4054078087210655 0.565924785141044 0.12282101617430706
0.6953549171316417 0.40540780872106547 0.49275575998438054 0.10111179620195121
0.5934908071891254 0.4054078087210655 0.50212732776438 0.056195715875381504
0.6830790735996528 0.4054078087210655 0.5113815622616584 0.0215652403592118
0.6047701824576398 0.4054078087210655 0.43018080754109644 0.04104056969550995
0.45389267267792777 0.4054078087210655 0.5601140575817999 0.0876926282655507
0.5897819807305844 0.4054078087210655 0.42939071964242537 0.04444589456090146
0.6380468060240515 0.4054078087210656 0.5167854493377338 0.019724364927855162
0.5023215351434304 0.4054078087210655 0.5424771310499699 0.022897591832014206
0.32154222014038714 0.4054078087210655 0.53641431641014 0.01983676984921545
0.6920009126350066 0.40540780872106547 0.38612408526943115 0.07667455826911145
0.4203058826376633 0.4054078087210655 0.48855667133946945 0.11422758323364142
0.49073365922849954 0.4054078087210655 0.5157889423192967 0.02766717543840623
0.24110364687070018 0.4054078087210655 0.5630730980846588 0.09716153591667814
0.6667029592307298 0.4054078087210655 0.4479402546549795 0.04419659830536208
0.7095003438465515 0.4054078087210655 0.42333847945467085 0.13927717662653233
0.4846592655115201 0.4054078087210655 0.46615300559878103 0.07213311664477774
0.2375711595869036 0.40540780872106547 0.43821225415221876 0.04270352824535544
0.12915736680997372 0.4054078087210655 0.39672244263052353 0.047026256407426185
0.599731146841047 0.4054078087210655 0.37256580189444033 0.12488093393286678
0.39755658965731006 0.4054078087210655 0.3891026811315087 0.04852686746866685
0.5582660412326425 0.4054078087210655 0.3999033900304214 0.04509495314452693
0.181343404933345 0.4054078087210656 0.43372927262041727 0.038532906535684405
0.13691586963509744 0.4054078087210655 0.45008457643637423 0.047658957049381834
0.44343271039954135 0.4054078087210655 0.3906617258123612 0.06953138706006888
0.38698226758614757 0.4054078087210655 0.4332000481118251 0.04014022117970467
0.4445402437134731 0.4054078087210655 0.40379070502389 0.04700525789345225
0.26926088621276717 0.4054078087210655 0.4491068600611826 0.043231841149702355
0.18119493201605266 0.4054078087210655 0.47197490480080034 0.08741301309489338
0.4168945981351821 0.4054078087210655 0.425855715982004 0.04288258101876176
0.08708956737407751 0.4054078087210656 0.4334122880434098 0.13054165159031386
0.2997315412557705 0.4054078087210655 0.45844070915344065 0.05407181983679434
0.22334080314951907 0.4054078087210656 0.43687210010770666 0.03903934417124898
0.3053729677627661 0.4054078087210655 0.3877053486803633 0.06750376455621127
0.34308624190399717 0.4054078087210655 0.4566591902698067 0.05478178058337145
0.17317242301631242 0.4054078087210655 0.4950827982883807 0.09569723395646551
0.5379020824593932 0.4054078087210655 0.3643907156105684 0.1742280522257226
0.21127595330487353 0.4054078087210656 0.4010325123840557 0.042971435073316445
0.1359871467063767 0.4054078087210656 0.4864122698250269 0.10216692441064047
0.09669460342574326 0.4054078087210656 0.5002012114404816 0.10500907183019659
0.3284503892122828 0.4054078087210655 0.46306316789250657 0.0646665385443423
0.473140524394515 0.4054078087210655 0.4210564376682608 0.04441023687725172
0.444670096941551 0.4054078087210655 0.4350603593701763 0.04473012405371472
0.0812971464499105 0.4054078087210655 0.4722871314676751 0.21323164160361974
0.3077007186615526 0.4054078087210656 0.41111522712927295 0.044211455936971705
0.0951058667915374 0.4054078087210656 0.38346128759953935 0.1012059412266485
0.07229752996584164 0.4054078087210655 0.5186588352167211 0.20999198558615612
0.2877689199132637 0.4054078087210655 0.3972235125663807 0.04664003920542236
0.09341467059981963 0.40540780872106547 0.4243402600074207 0.10031453783137592
0.11960874319922778 0.4054078087210656 0.42825138163017584 0.04444256735531347
0.11205274646398233 0.4054078087210655 0.4721948674201034 0.0831896113073689
0.3591405135785677 0.4054078087210655 0.37952311668343075 0.09018234183748933
0.4885248015316421 0.4054078087210655 0.3998780022405865 0.04535226483274409
0.10299519724407372 0.40540780872106547 0.3995533611941154 0.046978882402855957
0.23157933845616022 0.4054078087210655 0.4297433534703362 0.042614423091148386
0.16824238390316623 0.40540780872106547 0.4248523796451674 0.04338845658163012
0.2490223173068597 0.4054078087210656 0.37672682832387483 0.12418815551886024
0.13333291670297776 0.4054078087210655 0.5344014481640482 0.013922574459528657
0.4493218156069735 0.4054078087210655 0.42136678206921335 0.042552487249919765
0.5904901815648814 0.40540780872106547 0.38122216203026976 0.08750613479981093
0.16440112517117106 0.4054078087210655 0.39974486968061723 0.04266316284180373
0.2565300382320764 0.4054078087210655 0.44904507031516266 0.04526818768093473
0.07489243904716915 0.4054078087210655 0.44320708840032935 0.25295344728346675
0.15499715838657796 0.4054078087210655 0.5260743061829274 0.012961679942525612
0.5995687840300334 0.4054078087210655 0.3892225499869698 0.05245027851351431
0.2620079883135726 0.4054078087210656 0.5040852545897284 0.044334869096863086
0.3379196276437638 0.4054078087210655 0.36036019664239904 0.20151831473371354
0.5480881810158283 0.4054078087210655 0.3705457309055581 0.12940674058257676
0.22114812176870638 0.4054078087210655 0.4702054040438022 0.09980498339027445
0.5562175745065714 0.4054078087210655 0.377065778752685 0.11604723293868546
0.3542769797286881 0.4054078087210655 0.4005849914084395 0.04266780819436212
0.28780586383573026 0.4054078087210655 0.37729238287836514 0.10306815595679295
0.5052685958173975 0.4054078087210655 0.37098066284277775 0.15379196616766377
0.09355780742031955 0.4054078087210656 0.36334142019848975 0.18121070306256098
0.08897536232032066 0.4054078087210655 0.4499229852854456 0.11657946852749451
0.309573863024248 0.4054078087210655 0.4525174043762344 0.05102284500953632
0.48417394655948043 0.4054078087210655 0.42264096733393364 0.04590686849278022
0.11468598017150348 0.4054078087210656 0.44513124698441386 0.04322869499948938
0.3503554379741299 0.4054078087210655 0.4165006224799688 0.043095592483795936
0.29046633010973266 0.4054078087210655 0.4664418551661212 0.08295547268011468
0.43668887291450725 0.4054078087210655 0.4420212063240179 0.048936699362035534
0.4476530852988534 0.4054078087210655 0.36241049460597696 0.1813027565371017
0.28456391663914093 0.4054078087210655 0.4105695257429537 0.044643794941682184
0.4205795990953547 0.4054078087210655 0.37066659631842713 0.1603675110115118
0.10700193511343713 0.4054078087210655 0.4991382897269793 0.07894626637291939
0.37393118920452 0.4054078087210655 0.422092503045035 0.045464560679078905
0.47437828899152384 0.4054078087210655 0.37572956059189505 0.123095723873296
0.21993141298330776 0.4054078087210655 0.41593457335180356 0.04325709819190787
0.5419652701535986 0.4054078087210655 0.39574859223408204 0.04697350614442463
0.31980957809428123 0.4054078087210655 0.3902616501647318 0.0620282267460539
0.10463734936069546 0.4054078087210655 0.45409011491719864 0.05741181768046638
0.24352355258990127 0.4054078087210655 0.4267915404647754 0.0438460937558839
0.07244828616352673 0.40540780872106547 0.47891733288508737 0.22586934211408813
0.42628557851726845 0.4054078087210655 0.43513286951002644 0.043447491827212276
0.2971953872269434 0.4054078087210655 0.4812772200204401 0.0956868534807793
0.5019953951149222 0.4054078087210655 0.4149714578582554 0.042875736661969095
0.6252410924272276 0.4054078087210655 0.3747546544199527 0.11667018604099925
0.15409977713707781 0.4054078087210655 0.3879063423667828 0.06245836713957952
0.41398451326057883 0.4054078087210655 0.3607876661229794 0.22498278538912733
0.5500220713890506 0.4054078087210655 0.4073846891463235 0.04520685897360095
0.20066442774716967 0.4054078087210655 0.37176422216084615 0.14171913003092804
0.1507771534609189 0.4054078087210655 0.437117277129889 0.04183839223985928
0.16054009817664255 0.4054078087210655 0.4763901977585131 0.11707565817834284
0.3725130160114065 0.4054078087210655 0.37736319154294806 0.11288810798209092
0.10536946382010656 0.4054078087210655 0.547937580537717 0.03352917563566158
0.4144226232440287 0.4054078087210655 0.4362326303079964 0.046385320531877654
0.630993535446506 0.4054078087210655 0.38609522697404786 0.06289805964362746
0.11016946686003593 0.4054078087210655 0.38094039222400117 0.08825122284626201
0.5556795888135746 0.4054078087210655 0.36306521990428775 0.17041451382906214
0.14544049010485355 0.4054078087210655 0.3675489083893073 0.18184057290638245
0.24009293380575372 0.4054078087210655 0.3708722505838908 0.1294738236140012
0.5202048607844298 0.4054078087210655 0.4210869068082048 0.04224470900931648
0.1874531307273411 0.4054078087210655 0.36545863950002255 0.19562028796340689
0.3900135640095365 0.4054078087210655 0.3657989882047741 0.16307182337546675
0.27802215470935615 0.4054078087210655 0.3818667105606932 0.09329074052897102
0.37949912297980415 0.4054078087210655 0.4132868351035745 0.04555873747958275
0.34072562659830674 0.4054078087210655 0.39476869870501796 0.044376174919806714
0.21414897475691086 0.40540780872106547 0.38503750149812566 0.05438271165967083
0.2617243643718842 0.4054078087210655 0.4689603064105887 0.07984814521947187
0.2627326648091429 0.4054078087210656 0.4054397416067481 0.04647774779730553
0.07688444226481657 0.4054078087210655 0.36086969483534664 0.2734048474916203
0.29833320787328915 0.4054078087210655 0.36639903121955475 0.1610172422360324
0.36339969472965117 0.4054078087210655 0.40659170105077796 0.04048945210658184
0.33386996355669174 0.4054078087210655 0.480678883558428 0.11814197019178246
0.24060238571662113 0.4054078087210655 0.504115320054885 0.0513317044201336
0.3644568311128491 0.4054078087210655 0.45015657747159915 0.04763740305648922
0.35992152778621994 0.4054078087210656 0.3640734261333106 0.17068751578363342
0.43900509106802577 0.4054078087210655 0.3742827229865924 0.13965155281148872
0.22102665032992652 0.4054078087210655 0.45010452352973807 0.0466812559781139
0.07694919295792967 0.4054078087210655 0.3911210062969135 0.19882212098740246
0.27836314064951634 0.4054078087210655 0.4415832025311166 0.043442965085226055
0.33021239341007064 0.4054078087210655 0.45016599119640455 0.0463622742998257
0.20846342311751298 0.4054078087210655 0.5120552391161144 0.026144555352467628
0.5334034098138322 0.40540780872106547 0.4148167234392247 0.04228802011918896
0.10989300345829044 0.4054078087210656 0.40948520893971974 0.043116203496977236
0.4365899282350636 0.4054078087210655 0.4122567698956682 0.04185465281622791
0.10701417832800392 0.4054078087210655 0.3640225777630869 0.1798587521733421
0.4592474842870229 0.4054078087210655 0.38015127290705075 0.11407508418718217
0.0755656194637998 0.4054078087210655 0.42945073362931935 0.23769800551873507
0.1256382375557531 0.4054078087210655 0.4391086088830226 0.04597634875973706
0.38793206882109094 0.4054078087210655 0.3826505040321104 0.08843499997961356
0.5686205530157047 0.4054078087210655 0.39541881326993855 0.04662643817630876
0.2500793005940838 0.4054078087210655 0.4359704133350026 0.045372537866752924
0.10558880487254069 0.4054078087210655 0.48083956346315704 0.11881124497116476
0.13454976088273302 0.4054078087210655 0.5070586667366574 0.04142597229614298
0.35165361933881156 0.4054078087210655 0.4672851699102454 0.07420741341798891
0.19939908882607282 0.4054078087210655 0.456053836598972 0.04878869270077574
0.22803486266956036 0.4054078087210655 0.38446714464129655 0.06580381684689494
0.503820531128183 0.4054078087210656 0.3823575098956432 0.09490702933722127
0.09283512413733025 0.4054078087210655 0.4727299872678182 0.12257483582259227
0.4013629480360701 0.4054078087210655 0.46032810633953225 0.0642888601420377
0.3149511117085181 0.40540780872106547 0.37207671823471444 0.13583300571395598
0.15577241817868176 0.4054078087210655 0.41692448362607426 0.04481524026481509
0.18025739906690103 0.4054078087210655 0.3777115135355149 0.12613043014582861
0.11058523689206998 0.4054078087210655 0.3926143336295833 0.05588625677646015
0.13144666358568155 0.4054078087210655 0.47158422779865045 0.0838428548080477
0.22533080657623752 0.40540780872106547 0.3740116729543686 0.11498624293295423
0.42006249436688303 0.4054078087210655 0.4003150357865932 0.04497446692471882
0.3191253044897125 0.4054078087210655 0.42495739881412214 0.04486736503213675
0.3380767824443005 0.4054078087210655 0.37964517769121336 0.08782152482604819
0.5874889560045379 0.4054078087210655 0.39131044968877327 0.06434981159702031
0.34230481468977 0.4054078087210655 0.471683024237634 0.09045076644309398
0.41592685312164623 0.4054078087210655 0.4539413009874311 0.047868423257222695
0.6121352556923351 0.4054078087210655 0.3652330222617793 0.19143237482743972
0.0777684280897217 0.4054078087210655 0.5389142532474828 0.2249946723987151
0.3426996228300569 0.4054078087210655 0.42987295815903204 0.04503854895510315
0.3481550766474619 0.4054078087210655 0.3718488064215121 0.1413279728677001
0.23232591204797873 0.4054078087210655 0.46217600136961995 0.06269763299552067
0.19030044088043985 0.4054078087210655 0.4880305808315769 0.09224690178414609
0.43790096618658847 0.4054078087210655 0.4250425910574515 0.042656872738518856
0.12251989133173083 0.4054078087210655 0.3765619283179312 0.12208502109265565
0.16147993620837608 0.4054078087210655 0.4549419173676408 0.051248209245173766
0.36771357692493567 0.4054078087210655 0.39242371233699025 0.06012071454103355
0.25355676102628383 0.4054078087210655 0.46095139664009765 0.058253838213848934
0.09150276532791284 0.4054078087210655 0.4124450012694195 0.09617201106876948
0.467384708665483 0.4054078087210655 0.36513649481499433 0.17998468302761728
0.31376307161100736 0.40540780872106547 0.48400113213420026 0.09558168181418822
0.4629829597753652 0.4054078087210655 0.4003921742903189 0.047645444567353694
0.09062846677757781 0.4054078087210655 0.46134126303129186 0.1275746291488641
0.24455128127774928 0.40540780872106547 0.44676015972590866 0.04046701886735118
0.2732920563199529 0.4054078087210655 0.39294671583852936 0.04925030162104873
0.2613566967944636 0.4054078087210655 0.43416428165334775 0.044962183504626524
0.2859856380912218 0.4054078087210655 0.48715295562966077 0.09093192548578355
0.12588197105695917 0.4054078087210655 0.45622238174146046 0.05882842376822458
0.14733623981247368 0.4054078087210655 0.49139295504434455 0.10720883021797896
0.5180051984883474 0.4054078087210655 0.37291120613531326 0.12127082425682399
0.07546699953388916 0.4054078087210655 0.3753312630320757 0.26957911433953513
0.5319074086904526 0.4054078087210655 0.4040033546072641 0.04121749055061617
0.5215118216725395 0.4054078087210655 0.39857630422325824 0.04271543024024497
0.42327469245498345 0.4054078087210655 0.38948073948024486 0.05654101104158503
