x y z curv
0.14469470381315142 0.35091614853892006 0.06653011789695801 0.06899548367906203
0.125055758105361 0.3674464428755733 0.05490739879148721 0.0622874213255744
0.3949081306366576 0.3713905140929633 0.21461127187809487 0.08173579324383905
0.293754609538887 0.36849890268927693 0.15474665839519763 0.0688734474131439
0.21741652224160607 0.3650175398387343 0.1095682987371956 0.07465246505839639
0.19819380646208845 0.3604497617429088 0.09819192108653936 0.06759423535102498
0.27321793946345474 0.36720528130103536 0.14259265881857605 0.08693870220853583
0.30683205239281497 0.3698898883462642 0.16248614294860447 0.059088618026248
0.24626389322561423 0.3665918257740589 0.1266407321407243 0.06988342729654226
0.4193432605449766 0.36908645188341777 0.22907245525769784 0.08969558966334994
0.3391555429463526 0.3665070286397315 0.18161580905550725 0.07130341441045186
0.3575327882142121 0.3647804844785902 0.19249182010780164 0.07309258128972826
0.4259646427647512 0.3584256885734189 0.2329911220985759 0.07621508613740208
0.4421524037093818 0.3606741807264508 0.24257135221728895 0.10861471641438912
0.38626435586529606 0.3641585032599144 0.20949571961255326 0.0696672675284135
0.4148858092251437 0.3580041170357315 0.22643445360583245 0.07010522343875268
0.2823150266086075 0.3602252700444638 0.147976491108639 0.09874714103248368
0.3678702420500455 0.35820377165610745 0.19860972856825063 0.06831262164399199
0.29215925422857425 0.35853001524639116 0.1538024967273271 0.08368246724255293
0.32983913619369504 0.3658017024975867 0.17610217904990255 0.07523608106698013
0.23353510559427548 0.35958887576245835 0.11910758757498602 0.07215084375501131
0.39553603038597945 0.36108484676152597 0.21498287776089287 0.07356804391467932
0.4344450590164969 0.35030049364257665 0.23800999716635673 0.08050009692270575
0.33220299322045577 0.3545406015301016 0.177501158697915 0.07786379068514292
0.26664090688954345 0.3546099668633561 0.1387002438243345 0.1525300627343691
0.2419946976996185 0.3559102765369787 0.12411413898459506 0.09283316657961269
0.3241153532453524 0.3553075754950622 0.17271473642608143 0.06480445475559163
0.2567881675032539 0.3579593732556501 0.13286920147053521 0.128151868368863
0.30696445926044164 0.35575687172612597 0.16256450456562033 0.0648462192567141
0.34730828579625206 0.3537753952450362 0.18644076395110618 0.0695513949725131
0.4047042962046437 0.3559146959999303 0.22040883663718103 0.07691120919024672
0.35520361159436376 0.34948050809310527 0.19111337096128417 0.07545249526702102
0.38763231047113855 0.35303353559397777 0.21030530421105703 0.07598100027562586
0.3808554396988072 0.3443782744898373 0.206294621689474 0.08396794436952716
0.4104680687823017 0.34517395797090344 0.2238199492559091 0.07327196192438935
0.29775874596171603 0.3488517984578061 0.15711638475433184 0.08235748058833431
0.277366340757886 0.35039890828647335 0.14504776420551713 0.14249638710773754
0.3074984683753859 0.3456300571289567 0.16288053462823168 0.07058756780930493
0.33506822834662014 0.34376607691315775 0.1791968534092632 0.09093508384796156
0.20679317192780844 0.3521323239767418 0.10328119339817447 0.0701473872062384
0.2545929094641229 0.3466159789443793 0.13157000532651217 0.19639359912895846
0.22423477502580513 0.3508946334252669 0.11360347082245018 0.07523379937145068
0.21478396218388113 0.34934968492876695 0.10801030110311728 0.07298070754446588
0.23298794913866033 0.34580453540977485 0.11878377460596534 0.0925136317973962
0.16703906105623673 0.35443506260216534 0.0797539382733882 0.07736702309996876
0.18505505191668975 0.3520598064731532 0.09041615252138807 0.07278879507676096
0.08048098512715744 0.37216703564377684 0.028544006180494918 0.0629227706263698
0.13198294667572777 0.3573057027748801 0.05906155190044627 0.06495196798189148
0.12052451865237818 0.3582531724839796 0.05228540531912495 0.06977397192344653
0.1554218395974617 0.35946453759529823 0.07287874372705476 0.06773665876335068
0.18284394622956968 0.3656132564407587 0.08910785224822179 0.07339009112456096
0.17150441374248698 0.3649019370919237 0.08239696153846404 0.07751861172460524
0.19290071143490212 0.37110936248556803 0.09505991291344912 0.0709085040966329
0.14834604662583975 0.36737567310226865 0.06869178822826154 0.07346116805935603
0.20770771017060807 0.3663787294430438 0.10382251471222337 0.0754821858104415
0.1407941929202257 0.3724594850608381 0.06422287377728081 0.07214238070653177
0.15892510705770638 0.37115161059595025 0.07495283175228411 0.07258900140534082
0.23029355374741345 0.3691469775364108 0.11718921787855752 0.07750653239943002
0.04263613279835825 0.3605225902911011 0.014844908473070201 0.08694478320565761
0.05510258081174227 0.3737031426981383 0.022222793111413865 0.07345514022662887
0.4678822602620998 0.34414548719142923 0.2665137789599894 0.13922115754990805
0.4496728968903242 0.36369600956905607 0.25573712136992144 0.19101858001070465
0.4681880077785445 0.37416552996473573 0.26669472632352254 0.13902050645392602
0.4571056652768502 0.37322104705984005 0.26013597915602216 0.18372686661758256
0.028956560628499092 0.36126373644042264 0.008048797174139716 0.10606881053838889
0.10676101962003996 0.35146494904324366 0.04791301627104159 0.0674007585554848
0.1046785176200935 0.3617192701653442 0.04691477725393509 0.07120567869126494
0.11383047671258824 0.37190627758086714 0.052331549207954624 0.07350762261958187
0.11460175574952325 0.341700746565 0.05048279122799102 0.073174576898136
0.32367554658086634 0.34170749065560174 0.17419779846894698 0.08053568841569814
0.42182431663679526 0.3417808046829597 0.23207847314391963 0.0686765661402813
0.3889205385470773 0.3418393871851122 0.2124410331241426 0.08529254919097784
0.3973213846959136 0.3418834392923819 0.21728923463500327 0.07959601788731253
0.2432927461296239 0.34266118120843747 0.12528633125197575 0.14338190744859594
0.2711075074023776 0.34300243183605617 0.141583396255194 0.1811130248592563
0.11405189939276408 0.373337356134038 0.06542001597152995 0.07643720733557378
0.32381289353188103 0.34292186457699547 0.18985932376744852 0.08765850706478691
0.1546200508864747 0.34300493461694354 0.0897505394953204 0.08847773118480837
0.06296853055317492 0.3425403008326584 0.03526212712055765 0.053938168282308525
0.08613831262432674 0.3428853450925622 0.04920322578114425 0.07795782635224072
0.226698986101512 0.34328957046207126 0.13244313101228164 0.11554242497302254
0.19156465603499162 0.34193546267077357 0.11065481297993794 0.08148512163511579
0.3473576603893177 0.37253064377032385 0.18648057435585674 0.08639229556895604
0.3646723694347605 0.3738080683679079 0.19730882513084597 0.07902962544085304
0.3772232105622288 0.3728271013580914 0.20426982111947944 0.07742042616220739
0.2657438491108831 0.3732559702555796 0.13845260290242437 0.0861149998687812
0.4405572163265817 0.37426212502425343 0.24328258353104937 0.11548396737298154
0.3180287636447594 0.37445608096929384 0.17131198051689453 0.07324576337644485
0.25607061150414195 0.37432501467870666 0.13407443825198967 0.07372272478340042
0.08918017281970124 0.37362664144563834 0.034139178983449925 0.06469054056534232
0.0383880159737219 0.038653394180404296 0.012330788765744255 0.0756736944288688
0.030552828062926005 0.18291361327145425 0.003421089358130755 0.07762483088810357
0.02976384647084886 0.14259434809196042 0.004740925162762553 0.07704103596521505
0.03089639429730293 0.3131503062878401 0.002835255033448892 0.07563778323058822
0.029848022040612994 0.2564014614213439 0.004595081716226912 0.07274684894258292
0.028462398758544345 0.08244565488726832 0.0069248554788130245 0.07530136659612918
0.028085997150873124 0.29553351383410253 0.007560868654195449 0.07867577694201498
0.027851801521378183 0.1618697022878187 0.007956593600476411 0.08659003182275365
0.027402348898760163 0.2684407661001397 0.008716042507891637 0.06570008087504473
0.02630365144271634 0.13200384019930297 0.010572533138009751 0.07344898998302221
0.025916542986047685 0.1749026201019144 0.01122663788603801 0.08827301687232268
0.02702315149493926 0.09233990813374064 0.009356779794836397 0.07714918708767111
0.025768022143180316 0.30697720651068355 0.011695456156884923 0.07033963032406144
0.03905560354347439 0.341499999165535 0.020941136037781916 0.05911077198814928
0.049987486400702094 0.14728728312758305 0.02791059572709861 0.07163811236821206
0.050058408709816156 0.2208232686970606 0.027952568889424278 0.07952692905568812
0.04831906553688076 0.33608881936206536 0.0269231927417829 0.050389259935603475
0.05145252942044953 0.3109041799019961 0.028777635862284465 0.05868290009403423
0.048067090301178866 0.2549575257654803 0.02677406903723522 0.07242981212384134
0.050695701174101424 0.19013496576922273 0.028329730608867905 0.0752336881458587
0.047839312758857826 0.2877069394597534 0.026639265984748483 0.06922695279701549
0.05102181379159413 0.15975633307950052 0.028522730216487227 0.07793035318723789
0.05129390036169719 0.275515424724182 0.028683756188656352 0.06737588555704391
0.0435971383722889 0.2978655315086437 0.02412866704394278 0.06211182429735356
0.043061507631464865 0.3283442126507902 0.023811670652933156 0.05508595626410758
0.04075728707062199 0.26331489269973124 0.022447989396040334 0.06485687329589127
0.043880421412347125 0.24466457785192547 0.02429631929854366 0.06962636282235735
0.04053114727594949 0.276236884473148 0.022314155593550666 0.06447107613563074
0.043083504819987656 0.11240107202068082 0.023824685519109358 0.07020943353803408
0.04777152042478197 0.08750169006565839 0.026599143986804734 0.06332147014235849
0.033846916127274154 0.3059379579900978 0.018358299172506906 0.06236039838023166
0.03449898499193874 0.1875756694963544 0.018744201543856632 0.06658999963012742
0.033092436405103835 0.2506783560283873 0.01791178107298792 0.07309676135429133
0.03805883585265787 0.1447540639707952 0.020850989296285163 0.06352156223275011
0.044478266846543456 0.10103664677641619 0.02465013255169561 0.0630770533334481
0.04059991070091023 0.1780578673083474 0.022354848506699974 0.07063159321511538
0.03496049409567201 0.16866844064871842 0.019017330912183047 0.06478550399797378
0.029582052640809327 0.22556026023274517 0.015834266187239123 0.07106715933320444
0.03735124141657079 0.20092112093539297 0.02043222330491487 0.07453481518357533
0.03283449263808181 0.23896688659855764 0.017759124428219825 0.06785084032606546
0.041820798314520936 0.15641804446785085 0.023077392842796245 0.06757235498849638
0.03983482875196177 0.21418807856303293 0.021902059473966097 0.071843164008295
0.040228166677711244 0.2269435642768178 0.022134845076049674 0.06954665445615331
0.0340101951044426 0.29454364026465024 0.01845493041180565 0.07304888967152258
0.0456849397885606 0.055273179826244606 0.02536426484493702 0.06037021888843047
0.03061430553101287 0.062454838757479446 0.016445172295817125 0.06820237390737743
0.03369977937762036 0.11772403674924861 0.018271214970215936 0.06859564939440221
0.035454494608539104 0.08753138492230447 0.019309689537770305 0.07105161093192396
0.03419889583736579 0.07670045499881292 0.018566601997914683 0.0681572278770872
0.032994201823014206 0.10180110171223507 0.017853640644989933 0.06317418989882612
0.035660679334926434 0.13177619696805137 0.019431713356960093 0.06915693332421641
0.03849002077030464 0.06520997592562403 0.02110617270742375 0.06660303277623056
0.027551693630772447 0.31867132237510815 0.014512959359183918 0.0679336492513957
0.031042214600224865 0.3349281974870833 0.016629498792703246 0.06545334156160207
0.05457299763786673 0.17022942388515996 0.02759922444909317 0.07559755946518848
0.054345489342610936 0.12658755450533038 0.027983647479354026 0.07344005632765545
0.05616915733931026 0.300424914128468 0.024902177519356822 0.07725778573094981
0.05586524656757125 0.13800256978319966 0.025415699086907908 0.07408428590583686
0.05540467215308034 0.102030978323042 0.026193936183493777 0.07190672014004483
0.05668230977824429 0.19918148379796496 0.024035099398837533 0.07885562895929503
0.05805760267665158 0.33192820739909196 0.02171126102562627 0.05801775758159799
0.0576717758759518 0.21313705734671182 0.02236319393473016 0.08139424932857263
0.05730827247369586 0.23699150818781706 0.022977406043493895 0.07311036076244497
0.058569596304607015 0.28835187375942 0.020846144879331334 0.07919103072152019
0.058575638969753284 0.3184323742142254 0.020835934384789784 0.0594912230529541
0.059703304401657595 0.09370958368431012 0.018927630755065056 0.08458747279165621
0.0590514705084611 0.0649313099861191 0.02002963310623572 0.05742252995842716
0.05950964637097142 0.1112822635345448 0.01925532256704011 0.0815569406775896
0.05907978932183647 0.24994827106113715 0.01998379680410542 0.0670888747560967
0.059624574897992166 0.14864998677378116 0.019061380782195225 0.07246036478804851
0.058864970471277006 0.22463594940436243 0.020346797789196 0.08432018064292233
0.05036626039594412 0.3435797326361823 0.01941974682325304 0.056618387173920336
0.03980864278172697 0.3728779767714321 0.01039049079751925 0.11067207319208781
0.03230256052282054 0.12239915538667397 0.0015185770667059284 0.08044219194419698
0.0313787533825035 0.20719708440429552 0.0022306482034620606 0.07835809663553389
0.031670827087576486 0.22157423464336218 0.001978363943517582 0.07845707417646443
0.033124715694220624 0.23207091971896382 0.0012775160258017676 0.07150080590421178
0.03326434390830186 0.0511812176229933 0.001241280873389163 0.07560239063363491
0.033537535051636765 0.3530656331584045 0.001254694745668498 0.09007497321956112
0.03349164525102455 0.11101523835125177 0.0012299598544478901 0.07345820035679845
0.03403746476746907 0.03303569954763752 0.0013103593832794298 0.09474126585759124
0.03447025184616903 0.09735398758577851 0.0014158704495097236 0.06757707049653539
0.03429470895580962 0.340105283188229 0.0013457200411734133 0.06927481014633845
0.03523595059615835 0.24574650860250064 0.0017705888641508097 0.07466599968107722
0.038089962097661426 0.3027990090212703 0.0034399629334394707 0.06735304007926768
0.03616905630562767 0.2891881994339582 0.0023037293003251346 0.0690474790484604
0.036369923663760434 0.133967702980973 0.0024220720664258634 0.07179643952316976
0.03969110153108498 0.05992736254495859 0.004387523463625142 0.06867739110866784
0.03635211582875459 0.1572084158164097 0.0024110565522104405 0.07264875821716169
0.03657291362084195 0.1745044919693329 0.0025416030123984685 0.07321759209096432
0.05025248028091757 0.23993518488691948 0.010637777391301392 0.06311379375880617
0.04512989070602651 0.046816616023199184 0.00760604276645549 0.06651391064694169
0.044566512618045354 0.12716209776028942 0.007272590369130475 0.06283084200131311
0.04627855866903803 0.17077442202057255 0.008285846529288373 0.06337182437232357
0.042248144362395684 0.23434174796441498 0.005900448346602693 0.070990836405872
0.04497234149914475 0.2155138046302507 0.007512756828370536 0.07045151351319934
0.041155411413130956 0.2051913286581389 0.00525372634821827 0.07098758882417709
0.048473130433563626 0.2249314234683739 0.009584680802784554 0.07273861635675753
0.04042516426524864 0.14650764515861436 0.004821547153008142 0.0667959530729591
0.03563805570695511 0.19329149553496716 0.0019883069557150397 0.07160430317511002
0.049981937787326236 0.16052946055880526 0.010477677393456133 0.06735107385984915
0.051449300656757624 0.280223215783564 0.01134610035107801 0.06479014688749768
0.04624936178765718 0.13827833391528824 0.008268574411341552 0.0670992278266911
0.04229251651057757 0.1058218888835268 0.0059267411496238265 0.06618825543003966
0.04502966363408706 0.25429284044187006 0.0075466732194379065 0.06061812809586272
0.0520507611635514 0.336821962209371 0.011702049786519352 0.05379190459317277
0.046585060326138995 0.2922875085566023 0.008467212557602535 0.062361406200197776
0.044588614268818445 0.343818761198428 0.007285580641984786 0.06539242536765806
0.04738761951688062 0.3069607310380884 0.008942195768492119 0.064315703171018
0.05178457655882984 0.3563803921159473 0.011544494525637567 0.06518428275328468
0.040056258791350594 0.26969191752764027 0.004603164361371252 0.06736912676909082
0.05010518497469223 0.11472243456917312 0.010552697840335152 0.06979464945278402
0.05164025588731562 0.18399147194893384 0.011459524754965877 0.07280650402004817
0.05882037576880104 0.12229382912167502 0.01572027023382816 0.0742915130985067
0.05753380879519363 0.2957843290956238 0.014948738671440441 0.07409205516596888
0.0471629930223563 0.033819685845898936 0.008812051993697464 0.07280310275805411
0.053326843309725674 0.10519686149235004 0.012463555599624422 0.06802931617340414
0.05540800300647354 0.25952448705821696 0.013689976531802598 0.06837368140601761
0.059321006818821964 0.17824367091208052 0.016014355086318773 0.0733468865547979
0.054505991319247576 0.2164927092792659 0.013157238398131706 0.07130374703585726
0.05945169068668964 0.19180927390035435 0.016091174141243014 0.08033349338048648
0.059176623934918515 0.1355333874312702 0.015930860990454345 0.06896961830673519
0.054517589386659245 0.02365705358299631 0.013173698013306059 0.07936485768147998
0.0542268650963254 0.053328004217014474 0.012999829454742524 0.05550905734513921
0.04786797984318096 0.08736980369135497 0.009227435322252144 0.06197839520821331
0.054300824253136 0.20432037151359372 0.013036182937373735 0.0726217042313947
0.04263474728319451 0.02096771323325798 0.007442392168359313 0.09661661843213422
0.05984322196991167 0.07541155745812747 0.016599642408601227 0.05809804654791009
0.05998010247457519 0.16390178230041746 0.016849314131006148 0.07606215255083795
0.05999085706648157 0.36340836518643815 0.01691486169508984 0.0634138236853765
0.06012565335949146 0.26896039451833087 0.01773644749948805 0.07819308372721408
0.05279176262200314 0.37378074956229373 0.012710544681076682 0.08406906312588898
0.03582214292816175 0.3653874603968436 0.0025080414164165756 0.12779628402022272
0.051938230263761015 0.20705735446166817 0.028879868382290272 0.07704932275406862
0.05278438360161447 0.06963326145735844 0.029000563194515827 0.05525378171278599
0.05319028370035056 0.18068500507476784 0.02892541611610156 0.07463067272206457
0.05387430304515658 0.264066688636726 0.02841216955522258 0.0709280449110725
0.053876990678181066 0.11540557052117027 0.028410152918679765 0.08961565938252039
0.0263588633576638 0.21511215986884313 0.01386275321177935 0.08040438757163988
0.02584257608810583 0.20313519197528357 0.013215164012355547 0.08190247601025609
0.025821770613568863 0.1523296386037798 0.013142841721559866 0.07328881708479389
0.0257530978351975 0.24686436835008516 0.011633724847809978 0.08224861899129836
0.025668801612623676 0.18923609068744937 0.012186793958349595 0.076646714524903
0.02561961206641835 0.28372875747779613 0.012179118457070204 0.07168377698912201
0.025691235003531564 0.07248801856208803 0.012465076335374924 0.07977168960691489
0.02573304275810155 0.10721717589117724 0.012042411805136682 0.07397295058097644
0.24123564814146203 0.3029999262511996 0.16034231468080298 0.07896718524725642
0.3368704134620565 0.302999763073134 0.07484882926024727 0.07821199205904512
0.267658293144451 0.3030000993929133 0.13939733317903466 0.07488646262153122
0.21105553617985545 0.3029999387534687 0.18684396484678142 0.08430679841515429
0.34510799784411955 0.302999540791097 0.06499928295741943 0.07300070987956174
0.24741979115278556 0.3029994695621457 0.15014985044473037 0.07668972571416312
0.1256068504130204 0.302999072082634 0.25382579165249247 0.16442983353470458
0.2800922282521015 0.3029996010489372 0.12254381613482677 0.08616791636507805
0.25637355865793465 0.30299922009012203 0.1402691780814144 0.07275454122645335
0.16790720914872329 0.30299929209843735 0.2184885201573244 0.0787562142489758
0.3223310380925247 0.30299932223202164 0.0832152254637614 0.07201305059093337
0.22923129717862464 0.3029995658512923 0.1668923870172407 0.0683669176526994
0.1364156094220444 0.3030050910320445 0.25270366138968287 0.20547490366486948
0.14769904193353384 0.30300534725513634 0.24340496768058684 0.13038027793262633
0.3830217532845604 0.30299986043053284 0.036428374885584286 0.0604197144455668
0.30323413350989803 0.30300892723374984 0.11264906815108555 0.08860287020761393
0.39831222654540976 0.3030090785597874 0.02805659632524893 0.05276492548859973
0.3758553335603744 0.3030026717946308 0.04611147232211466 0.061907129714515265
0.2927108583713409 0.30300552182126117 0.12098770988451307 0.08417986733280483
0.35646393382847336 0.3030181394017215 0.06804806711902622 0.07768121602257227
0.36577388569786856 0.30302007859504376 0.06034641855166757 0.073980753932953
0.2142866633842498 0.3360000525057053 0.17508966128561937 0.07454659682479238
0.1471289968648951 0.336000312372857 0.23267365006210225 0.07612095684902147
0.27623554335456124 0.3359999422192244 0.1299972714135239 0.14227908068164055
0.35103232439350274 0.335999987609716 0.06414567298691833 0.07046233193777397
0.18150505624452812 0.335999914777096 0.20924138511626997 0.0819347158807705
0.20723363566218428 0.33599993146128615 0.18644160706437127 0.08436857753862836
0.1728557884910648 0.335999922571213 0.21505154874996507 0.0791389959302604
0.3304201114802013 0.335999995470047 0.07734220625807016 0.08119007429411447
0.3569865341735148 0.335999995470047 0.05364563293394867 0.06825501677516078
0.3773605905065903 0.335999995470047 0.03708331125618698 0.07011975771046179
0.31810898404728777 0.335999995470047 0.0864610988255803 0.07583806141554916
0.3419426734167913 0.335999995470047 0.0787123670297852 0.0756137528492514
0.3953085897383062 0.335999995470047 0.03503652443831169 0.07936480497388873
0.3734691464293499 0.33599999547004694 0.04878138607372832 0.07938717698561676
0.11688228981119081 0.33598429269893226 0.2573928025966301 0.15676512716089527
0.12809989007386327 0.3359376081488056 0.24631511842938764 0.13992944827071888
0.14351154332253102 0.33599894723217777 0.24504353678059845 0.1504153147742207
0.1624678845034226 0.3359975311674952 0.2294723254792555 0.08103117118990744
0.1306778013792733 0.3359949278226808 0.2581638988846612 0.1754966105270891
0.24784281052505966 0.33599755616665267 0.15836449068577466 0.135477433011796
0.32922360806828654 0.3174355216182063 0.07389167319434453 0.06808904509941335
0.3592733680594745 0.31394490029217403 0.04851171542332884 0.06649977341078743
0.351570443339874 0.32078448902420315 0.05501722088038073 0.060287504076332446
0.37619117102629945 0.32068257851634074 0.03422244099366151 0.061737321132991206
0.38102986537558364 0.3112827696706502 0.03013623644649276 0.05431204860365608
0.3148078460718685 0.3146671467656029 0.08606746666513912 0.07267153435827267
0.38056671010049237 0.32856972980052657 0.03052635260971861 0.06493573300801919
0.3671935846777933 0.3245421458140639 0.04182160789091288 0.06772420300980761
0.30276815235486365 0.3106820899552119 0.09623649642677783 0.07974517486640854
0.3432118213925357 0.31883667851844005 0.062077073799541624 0.06247936060818427
0.2891656530856215 0.3113199526136926 0.10772519399970236 0.07455379243057642
0.37091527522807205 0.3096022260856919 0.03867917213860851 0.06483733971780749
0.2593337515848815 0.31786064499974775 0.13292244810000098 0.0911644205924956
0.185481085367311 0.31044588782345867 0.19530025961369157 0.07507541116875621
0.20187243006131717 0.31244040927088745 0.181455746745789 0.07781475002703718
0.24683011289951343 0.3111465449183979 0.14348290605540745 0.10938594403810722
0.28053997053406754 0.3147162004127401 0.11501073057624897 0.07180280044940011
0.22391144464792184 0.31397406041088255 0.1628409897675908 0.06413437775091459
0.2721834965023033 0.31696707541179564 0.12206906033748101 0.09168439904259969
0.15883817124473076 0.3073957775193471 0.2178035027024615 0.07136544745811861
0.29605291314283044 0.317112809196879 0.10190817658846185 0.07616909175319851
0.33713401763118445 0.3243754419129423 0.0672102931641961 0.06604786114803982
0.31163201578505134 0.3237336296656705 0.08875007319545039 0.06899061284341902
0.212432688905231 0.30921404834230626 0.17253595121232612 0.07140095125390225
0.19516092542571037 0.30507127896179254 0.1871239261686826 0.08333619594318109
0.23819696955160002 0.31131868244032085 0.1507747566805526 0.09074834436013941
0.30216055087334914 0.3257301083556083 0.09675022109640581 0.07635373157615807
0.10679673363414077 0.33400103994957053 0.26176383808748693 0.1333509886942225
0.10907621939332389 0.32030735254875864 0.25983631692582954 0.16492332184853414
0.12906703772331785 0.3249225486961287 0.24295198336573967 0.0845213862552233
0.20802784765511076 0.322007934389655 0.1762579775408275 0.0736041810746715
0.14074031462266057 0.30996647773384 0.23308987998433434 0.07000008652609847
0.1372463330443948 0.3210744687992878 0.23604280371816316 0.0708546512991627
0.21653560025850155 0.32154680184440126 0.16907190705868125 0.06996147996080529
0.1960363207718232 0.33010359392065136 0.18638779884247036 0.07301441170674135
0.12389026530772752 0.3142321909299952 0.24732280087771874 0.13023673802651808
0.32324501981473314 0.3269110253045774 0.07894160012141917 0.07409324481553957
0.11571291615336687 0.3104890338034314 0.25422913160740945 0.17169498294888963
0.2537847588683886 0.32989221384016176 0.13761106263718118 0.179190303542038
0.23680131220189055 0.320918122288203 0.15195455459937612 0.11191874772023148
0.1938125356599478 0.3180606636315415 0.18826418727292682 0.07241668982033528
0.26590552974115 0.32724820385633474 0.12737294200071725 0.15442003863157616
0.1598078291297748 0.3305995335839235 0.21698794958299616 0.07104281061261719
0.16110645522345413 0.3206651771754182 0.21588949957264203 0.06962146672766603
0.18456144801575333 0.32394874725110195 0.19607897058674617 0.06571137401640904
0.12021129530934682 0.32517713087490185 0.25043194754469067 0.19099872453332628
0.17396590982678017 0.31377670282868364 0.20502678251141696 0.0701826221539399
0.16959709163187314 0.32391599637186463 0.20871847540247124 0.06761058807763595
0.14500720867347297 0.3255744197360174 0.2294883637739295 0.06604390782332258
0.15216100685356382 0.3328099312210098 0.2234471206459114 0.07717320578135033
0.28259716743863245 0.32413047516198984 0.1132740043077179 0.0726331781023852
0.4081007834459739 0.31118049806141834 0.017089538813032087 0.06704042149143545
0.4153839261392189 0.3171672543382973 0.01093816086823559 0.07683585373920679
0.2401353577858883 0.33599644959603986 0.1663128213640292 0.11451871444089246
0.3347037124951566 0.3358348586532402 0.0868345402526765 0.07961084236552123
0.3019401485792056 0.3353681852754511 0.11565806284144696 0.08713777991745107
0.38654734511349803 0.3348315990515298 0.044689602246914234 0.069692116241284
0.4059040290353828 0.33477735242333295 0.028340437502621448 0.07874569137711215
0.3618426596174831 0.3338555322579145 0.06597469803551712 0.07059036055064297
0.3734279444522637 0.32957090844650394 0.05619162474196593 0.06626453804371939
0.3931038568119579 0.32792131115910383 0.03957282217665611 0.0649465140766192
0.28644761335608343 0.3319886701407966 0.1296550758179883 0.12230253752808186
0.3129579034899273 0.3336678846245901 0.1072664464047713 0.0801995163438417
0.3270634273549264 0.3317459775769569 0.09535219894770947 0.07316210964427962
0.38123008519834173 0.32688679092166023 0.049601848373961664 0.06792382377637239
0.15444413743422414 0.3338730408689701 0.2411418698504109 0.13880607756746985
0.357291537242545 0.3261589780685461 0.06981906917085529 0.06201120292932516
0.27657956066217926 0.3290158726348521 0.13798743048871337 0.14734519573061486
0.22887766127135656 0.3340096643324888 0.17827795203240923 0.07300360234809145
0.21816896323305945 0.3330636245038423 0.18732155808955392 0.08819770665854765
0.34810853961307336 0.3227197872891405 0.07757467376332233 0.07011512830367686
0.2570230192650358 0.32849134362549826 0.15450451125637887 0.14980496860992826
0.3706588651224326 0.31200635158841383 0.05852838786558045 0.07003628119681665
0.29573694254019356 0.3279543635171379 0.1218072624285614 0.09350349958239972
0.22242600345745955 0.3251327808904676 0.18372445868489623 0.06334685588893768
0.420747166495709 0.3074867469754392 0.016224278214998427 0.06722974045057187
0.28611091524225873 0.31862692036795526 0.129936736290629 0.0828139037259144
0.41517303714748643 0.32009822483419403 0.020932822636357457 0.07512703136566053
0.17270958622613092 0.3301288568274558 0.22571450741567953 0.07009332898703105
0.21025629145294367 0.3257382300814844 0.19400285537212475 0.07633897224693303
0.1810985395583702 0.33100388879965287 0.21862936869643299 0.07060497463598023
0.2367957166273737 0.324461072034231 0.1715879691473594 0.0697482063783107
0.3845036399980766 0.3134540768836198 0.04683537385921582 0.06085372761871487
0.3771486078449549 0.31763951984010236 0.053047564873660594 0.06366691585754546
0.26597575005249074 0.3267859355269953 0.14694306785594072 0.15195019293352083
0.12422116875214287 0.33400104136819847 0.26666734158358646 0.1704405839707413
0.3041373330211428 0.3240187902456339 0.11471219110282818 0.07944461097781315
0.3169111313559373 0.3230410214173304 0.10392357073290659 0.0725992815889197
0.3654375043372651 0.3228882814490209 0.06293889093715598 0.06444610938325933
0.33476289462557257 0.31692658384991035 0.08884588333717441 0.07551437909432054
0.3950155412456195 0.31708592317387646 0.037957380530475246 0.05968541649581405
0.4070265732585753 0.310843658385191 0.027812682827582043 0.05650618160379348
0.3412422877923647 0.3258848145862536 0.08337399009593201 0.07310385403457126
0.35465365644926095 0.31531773194998114 0.0720463429717255 0.06166721559548457
0.27336026236316724 0.31937751668936853 0.14070579545430745 0.10724229278539935
0.15243622098782114 0.31408669262610744 0.2428342555344563 0.14785564779954047
0.20168755854486242 0.31329657435171526 0.20123769964679245 0.07174999363459557
0.28549873818606775 0.3067442718130297 0.13045179132037438 0.0776881441835602
0.3033294302775873 0.3120569078535244 0.11539336147739218 0.07386456726813695
0.182297182369559 0.31755601905479286 0.21761505005653214 0.06713007035417168
0.25417758055725476 0.30488614885391085 0.15690451914006467 0.07769028056588882
0.3354860156993273 0.30630638625615636 0.08823374013926655 0.08166483140194677
0.3441478141698249 0.30837568250253755 0.08091856374465736 0.07299287514137154
0.21635407490273656 0.31370205187944017 0.1888508051299037 0.07393583262329183
0.16454607587787026 0.3221913032565181 0.23260798006960842 0.07061638362857615
0.2383458613385878 0.307598003007445 0.17027605195676707 0.07303349496416327
0.14370230193284425 0.31038260526825895 0.25021006110907507 0.18115515279481864
0.31491836542225726 0.30954368875051863 0.10560520980290074 0.0674655728450701
0.19364078527976725 0.32097953158887715 0.20803512386530998 0.06774679738685645
0.2642146023402082 0.3065231966463489 0.14842778975359533 0.06619048297851439
0.2053659731053471 0.3051141255084393 0.19812959325568344 0.08029089227543679
0.1307113768268326 0.3214766338880909 0.26118377792341474 0.2661119782798334
0.14011866699491743 0.32366327807592954 0.25323899855864224 0.2671534455830429
0.29414421435200544 0.3136240045211248 0.1231512301825965 0.07458070232420216
0.25689058549338234 0.31662557342993103 0.15461520977118798 0.11344621441312112
0.12815606536443885 0.30501152736317766 0.2633390881841559 0.18464015887414426
0.17534810847609256 0.3092296281396749 0.22348262367289534 0.06381541537822485
0.12386428647666649 0.31430131087137736 0.2669654174209476 0.214899046940095
0.3250090987754562 0.3076676316056992 0.09708251094713943 0.07274395799050112
0.20196066749588953 0.32585458103646336 0.20100920521599436 0.07033105694695652
0.11878575470466593 0.304526552920874 0.27125292916008864 0.14741909210967163
0.39321044385581416 0.30654236098999343 0.03948120573206553 0.05827228212278324
0.22692214360754237 0.3160675080020542 0.1799256927591864 0.06315980210073127
0.18450664085872392 0.3050681486805081 0.21574684364427185 0.07391440759080457
0.14822314996415922 0.3249403605171797 0.24639437991116828 0.1842035784354432
0.24740718191618177 0.3134709267426897 0.1626241055822595 0.08550560594969883
0.196865926215174 0.3348894607619869 0.20499717590558114 0.07680337812897738
0.2049737101779874 0.33540963558538395 0.1975191243764354 0.07999125925309969
0.41671280337387173 0.3343219223534275 0.018925278024580758 0.08409256780009391
0.16273876232014656 0.30401837044407626 0.23379439323320217 0.11263252874044404
0.19630807284285587 0.3035101854850304 0.204877938866177 0.07917578024626842
0.27723248576664655 0.3031015336310418 0.13540072395869338 0.07550271438282201
0.31191292495064515 0.3038687916128431 0.08906147855568808 0.0796622246563311
0.2682179356029474 0.3043315431771063 0.12572017339623826 0.06618870454396437
0.35214119046077247 0.3039141374917098 0.05511594451199131 0.0750796650901152
0.3647517745144734 0.3035964985910817 0.04463788359817572 0.07678942017502133
0.12930445995702083 0.30405457902480576 0.24311474647674708 0.1110784095971135
0.23121524101051483 0.3037840087915207 0.1572583064731843 0.07379327800222245
0.29746985250092317 0.30350949074921707 0.10165823319360295 0.08986566008146347
0.3863653900030424 0.3033783052066476 0.027047743447115004 0.05954257554760584
0.14830251128097605 0.3032306872579693 0.22831473073409408 0.08220483900853769
0.1717801096234501 0.3033711522794913 0.2081530443433118 0.09013404373804991
0.29672296672423204 0.3342009461143888 0.10140347584064313 0.09110312223046921
0.23258272220989135 0.3348557462243717 0.1558508272737424 0.14199965374717313
0.27770523408694037 0.3347625784612639 0.11773424849699089 0.13183982377218276
0.33757086155145616 0.33462618796461474 0.06715713519211113 0.07541722705213384
0.24180610209834666 0.3351019448904303 0.14823687022888382 0.15227612239214958
0.13471698281120703 0.334990257957698 0.23858380028066378 0.07514096455256583
0.3090719356191727 0.3352335245401967 0.09153216846370096 0.07834371916201681
0.22394362913787555 0.3356599145282982 0.16430232533227254 0.09667120090813897
0.2600462660193386 0.3356562201596178 0.13380955297092295 0.1876995743708522
0.2871760761680628 0.3358965400800189 0.11153855572033272 0.0736636796690708
0.4789110572924087 0.04344155332816197 0.26868701200974 0.0796491482037583
0.47732682641696383 0.05288197025943314 0.27141011139396226 0.08872748640260919
0.4797669110849856 0.022836743385648808 0.26530410942720717 0.10121790105762601
0.4461303841549622 0.09906207187186271 0.25934866149244457 0.14396409851540168
0.4479511672807577 0.2131390596699803 0.2562720837043237 0.15069381593513223
0.4470553999924474 0.17090681088992987 0.25778566195727287 0.1420427313647795
0.44769290366506953 0.11842809795454906 0.2567084718124126 0.1252230954859744
0.44809327395695475 0.2491867715310735 0.25603196601137196 0.1427638511116154
0.44874042095309186 0.08796257108494013 0.25493848171845124 0.19624792811513392
0.448734878251406 0.20061833221649505 0.2549478472139858 0.16521502315155503
0.44931092114967314 0.34218590609120536 0.2539745083086489 0.19912109705059605
0.4502037625009162 0.061002404498319424 0.25246587548621024 0.16840275012180414
0.4513707757385096 0.1353196418025287 0.25049397479858787 0.15117276987590947
0.4503033760160411 0.19083648511616266 0.25229755866456355 0.17720124023914446
0.4513385893907642 0.04521464195032259 0.2505483600267983 0.15073079869127176
0.45043832293381725 0.17988065718903606 0.25206953904029256 0.1513626866349796
0.450586762903313 0.1536214407601899 0.25181872022479823 0.1680180898093678
0.4490726830884252 0.03411573441255397 0.2543770588382054 0.14606376430467008
0.44609138062104847 0.27176159385287807 0.2595307153446834 0.13574385418123266
0.44719169623683774 0.3232359251486084 0.2576615025627613 0.192790554457203
0.44631594125266805 0.30188641787112236 0.2591863874965007 0.13875821061757782
0.4788051239989023 0.3421195304677095 0.26893158313957916 0.09752253213727992
0.47410257959098 0.05070205276754938 0.26148017654458605 0.09657036867014314
0.4674602175374466 0.022095134294435978 0.2575490104770839 0.12473650664881905
0.47100797642792813 0.03265852105490484 0.25964868363904525 0.10956419907671065
0.4642008175911285 0.044188974453855306 0.25562002201324396 0.09553095611522881
0.4662604206500254 0.25557835852336247 0.25683897145010703 0.12954076933290218
0.4589417138963785 0.054866779026236684 0.2525075859907256 0.12464767933886582
0.4600728894085426 0.06789465458903071 0.25317703929590496 0.12274638791934876
0.465172109963008 0.24363904058874972 0.25619488655590694 0.14815733283221086
0.460860138352709 0.08377976811452928 0.25364295095230954 0.152359328004776
0.4653415000757013 0.11116955717316944 0.25629510991226073 0.13423532491133583
0.4635381115734384 0.15418302499615752 0.25522783889514816 0.15034396395160965
0.46519023479778626 0.22903029538384773 0.25620561042828405 0.14174532502083576
0.45981167841283954 0.12827307467752014 0.25302246107808446 0.17968434420585916
0.46774372910389683 0.16388712842515285 0.2577168039541981 0.11790882149833294
0.4572869099163588 0.166963184594068 0.25152824856973166 0.19244088731705547
0.4564898678332982 0.09707911283694368 0.25105654075114126 0.17162819699340923
0.4542579008452845 0.3253048528026679 0.24973561140317133 0.16801320084398408
0.4587773766889169 0.3353154418963351 0.2524103410525592 0.16137870496373274
0.4547610552503119 0.10877289475491574 0.25003338974117106 0.17397063120627834
0.4599359299143639 0.3006999470306715 0.2530959994717458 0.16207023499414
0.45616325664928764 0.288525401869427 0.25086324474781696 0.1836101292632118
0.4588606806397315 0.3469605519395239 0.252459642244747 0.15784740896722976
0.46734928314078805 0.3221739158268116 0.25748339224961386 0.13605428732884883
0.45863512697028896 0.14206288368337985 0.2523261544005678 0.1910726903489962
0.45961422138466124 0.21923148747331295 0.25290560497189046 0.1701660006800842
0.4598924547974512 0.36283746436388925 0.253070262914257 0.15717154922023535
0.4693775961406326 0.3677345012878801 0.2586837680964517 0.14388989618729142
0.4704328613820338 0.356829984879765 0.25930833785311913 0.13392692038565848
0.47873885613238726 0.35369155061198326 0.26422391908136145 0.09976021666031627
0.44964453201623716 0.25710116309171843 0.26442842168588065 0.14560644449682894
0.4471027328193814 0.2870234833562764 0.2628393663563942 0.12712903416072127
0.45041829865172134 0.24598538035245054 0.26489328886951935 0.16072555354767992
0.4556434691341129 0.30486099822942975 0.2679856474633741 0.1628570660389154
0.4550246946713464 0.3254782508977132 0.2676194502291887 0.15529529885151597
0.45198879988301155 0.26710636373673036 0.265822743068939 0.1541940819907725
0.4505701066821075 0.21617819778829234 0.26498310881836923 0.1481675039729163
0.448649697366872 0.10854312149379758 0.26384648129744165 0.14245879836292522
0.4575682873517528 0.28902987747576486 0.26912477262023593 0.13570019970990205
0.4475593022932335 0.19244961489083112 0.2632012622250949 0.13765428335433522
0.4486185897098303 0.20503213211123683 0.2638281713925384 0.15182233537791767
0.4473672807499212 0.08083931172105756 0.26308750653975915 0.17359167801892356
0.452110969246023 0.2323124068313098 0.2658950223119912 0.15987706063957194
0.4549380667521268 0.16758824672050204 0.2675680991703345 0.14710488934500526
0.45759655590782 0.10072532159373848 0.2691414397230849 0.14896808465197145
0.44884358111297007 0.06376128112419227 0.2639612038869841 0.17207339309446532
0.4589776294611234 0.13746294704139864 0.2699588032264434 0.15044983698020759
0.45144560128322725 0.09161730789051173 0.2655011511182558 0.1539189032432855
0.45261683971167616 0.12971896873344485 0.26619432941978716 0.14101315612770282
0.4580665278840395 0.11336828844788338 0.26941958421037693 0.15062319071323085
0.45514982992612707 0.18325285521668644 0.2676934301872846 0.14519859323787992
0.45158640270219763 0.14719539158754513 0.2655844963546514 0.13439309237469646
0.4590894763886379 0.25057820900440236 0.27002502852710963 0.1492283996159695
0.45837691828381294 0.05760963586379325 0.2696033153129841 0.1413067716451035
0.33986780190706767 0.0195000022649765 0.18675297762421644 0.09272446870389044
0.4219780089860473 0.019500002264976498 0.2336510237536975 0.07663896649246821
0.44972652680526637 0.0195000022649765 0.24981105585812505 0.13455650076634096
0.4018941231507371 0.0195000022649765 0.22494222499071082 0.10483257337457082
0.26793160666125393 0.0195000022649765 0.14421794725871023 0.07219079343185808
0.326514161286666 0.0195000022649765 0.18010099870688429 0.07783710131291482
0.36719671062726605 0.0195000022649765 0.20668633328306799 0.07658023691902346
0.28616659304822567 0.0195000022649765 0.15433336266810813 0.08024404928281963
0.18856362464196957 0.0195000022649765 0.09841823081598981 0.081943425151393
0.0881579378066796 0.0195000022649765 0.03844289531702957 0.07609684016556423
0.06587391444629909 0.0195000022649765 0.02800644995837025 0.0675313887717197
0.12215080679913867 0.0195000022649765 0.06022759110051538 0.07651521911923982
0.09749776271667361 0.0195000022649765 0.042972526584029315 0.06973955667531848
0.25663467184109495 0.0195000022649765 0.141686770852872 0.08462542895037527
0.31430431805650033 0.0195000022649765 0.17676560829812238 0.07122146131289722
0.04223486508687941 0.0195000022649765 0.020961966957750693 0.08911249926372243
0.4605945942388617 0.35334870794995726 0.2622007981910372 0.1671487851398866
0.4800259553460222 0.36909420298573326 0.26584037555455303 0.09786317472018967
0.4535651520753615 0.22934700510465778 0.24959877525147142 0.16818996258928767
0.4537390224643604 0.24050441622111507 0.24962357602104004 0.19890070623870054
0.4530075845120561 0.07631493054477798 0.2495192441436383 0.16161607618510615
0.45177964836590856 0.27653202699433477 0.2501283074523983 0.11700612447920843
0.45209859790906776 0.35526623455262585 0.2498889866081044 0.16432774641525538
0.45182456048992825 0.31365959593422127 0.2500946080548918 0.1587117567718529
0.4515221072456779 0.26053566727065913 0.25032155105363846 0.12627218611341767
0.44582715804307865 0.1569988492400962 0.2617444163078653 0.128117752514634
0.4457389406847039 0.2245257948442649 0.26011647579557917 0.152268238951627
0.4677445551678113 0.18993220883274708 0.2581727026457479 0.11444815181251203
0.46647414925474634 0.12047982779181296 0.2603186327549387 0.13371163223170546
0.46304495397792655 0.23784781238114722 0.2661129253464728 0.1420131705856661
0.4628701845847233 0.31811306891869473 0.26640867152428965 0.13638711756446284
0.4677536160204765 0.20155273653118688 0.258157463125732 0.10933176586502492
0.4674743465173681 0.3033544296474467 0.25862988877800286 0.11928478544451254
0.46396346266001615 0.20961227090138235 0.2645609451585511 0.13239089865061998
0.4623476669344683 0.26446584208538954 0.26729114374587265 0.14817422094662988
0.46749736678242737 0.17638897636882697 0.2585902453942068 0.12023106944543004
0.4669315463733734 0.28425341072482757 0.2595468324071071 0.11269514794514918
0.4670124137405121 0.272667514489776 0.25941013910997807 0.12239715471110506
0.4653804615955202 0.09343973130990696 0.2621669576675332 0.1445615392901284
0.46392839302120015 0.07898987224804253 0.26462090460553667 0.13710954881570905
0.46039802547935893 0.27840419518398596 0.2705857095357519 0.13257293675582765
0.4632862633497407 0.15829906134182314 0.26570557158930125 0.13601419403567042
0.4633844867324342 0.06556028337694655 0.2655401356551283 0.13703179308710076
0.46539767909748764 0.14149758922722622 0.2621375754077367 0.16447358248399868
0.4615314404348151 0.219767387145931 0.26867069296151497 0.14245376402621865
0.4609721742579669 0.08767191086680995 0.2696165876910105 0.15078951454872602
0.4715458479847443 0.33445879768681347 0.2642158590835417 0.12400889077512539
0.4642558509904238 0.3344554581539408 0.2719046703199591 0.1358565633009481
0.44567397069377507 0.18161563971267974 0.2613264264245482 0.12967992300713446
0.44562202284349584 0.3347173445763481 0.26079912072396955 0.2128080770770646
0.26590815931173345 0.05249999463558197 0.14556256148886987 0.20448851042019453
0.25718406831982255 0.33650000393390656 0.14612450393112822 0.19215249027486228
0.359791164150592 0.029602817305286293 0.21125840358889597 0.07025303954071543
0.35033821953449806 0.03656979370044645 0.20566396643115006 0.07190925264795502
0.2268961739075701 0.04338322766480078 0.13260858135991374 0.09629851920353506
0.30569435719874544 0.02502416602422716 0.1792428716019317 0.07004755331002105
0.27457680318371636 0.03576428718952679 0.1608268996328592 0.10001462996031478
0.3033643617440267 0.035504917747684474 0.17786393196655095 0.07068209676521667
0.36830829518016794 0.037933522207163325 0.21629900326264437 0.06244336324171925
0.2935477699978789 0.04052388025525227 0.17205428205669426 0.06871008390834407
0.37913988229531587 0.03442643706530164 0.22270934651336055 0.07315435571370123
0.2834578021161427 0.04129482568266502 0.16608284425544137 0.06629797031206872
0.3574172416135376 0.041442835146718246 0.20985346661856202 0.07585113291808014
0.24208034268280762 0.03873974690513432 0.14159486673371616 0.12005029328376812
0.32274318471934305 0.033854042165709974 0.18933269360896487 0.07123898894176374
0.26086939414926946 0.04040783407536298 0.15271458914912808 0.14043531485850844
0.39869913557065145 0.036582683649878156 0.2342848890523771 0.11033753117336269
0.21755439806313123 0.04012223035479985 0.12707993934023837 0.07441321743056395
0.33383406566739815 0.028681175112604543 0.19589649248977062 0.07854725445681898
0.3143048449165515 0.041077025903953346 0.18433871906077656 0.0736842015825748
0.25416529805025057 0.027126373749697896 0.14874698011176352 0.09573898080189994
0.3422096535489402 0.03024978484307249 0.2008533263911555 0.07149049525800195
0.2886550388312089 0.03260487764113715 0.16915867197553913 0.0712168915828916
0.2663438275499115 0.03117094903620077 0.1559544673900608 0.10914307071589395
0.31366505799171757 0.02839222867548697 0.1839600849338068 0.07006503495608724
0.3322669557507521 0.041881239812637305 0.19496904234462953 0.0769299937846058
0.2500866361951479 0.04920163454643753 0.146333145467424 0.17516841590396912
0.2668344206294909 0.04934294429261656 0.15624480848750094 0.17662425257719921
0.3889676170261539 0.04340229610891205 0.22852559111954956 0.06458856941211102
0.32323867194794087 0.046527371813861795 0.1896259328690395 0.08382526663868593
0.3416100130573112 0.04306342362102751 0.20049844443798412 0.07573418641518324
0.20764185323897869 0.03716732992412008 0.12121355193002531 0.07053921010766985
0.11567381016870468 0.033287073129395384 0.06678620184045955 0.06395354716950633
0.19163503091243625 0.030438623753783124 0.11174078437736652 0.07278968887987917
0.1620220776967567 0.04254307104692106 0.09421521698534344 0.078630828153026
0.22497383797201245 0.030226946983511107 0.13147097994444537 0.07383899262095288
0.05612505686763913 0.03595864936808759 0.03154466230187602 0.05826235667315732
0.08602867685223539 0.03495141465255076 0.04924190932415452 0.07133510696707245
0.1828283187290144 0.03660744094504405 0.10652870864453623 0.07344809238960909
0.17076615269918483 0.03824769378756892 0.09939016619951689 0.07338241718434144
0.197774879553628 0.039149870258719584 0.11537413248392335 0.06890247149876638
0.1345050743002186 0.03660247010664361 0.07793060243844148 0.07026752792468792
0.17759860671025002 0.047105458257269 0.10343339956320943 0.08582766582198594
0.1025746450075423 0.033392278671233025 0.05903400145717017 0.06740709168242212
0.23955647653527848 0.023522568665578385 0.14010131433262688 0.0802966555431203
0.15327854984749253 0.0388600943900194 0.08904083561579972 0.06930803230512637
0.14195947073518903 0.0446890668011672 0.0823419301972068 0.07028107724514365
0.09122244885766115 0.04559889153336171 0.052314531457472675 0.07499747105279503
0.11956400699763133 0.047416297845223075 0.06908748873992539 0.07078494711399687
0.10025827625634261 0.044536348753444956 0.0576623781292189 0.06405851254860626
0.06602743004735576 0.039906071501337056 0.03740451066416494 0.05910749308502789
0.07910738501156166 0.04138570203610463 0.045145302666905876 0.05758983487370106
0.07604032702438346 0.030078230779663283 0.043330478923613615 0.06241025951945169
