x y z curv
0.7432872435441764 0.1433600597832491 0.7061991582212727 0.2803488749446679
0.3778574757168147 0.3779022903341207 0.7061992999769219 0.16025790079886246
0.49865634658852465 0.3523223129378977 0.7061992426931608 0.17477886653262129
0.6010926729784493 0.14386635562377947 0.7061992315911234 0.18030832636794128
0.11938603587441422 0.711262484652407 0.7061993666398624 0.2954516122951158
0.6742311775765589 0.20497990525726306 0.7061991815383477 0.1523101791127415
0.29817349874854465 0.1759508822805101 0.706199381670679 0.16137275876113974
0.6187185828986856 0.22838134411354188 0.7061992055260391 0.16369064695972405
0.17152274629595163 0.13923694491545052 0.7061994544772912 0.2211447371418166
0.16714982199380082 0.21776091533675107 0.706199440981019 0.17343417136565065
0.1091607642675626 0.1749603076061824 0.706199479531657 0.2991769604350426
0.34088224678934953 0.4895168590942578 0.7061992966865551 0.16950886007981464
0.4515272796965008 0.07817629826040129 0.7061993220516767 0.27552636904081695
0.15486023089790513 0.4021168998008634 0.7061994103401857 0.16611176057890564
0.4386038951385683 0.07805693437839467 0.7061993287530945 0.28296233647451163
0.1903352527523831 0.42221413490900334 0.706199387977878 0.1537537903142296
0.21829322337860316 0.46135741457164103 0.7061993656780368 0.15504452855548048
0.10127993928926791 0.5020198733223098 0.7061994179795155 0.28554197482349947
0.3441865618576038 0.5476817806366954 0.7061992833085006 0.1557544595353574
0.12746847987961996 0.6545853183460255 0.7061993738359018 0.27049685873000906
0.24613069841250185 0.3276783524292549 0.706199378117065 0.16376578689424917
0.06912176562100035 0.39453242817133316 0.7061994561627674 0.3039410152294353
0.3733060351377494 0.2394147276560936 0.70619933011601 0.16261370604098585
0.6054082561963839 0.0915274917708033 0.706199239863011 0.3087907740404329
0.26909218260925044 0.5902405779302715 0.7061993135701292 0.15441506250543158
0.5211156128585561 0.29424445884774564 0.7061992427417929 0.15112928739491538
0.08266477812600329 0.773411659039736 0.7061993731434457 0.24859144539830624
0.5147348571988691 0.21072954716515718 0.7061992627958806 0.1596094813840958
0.2374824061673255 0.4071026499216027 0.7061993666492109 0.136323974720511
0.22541347306233614 0.44378775627147227 0.7061993655243609 0.16257750495650264
0.24082193415148123 0.5741999754167285 0.7061993313957968 0.17159883545260424
0.5007830300108648 0.21670112633272093 0.7061992688065504 0.15880720769861026
0.3452680930401971 0.3279604333657413 0.70619932683652 0.14965180465600156
0.7003842532484016 0.200751098761894 0.7061991688736502 0.1809795327447442
0.10374920392980999 0.7634076077505974 0.7061993642564982 0.22293294284354387
0.5334522539256394 0.2738127006487812 0.7061992404671029 0.16677655064832397
0.2837546651923599 0.43151363689770694 0.7061993378424589 0.15720883881199177
0.06914112573402298 0.44887229124627104 0.7061994452495312 0.29757515630036724
0.06424548682551923 0.4821421598707874 0.7061994411035287 0.2765849153628472
0.19449508932773849 0.32710053840504105 0.7061994049129418 0.19290940745135587
0.28826145700310857 0.1488417221657711 0.706199392231619 0.1576641569030128
0.33062068583640614 0.2932373206620035 0.7061993413719378 0.1507858202025905
0.5531699164956559 0.07439819941129522 0.7061992702913522 0.3064358669247295
0.08354463339181326 0.718267698752546 0.7061993837534015 0.25714778224572643
0.4518996213584051 0.39800292329255815 0.7061992576864341 0.17074792702584968
0.4696502515814278 0.12471475780972695 0.7061993033497104 0.2781464268240947
0.32902154227844943 0.11151678765353656 0.7061993786602316 0.2890373265614374
0.46276229155313603 0.11468080940819186 0.7061993089219958 0.25516093570293513
0.46864251439010574 0.2210079584325655 0.7061992845492816 0.17676374564231168
0.12102980275708188 0.12630399354147437 0.7061994831618013 0.2550760087031847
0.6379020699453715 0.15800315414192706 0.7061992097353035 0.17132576590508972
0.1336974612363594 0.2590388987764305 0.7061994499833559 0.20163278738302395
0.17530825688915702 0.5382580519295493 0.706199372458192 0.1684846884074451
0.4242278559348224 0.30393163418149854 0.7061992908596377 0.15521101383391148
0.08374690171551676 0.10850897308945989 0.706199505996297 0.23339587337101642
0.39678023431916815 0.22812268382273043 0.7061993202527093 0.1805381576337765
0.42517893978151866 0.19372931670867233 0.7061993124801879 0.15539592070149325
0.5212754283520615 0.2652915047315868 0.7061992484685946 0.18031902025309932
0.5303479695001782 0.24147016977734392 0.7061992485605685 0.15356043258952579
0.30485109269920335 0.2431048192601037 0.7061993647460272 0.16470699543799389
0.06343105906108208 0.3154841459681149 0.706199474964085 0.2573989788282457
0.17593879761859482 0.22656152276639885 0.706199434673954 0.1692910527127033
0.05583597848851886 0.39662558628407707 0.7061994626074973 0.28196888106344903
0.4275496807071248 0.3228274545563951 0.7061992853518373 0.17979637674832707
0.41091537202180883 0.3911006657059294 0.706199280247783 0.156122661501894
0.06995602435965743 0.2451871413404003 0.7061994856976737 0.2823441764149779
0.25731238245690036 0.27099432007739943 0.7061993837131155 0.1631656582444589
0.3792528236752258 0.3656015406731502 0.7061993017240821 0.16717884507392644
0.15419484549696172 0.42251212301455926 0.7061994065917094 0.16227870672886457
0.49500957051363204 0.3994277851567978 0.7061992351257769 0.16643042908478345
0.5938562159800486 0.2885430926791109 0.7061992063009498 0.14845709125912493
0.6524007641483105 0.1817986069535478 0.7061991974693478 0.17367378861005991
0.33007517689332205 0.556308668352086 0.7061992888688287 0.16458003658808606
0.205490784709294 0.5570486660876303 0.7061993530926695 0.16688672666060125
0.14710767098703492 0.6100286384789612 0.7061993726286483 0.15571867614252746
0.09328251224701037 0.09622627959378964 0.7061995035337891 0.22075608492615822
0.5838903839324012 0.20228596619583225 0.7061992287576564 0.18031093746711088
0.5750377307465293 0.1374405572979575 0.7061992463429503 0.22666061263087672
0.532787090373368 0.29936770080365727 0.7061992356832083 0.1640842872018204
0.32242868476660935 0.4241158255176247 0.7061993193440905 0.17422452575573824
0.463212349465049 0.28214554140078724 0.7061992750878412 0.1864841724107082
0.5134081699202528 0.09587335801016345 0.7061992865271414 0.23758508483661517
0.17435115813246582 0.4653751463824299 0.7061993875765952 0.1786401766300847
0.21416406362211327 0.47331977089800076 0.7061993654113259 0.17312374106592157
0.1711198732631498 0.49018916996351763 0.7061993842672827 0.14777648927448966
0.2797638581158005 0.24119816918789405 0.7061993780910809 0.16723841167032907
0.27108143128924483 0.3085391811722542 0.7061993690653617 0.1500147780491141
0.05710719561776251 0.3276127025775257 0.7061994757980218 0.27681750388973825
0.35951235139903925 0.3573443264055502 0.7061993135807161 0.17338628455832278
0.200979228898326 0.651286564935249 0.7061993365150455 0.14853981239026784
0.3530328961684978 0.1987808521033721 0.7061993487442119 0.16232996744647707
0.2969043435053985 0.09038852076300677 0.7061993994944393 0.2720092265162879
0.5054983789272322 0.1441983530633744 0.7061992809177464 0.18320747804830684
0.14443619182616252 0.4779413283526882 0.7061994005121635 0.16973021995748738
0.06899441556515665 0.7407271112861953 0.7061993867649923 0.24074129131115196
0.6506310249273939 0.08015099596577596 0.7061992187792455 0.23972072589512056
0.05865551460335772 0.2494166239497337 0.7061994906879665 0.27894546722407143
0.2698485630428593 0.3436644140447934 0.7061993626545418 0.16883238714534274
0.6299809474552026 0.22660115813547302 0.706199200064007 0.16849574025075698
0.0917239525532745 0.8049169279718031 0.7061993621411049 0.2373263009032109
0.3154212259866598 0.29735462286145364 0.7061993483993136 0.1817551652875639
0.6264962368782507 0.18036671635140406 0.7061992111414339 0.16137893435410042
0.405388006524088 0.08859079473163539 0.7061993438020209 0.27402005794261597
0.043804933513492884 0.3328640918651495 0.7061994816175688 0.24051617983906948
0.08372389369621072 0.4959732773658886 0.7061994282639056 0.29753286449024785
0.284475241834662 0.3082143667429976 0.7061993622100002 0.15153907336696246
0.3318005793774306 0.4079063241655887 0.7061993177540837 0.16022008108247499
0.1353801503681813 0.5719085314352781 0.7061993863369741 0.18016058526503687
0.21345000530383118 0.6484977221075886 0.7061993306310171 0.1642053006599666
0.4082762515524966 0.18243773316132433 0.7061993234793915 0.16092163069467705
0.5085302146659866 0.3614163007060386 0.7061992357666691 0.17718266924775375
0.5986202437891184 0.2779725976017315 0.7061992059603512 0.1562856657075437
0.5679991952361318 0.14723881273282236 0.706199248013728 0.2006538248511808
0.23441335292361073 0.30009570556391246 0.7061993897058036 0.1564372661237152
0.20245572059311495 0.16013158199579886 0.7061994343018458 0.13853178645281988
0.5160755854743645 0.33829072799758747 0.7061992365081227 0.1573573442620069
0.07473961252864977 0.5302654613387005 0.706199426025364 0.26894738353850495
0.39473668565274317 0.17124271204507688 0.7061993327215064 0.1510339348775097
0.17937125358231068 0.517318795710484 0.7061993745602942 0.1720087827949668
0.2049106383729572 0.31903470883389334 0.7061994011496635 0.1662560473264
0.5271371221280754 0.15792974100702029 0.7061992669818957 0.1521379409174076
0.6124310410038841 0.16571733970793862 0.7061992213482526 0.16847350411900874
0.19481227294555273 0.26681295472718525 0.7061994168456903 0.1642116922324973
0.3874229327582566 0.3878456783820769 0.7061992930393539 0.1736353690470231
0.044477557378562654 0.121556331215761 0.7061995236686923 0.23966716960802442
0.1923086034671408 0.38583632824851394 0.7061993942574207 0.15541085908532185
0.28298232934771483 0.09084810515869557 0.7061994065956803 0.30584520713866475
0.4052342022889569 0.2710186110895933 0.7061993072775536 0.1400453104845422
0.3527670612239326 0.3783355287611996 0.7061993128541226 0.16538540950624075
0.48509299372375825 0.2929223606087368 0.7061992616198319 0.16339478787780362
0.49545215553244126 0.11532032896180913 0.7061992919029383 0.2720557217057956
0.2522457772000644 0.1364287868733487 0.7061994133314367 0.24590785799930465
0.09866568453472706 0.2220933319869714 0.7061994754972394 0.28222657379684646
0.12797715893475164 0.5252366761831126 0.7061993995267296 0.22583102951103934
0.6307808734660684 0.12417490771928566 0.7061992202024008 0.2546500901431124
0.08085762310685951 0.7852877110205378 0.7061993716942799 0.27217691548821776
0.43726339678936654 0.1346742996161437 0.7061993180855143 0.19661824703022676
0.39287015138016995 0.08724116411419408 0.7061993505407549 0.23879541224971002
0.3080870137121026 0.3682509093977095 0.7061993379636149 0.15939952278693995
0.22961199256999562 0.20129615175976737 0.70619941201067 0.16539139068119615
0.10258086611482431 0.5938324125869427 0.7061993988852477 0.2463344765813904
0.15608492058076345 0.5010678266797832 0.7061993898529999 0.15626838588422806
0.46183853876383907 0.3389545575602507 0.7061992643990187 0.15703926637865298
0.7073744547942256 0.10301798341197844 0.7061991848718778 0.2834090561493058
0.44896441731586734 0.4441615962008416 0.7061992499413576 0.17180291012452847
0.07298896437411966 0.23200565171355886 0.7061994867754152 0.29277579107666263
0.048666515636561734 0.2831532156982445 0.706199489080038 0.2777430293376403
0.5232626565131928 0.17767724066412496 0.7061992650215049 0.1567007124625374
0.08740724356243586 0.16481710511341538 0.7061994928068474 0.2899957141893196
0.09893313714349186 0.4079568595865791 0.7061994380657385 0.281735703619693
0.542701464379468 0.3048977726404539 0.7061992294508831 0.16606023085469848
0.3315299139665805 0.5443195326224224 0.7061992905227776 0.15683881280074422
0.18497790438703787 0.6404370602953511 0.7061993469598151 0.15185338873949447
0.09446740036107416 0.6708142146012462 0.7061993876311347 0.275714160019903
0.1696359297049936 0.27654780616122543 0.706199427900932 0.14571523001898307
0.2490629915234405 0.1710841488686798 0.7061994080224112 0.16029304308225498
0.19942858340762792 0.3054704055700636 0.7061994067038845 0.1541436031545704
0.32025104297700946 0.13742769609969485 0.7061993779929232 0.2065718120430906
0.5001608446957905 0.12862323206626947 0.7061992868007625 0.24942819966621535
0.27425146691831737 0.3617292026501106 0.706199356754897 0.15559216380239055
0.7386265882185203 0.15602287190279332 0.7061991580886379 0.26944628909064217
0.2191180053435991 0.6248668116568724 0.7061993324438971 0.16239844195533984
0.13751826837919517 0.17999133949710985 0.7061994638699626 0.21004905601951324
0.21268070664948469 0.2853047820294431 0.7061994039027685 0.17264626058620514
0.24437141572599513 0.27404035366509516 0.7061993897884847 0.15153620739957327
0.47255040948768484 0.09865499074949784 0.7061993070800721 0.24401670502917944
0.1222587447045218 0.2543439576608294 0.7061994568357355 0.2802169556642022
0.4381418924108156 0.3747404890108454 0.706199269462586 0.16850847861918747
0.3125721663987515 0.3096190982654226 0.7061993474105596 0.1641159326921279
0.22218662025769986 0.32833461562643723 0.7061993903572081 0.17491457327520796
0.38249288900266565 0.15821123111525282 0.7061993416625856 0.1487553042779575
0.4137157566125774 0.4127702268003464 0.7061992744528609 0.14727929013114613
0.20836233171923302 0.66216630409324 0.7061993305172145 0.1597594450834658
0.41168338576874697 0.4278043768531091 0.7061992724863942 0.17146822929941666
0.1685901116606017 0.3708767786071215 0.7061994095142996 0.1641555986245225
0.08768994092584073 0.6574013282002139 0.706199393824305 0.2826978497154478
0.38501630048703717 0.13403265137014636 0.7061993452101527 0.23417404444793627
0.41659961654601546 0.17508063974145865 0.7061993206549304 0.14538343671192455
0.2683815304935903 0.21075030376759565 0.70619939008162 0.17115145437764528
0.22944111102451162 0.5168935420166146 0.7061993487747003 0.16242521178083605
0.37865595630833987 0.44100268963937794 0.7061992869033252 0.16243322439730318
0.6278614604878665 0.25474335442321566 0.7061991955124383 0.16271131476833178
0.2870895954100354 0.5060319921911596 0.7061993211672875 0.13515617801301089
0.36519197712228346 0.2496132255966787 0.7061993322621982 0.14009002789133873
0.4507618170695443 0.1727827081984154 0.706199303464518 0.16171367374244977
0.17376978902056553 0.2561602695106528 0.7061994298557177 0.16454728079858436
0.37109817286520896 0.16228248358750502 0.7061993467333033 0.1646959743311937
0.38617959758270864 0.4147020946503323 0.7061992882930709 0.1623504827329361
0.24779216922013567 0.10295818940201384 0.7061994223484384 0.26141386651269233
0.4264638129864759 0.155662650590481 0.7061993194543323 0.16419589979706928
0.4490261866546596 0.4302306043228555 0.7061992527046796 0.15151138601218408
0.542232076710188 0.2876208350560945 0.7061992331600123 0.1565392807946012
0.32674578679988364 0.2779074317734896 0.7061993464500098 0.17069593294464577
0.3989278352507979 0.13293917337615663 0.7061993382415163 0.22652123348975703
0.5450733346841138 0.1345360519529461 0.7061992624082348 0.23391025277100203
0.16039764543483212 0.5779936136277385 0.7061993721895569 0.15277206263187226
0.2438454207272111 0.19276931292699329 0.706199406367208 0.1690662593619201
0.478718534474049 0.18012990265534212 0.7061992875451734 0.16033981806550515
0.20537589048910482 0.6158271080171274 0.7061993413582062 0.15487397085578394
0.4240305963887007 0.2271325589517095 0.7061993063712098 0.15209832579632693
0.5234576821394469 0.2023714812510996 0.7061992599658641 0.13938848671929085
0.6142538309554098 0.2812946111981992 0.706199197215973 0.17594123062120512
0.3100103517341617 0.5344510601046413 0.7061993036219583 0.14745695319033586
0.5348600236744594 0.14577793282192097 0.7061992654297462 0.19123834383156935
0.33739691976658387 0.17688495231460957 0.7061993612166542 0.17538152670613197
0.5396007386928077 0.35520670555841594 0.7061992209585861 0.17086884057421403
0.07038490603665912 0.5927749734744789 0.7061994157329619 0.2651531569056208
0.21669544582816744 0.5972578615441415 0.7061993392353302 0.1675025095821668
0.327358347211986 0.38200738382031024 0.7061993252459629 0.14953379432788472
0.20174362603297946 0.49480002435481507 0.7061993675189338 0.15868851667400158
0.12044658070145454 0.7540578689376242 0.7061993575050365 0.2406327825990194
0.26300892952464966 0.31870355139570156 0.7061993711969257 0.17794867676395068
0.5211452656375013 0.22364551556390785 0.7061992568920703 0.15890797337126034
0.2342274142477166 0.5043196964320582 0.706199348824562 0.16814250422305965
0.5967211809834314 0.08225629024575833 0.7061992462118487 0.25344443799234384
0.7597059181730921 0.09763373188667705 0.7061991589127374 0.19426221549770767
0.20717128890622205 0.270772899531442 0.7061994096652714 0.16480011950792425
0.3211508359786975 0.25582133516386296 0.7061993537724519 0.16526379716056402
0.35248907567793697 0.445847003337656 0.7061992994516549 0.16776128172050278
0.19196647726301 0.3705476059270822 0.7061993975018612 0.15738338189027776
0.3064978218385122 0.12920239210186732 0.7061993867495626 0.26193489575856055
0.4155259105303769 0.3741408720066677 0.7061992812684974 0.14913371692050784
0.43950833965766367 0.2640303107025395 0.7061992909704211 0.16352948630742592
0.44198003620341836 0.4073255066447653 0.7061992609412833 0.15886926910396137
0.21003730691125713 0.3817673732931779 0.7061993859134928 0.16806395750234465
0.40057773026409205 0.4767598485608166 0.706199268401787 0.16496929416227143
0.2721680381526801 0.25649833837409874 0.7061993789458527 0.16745542344580597
0.4230015795792508 0.4257469714343074 0.7061992670511392 0.1558783076432014
0.39178513867623666 0.3538939640677525 0.7061992975977909 0.14420701814179354
0.17945809182993194 0.10139506079228276 0.7061994579700578 0.2519327958176747
0.21387413327404226 0.3932734487031835 0.7061993816223369 0.14025217710089496
0.05343700819733398 0.08203404862420212 0.7061995269694772 0.28041861329650425
0.28183931832743775 0.4194122306381612 0.7061993412602455 0.15573608039498443
0.17408789460630558 0.16611257818268985 0.7061994477593223 0.1551522599731834
0.5481059504685022 0.20111117646167626 0.7061992474830685 0.16761598802377625
0.09221296677624757 0.7649553248396466 0.7061993699066841 0.2716582299913908
0.4116833361886727 0.46014013241490437 0.7061992659982868 0.1673436909974594
0.1771825033378326 0.3336986231951285 0.7061994125343962 0.15621708415106
0.19547743766742995 0.19817644574535465 0.7061994302738409 0.149346798453982
0.531595088895372 0.21643173534558538 0.7061992529401201 0.15287687193395827
0.4438391320989723 0.20562779910635057 0.7061993004511145 0.16721115141901044
0.5112497298924602 0.12120789142165142 0.706199282559054 0.24483617822471104
0.292585960817232 0.35315217484910943 0.7061993490024989 0.16513820728038522
0.5235091204572498 0.08692639807615112 0.706199283103213 0.2621840966783038
0.2391507540761891 0.21927192666001455 0.7061994034752062 0.16304820267153047
0.07891933696227127 0.13799451168367652 0.7061995025744425 0.26664089486421566
0.5908350769660129 0.15202581872996826 0.7061992352540001 0.15515391560201927
0.10311265466983835 0.2367352945159711 0.706199470261612 0.2945666987315442
0.07093689078834865 0.7798428425505438 0.7061993779127943 0.2425806653117393
0.7345050880918963 0.08439204409323743 0.7061991745908481 0.22181521011902497
0.34200620618728583 0.23383903277543108 0.7061993474072793 0.1701218331931803
0.3888989512189213 0.2410366239868697 0.706199321733773 0.1487294909058425
0.2207117284834707 0.6377831278458413 0.7061993290287816 0.17632574044042443
0.20790187921357656 0.6801705054593861 0.7061993271426059 0.15877291453677442
0.3535860326622404 0.40371590612514807 0.7061993073384187 0.16088261027642944
0.5430097626479471 0.21537722674087356 0.7061992472537839 0.14841407742050544
0.32706824807728785 0.39717843295210686 0.7061993223518022 0.17024474243725676
0.46362062312422897 0.17423067675853976 0.7061992965298846 0.15834497129303263
0.3619156680535115 0.3703734989781598 0.7061993097246418 0.14870640438832175
0.2027034888511825 0.1767744701571731 0.706199430834448 0.1612681960207941
0.41508142675550513 0.11017545932589173 0.7061993344625257 0.309565632782235
0.2197552919726392 0.6099524415935691 0.7061993351071649 0.1656377911281363
0.20108966441168433 0.6914465540538931 0.7061993283999269 0.17054067125872444
0.2628934679205258 0.4887431361356516 0.7061993371383317 0.17699366504508784
0.39690979526594833 0.31602537115981144 0.7061993025481896 0.17056978572731857
0.2684563437969277 0.16866108370950764 0.7061993984881192 0.16655730356335857
0.10754679660720948 0.7774213071515467 0.7061993594824622 0.2745132442872224
0.5828085317700381 0.07915895229782804 0.7061992540219434 0.272892346572423
0.4767875639255026 0.3320409305638285 0.7061992580621212 0.13803036152072187
0.18034604546132973 0.4547734196518994 0.7061993866062825 0.16661074006314416
0.16312548443315567 0.6568470251546388 0.7061993549582432 0.15234181180547904
0.13756870282022365 0.4947854442079282 0.7061994006808181 0.1842328220931711
0.6630733865433108 0.08261734490113994 0.7061992118554504 0.2722786834635128
0.6518752203006873 0.15507084365188406 0.7061992031037903 0.18521339934731995
0.1684721834790759 0.5601958957000909 0.7061993715885635 0.1609569666280867
0.43872957331227375 0.15520835418993909 0.7061993132078109 0.16607067953056592
0.39291022663413416 0.12158340995726805 0.7061993436293149 0.27788541913580983
0.26628183193352045 0.5004281115688424 0.7061993330429984 0.15630481660726742
0.3798181727104853 0.2049420329523578 0.7061993336681189 0.15396108153112256
0.2253136179940504 0.4194936906557535 0.7061993704505328 0.14591017044158566
0.09537548553896447 0.17879710875951216 0.7061994858846125 0.2674873954266803
0.5835789217329074 0.22641652474415377 0.7061992240768182 0.1745245378316303
0.4812638546827039 0.2784303466430645 0.7061992665061412 0.16195816222726347
0.24166521978742433 0.5336459049066775 0.706199339097203 0.17013763251776456
0.17167420584886584 0.7191709271299731 0.7061993380359273 0.2186421877415898
0.31124039055407915 0.41699891880068574 0.7061993265530424 0.16209015228200252
0.34238261775531875 0.5253937494003099 0.7061992887126608 0.14705669617358277
0.36825068646424214 0.2859358896689027 0.7061993233936719 0.1401375485770566
0.508724097121996 0.08391857637980352 0.706199291346099 0.2768328178831636
0.5450969230503511 0.12021865032322705 0.7061992652688174 0.26150745378857504
0.5136125378808643 0.16635378253302827 0.7061992722797267 0.16669444145484577
0.5016894522748642 0.32846828523069066 0.7061992459122497 0.16293427948310119
0.5738029105376736 0.21686453683301138 0.7061992310446449 0.1720892448476053
0.43486670805693783 0.2530547316131547 0.7061992955709736 0.17424204935727602
0.2007624665844811 0.28298376161651384 0.7061994105265917 0.16616449974813483
0.13297958136192445 0.07751393138026724 0.7061994867770637 0.27826834617399815
0.142768050516599 0.39333048096245954 0.7061994183511583 0.17620550333716853
0.500354405391784 0.20504759920501184 0.7061992713662864 0.15164042402693662
0.18908619384005476 0.5100982204153259 0.7061993709894189 0.17672577296036826
0.49494782750270994 0.24613004576582756 0.7061992659166993 0.1691201016980744
0.3912917624756308 0.4026433195238316 0.7061992880712129 0.15640594091041599
0.7717505267258247 0.09452504718273248 0.7061991533130842 0.24565706041562038
0.12198892690159044 0.5606902330627249 0.7061993955071116 0.2629438639452312
0.4959523133834329 0.17424687275035822 0.7061992798209633 0.14567226568715042
0.41543891700333213 0.34435735420258856 0.7061992872894762 0.18493244673003617
0.5170722161535545 0.13308391821476667 0.7061992771676842 0.24863210786726145
0.07411823997332304 0.804190942120577 0.7061993713835834 0.237506683293367
0.3999006676644726 0.2571770463616092 0.7061993128106668 0.16564931067593483
0.28638594033549847 0.18183786372041016 0.7061993865800531 0.15831742017886358
0.29154757957898864 0.1200218283045795 0.7061993963163704 0.23607401288150012
0.09718940310157137 0.5405332022531674 0.7061994123654248 0.2978924964553842
0.5733895485732953 0.0860801586450566 0.7061992574999668 0.27382705521285755
0.4663168872636776 0.08230147709096661 0.7061993135822255 0.29786590912236954
0.21634975408724744 0.22598807162833578 0.7061994139088162 0.18406907103816206
0.4748753445377933 0.3692688060669321 0.7061992515804267 0.1638937319390811
0.1463848843821922 0.7004173358961392 0.7061993548657185 0.20679527108400653
0.3563395715963568 0.2663851658895035 0.7061993334709342 0.160415869488001
0.3561693067297089 0.2786003588960479 0.7061993311079446 0.15750994268385043
0.18185017830277936 0.18008141155129007 0.7061994409457467 0.16233301755687515
0.0538414981000984 0.29287589683848886 0.7061994844552975 0.27475434449992536
0.2040586971624418 0.4222989527129935 0.7061993808700036 0.1531253727118462
0.591712078036432 0.10628741384000637 0.7061992439782165 0.29225033219630175
0.12513724245248756 0.22524616491045124 0.7061994611868655 0.24801312355918634
0.5984560371641888 0.30415624893970783 0.7061992007914759 0.1443290855605219
0.06926226369905639 0.4163436776650141 0.7061994517137695 0.2746306107704488
0.46192126167724634 0.4035810300548971 0.7061992513890467 0.1622054256071293
0.3368029041327176 0.3378167414393853 0.7061993292327964 0.1728167732019226
0.12209280146709289 0.5377275121250749 0.7061994000608844 0.2690758587372436
0.3840828616492692 0.2671827778510323 0.7061993189760332 0.15112372940029017
0.08585794038750166 0.2775186589057065 0.7061994709939261 0.28285129883432103
0.13166863774188942 0.7030913765333048 0.7061993619330085 0.2688851228051259
0.49286985252287463 0.36419334758722244 0.7061992433011122 0.16031050603824673
0.1099441426194449 0.54175192940403 0.7061994055305592 0.30280486776350174
0.15447519887092814 0.7449990401651826 0.7061993417402121 0.31340378389964896
0.1931664845964638 0.6627465853853703 0.7061993382524231 0.14292538070862099
0.42390961084014933 0.4606954174062039 0.7061992595695961 0.15092444510081626
0.3412136661637687 0.27410862592993673 0.7061993397367332 0.16184941231309005
0.38631053692631445 0.2549480975900063 0.706199320279876 0.16572664776953905
0.13309191126438996 0.3999096859383426 0.7061994220306755 0.22047346091128392
0.46871645929122363 0.3861338563157899 0.7061992513787476 0.16338757349819924
0.20895936312306554 0.08220132197496005 0.7061994465780559 0.2881717416710938
0.1692344688382367 0.6132552861804456 0.7061993605483858 0.16394438762362565
0.1908078657092001 0.6870829758327376 0.7061993345880435 0.16604459337131275
0.09416701258119356 0.3423389703065769 0.7061994536945344 0.2693893230995093
0.20750538121734252 0.6384117252372374 0.7061993357263276 0.17694580382253355
0.2577667234059306 0.5233353376926957 0.7061993328464161 0.1641412808182042
0.0677577742859966 0.5454801033111379 0.7061994265800545 0.2834174732391427
0.07994800505517993 0.42239175216738084 0.7061994449789448 0.27462727611834425
0.2836102863294198 0.5951979743241498 0.7061993050739797 0.15679292378153117
0.1388042826809066 0.7127480208045089 0.7061993563084508 0.2778969586401123
0.06473450430992288 0.25906101411796423 0.7061994856118377 0.27617838811909584
0.40064020927908645 0.37259724602272903 0.7061992892696142 0.16702509217618114
0.1538602616481506 0.18622051340162346 0.706199454176235 0.16813732911769488
0.44582562082146454 0.295278319572201 0.706199281436426 0.15801110972878202
0.23453281070642382 0.48285824915227504 0.7061993529729802 0.17074784209565647
0.1669751000904462 0.5280370173320911 0.7061993788147443 0.15965825153099206
0.4412157926056752 0.3376113786638994 0.7061992753242271 0.17377395135563106
0.10490494192285957 0.0948329407562395 0.7061994978080921 0.21942357054780848
0.2933208499210668 0.5736442366275618 0.7061993043812986 0.17179558382717536
0.11799653175659469 0.36211817060531293 0.7061994374132305 0.2972396387339905
0.3726564182228497 0.13314678077559022 0.7061993517742096 0.20242159118089587
0.06898856801545378 0.3280373234181526 0.7061994695737583 0.301665259559714
0.5573062784068092 0.308123100302607 0.7061992212574684 0.16584070234174167
0.2673972300581967 0.29745991835543384 0.7061993731920173 0.1671093077622872
0.046884893551577114 0.3855478382785945 0.7061994694552294 0.26168296031400495
0.2738421935725132 0.27348795314986046 0.7061993746718752 0.15452392093777598
0.7508935470439515 0.08764905046264974 0.7061991654694739 0.21500698061561063
0.33232991205688345 0.43317579418172103 0.7061993124102884 0.15839862403998867
0.36265005972944 0.5254353137651857 0.7061992782322043 0.15397697199238275
0.13935311406761125 0.7485535472205992 0.7061993488405328 0.25288182874908627
0.5350865649844153 0.20526883975396698 0.7061992533759092 0.15360472809190043
0.14390767476090763 0.3052841133241578 0.7061994354287235 0.17675353735008717
0.24938870853785597 0.36206949388964693 0.7061993695331183 0.16168333554003814
0.419487458656283 0.24502727264820034 0.7061993051280788 0.17991073858939738
0.41044191809768765 0.2279689146988458 0.7061993132246185 0.1496823251039273
0.10774304482348923 0.6603166290323451 0.7061993828779842 0.27552730665143893
0.16655901466193646 0.6897822099967346 0.706199346575742 0.16171316003320738
0.09492425247595668 0.3632216352253221 0.706199449113188 0.2685241305649998
0.32147793084499526 0.08927963601929575 0.7061993870198491 0.28459551356880275
0.2621640144024959 0.12758029680948843 0.7061994099821578 0.23712487884111508
0.32942540929156217 0.22284325815359135 0.7061993561140231 0.1810463465763853
0.38476786008184055 0.18535392321298905 0.706199335040965 0.17025216628324877
0.19530254028234453 0.5700975307962122 0.7061993557386597 0.14918725400455624
0.5725654075489216 0.23409998340863006 0.7061992282257852 0.17184148401303936
0.29658287794344135 0.23026799468714912 0.7061993715938794 0.16653203274849296
0.12621905996235247 0.7357967621992901 0.7061993581864874 0.21710407504222382
0.141162151981708 0.337402515281589 0.7061994304028042 0.2122754843680816
0.05292217200686543 0.3087725487533548 0.7061994817406646 0.2747176649648274
0.4286176340021373 0.1154049791804867 0.7061993264191173 0.26642018661886274
0.12904524355558594 0.344805036540971 0.7061994351782609 0.2584360487996925
0.2002812526375796 0.1446207836305825 0.7061994385376102 0.20809091760095244
0.296546635006048 0.36364400066605235 0.7061993448508594 0.14599608335232425
0.1019866033670006 0.6248271746484529 0.7061993929732368 0.28686800913822347
0.21402047841941357 0.14013138336200343 0.7061994323393934 0.20448502416665956
0.35695541607683395 0.21580368713683268 0.7061993433018467 0.1761369376964471
0.1872842394396725 0.5443429414278491 0.7061993650493174 0.16925173754866216
0.126688740049256 0.45113610789780917 0.7061994150606474 0.2349378371550931
0.401098082065507 0.34126464585954086 0.7061992953198841 0.15916461090616466
0.11947481371677221 0.39509878178876867 0.7061994300318848 0.28241395409044623
0.5960130783164601 0.1775757553247918 0.7061992274519788 0.15652509149040336
0.12886374647170107 0.4820623103608694 0.706199407731521 0.22439997284067628
0.0808590270971204 0.5398228414105658 0.7061994209458061 0.27271461423124294
0.6300916761379863 0.14843103051184978 0.7061992156915426 0.20358543544513133
0.39955081011623256 0.4278763763422358 0.7061992787408072 0.15775428046760623
0.4001917587566286 0.3879327693543211 0.7061992864242714 0.1624750414224471
0.38877883493804266 0.4716371737591871 0.7061992755260942 0.15635042626482826
0.04380049394736094 0.1902238515668138 0.7061995102404676 0.2612130620016396
0.6437174414413719 0.16909894488809357 0.7061992045041634 0.15976732587856982
0.15223747973201415 0.4613891822966842 0.7061993998024348 0.1601999929742349
0.18614069195451266 0.43395003060366155 0.7061993877903986 0.1673348962390196
0.5790455188942386 0.30267536792585126 0.70619921111796 0.1453443800669173
0.15268994735411434 0.6615594539889469 0.7061993594047051 0.15394060191002992
0.3335709434227072 0.36616527400422233 0.7061993252146377 0.15287580852172913
0.1730563058805348 0.583440364288024 0.7061993645559869 0.17062386952902991
0.48888189652956204 0.09323533809421451 0.7061992997290969 0.25975563254475753
0.23318905549044433 0.6085737756892111 0.706199328442614 0.15177732049588122
0.7070652555288796 0.07499648550972232 0.7061991906541223 0.2779574588114223
0.42528650098650833 0.3561908712783491 0.7061992798268821 0.16275856364177993
0.12866991780482015 0.7703960346185538 0.7061993499778323 0.2398919815809963
0.2955360797619629 0.48508375977419227 0.7061993210062578 0.18500762565113088
0.058713618268380896 0.13691070034734978 0.7061995132321324 0.2986412112448151
0.27641276960378336 0.28924275431696106 0.7061993701824842 0.17091092635313487
0.4088703973642946 0.2861725409407655 0.7061993023581252 0.15552765927760756
0.1197182447138086 0.7260055294087865 0.7061993635100358 0.25765693289091557
0.2012085596196846 0.39630206516614974 0.7061993875589061 0.1331430310926428
0.22748314567714215 0.5294133819464193 0.7061993472742822 0.17289749095356619
0.2935674910898059 0.5423295161847079 0.7061993105371237 0.1589080248247353
0.6384998754221699 0.07490604837117128 0.7061992260997609 0.27469183823762106
0.16816100896116806 0.32568170563074667 0.7061994188043564 0.16094044531518337
0.33566248243555696 0.1649320125509885 0.7061993645111759 0.15909468931826704
0.21670320743220717 0.2604210731784249 0.7061994068172448 0.16572192703236338
0.7161714384734679 0.09542757218654652 0.7061991818495146 0.2526355599164054
0.07778629247889424 0.6645755080176089 0.7061993975019943 0.2855262339984041
0.38721016044691287 0.2966024176575402 0.7061993114571509 0.1694779878255564
0.1604427847077192 0.6422169175686012 0.7061993592798994 0.15079596346313562
0.5930264970418082 0.2147381094594435 0.7061992215385501 0.16372118480844805
0.168863531320986 0.09398218021240894 0.7061994649316163 0.255722651949165
0.23244199951913067 0.08541225961986457 0.7061994338003887 0.27887136688937597
0.0353751764894976 0.18050376467875107 0.7061995165441243 0.2143075619075885
0.6461013039469624 0.21987622482781596 0.7061991930840255 0.15994591432127123
0.20082638606312625 0.33836933651949963 0.7061993993805111 0.17768153907054332
0.24625483872736306 0.34054217900859446 0.7061993754718097 0.15622303783481198
0.5418306341699085 0.2659500230505766 0.7061992377156605 0.16392181476486842
0.33736138854319003 0.1270102332265967 0.7061993712423196 0.232798364549954
0.10196476145484676 0.5737650032592057 0.70619940323009 0.2791789651473183
0.4659441287051473 0.30823552780903446 0.7061992684414138 0.14983383108578952
0.4507507273759204 0.3812135266838021 0.7061992616488373 0.16889985186056786
0.14855769096456223 0.08864117553121018 0.7061994764952397 0.24051511386345234
0.06294481917011069 0.10574913942805951 0.706199517298418 0.2731955294850386
0.4943422005162265 0.18644554058189103 0.706199278205254 0.1678806172819758
0.5380702526988815 0.10197165412802373 0.7061992725607129 0.2744815434047906
0.18200052058049757 0.0888819570196621 0.7061994591671339 0.26772257818172157
0.31236036421453306 0.3784615577551007 0.7061993337068345 0.17141983943233505
0.06995570392763277 0.7107538404736693 0.7061993922824013 0.2722584166821191
0.39367579338844527 0.19191725623133954 0.7061993291213415 0.15301061136361024
0.4960954294372001 0.07549865584637777 0.7061992995607351 0.2807977388314454
0.16613637369723294 0.3861091166774268 0.7061994077257858 0.1630874334126798
0.4269987461276213 0.14131222224128479 0.7061993220573317 0.1781642149872613
0.6989176109469472 0.14477797519594593 0.7061991808624037 0.21638827282806014
0.16634156721904317 0.40775571976644476 0.7061994032763964 0.163307967375372
0.1058806790733825 0.5561987252476756 0.7061994047314032 0.28530061467647394
0.2102092610407145 0.12570959059233755 0.7061994372023526 0.24203340932490738
0.43420447691094943 0.29501872457751277 0.7061992874931178 0.16450838856373273
0.1804677622043373 0.625838605825474 0.7061993522193534 0.15615830801979758
0.33211631472528663 0.35120241982517264 0.7061993289685193 0.13565279281136872
0.17005059279386014 0.3128634880420631 0.706199420399976 0.15369813782178876
0.6015403965061499 0.2054198503283166 0.7061992190091462 0.16659333820910707
0.08562690037561957 0.2016171775773489 0.7061994863428511 0.28946410572387893
0.16938465565941496 0.6330319080912864 0.7061993565026278 0.13794538485730973
0.10081274526409546 0.330299893918631 0.7061994526763348 0.2692800290190481
0.1816937676215607 0.12841176137915988 0.7061994513940211 0.2640598367319381
0.11396694334483584 0.6282924348166681 0.7061993860877362 0.3061486607065562
0.2212143261115856 0.35721247084080077 0.7061993850652797 0.15913339953001612
0.2632475597285282 0.1997561599420033 0.7061993949402874 0.16996533888016618
0.6778934040962618 0.08769195786998878 0.7061992031797837 0.29618374193156416
0.3970266397145118 0.4586979995610986 0.706199273860713 0.16926768136731343
0.3496428694179745 0.1356474852738612 0.7061993631634664 0.21415049453222024
0.17655456951102275 0.3978492782950968 0.7061993999870901 0.1513936822247872
0.04402897270773259 0.3968069320399073 0.7061994686717491 0.24446029201755182
0.226693213355391 0.6515285187833286 0.7061993231801718 0.1598159113842002
0.0496295427024954 0.361842759888564 0.7061994727934761 0.262335139852841
0.14581054986867636 0.5657331614995597 0.7061993821867042 0.19285836908973394
0.12299549387103166 0.32422728186567884 0.7061994424330489 0.25823792187228334
0.14945728335612984 0.548851423457482 0.7061993836897518 0.16751155204933096
0.29134231880139816 0.5607299037481834 0.7061993079948452 0.1551727374850746
0.06072111509475084 0.35227527967797156 0.7061994689822035 0.2799096210551022
0.34413560439310065 0.2941415357864679 0.7061993342073969 0.1670999600586742
0.35682925964820134 0.47418739332105575 0.7061992915226294 0.15797141461091496
0.268094588103553 0.5182674188038504 0.7061993285269168 0.1503233252733045
0.1510212614047648 0.4484322930584444 0.706199403030636 0.18729954622046327
0.35451183455941965 0.534998246433095 0.7061992805184052 0.15370569154043526
0.16039238179884752 0.6991978136213923 0.7061993478727893 0.1661960940283457
0.056336846527068024 0.1169859673916742 0.7061995184580774 0.2753462132764362
0.6185500901717683 0.07584150274825091 0.7061992362200475 0.27170867614020133
0.049702384728172955 0.22218216896801843 0.7061995007785804 0.2731878267323932
0.2739554261178347 0.39635230840008884 0.7061993499607727 0.1547658319864959
0.04029330085114513 0.17016927016489547 0.7061995160765512 0.22609293453412227
0.5345791507142955 0.1143046129176041 0.7061992718899588 0.2631507298732355
0.347576219789943 0.35147457828196943 0.706199320925832 0.16082350513417884
0.3108382041398061 0.46093354866941755 0.7061993179454165 0.16146399359034955
0.13294242436519121 0.6818147316254837 0.7061993655439824 0.2308439057888793
0.11316508083364066 0.6008337899357493 0.7061993920116023 0.30543832366778484
0.2485976301976175 0.48242802204880486 0.7061993457920617 0.15488973575297746
0.3685761900741181 0.08782104631435222 0.7061993629770073 0.2969556060415301
0.08899741188944318 0.3179354985297042 0.7061994612621786 0.23416848841525162
0.07424781587617928 0.19738940374745909 0.7061994930706824 0.2527306776817928
0.33969384667310676 0.38612075695666453 0.7061993180469097 0.15909583459032361
0.2064062155348703 0.2307601222731584 0.7061994180891012 0.1652844558316436
0.18531619216922962 0.30847802451243916 0.7061994133922325 0.1745846301708545
0.21283469249274573 0.19415245895117456 0.7061994221128164 0.15848723564244913
0.054744676470986624 0.34187900336024024 0.7061994741562099 0.30289494897216374
0.3758066394147188 0.5205673055836151 0.706199272411006 0.1600796770830789
0.5241173550186319 0.11835786384907485 0.7061992764822518 0.28808090656804713
0.3043427108984661 0.5589655810048344 0.7061993016315975 0.1497399583078449
0.16872180466741898 0.5070528785455782 0.7061993821226722 0.15921968903169054
0.12051050575162482 0.19490781093041035 0.7061994696648409 0.2892640987869018
0.18805646242851237 0.25358191959084786 0.7061994229911864 0.1710568603002424
0.36692482934524256 0.1110631628746261 0.7061993591667548 0.24647770899023597
0.2797699327425196 0.4071445420071895 0.7061993447909879 0.15395190315361929
0.40304771807991924 0.40073978024993606 0.7061992823788947 0.16031926184299672
0.1014410871901197 0.48557079631524025 0.7061994211967397 0.29386507647158083
0.3290111126572919 0.09772931311323953 0.706199381432062 0.26878810038262985
0.3023373287138509 0.49958555433385116 0.7061993145823073 0.14894029619691423
0.06277779681650983 0.5692430199394557 0.7061994243851888 0.2996054864857905
0.3651317835996623 0.4101258176113593 0.7061993000866279 0.15565860072227622
0.7251759069530299 0.1680664137846274 0.7061991626220347 0.23066693219730022
0.3028383536193642 0.21855348952993864 0.7061993707121992 0.168954464158451
0.5722403424515571 0.285373103541033 0.706199218105851 0.16474251453300512
0.42981740505108107 0.4474469495846418 0.7061992591753496 0.1549375665444665
0.54925969936993 0.32408910369059607 0.706199222211547 0.15941824485966205
0.19179551053603572 0.46807412103176615 0.7061993780216129 0.16502160557442744
0.22740522789146767 0.3696927501266106 0.7061993793623083 0.1398362040463941
0.12773420330107385 0.11657426554212194 0.7061994816499199 0.24776755383619556
0.1451969700724308 0.16420834574761095 0.7061994630692443 0.18769950414618772
0.2282426589704526 0.5847827625455686 0.70619933577204 0.16145411761632614
0.41513150208321314 0.4434242536052443 0.7061992675706539 0.1721394268782615
0.05636633910002718 0.19476548250242126 0.7061995028364659 0.2648434006014829
0.13768797605217892 0.09923990971978676 0.7061994799849594 0.2681138953618058
0.3442024302686636 0.24709047024066202 0.706199343613612 0.15739576223958915
0.10181916844686326 0.1891980136527914 0.7061994804682541 0.28141062370140685
0.38511921094297624 0.28186821255171257 0.706199315493939 0.14447789588612586
0.3159517511136038 0.23610112777936154 0.7061993604156385 0.17546141067604254
0.6099166264104718 0.10805963235447259 0.7061992342163963 0.2890790419422637
0.21596152171999322 0.5840041847428871 0.7061993422738816 0.18110166358806576
0.23643761016321485 0.2843031251739512 0.7061993918286407 0.17210026175118598
0.5635508861057356 0.21318227651715735 0.7061992370806714 0.18462081197131597
0.08623324419016934 0.33090061841613355 0.7061994600889775 0.23450701254851578
0.18905932443831266 0.48179068438592837 0.7061993766831776 0.13565683378186302
0.17938760317408414 0.3661410716851563 0.7061994048854878 0.17043136044486928
0.037715233619547484 0.27111991146970776 0.7061994971529962 0.25101287906221914
0.48321019186455244 0.3507828490677437 0.7061992509830267 0.171318171196719
0.3914792856173939 0.10694951292782379 0.7061993473049522 0.27835280670703016
0.2061166881850087 0.20903947786561167 0.706199422596922 0.1506884451489804
0.16860879437024687 0.10684147222109293 0.7061994624830354 0.28691493908238624
0.11327726837017332 0.4781611609344517 0.7061994165677612 0.2693853855586583
0.7753763717303684 0.10564267477353056 0.7061991492088833 0.23991624193398445
0.35541139423903895 0.42919945616120414 0.7061993012820149 0.15991293808306378
0.22765145561186512 0.14288186067705547 0.7061994247444348 0.1714293896880732
0.47568752016462956 0.1622731300001473 0.7061992926942293 0.16449037939667244
0.569452755079187 0.27134017361249707 0.7061992223618794 0.16225188038286978
0.6378260879226161 0.1358986943599175 0.7061992142097984 0.20852535679552683
0.528422880148089 0.3424151978212796 0.7061992293007484 0.14304291987406328
0.1437492120343648 0.3570249354704848 0.7061994251288626 0.19123183301569752
0.24679103629677188 0.20401820050136954 0.7061994025881421 0.16625182206328634
0.16768686442291403 0.07607579606981091 0.706199469132492 0.27506025724334715
0.19740217867505577 0.4580191172112527 0.7061993771421924 0.16831793003182935
0.28578600095917395 0.2818374709612207 0.7061993668252302 0.15826736281493323
0.18092856878479344 0.2934818249572317 0.7061994186682727 0.16520459838105606
0.12114552706718067 0.6387984875264651 0.7061993802705595 0.2689650863551832
0.6302116427382921 0.23860509528050658 0.7061991975362311 0.18140823016281535
0.534491183504853 0.08912996325570881 0.7061992769866764 0.27754532627158696
0.25492650929817084 0.5499769191520749 0.7061993289683413 0.16419871136006295
0.07977200787612686 0.7604724967761662 0.7061993772343585 0.23782277432171992
0.3244855228820855 0.5132454420957946 0.7061993003975715 0.14242647977241718
0.3177992025571347 0.33314466041023194 0.7061993399893904 0.15137338120923047
0.46462526208377675 0.19819154225819985 0.7061992912030703 0.14993809389060514
0.2577550681587356 0.4663127881536236 0.706199344293949 0.1608729514982082
0.26510283337496515 0.5672949982221391 0.7061993202354169 0.16327058976189596
0.29888414822882925 0.0781758304187263 0.7061994009219438 0.25992074095537154
0.5035821074533637 0.3135721034255052 0.7061992479232235 0.16824559536535752
0.24001436069079912 0.6367714649451055 0.7061993192581677 0.16490530179693308
0.04510036468402328 0.25832266815971294 0.7061994959048774 0.24712282517123876
0.34171650856493985 0.10259165583341916 0.7061993738916046 0.2729404840696989
0.09509947718754498 0.129842938787099 0.7061994958498246 0.2794501829311906
0.6662430383736861 0.18103775152957516 0.7061991904697578 0.16604478738492337
0.4586004508093908 0.29760857067791874 0.7061992743681536 0.15803005044450716
0.1006399759363309 0.4690450548789905 0.7061994249265428 0.30692550180302414
0.27941398347438695 0.1716853004869621 0.7061993922195393 0.18004679685043037
0.03738754860823819 0.22461593627918927 0.7061995066532807 0.19292204073571603
0.1823513030964365 0.6579625809382232 0.7061993448004946 0.16788927696233424
0.565341244986325 0.18702439444931607 0.7061992414041491 0.16583114275253877
0.13375959968885645 0.5868248644606852 0.7061993841813615 0.2009541308274222
0.4012259791277701 0.3019680934144709 0.7061993031386096 0.15984259295635775
0.13504672499931497 0.432777706917538 0.7061994144256983 0.22222362816733432
0.1785514457379457 0.24217330404544235 0.7061994301915213 0.17472403356616026
0.49883769114622467 0.37397471880177946 0.7061992382549296 0.16715351974710502
0.25697905741334626 0.11525986637532576 0.7061994151332877 0.2791804050404178
0.6404910314677476 0.20357343411409323 0.7061991992539705 0.16120918945807258
0.5533942933656354 0.2731006184233107 0.7061992303059992 0.1531308985968548
0.3042734390387484 0.1638888450118243 0.7061993809390954 0.15796067264487995
0.07331819034457875 0.38084895846769623 0.7061994567400621 0.2849198576565089
0.09323333569508141 0.7789290645033118 0.7061993665756476 0.23891811303460855
0.1378303144604073 0.7614357783010607 0.7061993470425527 0.2761027513602686
0.22300575682084758 0.48661629140209817 0.7061993581749219 0.15604610447995138
0.3975030341771425 0.1451795845113761 0.7061993365216812 0.18824488751036386
0.69764871947817 0.16236432863366412 0.7061991779893535 0.17727789942164546
0.2667495977137526 0.32931548558085244 0.7061993671348628 0.15791332724206564
0.5656418217805002 0.12578842545451474 0.7061992535357708 0.23026542456137047
0.42987575614943957 0.4043901119271153 0.7061992677845061 0.15976387199575443
0.06813433442561073 0.11868260705447425 0.7061995120219277 0.24544587546793636
0.3956134295943389 0.44633987517953166 0.7061992770705576 0.17168378898253212
0.1629772851733395 0.6688477319864676 0.7061993526268887 0.1637081793976939
0.1078425918420481 0.12374916474337794 0.7061994904882106 0.2537571419784366
0.2697205096545742 0.09128789260436082 0.7061994133597734 0.2631398934563522
0.3859047406777072 0.3092656527572705 0.7061993095907928 0.16194931080306477
0.34374163464131713 0.3126288006640184 0.7061993307015106 0.13230495184989433
0.5837902849142554 0.09375202193613968 0.7061992505865918 0.25574211489069293
0.33617686584772477 0.501251813317977 0.7061992967632036 0.14593908521079274
0.5201182056923108 0.36688363967874554 0.7061992286821791 0.1718994519931963
