x y z curv
0.3542880146810275 0.5167066982858035 0.6769999861717224 0.11301063035321408
0.32312279403065997 0.49235665065253414 0.6769999861717225 0.15256778489991382
0.18847361221313377 0.5181733229658764 0.6769999861717225 0.12183332022642253
0.3734103268703457 0.4907240523369949 0.6769999861717225 0.15032765730527453
0.3455740034077948 0.48875448918781206 0.6769999861717225 0.1404365762962526
0.34834867599178676 0.49921636897580923 0.6769999861717225 0.14834501126825972
0.2140595701068573 0.5102063363815995 0.6769999861717225 0.15692328340717107
0.22415325126009344 0.5194980847795145 0.6769999861717225 0.1354355370982059
0.34097942287005145 0.5144986829615904 0.6769999861717225 0.12689095567277384
0.30185691653589386 0.5109146416347186 0.6769999861717225 0.14166807511116566
0.2709866694977185 0.5086781649884176 0.6769999861717225 0.15012428482995277
0.2509382131530698 0.5125693516234199 0.6769999861717225 0.14747949451226153
0.33715354402617664 0.49743122392559236 0.6769999861717225 0.15152381089826847
0.3713370900516781 0.5107752232435577 0.6769999861717225 0.12697033394142396
0.2840783818050828 0.5169084245391472 0.6769999861717225 0.11568459292788043
0.2033858335048206 0.5189047350089292 0.6769999861717225 0.140393283422574
0.31891859936800665 0.5030777647169697 0.6769999861717225 0.1637898227578206
0.38409344467856105 0.4984883647077567 0.6769999861717224 0.14897835597728779
0.35739908124187014 0.49062138188595394 0.6769999861717225 0.14448488131659804
0.3825374214647877 0.5139398111365957 0.6769999861717225 0.12862903212857363
0.2937547227731472 0.5022144065938947 0.6769999861717225 0.15427847570279368
0.19944609793296936 0.48020013286704427 0.6769999861717226 0.10545686378883379
0.20087095643053415 0.5045277046426576 0.6769999861717224 0.1564953841871853
0.17172223437991388 0.4914233320302863 0.6769999861717225 0.1622162483727997
0.22608302241609288 0.501618400839179 0.6769999861717225 0.17520382513765814
0.2302622295653134 0.4889944075190413 0.6769999861717225 0.1636096393768302
0.18620378197684162 0.49132855899819405 0.6769999861717225 0.16512083941283112
0.16295832635231172 0.5142022094680517 0.6769999861717224 0.1333969798501505
0.17893110380320693 0.5083209621103584 0.6769999861717225 0.15338021942724928
0.2724182349339196 0.4862083441506031 0.6769999861717225 0.13538060127820953
0.21210251461441024 0.49934196818816684 0.6769999861717225 0.17678121358026352
0.2883205323905427 0.4845198576638977 0.6769999861717225 0.15044825594849723
0.1639838780259225 0.5014008939730152 0.6769999861717224 0.16260337330076632
0.22093366107792733 0.4821129556077439 0.6769999861717225 0.13440860186260187
0.15630849895061388 0.48897163510606495 0.6769999861717226 0.13304408467053985
0.24367578116204344 0.48928788949567337 0.6769999861717225 0.1344769623007749
0.2808119190742839 0.4947198834517475 0.6769999861717224 0.15206976138462439
0.2577522673372118 0.4952235682249746 0.6769999861717225 0.15979184943031807
0.3014802308464613 0.49136913729838216 0.6769999861717224 0.1478205850846862
0.2549648014889445 0.4847055395283425 0.6769999861717224 0.13972649707589493
0.2460485606606084 0.5022960755503999 0.6769999861717225 0.15465528480439106
0.32313154231048635 0.4803096067390187 0.6769999861717225 0.10337614119959054
0.5117698892718006 0.5199999995529652 0.6918705175376255 0.14001043267815966
0.5897044379824763 0.5199999995529652 0.6928038705269524 0.14390520801695636
0.40800573535845264 0.5199999995529652 0.7007573779184182 0.24228476494036863
0.5441070612131089 0.5199999995529652 0.6974272609319011 0.24919185649998168
0.5568314289146902 0.5199999995529652 0.6893392786520953 0.12587924349128984
0.6039096735825626 0.5199999995529652 0.6918794096724249 0.11367661668438876
0.5241894528741324 0.5199999995529652 0.6915883787391582 0.14223884822381924
0.6274811201452153 0.5199999995529652 0.6958011890286883 0.27853385049177337
0.632449661529841 0.5199999995529652 0.685496142988883 0.23144868040158686
0.5727666805156484 0.5199999995529652 0.6897624818228056 0.12330278100126386
0.6166600248420765 0.5199999995529652 0.6872123945921453 0.1539937395064603
0.46246774578051525 0.5199999995529652 0.6823010195337675 0.11192354919553012
0.45007961945228264 0.5199999995529652 0.6825124070280075 0.11799392494784922
0.5054535344005642 0.5199999995529652 0.6783515707482726 0.12281618598896073
0.6093889719408702 0.5199999995529652 0.678086726517905 0.16444514909276012
0.6231730137375961 0.5199999995529652 0.6773656776098377 0.20379708766645413
0.4241494558830587 0.5199999995529652 0.685905578021531 0.11671368776192172
0.414064481413179 0.5199999995529652 0.6811431091522988 0.11871349102153507
0.5875559745488134 0.5199999995529652 0.6801922625147531 0.11921624237820574
0.5460905848614797 0.5199999995529652 0.6800917120586318 0.1198408241481339
0.3775975513719586 0.5199999995529652 0.6921427725986765 0.12110758741097608
0.4874292508465722 0.5199999995529652 0.6791005175888909 0.12868465659292835
0.4748299877170411 0.5199999995529652 0.6897689251072567 0.12912372032434127
0.49157629899746247 0.5199999995529652 0.6896914967059784 0.1485602677377108
0.5352220586324323 0.5199999995529652 0.6852285933188862 0.13714032497500656
0.4167972030113074 0.5199999995529652 0.6939592295625826 0.18131638979502884
0.391733151496985 0.5199999995529652 0.6850483436749875 0.11206487980098227
0.4388707400805828 0.5199999995529652 0.6875834495836615 0.11734427477018418
0.3935683967170521 0.5199999995529652 0.6957060492392344 0.18472743783532283
0.15651575453920957 0.5199999995529652 0.6918248191015614 0.12493557297237269
0.25774848102142905 0.5199999995529652 0.7004734583289394 0.28052728120795545
0.28274673450372145 0.5199999995529652 0.689772523871024 0.11391465044722379
0.2626690036427677 0.5199999995529652 0.6902463270464249 0.12578081834406543
0.3640387066320977 0.5199999995529652 0.6981448902752133 0.21753371007362765
0.2451136178984291 0.5199999995529652 0.6846088287433214 0.11550337592669338
0.23295810545922196 0.5199999995529652 0.6892849344913609 0.12001943509016676
0.35503372499191665 0.5199999995529652 0.6911670625903816 0.12329441958397225
0.30244969028391694 0.5199999995529652 0.6837869234813103 0.1318749409174599
0.31294009215888685 0.5199999995529652 0.6907616724137808 0.14385922463893272
0.201249148298126 0.5199999995529652 0.6897088144963192 0.15419633513494163
0.3636716641783124 0.5199999995529652 0.6827206096293894 0.12021525720059506
0.14247575955442932 0.5199999995529653 0.6898300332603889 0.11081917023207323
0.2158646988287938 0.5199999995529652 0.6930714815258591 0.18047690505195146
0.34151582449687123 0.5199999995529652 0.687093250540514 0.1127732761754686
0.2730175277697853 0.5199999995529652 0.6840578972204236 0.12119970484797077
0.3178670750342425 0.5199999995529652 0.6806963226888971 0.11780528340208382
0.3252683734585956 0.5199999995529652 0.6891321930193138 0.1203732935525098
0.15223321564019585 0.5199999995529653 0.6771991315948012 0.1227141876091667
0.17532193527659634 0.5199999995529652 0.6813479940621352 0.13131343670232912
0.23571210813573387 0.5199999995529652 0.6772955393134233 0.09880666035992251
0.12119030691718725 0.4850712583865575 0.689004039857389 0.06199965347810747
0.13027245628614667 0.5108582579361715 0.6852198109536559 0.08955418990403088
0.12060473674053687 0.49670419475115757 0.6892480274309934 0.07206329627043927
0.14288536561731718 0.5136026348177579 0.6799644320656681 0.1039676006748701
0.13199712100688415 0.4802711544471 0.6845012006533486 0.08415134733000725
0.13259314015996637 0.49639514327957523 0.6842528593395645 0.1068641552514795
0.1431701871428272 0.5025088953599657 0.6798457564300391 0.13514659451549188
0.14404614877624394 0.49006671448202443 0.6794807724161154 0.10756752626788155
0.09985615412098792 0.48379408291421655 0.697893276859511 0.159421393444644
0.119714982405488 0.5172554880672677 0.6896187584983312 0.06337466830277383
1.1804184317588806 0.8445635713502602 0.6711755763875038 0.13009247660176756
1.1804184317588806 0.858645786878228 0.6685735024322558 0.18192238515542344
1.1804184317588808 0.8541516810786343 0.6854585700313206 0.19277838867920288
1.1804184317588806 0.8658589746695472 0.6913949143477686 0.16418211646310923
1.1530209185125537 0.8522273155318054 0.6600000262260438 0.15958984818621091
1.1225994875994096 0.8560932571742921 0.6600000262260438 0.17285920311278838
1.138490386559389 0.8553017520491571 0.6600000262260439 0.1827749799162245
1.0056630507601072 0.86566398837573 0.6600000262260438 0.14351730532108672
0.9588141537064918 0.8658496505904004 0.6600000262260438 0.15241102973837836
1.0620077281317226 0.8622993399441272 0.6600000262260439 0.18388490507132352
1.1461524775128813 0.8643965712086239 0.6600000262260438 0.12921549030335355
1.102641867972298 0.8557861355706017 0.6600000262260438 0.15834553273305274
1.1704772342445122 0.8536365588542751 0.6600000262260439 0.19538209212937757
0.9820876850678555 0.847117494856086 0.6600000262260439 0.14465452611539778
1.0721630666376947 0.8522922466688225 0.6600000262260439 0.16756146505907704
1.0369346235416401 0.8422909239246821 0.6600000262260438 0.1274638030239867
0.9797215651860811 0.8598300511774184 0.6600000262260438 0.13732534322411388
1.0098291139986968 0.8485671730775195 0.6600000262260437 0.15552127356910178
1.0244121730291744 0.8416999846949398 0.6600000262260439 0.11552208151153955
1.1406377965150074 0.8448142450279686 0.6600000262260438 0.1622343265751073
1.1270997905544096 0.8447860438607335 0.6600000262260437 0.1377293670955457
0.9573353598062482 0.8513281067572223 0.6600000262260438 0.1349077781127992
1.0856405835261098 0.8490400772329458 0.6600000262260438 0.18168043459023311
0.9919173320791134 0.8580625123495981 0.6600000262260438 0.17995675452310758
1.0208392818273273 0.8566909673595939 0.6600000262260439 0.18651700409124256
1.0493519086998644 0.8532603374717969 0.6600000262260438 0.14847971430031517
0.9458393632141199 0.8507283900354454 0.6600000262260438 0.16767515949380227
0.9066602904787897 0.8547722960696469 0.6600000262260439 0.13510378709285298
0.8797017940317686 0.8512496525728589 0.6600000262260438 0.14698614129904136
0.7609811722846508 0.8644782950996569 0.6600000262260438 0.12785347545956371
0.7852360697550631 0.8612639418272411 0.6600000262260438 0.19124175434342996
0.884304144790351 0.8621464839394193 0.6600000262260437 0.13238577333543877
0.8508079457867352 0.8582703520199634 0.6600000262260438 0.15467719387586637
0.9270354330268814 0.8488464090220318 0.6600000262260439 0.16978023160511113
0.8616003513763195 0.865500807878719 0.6600000262260438 0.15002577168318196
0.861378860820478 0.8534860360749238 0.6600000262260437 0.1552435201212349
0.8034474491484347 0.8466696250679623 0.6600000262260438 0.13412095016538397
0.8175423350251683 0.8531188187356991 0.6600000262260438 0.16541653412709634
0.7496535059465413 0.8612859434984304 0.6600000262260437 0.12681520483448988
0.8966991545318532 0.8460007164530223 0.6600000262260438 0.12103226880276961
0.759318204516809 0.8522524342230002 0.6600000262260439 0.15623367816377978
0.7718219793259715 0.8536306230384635 0.6600000262260438 0.16610888754631917
0.7945644334760478 0.8538510186987356 0.6600000262260437 0.1724519740206231
0.7362559237252903 0.8483310229242341 0.6600000262260438 0.19607416053672283
0.7373162928730631 0.8614270090364363 0.6600000262260438 0.1517438404687847
0.8334200362358168 0.8517932685015644 0.6600000262260438 0.16435771138508826
1.1101234441538048 0.8660066723823547 0.7016896925457188 0.25222972567329527
1.1301460411166764 0.8660066723823547 0.6928828517174209 0.2227485503395139
1.094174117970442 0.8660066723823547 0.693285630631088 0.20887858531611644
1.1453574748699134 0.8660066723823547 0.6923208436721401 0.21963722769362587
1.0730546433284354 0.8660066723823548 0.6934154563074555 0.23328498284828886
1.1631892052250474 0.8660066723823547 0.6839081632797177 0.1955398166701342
1.0592563792459009 0.8660066723823547 0.6816427114429469 0.19690033892519884
0.972400084416882 0.8660066723823547 0.6694566697053056 0.16636528402074627
1.0206213142239906 0.8660066723823547 0.681004669830226 0.20785765816719973
1.0157116607466443 0.8660066723823548 0.6683828314342303 0.14738284434761673
0.9908399017555967 0.8660066723823547 0.6836323180682011 0.19829605389384578
0.9942991426014184 0.8660066723823547 0.6949485270783453 0.24319580740596092
1.0079466107081867 0.8660066723823547 0.6838467698042514 0.20348855070532793
1.0505268842484998 0.8660066723823548 0.6708300616489904 0.16840443508420522
1.149952433810658 0.8660066723823547 0.6796502406761822 0.19289521970063742
0.9784858697777546 0.8660066723823547 0.6955721451679724 0.24414654889811027
1.044774178276419 0.8660066723823547 0.6920177540511369 0.18809850974088171
0.9585413325867664 0.8660066723823547 0.6901806711789646 0.2143039672139646
0.9626567831535575 0.8660066723823547 0.6763250834963952 0.1958003915941103
1.0312771208727611 0.8660066723823547 0.6819628955083894 0.23325451932212515
1.0021245654443711 0.8660066723823547 0.6717612236867956 0.17856923060869453
1.076641028204752 0.8660066723823547 0.6747767717921493 0.15068900039153907
1.0277557118919114 0.8660066723823547 0.6936654779583491 0.23918863902715173
1.137985398280259 0.8660066723823547 0.6808565895159571 0.20406515450493368
0.9789513697711834 0.8660066723823547 0.6814093624255068 0.219486392727314
1.1262185444328079 0.8660066723823547 0.67745008201433 0.18642899930059356
1.0826133144802719 0.8660066723823546 0.6869787814412782 0.19238522794003748
1.10509153638352 0.8660066723823547 0.6812243941858258 0.17302607237850107
0.9517069926710552 0.8660066723823547 0.6814638080099247 0.1847924546329425
0.8306850283964959 0.8660066723823547 0.6833970869664944 0.19501605287257112
0.9227307080357081 0.8660066723823548 0.6728741657087328 0.172084451081604
0.8440589245055486 0.8660066723823547 0.6864837901808003 0.201803241281835
0.9423253524584816 0.8660066723823547 0.6614193668849336 0.17212720288325042
0.8699566521378245 0.8660066723823546 0.6696517213304845 0.16018154717976835
0.8979760632425318 0.8660066723823547 0.6903783786529695 0.20817114526886488
0.924712866485284 0.8660066723823546 0.6894256190993504 0.20914498239949586
0.9081693631511822 0.8660066723823548 0.6777367475458962 0.1780625111099271
0.7788713398173621 0.8660066723823547 0.6814147612932969 0.1891948653782931
0.8934027122544921 0.8660066723823548 0.674963009668446 0.18599440204839054
0.8187770802103976 0.8660066723823547 0.6735788878593243 0.15683109741000878
0.9034856772469593 0.8660066723823547 0.6654721705028196 0.1743821833734073
0.865341408546525 0.8660066723823547 0.680617165307114 0.19920034259167174
0.8802397507067907 0.8660066723823547 0.6756994832512354 0.19567695458735676
0.8549815903667948 0.8660066723823547 0.6755149565232033 0.17400625806720246
0.9334894210449606 0.8660066723823547 0.6751673791075493 0.18116249345731783
0.8000079930077626 0.8660066723823547 0.6823463932457325 0.19899826330664244
0.8591220153863288 0.8660066723823547 0.69091455343346 0.20633042333836651
0.9373538974341861 0.8660066723823548 0.6936802244081941 0.2175747849025327
0.8856983403697958 0.8660066723823547 0.6849506162402298 0.20556485724600487
0.8796759424073941 0.8660066723823547 0.7019700773334422 0.2772084001213946
0.9132492460368331 0.8660066723823547 0.7000712936405467 0.2497546118596824
0.7883059982457283 0.8660066723823547 0.6946522952373118 0.26897213121254876
0.8115825174217046 0.8660066723823547 0.692524788866747 0.20636283129512903
0.7389951514641869 0.8660066723823547 0.6887368772623172 0.19384845152635669
0.8322175713546842 0.8660066723823547 0.6953357496458865 0.2700265385820484
0.7587715773978937 0.8660066723823547 0.6946503279739686 0.23134448866689203
0.7706731806536095 0.8660066723823547 0.6937612477070363 0.22460851993829836
1.1041616588551046 0.8660066723823547 0.6676772842786931 0.13463100327262384
1.0734594237786086 0.8660066723823547 0.6634732292301355 0.16614414299250782
1.0265554772866448 0.8660066723823548 0.6610202729678751 0.19939346700372995
1.1749097936208313 0.8660066723823547 0.678439537044494 0.18703191427438243
1.1583010066528028 0.8660066723823547 0.6720621220937605 0.1427158467998505
1.03883147165576 0.8660066723823547 0.6620657694845932 0.1742647669579107
1.1650269163367148 0.8660066723823547 0.6624707403444917 0.16781282704024852
1.1270540609219335 0.8660066723823547 0.6621448733370299 0.13598454401797108
1.1174488163625382 0.8660066723823547 0.6701557439073836 0.13146670126771035
1.09046489666476 0.8660066723823547 0.6719100316278293 0.16114089379797214
0.7424509055148871 0.8660066723823548 0.6778369432956985 0.15489525038003632
0.9146299662256974 0.8660066723823547 0.662559594626513 0.16703489812538516
0.831877061254751 0.8660066723823547 0.6707463873259409 0.1599313273605789
0.7589828053029586 0.8660066723823548 0.6768399646304438 0.14200796663536128
0.8459533463331842 0.8660066723823547 0.6665559192817628 0.15741017805058755
0.7898992033128308 0.8660066723823548 0.6714181188623325 0.16442825920990714
0.8103060947431651 0.8660066723823547 0.6600127407597614 0.12591746339025614
0.9278057747380707 0.8660066723823547 0.6620150276001682 0.1727421961212751
0.7976516761525853 0.8660066723823547 0.6616075357406278 0.1797117674799001
0.7710948031318667 0.8660066723823547 0.6672594643883977 0.12591065071840482
0.8229356691483383 0.8660066723823547 0.6614519012129083 0.14937723347411366
1.0285114324037556 0.841953798236539 0.7020000219345094 0.30073415734522974
1.1661313042891444 0.8554979244763331 0.7020000219345094 0.2819937963679689
1.011316038147216 0.8441650334234174 0.7020000219345094 0.2699865337375457
1.1519878414233464 0.8622463537970618 0.7020000219345094 0.28691543425722466
1.1259280680021828 0.8588213783934726 0.7020000219345094 0.2719561868867271
1.0694797146294328 0.8489142287866773 0.7020000219345093 0.3092642854555769
1.034080681190469 0.8513712340890847 0.7020000219345093 0.28296979612862183
1.049119184338843 0.8570045549116229 0.7020000219345094 0.2466057033633026
0.8956427852310901 0.8443706989116602 0.7020000219345094 0.32323084733658103
0.8733079854741311 0.8513485895737143 0.7020000219345094 0.2754234378925867
0.9121814094562475 0.853555804126463 0.7020000219345094 0.26592550597734
0.8294674327368403 0.8452089860599984 0.7020000219345094 0.28741510459193265
0.9335498770873426 0.844266795897822 0.7020000219345094 0.29259619968840966
0.8152119500938286 0.8478603468460663 0.7020000219345093 0.3044855390683332
0.8512513507058868 0.8418669585417999 0.7020000219345095 0.2999942587161908
0.8420668754390926 0.848743821160271 0.7020000219345095 0.28251092100260156
0.8328534695244587 0.8564518300298599 0.7020000219345094 0.24686744619071307
0.8943292316436955 0.8644870774295282 0.7020000219345094 0.2753205014296151
0.7256922447696011 0.8496790124780476 0.7020000219345094 0.2513528068683906
1.1596990981042343 0.8410066962242126 0.6774336980532111 0.2639931018877761
1.1162444723454856 0.8410066962242126 0.6617436804678497 0.10913953323794051
1.0444164330121464 0.8410066962242126 0.6680230592728406 0.22589510630407464
1.171333697199079 0.8410066962242126 0.6624581130239159 0.14658368593428994
1.0885316189944767 0.8410066962242126 0.6695486599347653 0.2211302103475944
1.1465042884975245 0.8410066962242126 0.6734733193198486 0.24845002357297777
1.0969825141039624 0.8410066962242128 0.6604579851255764 0.11301772649537395
1.102982472165808 0.8410066962242126 0.6732206964732805 0.21690539065060702
1.076911706659904 0.8410066962242126 0.6682230032743364 0.22064222205115727
1.159869088044231 0.8410066962242125 0.6660922725921049 0.22409546978571263
1.0583113574150678 0.8410066962242126 0.6689303482967415 0.22331153104622314
1.125796430790483 0.8410066962242126 0.6753906502803133 0.23785509402987498
0.7278633108959284 0.8410066962242126 0.661013984082352 0.1088598086178987
0.8775283770767874 0.8410066962242126 0.6635814592055986 0.16288124743426122
0.8481364386215731 0.8410066962242126 0.6684604137655037 0.22843569314696927
0.7453213225950401 0.8410066962242126 0.6631161118748138 0.13060822356580817
0.7793755780843987 0.8410066962242126 0.6608216583561755 0.10650814335602687
0.7802910940043317 0.8410066962242126 0.6738229532582265 0.24079982584608817
0.7642582104830421 0.8410066962242126 0.6638860998575834 0.1837363359897775
0.8588155477706988 0.8410066962242126 0.6630720361168957 0.19720208472813547
0.8095119455422499 0.8410066962242126 0.6676265048034608 0.22796703051412764
0.8311583232466164 0.8410066962242126 0.6626627649307671 0.14191076130979607
0.7924082395512884 0.8410066962242126 0.6600867260107761 0.09987670995071048
0.7335154144800878 0.8410066962242126 0.6764508059416291 0.18831734576250522
0.8199328501816858 0.8410066962242126 0.6602057128071407 0.11019308530789143
0.9727446536947435 0.8410066962242125 0.6870750262474469 0.2220437753569006
1.0788889277309168 0.8410066962242126 0.6829645985673695 0.2169066848172476
1.0484613439922097 0.8410066962242126 0.6905241639250299 0.21319546327692449
1.0114441149505835 0.8410066962242125 0.6861098219002109 0.23445981029488377
1.0928072588719009 0.8410066962242125 0.6872134389583691 0.2410292028535922
0.9711917520820597 0.8410066962242126 0.6733219897205619 0.23872977199084952
0.9829487980872442 0.8410066962242126 0.6799349562902961 0.23346954004686662
1.0274992621010826 0.8410066962242126 0.6888241027178618 0.20505308966444016
0.9619452957083694 0.8410066962242126 0.6812758158118141 0.23081079659469025
0.9639692883369222 0.8410066962242126 0.6943469329272359 0.21695652804664836
1.0320917153523108 0.8410066962242126 0.6746987182616846 0.23693224622702128
0.9931931861154901 0.8410066962242126 0.6655288689144374 0.20523701338901207
1.112308996870563 0.8410066962242126 0.6818622827380602 0.23357880718810978
1.0211425103723142 0.8410066962242126 0.6758796393016334 0.24762859439246493
0.997550956607516 0.8410066962242125 0.6929745444738658 0.21904657194928207
1.0045504938176812 0.8410066962242128 0.667647537073035 0.2318933993921171
1.0383456589466862 0.8410066962242126 0.6863595373339484 0.23111131669954604
1.0653814003666398 0.8410066962242126 0.679770915780141 0.22958078622664393
0.948900734130062 0.8410066962242126 0.6654321523893016 0.22082968851406967
0.8494618628488573 0.8410066962242126 0.6808637379813423 0.26085037232386615
0.8748716040985625 0.8410066962242126 0.6751375774361279 0.2514708123904291
0.9087408160413981 0.8410066962242126 0.6836540302775822 0.21322418540789329
0.9177818436452712 0.8410066962242125 0.691291774836112 0.21164537635114655
0.8048571997966625 0.8410066962242126 0.6851472319420759 0.2305841852476063
0.8827645663644796 0.8410066962242126 0.6829307230629851 0.23227360156817847
0.8933972172125051 0.8410066962242126 0.6792303965322202 0.24049734872837863
0.8610343838415414 0.8410066962242126 0.6789914999410306 0.23423160170161375
0.9247277278959453 0.8410066962242126 0.6698246052504795 0.23473012948388225
0.7481102019513342 0.8410066962242128 0.6800410467715794 0.24290409855721315
0.9373502014805442 0.8410066962242125 0.6705717048218487 0.22160590013760367
0.7654655248243445 0.8410066962242126 0.677549005217665 0.2393365392677302
0.9300734208123913 0.8410066962242126 0.6806480473469865 0.21100673951504084
0.9481322962999286 0.8410066962242126 0.6802268056806808 0.23766975825156603
0.7965844159921366 0.8410066962242128 0.6748768031438726 0.23504154191703772
0.837127321163562 0.8410066962242126 0.6753345430032126 0.23558546644016273
0.8276330892555926 0.8410066962242126 0.6866106417299198 0.22597312211971807
0.908559998922716 0.8410066962242126 0.6702681861830274 0.21621310713519618
0.8663361939450807 0.8410066962242126 0.6889070280398628 0.2189882534849528
0.9382473450628388 0.8410066962242126 0.6923178117554878 0.2381281759118983
0.8179308743219166 0.8410066962242125 0.6751263716791304 0.21078788431074874
0.7805695750173732 0.8410066962242128 0.6844248972244912 0.23263573955879344
1.1595754865368932 0.8410066962242128 0.692922235612172 0.20930106647597216
1.0720337926640477 0.8410066962242126 0.6911631088835923 0.21439992747211034
1.10595971024738 0.8410066962242126 0.6919348211586793 0.20820092305178484
1.126655828911982 0.8410066962242128 0.6949148838051014 0.2542504827124605
1.1427202246852428 0.8410066962242126 0.6853171069540746 0.22561651888489065
1.172452560324995 0.8410066962242126 0.6884571616987663 0.20278408276680762
0.7284583840280132 0.8410066962242125 0.6942287612345052 0.23742360044133282
0.7932141481040771 0.8410066962242126 0.689786851249053 0.24305736536286837
0.7503457098698654 0.8410066962242126 0.6965033099480318 0.2862781236973116
0.724418431520462 0.8641612719926166 0.6706468212015163 0.10528194925591154
0.724418431520462 0.8630695867053001 0.6894146440663942 0.17369914500120562
0.724418431520462 0.8521512947429128 0.6901335630826521 0.20464810033018377
0.724418431520462 0.852059986027263 0.6647423464742579 0.11724982744943134
0.6801002323627472 0.14460943142108817 0.6819711059430997 0.20640850206066474
0.6407568754585844 0.15561813779652273 0.6600000262260438 0.14173219002511636
0.6780830606721244 0.1532160222199378 0.6600000262260439 0.15368212654379543
0.6501795622323975 0.14546140887411924 0.6600000262260437 0.1885078617025452
0.6193100172314693 0.14459180717605738 0.6600000262260438 0.14424789713676983
0.621325127618849 0.15620073697988265 0.6600000262260438 0.1388121098873395
0.5877165125801408 0.14924566394672278 0.6600000262260438 0.15986815199592777
0.6645536685943308 0.1436553333319101 0.6600000262260438 0.2084416544906042
0.6082140354450979 0.1489158357570367 0.6600000262260438 0.1708793938855421
0.6784647787238371 0.13989317565181758 0.6600000262260438 0.21135573940365082
0.5551713805032348 0.1552720775109669 0.6600000262260438 0.12447120729667865
0.5964108084918742 0.1369164183767968 0.6600000262260438 0.17422374891383988
0.543554913691651 0.14882948148824354 0.6600000262260438 0.1707723732497434
0.6307100303967036 0.14081168656848117 0.6600000262260438 0.17139444653604607
0.5826324157722836 0.13557712470342842 0.6600000262260438 0.16607843641666378
0.5589234704872865 0.14403666890199893 0.6600000262260438 0.16915194194210326
0.6599320920302966 0.13412436328340674 0.6600000262260438 0.18309749163714642
0.5522578285699131 0.13468851347540983 0.6600000262260438 0.1575214570560309
0.5743274590388521 0.1461885236006695 0.6600000262260438 0.151585374506115
0.5117580361604679 0.1487677950602871 0.6600000262260439 0.18451984698781368
0.518269593692634 0.13908897075527996 0.6600000262260439 0.14020870338688235
0.5253222382480386 0.1507936015704297 0.6600000262260439 0.18347822752508713
0.4521932268632745 0.14960000176902338 0.6600000262260438 0.1562448120945855
0.47216583107828514 0.14689385419364784 0.6600000262260438 0.15068838582162872
0.5061644539900516 0.13831788709134718 0.6600000262260438 0.14497846176303988
0.4972411923855072 0.1515047560530554 0.6600000262260438 0.1643544528475694
0.48652595618033145 0.15116280589117764 0.6600000262260438 0.15196736777533312
0.4201019236137908 0.14734977231124083 0.6600000262260438 0.14746914652336096
0.3954026190926692 0.15829322534073498 0.6600000262260438 0.1717128832733721
0.4326870517287387 0.1388008799933328 0.6600000262260437 0.15283374754248538
0.3505404570513723 0.14690333937696576 0.6600000262260438 0.17014069174083662
0.45048476609076094 0.13490568874079864 0.6600000262260438 0.12234797809679615
0.47787281438318424 0.1342207330422595 0.6600000262260438 0.14773879837522513
0.37265495810899385 0.1480196007052424 0.6600000262260437 0.16757103639522877
0.3847487502829866 0.1505960189133969 0.6600000262260438 0.1809184926595091
0.3589864814837082 0.13664727771458168 0.6600000262260438 0.1677931505910994
0.6306788201794817 0.15898507833480835 0.6872773483730821 0.24711707076784387
0.647075319024655 0.15898507833480835 0.6953106516307473 0.25385566529280185
0.5685631653643307 0.15898507833480835 0.6979636142256281 0.23141070197107236
0.676934012690505 0.15898507833480835 0.6917002279415827 0.17704949871045325
0.5978038461854964 0.15898507833480835 0.6917632498111517 0.2380989194867908
0.6557470654656045 0.15898507833480835 0.6841390463128765 0.2237470539016095
0.5861438866209855 0.15898507833480835 0.6896641360857315 0.2103848585030329
0.39042323002974644 0.15898507833480835 0.690462799160608 0.21440336625645018
0.556819489989043 0.15898507833480835 0.6905286915250853 0.23063953764635764
0.4520151476072223 0.15898507833480835 0.6926166818355872 0.2350488678110157
0.6406685926717365 0.15898507833480835 0.6836591961593701 0.2278744345817129
0.4705126520376469 0.15898507833480835 0.6851942610808646 0.24711624392279075
0.46527357654681345 0.15898507833480835 0.6997913832261309 0.2820616768390209
0.5003205802419334 0.15898507833480835 0.6917674982801421 0.1866045026594072
0.48292119245874326 0.15898507833480835 0.6819212223411163 0.1858724926367802
0.5446020237862007 0.15898507833480835 0.6859655779366771 0.2069825360937983
0.5222428054407572 0.15898507833480835 0.6866871176890952 0.18073581998640137
0.5763284777894448 0.15898507833480835 0.6815725453817812 0.2257092866958806
0.5151957405420022 0.15898507833480838 0.6964598104973436 0.24475917398310718
0.45689243371270627 0.15898507833480835 0.6819661543246363 0.17693848586069177
0.3666573949575901 0.15898507833480835 0.6862499973218215 0.2046366521438252
0.4194562686005206 0.15898507833480835 0.689918256881485 0.18859563883653285
0.40746534149974406 0.15898507833480835 0.6855444429792208 0.20422322118975803
0.30801511449698127 0.15898507833480835 0.6868282785333507 0.11985424468349967
0.32003059640068066 0.15898507833480835 0.6898361445447484 0.14740244873292724
0.3322883705143388 0.15898507833480835 0.6895900666200316 0.16930601607266998
0.35351201624205797 0.15898507833480835 0.6897427252090935 0.19979950582132905
0.3718987261659139 0.15898507833480835 0.6982784823063563 0.24024878515672035
0.3054483761909068 0.15898507833480835 0.6988819323690445 0.21442297461251109
0.6546904159164538 0.15898507833480835 0.6644850407304094 0.1869404923872092
0.6693260731467914 0.15898507833480835 0.6650371654892266 0.21611276166984134
0.6451596117720282 0.15898507833480835 0.6728046454324077 0.2538292430435325
0.5911683091817631 0.15898507833480835 0.6685680112353961 0.25000811315612675
0.5391078919782095 0.15898507833480835 0.660160772860752 0.11277304979261245
0.6245922485015999 0.15898507833480835 0.6740896388782859 0.26435580337762266
0.5794662389192173 0.15898507833480835 0.6617441176823311 0.17280383591542775
0.6720428061839498 0.15898507833480835 0.6792925642005323 0.22499608487745576
0.6062786107003237 0.15898507833480835 0.6646730859253245 0.21408367520798172
0.5670827103571838 0.15898507833480835 0.6706391847893443 0.1536144474932006
0.38359167927035454 0.15898507833480835 0.6803607539739689 0.17068627707195522
0.508988727019335 0.15898507833480835 0.6799284807440062 0.19050641261128257
0.39695161432848247 0.15898507833480835 0.6794411384014643 0.16664141804410953
0.470902685647232 0.15898507833480835 0.6704728325616739 0.16641476227497304
0.37132993377017104 0.15898507833480835 0.6751223399211292 0.15907435647187007
0.4189290880773151 0.15898507833480835 0.6791626784689135 0.16886526363353807
0.49230343982058283 0.15898507833480835 0.671275806463039 0.15769973064472742
0.6020256778103037 0.15898507833480835 0.6762725601351514 0.25407484638386596
0.335095423552694 0.15898507833480835 0.6785092568266756 0.150299801774648
0.43901292521839563 0.15898507833480835 0.67892218424266 0.17053617692889642
0.5343036043114452 0.15898507833480835 0.6711853253647366 0.1593216520398563
0.3240449021464379 0.15898507833480835 0.6796498317583618 0.15640332508859686
0.5092364030909222 0.15898507833480835 0.6687740688109463 0.1504879722305985
0.612877351077472 0.15898507833480835 0.6809380073204292 0.2587793244457935
0.35787704672413634 0.15898507833480835 0.6769973612597189 0.1371832078038241
0.5538774265718737 0.15898507833480835 0.6775974357011951 0.16189164681763132
0.5220790506925179 0.15898507833480832 0.6668847982594803 0.15883720428652215
0.43211868686129323 0.15898507833480835 0.6661316857374888 0.13011772391695717
0.3464349650710929 0.15898507833480832 0.6767288636100359 0.15492641834140297
0.4585218147725046 0.15898507833480835 0.6620899595120278 0.1877596761038881
0.47558660261416896 0.15898507833480835 0.6602350373611412 0.13019822287456084
0.44525166694355117 0.15898507833480835 0.6627669166898733 0.16544548041317886
0.40518429221858376 0.15898507833480835 0.6694439960534277 0.14607759511504137
0.38552477185224565 0.15898507833480835 0.6699140612815987 0.14935874798960777
0.35759456432178605 0.15898507833480835 0.6616403636377189 0.12546145089796068
0.5319218569096412 0.1349580536761167 0.7020000219345095 0.2620139340695888
0.6540302314775146 0.15183287828463726 0.7020000219345094 0.2958402744100116
0.6002319216737438 0.13922682072136783 0.7020000219345094 0.26788036028620343
0.6085111359995113 0.14806191403513302 0.7020000219345095 0.2561873375066955
0.6719329890147308 0.1499516057160281 0.7020000219345093 0.27042124122092676
0.6167913559129314 0.15711613467299104 0.7020000219345095 0.30491113850759455
0.5965241908373764 0.15106392008596947 0.7020000219345093 0.2978510931349242
0.6284168070342518 0.15594073700710784 0.7020000219345094 0.29507488065540277
0.531038123208042 0.15693384295318266 0.7020000219345095 0.24125452254749968
0.31238732835316874 0.13649057410041812 0.7020000219345094 0.270434831344988
0.4248837902631337 0.13845838993313747 0.7020000219345093 0.2907004955969734
0.4383898158360463 0.13500972769373984 0.7020000219345094 0.2544010706160765
0.46326800782313265 0.14333635281455212 0.7020000219345094 0.2437925476237375
0.29890339064601323 0.13586635809487882 0.7020000219345094 0.23309392050682068
0.45129152164187314 0.13528355227817654 0.7020000219345095 0.2657671924708995
0.3938124588762185 0.13724327574845252 0.7020000219345094 0.2480643854848604
0.3219285707016406 0.14328862688313754 0.7020000219345094 0.2469211359102303
0.304396421209998 0.14788108169713737 0.7020000219345094 0.2711209507641265
0.3530362172439645 0.14562409420881559 0.7020000219345094 0.2623622558921062
0.3932253222889033 0.1503312465992488 0.7020000219345094 0.2778390020461416
0.33115451360485715 0.15403561619966616 0.7020000219345093 0.2808359838860789
0.34000433536957464 0.14767230668165662 0.7020000219345095 0.26048681162825893
0.4339926142387263 0.15472994226329717 0.7020000219345094 0.29240552526339736
0.3810400652980565 0.15055463398795235 0.7020000219345094 0.2834771917052969
0.36243757754658923 0.15410412393587117 0.7020000219345094 0.2873514999487767
0.3164478492166374 0.15425190243105488 0.7020000219345094 0.24024852658251186
0.6427085934578392 0.13398507237434387 0.6635700884696903 0.1351964169792124
0.6769273027751006 0.13398507237434387 0.6740186778214358 0.14727501658070494
0.6449874021418555 0.13398507237434387 0.6751048385893803 0.16983450088538976
0.6647847477389228 0.13398507237434387 0.6731710058819802 0.1756785519239172
0.6291011096538726 0.13398507237434387 0.6735948880750322 0.16463858007890012
0.5404476470122473 0.13398507237434387 0.6625861444390542 0.15373186689928733
0.41659523879158145 0.13398507237434387 0.6619471303478149 0.16221803428589057
0.39590651675807287 0.13398507237434387 0.6606691742831765 0.17272387813770743
0.371072945606976 0.13398507237434387 0.6656459549931524 0.16261545889724335
0.34403936978023875 0.13398507237434387 0.6724470407653818 0.17558512957023778
0.345222970434045 0.13398507237434387 0.6601611198794832 0.19516231663804692
0.4012448589255353 0.13398507237434387 0.6704524369183196 0.16822535530089833
0.5302415170654924 0.13398507237434387 0.6688204788058176 0.1416303085849196
0.5454789180100605 0.13398507237434387 0.6757049243191375 0.17942786506122793
0.33268735492321483 0.13398507237434387 0.6792813949602099 0.16887052592502264
0.48772414025789473 0.13398507237434387 0.6672663059714786 0.13971202023266724
0.42788525744820005 0.13398507237434387 0.6694414606753081 0.17472298366811392
0.4576441212977378 0.13398507237434387 0.6760203572579879 0.17747101037646165
0.5603201090436183 0.13398507237434387 0.6786635076505718 0.16621735731065085
0.6053148927235331 0.13398507237434387 0.6739799453499693 0.18560669191949486
0.4432104040408753 0.13398507237434387 0.6687739836999733 0.14927522597265355
0.5353331256431452 0.13398507237434387 0.6799194860405835 0.18719880438106856
0.5623273930858338 0.13398507237434387 0.6681908078211263 0.17020920385801275
0.4974563486688135 0.13398507237434387 0.6735292793117452 0.17217899049231633
0.4735284312282816 0.13398507237434387 0.6747377644624939 0.1643447805879674
0.5915935880091338 0.13398507237434387 0.6759841221865938 0.18646271879625304
0.3652448849545824 0.13398507237434387 0.676066205484782 0.18642694376360894
0.3900144723522343 0.13398507237434387 0.6756619146445989 0.203616330733277
0.46491988292870084 0.13398507237434387 0.6652943786592449 0.16173660600679024
0.5099650607907199 0.13398507237434387 0.6801546883004885 0.17802504354512724
0.5177863013451943 0.13398507237434384 0.6697766759311043 0.1660253761549235
0.5765863948425819 0.13398507237434384 0.6696757117674326 0.17305810728763668
0.5763671631032885 0.13398507237434387 0.6880726078479661 0.20270572960403757
0.43915395148002345 0.13398507237434387 0.6859390226723076 0.2311758747081882
0.5950536418386181 0.13398507237434387 0.686981866919123 0.2170760260543042
0.41228933660067413 0.13398507237434387 0.6840207386773125 0.1996693130822103
0.3982224235093949 0.13398507237434387 0.6902973084831443 0.20106395748976236
0.45666001538982914 0.13398507237434387 0.6896902096842843 0.21485150934259217
0.3685997081753362 0.13398507237434387 0.6861566578243838 0.19957237552054388
0.5097205625415883 0.13398507237434387 0.6909688209390755 0.18395403084215228
0.3508411973044383 0.13398507237434387 0.6830126434521967 0.20565910723754305
0.497295740105299 0.13398507237434387 0.685973490506938 0.18135190033813134
0.4814070307609538 0.13398507237434387 0.6909824040289809 0.22374360544712027
0.4710120706843929 0.13398507237434387 0.687041826801386 0.22680741814614186
0.38640393105093124 0.13398507237434387 0.6897437045739759 0.2065533555316971
0.5259509147892687 0.13398507237434387 0.6906125368483156 0.212781749596933
0.5542888999670588 0.13398507237434387 0.6940523587178131 0.229316450508739
0.579592082635396 0.13398507237434387 0.7018538320584458 0.2563935961000319
0.6670425478810003 0.13398507237434387 0.6844403666462577 0.21974894469060094
0.6164991409579744 0.13398507237434387 0.6928125998891466 0.22193089688482465
0.6329131060625212 0.13398507237434387 0.6873081373078427 0.20377063030406053
0.6576402878640109 0.13398507237434387 0.6988722460738059 0.2792997599802167
0.6499517013772518 0.13398507237434387 0.6878802966679617 0.19610032804281016
0.6381233500467397 0.13398507237434387 0.6981303756979229 0.24266361827684643
0.6264501017496251 0.13398507237434387 0.7017792797317806 0.2484948810668547
0.3089917093865534 0.13398507237434387 0.6849982930964235 0.10935596876357702
0.35042579258784845 0.13398507237434387 0.6938433866942633 0.24278520103422482
0.32259752708933265 0.13398507237434387 0.6845713002460546 0.15613008977592285
0.30389271471070667 0.1449627504125754 0.6853527893903815 0.1214626130985833
0.2905473015445363 0.13910051151898212 0.6946973661562096 0.13174357902500108
0.3372611966783059 0.1565753508845047 0.661987973852578 0.1020377001286416
0.32579016564716773 0.14273930169303906 0.670020052847907 0.16621778365158535
0.3338942265990561 0.13788187391232917 0.664345544813552 0.18683655083708764
0.312836350081332 0.1514904195629585 0.6790903857267283 0.15096949437079013
0.29514659060999604 0.1541174452468044 0.6914769031248087 0.07081302995758741
1.2470163466569375 0.5201463072624124 0.2579550436045754 0.1358806903588333
1.252810562448716 0.5259405221361749 0.26491347823071537 0.11408860959373539
1.2490625154224362 0.5221924829598211 0.31396808998303893 0.18385724563328085
1.2595711535605205 0.5327011198478138 0.3045129360984269 0.07445976471223661
1.2671244424415606 0.5402544081295647 0.30013978998361446 0.06905353680873794
1.2341804684313769 0.5073104363424116 0.31604919380286894 0.23724780035389623
1.2451912752922636 0.5183212399150987 0.2901233639079439 0.18569172008541351
1.2391817144387012 0.5123116807405466 0.3033369576122293 0.30239049301340115
1.2566733456262253 0.5298033103078074 0.291327629921277 0.07448111914958655
1.2298457130807166 0.5029756822995586 0.3263634324781141 0.23051508070847304
1.2472635644296461 0.5203935270356306 0.2739244444050947 0.1842537135777144
1.2551596747615203 0.528289637664714 0.2768319899352898 0.13582415468357026
1.2357201829771165 0.5088501520814962 0.3796129232142561 0.2795855310019805
1.246829072466936 0.5199590406537591 0.3355050066503113 0.08274714736801488
1.2393369562645642 0.5124669250702107 0.3500818985538695 0.2230270502810438
1.2458043506871679 0.5189343189586295 0.32392089822917386 0.22147156381559702
1.2275934811901346 0.5007234509657525 0.38461569891922714 0.23802691745581148
1.235017606893293 0.508147576055703 0.36794355625573605 0.28653228734680336
1.2638440469939907 0.5369740137754341 0.31700507261803706 0.11429485211058267
1.2469564296330484 0.520086397809352 0.3480907823806882 0.13209645165449652
1.2386476049905306 0.5117775738531152 0.33180380885485145 0.2643299642104039
1.2614738501175962 0.5346038170948098 0.4105541812675806 0.10223405266035458
1.2682968925897666 0.5414268590034202 0.3383104601321461 0.12628968494961312
1.2706802266112547 0.5438101928280528 0.3696582581906676 0.10340517623636418
1.256270423954152 0.5294003913611511 0.42068272034155796 0.0980765937299209
1.244663437164943 0.51779340553064 0.4378103044392797 0.14970645518903103
1.2490555106520524 0.522185478654979 0.4490426283886817 0.13164012610241327
1.2597898990769036 0.532919866193206 0.45116936535443225 0.13205202956585177
1.2440957593088011 0.5172257277213865 0.3790329165504602 0.13169787943428146
1.2681889330236413 0.5413188994462116 0.39605600815966513 0.11520585826523008
1.26674920763245 0.5398791741739369 0.4718237258013407 0.11399487478187467
1.260616565981299 0.5337465330293216 0.3777152738137134 0.12872976480024084
1.2694759582220705 0.5426059245383371 0.483912293395197 0.12256144358044822
1.2342227432170294 0.5073527124450926 0.3925494980272013 0.2823256200159318
1.256535237926283 0.5296652053114095 0.4389452900840608 0.08591571265411894
1.2602435809940395 0.5333735480728694 0.4650291129521928 0.13378506790326564
1.2491593023078023 0.522289270302156 0.3904975287368649 0.162111090620867
1.2595073841586708 0.532637351298308 0.3535317922620659 0.12165658827611536
1.2569045905705736 0.5300345579251925 0.367418768888528 0.07225259863650718
1.2425812078447052 0.5157111763823874 0.42011026149435426 0.20318611381992424
1.2668277423086052 0.5399577088436054 0.4454897511202819 0.10021336480462299
1.253059347762043 0.5261893154342662 0.4593755571451854 0.17162701209476083
1.2678670452181882 0.5409970116673457 0.432867762136788 0.14359797916885922
1.2454107843284286 0.5185407526323973 0.40435500106244937 0.12700506901011033
1.2594535780406222 0.5325835451847035 0.3905387273625938 0.1804616597304031
1.2675813479106197 0.5407113143833748 0.3516026073594192 0.16589363443158725
1.2483673203921914 0.5214972884519601 0.36682806786749383 0.07909969596956822
1.2555010125894426 0.5286309800599924 0.34381976419659277 0.18487572521883402
1.2539950819651544 0.5271250495600892 0.4052343351610928 0.14485076238808667
1.2614796795860306 0.5346096465627627 0.33269273325804577 0.1709396451382481
1.2679566794649368 0.5410866459066908 0.3816972749496426 0.16647642147532374
1.234936644795634 0.5080666139647314 0.4134174891442544 0.29093583391677863
1.262445118640621 0.5355750795775074 0.2801480188655692 0.18193189659196501
1.2745611285480734 0.5476910904922715 0.2778238097082472 0.1704283660049118
1.285258181564977 0.5583881387297389 0.2606914486143026 0.12450128514304855
1.2962574806347185 0.5693874300409033 0.22238300388839272 0.08622018938615966
1.2828639781588151 0.5559939329509337 0.23948129203210802 0.11585748077314909
1.2578855178083785 0.5310154800779753 0.25269218744799204 0.12205288659030336
1.274792641579127 0.5479226051114995 0.289760225739973 0.1203315600632377
1.2890129554711254 0.5621429079792386 0.23300420503999578 0.11261335076362694
1.267331290052562 0.5404612518985888 0.2651871572185158 0.17483714144617304
1.2689001658998693 0.5420301252823612 0.24985106833360132 0.09923618127835959
1.276004656456877 0.5491346150860718 0.25608622353196586 0.1267340767251748
1.3033377274924072 0.5764676862572627 0.29163681551193 0.1392484982406468
1.2941788765902396 0.5673088316424569 0.2573483709725232 0.16855535636303
1.3121911518736513 0.5853211077426145 0.2828689821788256 0.1328537627809607
1.3022184248881399 0.5753483744702508 0.23102795663000666 0.11355077083240098
1.3083460311765875 0.581475982712115 0.25053955572822206 0.20258212325076827
1.3014847540254375 0.5746147114143907 0.2806615959607809 0.1294189904100695
1.297691757686791 0.5708217138750582 0.2686387071191463 0.11814415802863418
1.3161030099749973 0.5892329630402955 0.2691440427151747 0.10427171458649215
1.290739752229988 0.5638697118446057 0.28297182624286626 0.14236915467694153
1.2895808807318434 0.562710842829796 0.29772010239232044 0.12167901730991111
1.2979750451674656 0.5711049971640623 0.2418649503969355 0.13498345703742967
1.275848198988696 0.5489781640884596 0.30168934036979944 0.11632998008897336
1.3073156571372648 0.5804456117388316 0.26919844132506127 0.16111161652596806
1.288244134031202 0.5613740924069062 0.2721598196659728 0.15508633337616143
1.2779901943852392 0.5511201464291442 0.31388066168165407 0.13994372390710588
1.3040067184210251 0.577136666649578 0.30314283469210124 0.09376272467856611
1.280850691064887 0.5539806345859013 0.32406846371715714 0.17345934727428186
1.2762316954172794 0.5493616543069808 0.36047885773009264 0.10630444992638935
1.2730619020565097 0.5461918663207826 0.3254786607411945 0.13114152789711495
1.2755500045541885 0.5486799645997369 0.34438724765243195 0.09495605734130105
1.275395825210841 0.5485257855178094 0.4234696958901012 0.0747792516103582
1.2741037202449008 0.5472336827427093 0.4128216471057141 0.07671601303262977
1.2333110332875599 0.5064410025909272 0.4654975626330531 0.23680785814691993
1.2680063064767781 0.5411362729144327 0.5004801505482557 0.09238528370681638
1.2473379531773956 0.5204679213221864 0.4779382838757074 0.09657755984074934
1.2272594246337611 0.5003893944369708 0.4290842465633072 0.22087708013751178
1.2379032297574948 0.5110331986815619 0.4802622445787045 0.2516747482016661
1.235573118835075 0.5087030879516017 0.43569665007753416 0.27614130290496813
1.2580778318008272 0.5312077990585405 0.4871681112477072 0.17635268035113305
1.2346950044018952 0.507824973590951 0.44726560899953527 0.2770752424792038
1.2450566140765038 0.5181865824097256 0.4635403749584661 0.1664064674171207
1.2500175849843607 0.5231475529078231 0.48970010003157205 0.1280206251065899
1.228475852294927 0.5016058219976633 0.5436892575512228 0.25317734836984995
1.255847144228858 0.5289771116708184 0.5113316532911557 0.13616172314223465
1.2345684499783594 0.5076984191778681 0.5042263890091802 0.2945677914271939
1.2457309865821933 0.518860954859714 0.5198369325503224 0.13990672428362042
1.2648460547217428 0.5379760214204237 0.5130463528262554 0.13806886645620065
1.2341661753382527 0.5072961445709877 0.5161371987657479 0.27612658528426165
1.236072285785017 0.5092022548603141 0.4932844504196823 0.2861716581768093
1.2461570606260692 0.519287028868398 0.5001269186764192 0.1649316639391549
1.2378211278610882 0.5109510967919365 0.5358100046859711 0.2653452052558953
1.2579039803362462 0.5310339476083189 0.49937623543854104 0.08389647605611901
1.2272754190134267 0.500405388815315 0.5102856340194559 0.2661648126487443
1.2309726057491044 0.5041025752456174 0.5308477622061331 0.2567630580583186
1.2665958137153237 0.5397257802694807 0.5473499642308032 0.09665902477511389
