x y z curv
0.2762249708175659 -0.37613360555035225 0.10867151964204974 0.00986731950549343
0.2762249708175659 -0.35001868831137384 0.6807012582556917 0.02780822456918183
0.2762249708175659 -0.305651255154969 0.036110841747999965 0.012981262413271718
0.276224970817566 -0.716986869596168 0.6423371548975527 0.012915951376718412
0.276224970817566 -0.6166714624853454 0.49517420581439986 0.09088364333538645
0.2762249708175659 -0.30960145117638976 0.6639613118193879 0.013760383237728796
0.2762249708175659 -0.3940548083688507 0.25836274935309267 0.012969546418510438
0.2762249708175659 -0.4352269830087169 0.5448054369791304 0.01158363182186021
0.2762249708175659 -0.3199858886341619 0.4617947330514977 0.012583901853882614
0.276224970817566 -0.6570342517674748 0.632260115139562 0.06310421992051998
0.276224970817566 -0.7334855035000438 0.532385775814837 0.011002993415961622
0.2762249708175659 -0.36571285237758167 0.4144637014920907 0.008904543221064693
0.27622497081756603 -0.526486034765132 0.3250434744119978 0.011593192157371595
0.2762249708175659 -0.3780809054425302 0.2907178915581137 0.010776918373187514
0.276224970817566 -0.46579096455756913 0.5490119258874961 0.0098581086815647
0.276224970817566 -0.540131721252844 0.49709995687539904 0.01161583568069556
0.276224970817566 -0.7429174183593835 0.5928035356426773 0.012205394812434744
0.276224970817566 -0.4845534229205649 0.6271674717576546 0.011310087443301522
0.276224970817566 -0.5898266339570201 0.622368582528505 0.13257239506642537
0.2762249708175659 -0.43679814485804347 0.6603808983423575 0.012533317156177151
0.2762249708175659 -0.40510090464179893 0.5119415432909967 0.011742682751829416
0.2762249708175659 -0.399969768061281 0.6131252114575725 0.012156839833305547
0.276224970817566 -0.6067183570826026 0.5693227564272431 0.07158311610718994
0.276224970817566 -0.6297959942879852 0.38539665452221394 0.11679586602069143
0.2762249708175659 -0.6011539611818894 0.3720235849969561 0.0822438242852849
0.276224970817566 -0.841852470684861 0.6696932543628666 0.011428345213959305
0.276224970817566 -0.8074202159152971 0.6057216245388047 0.010841946425535914
0.276224970817566 -0.5786399942243408 0.7010552707744 0.2556079238040278
0.276224970817566 -0.5972366354316547 0.7064821073928793 0.2156999898405346
0.276224970817566 -0.8280599485009359 0.7060237792016304 0.23998984680685986
0.276224970817566 -0.5281325375382451 0.4809882203197384 0.013048442298495699
0.2762249708175659 -0.31504698819934973 0.39095462351775095 0.010680480665291378
0.2762249708175659 -0.3434994313089864 0.12946282980936985 0.011297172627061125
0.276224970817566 -0.4725145343816642 0.27119815173312767 0.010982421575627663
0.276224970817566 -0.6166155310215248 0.4699333184327945 0.0714235307189006
0.276224970817566 -0.4908639476280934 0.3669197939857636 0.012337441240183364
0.2762249708175659 -0.3575741783823211 0.5771283980632419 0.00869978086414086
0.2762249708175659 -0.30768017970905503 0.5909138615669206 0.012382492903456343
0.276224970817566 -0.4704215676856884 0.28677303083599487 0.0105260915782352
0.276224970817566 -0.48983203081196824 0.5927602394503995 0.010985754080541647
0.2762249708175659 -0.4402109278828289 0.46469739563269646 0.011549160906117132
0.276224970817566 -0.4869099325191796 0.49916442795238486 0.010222039384797859
0.2762249708175659 -0.4198323676288198 0.3723530960257855 0.011657786419871762
0.276224970817566 -0.7576342560478502 0.13037702192637343 0.010049839193264394
0.276224970817566 -0.6709840077277067 0.2529233490770003 0.01827043844183864
0.276224970817566 -0.5517283419468512 0.26900271673334647 0.016409863806964315
0.276224970817566 -0.7346457895175335 0.028211000304457872 0.011446676780114191
0.2762249708175659 -0.4515286481439652 0.09042627309684928 0.010430669395216686
0.2762249708175659 -0.44503950419144056 0.1427471561093486 0.0127770434656034
0.276224970817566 -0.832070338999749 0.31971206156076426 0.01155023474352903
0.276224970817566 -0.6676847565080439 0.4036366698987323 0.014537769038771242
0.276224970817566 -0.5255935045859668 0.07435749904768742 0.010864002816388083
0.276224970817566 -0.8488392419910648 0.1377839459957853 0.011107919118921394
0.276224970817566 -0.7678686722811898 0.052478061874611626 0.010167850192477769
0.276224970817566 -0.6968868125649843 0.3023710412490518 0.009860865797533933
0.276224970817566 -0.4639154458418482 0.11039720811350899 0.01182325408136251
0.276224970817566 -0.7648789182746111 0.07164860135040957 0.012404485072117903
0.276224970817566 -0.6777709520023216 0.12152613567297943 0.010609269709838987
0.276224970817566 -0.663854774814851 0.11917170805039072 0.023844428155063543
0.276224970817566 -0.5007645609030731 0.0249885571872465 0.012711790841430608
0.276224970817566 -0.8735616713753899 0.15139312743752711 0.010661932792785515
0.276224970817566 -0.6194985234166653 0.010236033562842459 0.14992921644369794
0.276224970817566 -0.8697128337230733 0.09724853510312266 0.011597431723173525
0.276224970817566 -0.6217926437893535 0.13830932983370686 0.08725940728843701
0.276224970817566 -0.846843885406591 0.19764217144285265 0.010349768086254365
0.276224970817566 -0.7702786588198066 0.4736309300244995 0.011014740888136915
0.276224970817566 -0.8096598192293897 0.08587168056362704 0.012557029525713843
0.276224970817566 -0.7104919657713646 0.255195575355942 0.011259106942701973
0.276224970817566 -0.6945590889856083 0.3899304689714995 0.011858264657248128
0.276224970817566 -0.6566463753337289 0.32450143182474384 0.06328972109159918
0.276224970817566 -0.8480944095713411 0.22011684745184684 0.011010727033864982
0.276224970817566 -0.5941087971017944 0.2766256024222653 0.13768759347988016
0.2762249708175659 -0.9015921027380732 0.3217187566538869 0.012987779211140126
0.276224970817566 -0.6055351702957791 0.16786125742122798 0.0706358882445181
0.276224970817566 -0.5006249848867468 0.1859498411256131 0.010958126813431203
0.276224970817566 -0.7525898027410861 0.07978106758045557 0.010235155606632252
0.276224970817566 -0.791581233698922 0.5595793355990261 0.011156656638875056
0.276224970817566 -0.5475697839520002 0.17708777891859423 0.010389124962100784
0.276224970817566 -0.5174460239937727 0.14311916749425807 0.013650790386155071
0.276224970817566 -0.7919919809944782 0.028435271576969578 0.012032489744157906
0.276224970817566 -0.691969491621391 0.3151640698237296 0.010511904457107276
0.2762249708175659 -0.40261680168574715 0.09491031515574336 0.0104701647784664
0.276224970817566 -0.8311698277974667 0.2575503127579908 0.013567154309338173
0.276224970817566 -0.582980340702106 0.23464021001917879 0.11618444419643628
0.276224970817566 -0.7048788186218827 0.052184237550243505 0.01297437680519908
0.276224970817566 -0.8998222656543398 0.14365166989073838 0.012543535649435373
0.276224970817566 -0.5541264574379335 0.2569437270773847 0.030962940090221772
0.276224970817566 -0.8338074898812173 0.14927342000112945 0.010689173826563347
0.276224970817566 -0.8705323159502244 0.07663047440867692 0.01223143061001175
0.276224970817566 -0.8298963607508659 0.44216717048157483 0.01116674657656607
0.276224970817566 -0.7219057266623823 0.2603766283371519 0.011409898840298648
0.276224970817566 -0.8881072511435465 0.13539323852935176 0.010941446315378765
0.27622497081756603 -0.8995141169493083 0.36820755204247707 0.012195391301362404
0.276224970817566 -0.8171682716742146 0.155198773651041 0.012277729163822316
0.276224970817566 -0.762923162680014 0.279754568414331 0.010793247532969764
0.276224970817566 -0.894756386610958 0.6684080915615948 0.013039954875556911
0.276224970817566 -0.602003145934494 0.31509823136802795 0.08859715323322194
0.276224970817566 -0.8967004700223012 0.11993290072515973 0.011383500465372447
0.276224970817566 -0.8757836002424433 0.06129548710494736 0.01097359490782187
0.276224970817566 -0.5779071991988324 0.11957879839971304 0.11740002140401787
0.276224970817566 -0.7664301695042318 0.25306010843024546 0.012650197676247513
0.2762249708175659 -0.44861963402239996 0.024187247357197232 0.010100454507585241
0.2762249708175659 -0.8911495718798804 0.39283523464424824 0.012893327043159592
0.276224970817566 -0.878318587367721 0.1832266954811538 0.012147129724645506
0.2762249708175659 -0.3846572454526871 0.019028299663281307 0.012329284609281935
0.276224970817566 -0.6434330866034443 0.17796287884397208 0.11920081465039939
0.276224970817566 -0.6236580543280645 0.11666406100072234 0.08994748931332777
0.276224970817566 -0.8340647475823473 0.45232240190578554 0.009745378903060455
0.276224970817566 -0.4904854617893063 0.1804227121644905 0.01152711938443498
0.276224970817566 -0.7581031331939116 0.43366689229301886 0.009967337478785563
0.276224970817566 -0.8389961698831777 0.032926521159857426 0.011642396605887395
0.276224970817566 -0.5454021571152701 0.14654437367380246 0.010261453676733727
0.276224970817566 -0.7861881866382422 0.3878308169440374 0.012254281231872137
0.27622497081756603 -0.9000190145766214 0.26317825284647317 0.01517708283403587
0.276224970817566 -0.6592174251702705 0.2766008766951896 0.05484489984317244
0.276224970817566 -0.5938389565851205 0.1721727192504381 0.10402193509376734
0.2762249708175659 -0.38742857548418436 0.0848482106652685 0.007910402067693815
0.276224970817566 -0.7394677994178409 0.4393464682743116 0.010051561446108758
0.276224970817566 -0.8871229235676459 0.08518441337764418 0.011214965350788681
0.276224970817566 -0.7926234985586437 0.5469370248713983 0.010388675281743484
0.276224970817566 -0.9001802956629824 0.08498552986930855 0.009740214558002447
0.27622497081756603 -0.9019557519497335 0.17369411394278333 0.013646241990872072
0.276224970817566 -0.8689588365752716 0.6464113947063058 0.012127581467454953
0.276224970817566 -0.610672309730164 0.33816956416122923 0.08997679340002451
0.276224970817566 -0.707800409812327 0.3213613675824846 0.01094540843768731
0.276224970817566 -0.9000783733648006 0.5620095216611872 0.011151962651692108
0.276224970817566 -0.6729996810566604 0.042602279850016 0.012457020422636852
0.276224970817566 -0.8027505752303694 0.059103973933267884 0.011582361786030568
0.2762249708175659 -0.8520229012542719 0.5686055620658476 0.011958173277957994
0.276224970817566 -0.9027755248885782 0.18896674782066739 0.015623571087385837
0.276224970817566 -0.8813521194112524 0.6074964356317688 0.00927114202024946
0.276224970817566 -0.49457126479761315 0.06926880118569492 0.011540342194633306
0.276224970817566 -0.7030036102135695 0.44695003003712863 0.010608788605791394
0.276224970817566 -0.807111190212019 0.31623352144407146 0.011787197452526932
0.276224970817566 -0.5374955029588158 0.2198561222596612 0.011445403473602667
0.276224970817566 -0.7491871531443252 0.02219633535452444 0.011363378302985163
0.276224970817566 -0.8746392851884413 0.22045969124392764 0.01119553749168731
0.276224970817566 -0.6270513600974127 0.30566910881148507 0.08150129000244775
0.276224970817566 -0.6049072307566085 0.0811097589763428 0.07880668453951031
0.276224970817566 -0.6326715591698516 0.02382056478543632 0.15163848710445946
0.276224970817566 -0.7055016983355848 0.42390762059575016 0.011225827530328308
0.276224970817566 -0.6481619765354252 0.2990159506691705 0.10880895494703148
0.276224970817566 -0.6181742412479281 0.323097943210539 0.09582639495781285
0.276224970817566 -0.7946314810621783 0.34950783944297503 0.011403753043762796
0.276224970817566 -0.8245087217831356 0.5789211533384154 0.012762659024597391
0.2762249708175659 -0.44238183574267353 0.03403325477766415 0.009275549832545514
0.276224970817566 -0.5147369286811351 0.2136122280037898 0.011347319833202169
0.276224970817566 -0.6668289972121826 0.20448932266173525 0.019972547633141574
0.276224970817566 -0.757330226001411 0.23773646608618973 0.012543669205370735
0.276224970817566 -0.716474649677786 0.22558610215819444 0.011754265689560815
0.2762249708175659 -0.876117038307304 0.3865046053366307 0.011456455577323483
0.276224970817566 -0.7245471798616433 0.014061100046245258 0.012303179492056133
0.276224970817566 -0.8272154839602929 0.5411481017540458 0.010710334835122437
0.276224970817566 -0.8031350578528682 0.16744245429158633 0.011644510916819744
0.276224970817566 -0.6615710203753447 0.1461714101954023 0.03677070707382471
0.276224970817566 -0.650560022247805 0.2060449357869722 0.06305905403784748
0.276224970817566 -0.6321772838454742 0.1615908803088107 0.13006124308216377
0.276224970817566 -0.8824194985912065 0.35030306843741726 0.011151564276423736
0.2762249708175659 -0.447672558097735 0.05070273344171609 0.012231791698443992
0.276224970817566 -0.5916667280178227 0.24668652587900003 0.09168987013660007
0.276224970817566 -0.8157343896777427 0.558835834506788 0.012108021267292077
0.276224970817566 -0.8510488793231168 0.5474992543234312 0.011618515457273484
0.276224970817566 -0.7818384292571579 0.27414656167678897 0.011064154174228779
0.27622497081756603 -0.807337056147888 0.5097942603466952 0.013036764976379268
0.276224970817566 -0.8195667144358638 0.3115478820432644 0.012479842148517087
0.276224970817566 -0.6355470388947838 0.12875806106039583 0.11079931290722787
0.276224970817566 -0.9009879952176056 0.5261990715601745 0.011960729166790472
0.276224970817566 -0.7065654873281657 0.17229634322639914 0.010877360527178389
0.276224970817566 -0.7270758657791841 0.3073275710351378 0.011561271774496555
0.276224970817566 -0.6920988823172111 0.1704626796030724 0.008969281034187085
0.276224970817566 -0.578067422144827 0.018347518294332853 0.1548675371683277
0.276224970817566 -0.8097948181819425 0.4396045994297963 0.01134631946363757
0.276224970817566 -0.7811436734560511 0.337978231067523 0.011437929273002778
0.276224970817566 -0.7939780600262604 0.12005853479810556 0.01203672077737073
0.276224970817566 -0.7417333361424289 0.46935579514927833 0.011246451461536517
0.276224970817566 -0.5221946623935306 0.2247421675440434 0.011097459998091435
0.27622497081756603 -0.9013577230070485 0.27706580118586793 0.01344410677791555
0.276224970817566 -0.5794048093492796 0.21299397244828208 0.11374115115168758
0.276224970817566 -0.724349103222069 0.43599325943751915 0.011475433533843355
0.276224970817566 -0.8247481525109245 0.18518323180633633 0.010740859504356673
0.276224970817566 -0.7787927895712843 0.16992968628301808 0.012074985636854774
0.276224970817566 -0.5649245404742924 0.24204557728728218 0.05119476391585292
0.276224970817566 -0.5878833130503043 0.06456840207326865 0.14035227974747208
0.276224970817566 -0.5645828289643413 0.2857413370692697 0.07914778115236001
0.276224970817566 -0.6224152142807307 0.3610854502900711 0.1009495111902224
0.276224970817566 -0.8946354853443766 0.15489702658654333 0.012623761078967372
0.276224970817566 -0.4557183648036489 0.07150956164346094 0.010142460371868596
0.276224970817566 -0.6952206280393549 0.3782393090855912 0.011278549558135913
0.276224970817566 -0.6348216993126251 0.22882648720885815 0.10696037573063698
0.276224970817566 -0.654028765642503 0.11407133716664575 0.05486523393226519
0.276224970817566 -0.5957152111313195 0.09127829952325194 0.10151812723199452
0.276224970817566 -0.7862780393755159 0.1403917509828654 0.01209571678647787
0.276224970817566 -0.5712888432146161 0.10238061343686193 0.10504513784576604
0.276224970817566 -0.7226992713826518 0.20737202298519006 0.009898870981561756
0.276224970817566 -0.780916697529154 0.2382049825392377 0.010697995975851941
0.276224970817566 -0.7941467700883793 0.48049745064887395 0.01180381298900418
0.276224970817566 -0.6868091833356254 0.19529922778965852 0.010913094816431022
0.276224970817566 -0.7576622130559103 0.04062765663883156 0.012500866444337518
0.276224970817566 -0.6875981144323501 0.18350486526675575 0.011441583664156409
0.276224970817566 -0.8063048828272229 0.22341564044726112 0.011475062651057511
0.276224970817566 -0.7243939069652757 0.10401439201838693 0.010716538576736772
0.27622497081756603 -0.9126775101613241 0.38626920900655914 0.017244336231250792
0.276224970817566 -0.6894663742303074 0.36693811564796347 0.010384070461153559
0.276224970817566 -0.7024292971996225 0.2893800086706388 0.011006713962290013
0.276224970817566 -0.5911701686637512 0.01178002314426413 0.14459074888796317
0.276224970817566 -0.7479733250486778 0.4020356851326404 0.011916486281436905
0.276224970817566 -0.6979619417621276 0.23061370146901328 0.010880536565827199
0.276224970817566 -0.854763848073769 0.46481633252336235 0.011787604161807907
0.276224970817566 -0.7768501638515947 0.11467428416185328 0.012048142660951909
0.276224970817566 -0.7502124943033592 0.1955868852486801 0.012783425720359065
0.276224970817566 -0.7998780878397245 0.30534383752530353 0.011669889935616129
0.276224970817566 -0.5910610911122461 0.1256897595890584 0.1356022063081582
0.276224970817566 -0.672374274038429 0.2926861975953297 0.0112694569044362
0.276224970817566 -0.5721583110176154 0.19991752950711095 0.1021515976661376
0.276224970817566 -0.848117670196707 0.2361500030483423 0.012264242491994475
0.276224970817566 -0.8149604466055955 0.24790945810028545 0.012513102957535063
0.276224970817566 -0.65674579700256 0.039041632464460456 0.06376636464541949
0.2762249708175659 -0.4273395011359451 0.0609519240194971 0.011369652001445874
0.276224970817566 -0.6346377253839713 0.2622115358289705 0.11682633085570648
0.276224970817566 -0.5011864540762341 0.15011597693102194 0.011871500403601186
0.276224970817566 -0.7363501307348592 0.06203284316703679 0.012504588059488399
0.276224970817566 -0.904077500221126 0.3963609370596935 0.013332284447835581
0.276224970817566 -0.8944398520060546 0.03586906206026692 0.011468683586483293
0.276224970817566 -0.913440415095474 0.0362931173999943 0.01574071116581162
0.276224970817566 -0.6310906762163552 0.17626347244026744 0.11665231812568
0.276224970817566 -0.8380635427225271 0.11700806598904719 0.011532677584676767
0.276224970817566 -0.8579149469292664 0.420922861438383 0.010886977218139571
0.276224970817566 -0.4987453244368504 0.11257100216114853 0.012475364756008965
0.27622497081756603 -0.912062813285642 0.49729259833485445 0.015105105066922095
0.276224970817566 -0.6088954055962603 0.017137932071541198 0.13925959664159462
0.276224970817566 -0.7453232645144474 0.23711095679141575 0.01170812967740283
0.276224970817566 -0.6471627601958105 0.25943577209530333 0.06699936170839271
0.276224970817566 -0.7463125784503291 0.21746307628596143 0.01303608584788871
0.276224970817566 -0.8512998319893719 0.35544149223839394 0.011843394675401984
0.2762249708175659 -0.41594271645757286 0.022160285604164012 0.010990205237624668
0.276224970817566 -0.6946942916213309 0.35164611037814664 0.011528392332269247
0.276224970817566 -0.8688808983525288 0.4213364535613006 0.011146163701019972
0.276224970817566 -0.5018005223642065 0.04278609963927944 0.011269243134338948
0.276224970817566 -0.46204878137790634 0.05559784493719563 0.011229675354813274
0.276224970817566 -0.811712994847811 0.5827876624675711 0.011953375585819338
0.276224970817566 -0.5284214546567858 0.11059156533984203 0.011656217998109775
0.276224970817566 -0.8904629557639974 0.313922125588034 0.011787865958350588
0.2762249708175659 -0.8994329973232881 0.35065493906124345 0.01180933937490172
0.276224970817566 -0.7254704746317546 0.24037568744294716 0.01120519318460028
0.276224970817566 -0.8088399968398886 0.3752438311881794 0.010391110453276304
0.276224970817566 -0.6120068243411445 0.2074155600649675 0.07909621551019941
0.276224970817566 -0.7293120011872891 0.2810817314481625 0.012003280944262833
0.276224970817566 -0.6547469979546858 0.4078536358678497 0.04925108228376519
0.276224970817566 -0.8315392189357412 0.42741811345017927 0.010784335547488016
0.276224970817566 -0.7359450451283613 0.2724504349918391 0.010287826954071376
0.276224970817566 -0.845622632609735 0.6239084593230501 0.01231291225284005
0.276224970817566 -0.8242064644455649 0.028336336424171524 0.011036855995064591
0.276224970817566 -0.7678549433406766 0.36501411524153043 0.013255643874659944
0.276224970817566 -0.827400595723639 0.46247545177556665 0.01173028329611807
0.276224970817566 -0.8623090637673267 0.1432834505954045 0.012137728151994034
0.276224970817566 -0.616102211855689 0.3010124665915274 0.07665103505688742
0.276224970817566 -0.7431556556465027 0.16080406342882686 0.011343465814971318
0.276224970817566 -0.8588323680986688 0.06612504406212578 0.010787093524467441
0.276224970817566 -0.6700559387535492 0.02841348333110331 0.018687272435445622
0.276224970817566 -0.5080786347717358 0.2235094413510542 0.011399806415733885
0.276224970817566 -0.5797650374206188 0.3039417178988736 0.13184454047253993
0.276224970817566 -0.8425591841099489 0.3905907515218044 0.01100271941917863
0.276224970817566 -0.8127010626644466 0.016879666856485117 0.010945425885376713
0.276224970817566 -0.5144205726798723 0.11091586548149485 0.011635834383489545
0.276224970817566 -0.6626147013794712 0.21864278673435072 0.03191177341203617
0.276224970817566 -0.8206656198424643 0.5005148065795494 0.012208786698645257
0.276224970817566 -0.532924134364649 0.08451430545898898 0.011133298462098491
0.276224970817566 -0.7992667513073454 0.24850632495637576 0.011409514311810328
0.276224970817566 -0.6653307707869717 0.0757871716458728 0.01880280378324771
0.276224970817566 -0.596191961166046 0.23042024821989335 0.06805776010330744
0.276224970817566 -0.560970516330349 0.05588491855719326 0.05879916864817387
0.2762249708175659 -0.3803000282778545 0.0064490749752723585 0.012448147946757717
0.276224970817566 -0.5985076303131376 0.047083945991856654 0.093922942472809
0.276224970817566 -0.8351917451135762 0.37993778899617475 0.010957591211575923
0.276224970817566 -0.7426320019193337 0.05221179383113449 0.012688783498545105
0.276224970817566 -0.7605907144872355 0.08911348649066074 0.011915412428238825
0.276224970817566 -0.6372672890629894 0.3521485322328003 0.0834984162664797
0.276224970817566 -0.8662499460320829 0.16212231626542198 0.011974755942611387
0.276224970817566 -0.49610280929140027 0.09486622817565668 0.011615091607964388
0.27622497081756603 -0.8722770135698797 0.1924768148515861 0.010739476575386334
0.2762249708175659 -0.34301560119383856 0.03670740192062458 0.011545259928174017
0.276224970817566 -0.8189715287158184 0.5313086636582491 0.011378190111790736
0.276224970817566 -0.6309710186507244 0.29358654576773546 0.1339652582308238
0.276224970817566 -0.7059564544401461 0.30944375947815866 0.011293243360877548
0.276224970817566 -0.8951949736293108 0.0628360204346373 0.011257530954703436
0.276224970817566 -0.6773567553971376 0.0786427759036634 0.010264019135494743
0.276224970817566 -0.8394932622663689 0.3477295149866773 0.010804257645901684
0.276224970817566 -0.7423478559102712 0.5003981644602978 0.010189757209982865
0.276224970817566 -0.7177132567774398 0.12142212843762916 0.010053542753396011
0.276224970817566 -0.662078648928691 0.4172633034706534 0.03826957210729597
0.2762249708175659 -0.37002483845003425 0.02132963209602152 0.01322443582575052
0.276224970817566 -0.711180089895142 0.13742640066420556 0.010193171095958013
0.276224970817566 -0.7349217093715988 0.4042634075304055 0.01225698916252903
0.2762249708175659 -0.9111317141294134 0.5849497962550146 0.012581230536091345
0.276224970817566 -0.8941592304129687 0.6811753324002128 0.049017423542433554
0.2762249708175659 -0.8847947248175221 0.22904532605723552 0.011148433318917291
0.2762249708175659 -0.4066895026988433 0.07491350182762051 0.011972948254256092
0.276224970817566 -0.5657366291807073 0.14873641459104112 0.09154308818788626
0.276224970817566 -0.7389187188894404 0.3428720978274714 0.01068136804405705
0.276224970817566 -0.5501600182756583 0.0197965282931818 0.02662023846970221
0.276224970817566 -0.9134809521294743 0.24742034551069375 0.017514573588871516
0.276224970817566 -0.6000348915813964 0.3322451236473472 0.08126314955486305
0.276224970817566 -0.466735490870489 0.13738623740944983 0.012582359377939934
0.276224970817566 -0.8313168689172596 0.20471899787624076 0.011016277587386318
0.276224970817566 -0.8189849117555194 0.07305345378116121 0.01280090312064273
0.276224970817566 -0.6829612823026308 0.2568342029145702 0.011757708902661469
0.276224970817566 -0.8583010011123557 0.026082850266452212 0.011904622443526813
0.276224970817566 -0.6995635038403782 0.4069597282006121 0.01139234189687684
0.276224970817566 -0.4863467856116692 0.20920869701045092 0.01041167799502528
0.2762249708175659 -0.3698823730148476 0.07969181653094937 0.009525552614965899
0.276224970817566 -0.9075287469969036 0.40822937866840686 0.012577684656054099
0.276224970817566 -0.747778419970579 0.5131972820507331 0.011233525731153535
0.276224970817566 -0.48333242768514195 0.07309447976616386 0.01185599835787549
0.276224970817566 -0.6138630743844625 0.06322671682214358 0.09266710554085097
0.276224970817566 -0.89386508382092 0.198828513319417 0.013317691851954786
0.276224970817566 -0.4780989356025954 0.11414673127936067 0.012048790767559422
0.276224970817566 -0.5345930602716885 0.14376920672790888 0.011702629642890202
0.276224970817566 -0.6064160816042503 0.27767884464530124 0.07746107518383266
0.276224970817566 -0.862632534232608 0.4988311692964705 0.011560272602274704
0.276224970817566 -0.8528323348917206 0.12104862397655658 0.012079654936992838
0.276224970817566 -0.8785383435202769 0.535256384468163 0.010038781102297348
0.276224970817566 -0.6217302050226473 0.2607426033580025 0.06841488876284453
0.2762249708175659 -0.3620357406749898 0.028686757908033954 0.01377122894176774
0.276224970817566 -0.7955006123026465 0.327670220846266 0.011710644382693768
0.276224970817566 -0.6258147930553188 0.1024988297260009 0.10013468419871463
0.276224970817566 -0.8068811439778363 0.047564105037410764 0.01167785098670588
0.276224970817566 -0.850859777625312 0.2669257397911412 0.011768138735031332
0.276224970817566 -0.8609649885024664 0.5970151314838603 0.012298175148463748
0.276224970817566 -0.9060983974825411 0.046916177821473254 0.009935103181358079
0.276224970817566 -0.8183550423282229 0.4508832572277507 0.011993620021747274
0.276224970817566 -0.8948405950149524 0.5071005980703992 0.011013355761677106
0.276224970817566 -0.5469546375864238 0.2794324623264205 0.013237932872592683
0.276224970817566 -0.5824647240030508 0.09767395564130471 0.1365369205086523
0.276224970817566 -0.6592074294782237 0.024695841971767985 0.06207655004680871
0.276224970817566 -0.589629548642823 0.025360728824487318 0.1580831983273803
0.276224970817566 -0.8593884227668049 0.5093808009780717 0.01240860594439798
0.2762249708175659 -0.44081849657492334 0.08532520798769044 0.009918811829098928
0.276224970817566 -0.8058693078781185 0.40399988594899544 0.011520315756825395
0.276224970817566 -0.8499434764420922 0.381812197604925 0.010910516840748112
0.276224970817566 -0.7619916628427641 0.49269244545911733 0.01038503984300282
0.276224970817566 -0.838305086751155 0.17522179318541586 0.011519114753361565
0.27622497081756603 -0.8166408523023876 0.12373635456135233 0.011712982253787746
0.276224970817566 -0.7191768770237394 0.2736155225592434 0.011906507294484907
0.276224970817566 -0.6767533162679198 0.3199166304402253 0.011394512681528792
0.276224970817566 -0.582165554309188 0.08544742897041466 0.1404852443785319
0.2762249708175659 -0.4407683438435958 0.11559941670126646 0.00820186282308054
0.276224970817566 -0.6781216041116577 0.4081129504714858 0.013577864072139775
0.276224970817566 -0.507538614901192 0.09166131285222878 0.011782096580091007
0.276224970817566 -0.5129132117263173 0.17130757917555559 0.013852376643562947
0.276224970817566 -0.6170804974898146 0.3513645737327752 0.074926205261826
0.276224970817566 -0.7623495882237347 0.33803373512452367 0.009592498082243816
0.276224970817566 -0.9028111739410835 0.20839470645357333 0.014786728739936384
0.276224970817566 -0.8450215181178664 0.10868334787974974 0.010778985408681994
0.276224970817566 -0.6291596776375925 0.250694106797778 0.07701961442641372
0.276224970817566 -0.5689529366874875 0.25401238081266303 0.07609652533535784
0.276224970817566 -0.4561991655330009 0.12756433333707223 0.011192967746104013
0.276224970817566 -0.7498968256678527 0.2970054807234867 0.011863025057476707
0.276224970817566 -0.5882319234602359 0.05220500798932901 0.10821080079259954
0.276224970817566 -0.5989331077848543 0.03309626612550473 0.1042405469445038
0.276224970817566 -0.768291239779257 0.5188487670510781 0.011431243780438128
0.276224970817566 -0.8840020506259275 0.4658553553730993 0.010709544802573948
0.276224970817566 -0.7548726256205085 0.053034068335927616 0.012037992782723678
0.276224970817566 -0.5635198106114059 0.029087834337485154 0.072711585953904
0.276224970817566 -0.6154303253978171 0.026803718763181383 0.09369602632553982
0.276224970817566 -0.8310448376435263 0.3668818095204144 0.010833687280163979
0.276224970817566 -0.829174192804636 0.05464856117845201 0.01158886014294497
0.276224970817566 -0.7653042362248506 0.4436565992820512 0.010995139639253531
0.276224970817566 -0.6046691998454612 0.15673187627799715 0.08102142700583231
0.2762249708175659 -0.713091672716805 0.4395151532774111 0.011568194023395144
0.2762249708175659 -0.9139725002709271 0.1690403174796365 0.015247889095589716
0.276224970817566 -0.7999398504943308 0.45644946116362467 0.011292931326390233
0.276224970817566 -0.8505242411511064 0.5281952730814882 0.01282209999566945
0.276224970817566 -0.605145524247078 0.14328073271464814 0.09386399235125319
0.276224970817566 -0.47946868483490684 0.100638610129927 0.011874196269512262
0.276224970817566 -0.6066153715767223 0.24882806238969757 0.058901084022080705
0.27622497081756603 -0.8798001365958477 0.6221059544241168 0.00995287526594
0.276224970817566 -0.7632455774136266 0.37534620687626147 0.013193527813471781
0.276224970817566 -0.5080022203411312 0.12174017002976535 0.012039685518202645
0.276224970817566 -0.6799907580950396 0.166523906938093 0.010676585761447789
0.276224970817566 -0.8127796095266646 0.26662261073554067 0.012755466241167116
0.276224970817566 -0.7554106352050691 0.2253004915388453 0.011781458118925186
0.276224970817566 -0.8595218485640748 0.6140008365714883 0.011393320292134372
0.276224970817566 -0.8182521230796164 0.4283792761077381 0.010679079954466207
0.276224970817566 -0.7115888364238484 0.212856681889854 0.011290916145035768
0.276224970817566 -0.8752728524021575 0.016897037570683258 0.012160921813723233
0.276224970817566 -0.4832679508199478 0.08490423040416026 0.01226721643855843
0.276224970817566 -0.6256253951768415 0.2724637585940322 0.13424250974175142
0.276224970817566 -0.6551535337573635 0.2505760353750056 0.06477739087801049
0.276224970817566 -0.8334971788906249 0.49747062694628025 0.012777810454000154
0.276224970817566 -0.5291397361262872 0.2499352235005073 0.011092878972250905
0.276224970817566 -0.5582088152097405 0.11757040102104244 0.043312898458214996
0.276224970817566 -0.6803656661241214 0.14157557128292447 0.010818582560311492
0.276224970817566 -0.7569645152911743 0.21215185333261263 0.011889751244898085
0.276224970817566 -0.633440874657865 0.009670926008553873 0.1733142907935107
0.276224970817566 -0.8741337405715137 0.4733804949238275 0.011525099604341612
0.276224970817566 -0.7668999184460856 0.39473502530856597 0.011307300451566428
0.276224970817566 -0.6256070420931356 0.033752817263651994 0.1105417010257167
0.276224970817566 -0.7327926108396439 0.36401860241829237 0.011796277348060408
0.276224970817566 -0.7882023251289456 0.09858401644738035 0.011610067079266411
0.276224970817566 -0.8661393053276898 0.23248871202702173 0.011661539640246047
0.276224970817566 -0.7756470829353681 0.30997354666571264 0.01267819267658351
0.276224970817566 -0.8046938414801542 0.5403672210358085 0.011747388028120235
0.276224970817566 -0.7789044054655457 0.3991701714275656 0.010947664543442008
0.276224970817566 -0.8212105674938835 0.33814549062209714 0.011361256457673169
0.276224970817566 -0.547632355018539 0.05308164943022699 0.011395717583896823
0.276224970817566 -0.8645967386491515 0.5417052195960891 0.011992040486831102
0.276224970817566 -0.6278995213454102 0.057541054427292924 0.14616874584412048
0.276224970817566 -0.6752635084264654 0.23756024234775228 0.012743245259560844
0.276224970817566 -0.6771597529827851 0.4206473095088401 0.01369485652943941
0.276224970817566 -0.8801781298782942 0.4544312986353552 0.010881073681059112
0.276224970817566 -0.6278261504466076 0.19193700483834697 0.12495634485117452
0.27622497081756603 -0.912203707244555 0.27851998130572286 0.014277133373451762
0.276224970817566 -0.8365719606386764 0.06655078837813307 0.011358311159350376
0.276224970817566 -0.8797068501378524 0.5906835910162053 0.01119485340780728
0.276224970817566 -0.7762664161633775 0.3514904314515289 0.0110188955162975
0.276224970817566 -0.6233509822983452 0.15275734207619707 0.10756805263014843
0.276224970817566 -0.8020540514764998 0.21159900783501412 0.011436761507565686
0.276224970817566 -0.6421856085565948 0.07356668695410963 0.12110306277411596
0.276224970817566 -0.7161201574438928 0.3016299305925129 0.011891989790870805
0.276224970817566 -0.7650020139792504 0.16686720145940975 0.010560324775490154
0.276224970817566 -0.840609860098697 0.3043309164125665 0.011545593267777697
0.276224970817566 -0.5516212038880898 0.23174326747813542 0.029093636588203277
0.276224970817566 -0.48488147754838373 0.14758864936661412 0.011656990369162287
0.276224970817566 -0.5641140931919364 0.08219097911478021 0.06485837792096938
0.276224970817566 -0.8291520344901431 0.24278912967085206 0.013568690871039677
0.276224970817566 -0.5909930369644603 0.29903829188567205 0.12410110611650135
0.276224970817566 -0.7849342393323987 0.5018297031045998 0.011505694118903275
0.276224970817566 -0.6869287201113001 0.09173667431058542 0.010473144706298947
0.276224970817566 -0.5709476009263501 0.06304065438888998 0.07205106992528634
0.2762249708175659 -0.7946023398698716 0.18469794120911992 0.011742548307252899
0.276224970817566 -0.8670509580609866 0.3731992922798043 0.011072724535901825
0.276224970817566 -0.8802033857377917 0.20551250070524016 0.011065533903190846
0.276224970817566 -0.6407038967006974 0.1487063249109955 0.10620112856273291
0.276224970817566 -0.7243464912936093 0.3214487829362806 0.011506913595968149
0.276224970817566 -0.5390796626286525 0.017609749898137614 0.01070230485851136
0.276224970817566 -0.8022233901289538 0.27317444931234264 0.012796274176779365
0.276224970817566 -0.7145548474874697 0.15054517983432875 0.010291494674489894
0.276224970817566 -0.7813575674863892 0.37191533716894964 0.011190713027251829
0.276224970817566 -0.5375548718965866 0.04686868088388018 0.010881971113182976
0.276224970817566 -0.5485414974020587 0.041067382589159346 0.015631616315679414
0.276224970817566 -0.864511242235551 0.3591295968836573 0.010812348198152926
0.276224970817566 -0.803995288407665 0.4758259496734478 0.01185119875970693
0.276224970817566 -0.8342733395884515 0.1635950333052519 0.012116876774531663
0.276224970817566 -0.5696699056092871 0.2967470822529183 0.10535214804783945
0.276224970817566 -0.6055760619786393 0.2940995087144956 0.0826129348669987
0.276224970817566 -0.7983946635992183 0.19665907527352086 0.011746540559417564
0.276224970817566 -0.8848247248133009 0.6611242336719655 0.011006927685866153
0.276224970817566 -0.7781793572896801 0.5467481843371457 0.012641616475292484
0.276224970817566 -0.7067880204738488 0.024441186067886176 0.011785972107122112
0.276224970817566 -0.5578613812849158 0.18913810763403377 0.04730414540178921
0.276224970817566 -0.4906624878960816 0.12933545285731365 0.012673604199264969
0.276224970817566 -0.6011913900991125 0.10351061619605546 0.1025062831708519
0.276224970817566 -0.9028730424879331 0.48877868447135125 0.013687297172929266
0.276224970817566 -0.6184793860151815 0.048105395318461044 0.07713657447555278
0.276224970817566 -0.5528170599513196 0.20505960584443716 0.021331880119769882
0.276224970817566 -0.8097310491207508 0.4154922477210873 0.011274767454060024
0.2762249708175659 -0.41347173154364425 0.05869314849523867 0.011031863956265061
0.276224970817566 -0.8079846918716868 0.18701732657315961 0.01130552136792072
0.276224970817566 -0.630662004833604 0.3178775003482537 0.12302264884347654
0.276224970817566 -0.6680803602358558 0.15997852311161642 0.0218081282137617
0.276224970817566 -0.6846181143049885 0.33754045224136187 0.012276805027161055
0.276224970817566 -0.600061463449669 0.07001762105649417 0.09156117518402784
0.276224970817566 -0.666865112887852 0.3750740032166119 0.01323416761397932
0.276224970817566 -0.691429425303066 0.10725305281245012 0.011822521137976109
0.276224970817566 -0.8408364111411829 0.08593102180044421 0.01170747124932755
0.276224970817566 -0.7294864607105593 0.047874843275574515 0.011507554785945914
0.276224970817566 -0.5776268938067016 0.13818542789216337 0.1282307951439395
0.276224970817566 -0.4868495694123372 0.023615186541834376 0.012254146899624386
0.276224970817566 -0.7070219538634543 0.23854452586709174 0.01176416786848775
0.27622497081756603 -0.6650619113240146 0.05688614514588286 0.035988190050956916
0.27622497081756603 -0.7452413428353154 0.2585828356596147 0.011530421113453744
0.276224970817566 -0.7524696248610829 0.24736900496548692 0.011815236546745387
0.276224970817566 -0.5565789617152703 0.15977665792577359 0.02637901566505239
0.276224970817566 -0.8023110175908816 0.42891071199419506 0.01174606471286605
0.276224970817566 -0.8689733271647063 0.5845947859692248 0.011825113358886405
0.276224970817566 -0.8906154676116048 0.6498640433013393 0.01214087528312358
0.276224970817566 -0.6258427812889251 0.33565431078943 0.11236266208872263
0.276224970817566 -0.8565425139485722 0.33705671908851914 0.011300361593150414
0.276224970817566 -0.7665691860652541 0.1067062113586078 0.011035355899436137
0.2762249708175659 -0.40467945960926416 0.01970477222568718 0.011297899676836656
0.276224970817566 -0.8858979764488918 0.5710916145535204 0.010047279106991446
0.276224970817566 -0.7011756437381418 0.2670847501666263 0.010646433860806223
0.276224970817566 -0.875213624046067 0.433205032941164 0.009951423368636352
0.2762249708175659 -0.8013747572878824 0.1283928808636828 0.011720268556701066
0.276224970817566 -0.8692800686371676 0.27419012950708405 0.012285074129267395
0.276224970817566 -0.7154820062797306 0.06637481562465192 0.013045987592560187
0.276224970817566 -0.8954986095583258 0.10090359260072311 0.011504957777233421
0.276224970817566 -0.61114371281909 0.1327460870600476 0.08053967077750476
0.276224970817566 -0.6488746536974579 0.1679707739169588 0.12986255312568049
0.276224970817566 -0.7737371110187727 0.18298118033859379 0.01225390771968705
0.2762249708175659 -0.43369770377655237 0.05039937219678948 0.012576743604303421
0.276224970817566 -0.8695433230657906 0.2561039735420466 0.011829563547655108
0.276224970817566 -0.7749236389331187 0.15752182519838365 0.0130120781623698
0.27622497081756603 -0.8472584610607706 0.24957372469811137 0.01193105067515466
0.276224970817566 -0.5711765060896459 0.04855021589615031 0.09867877542587385
0.276224970817566 -0.6467552185747396 0.030145410214208246 0.09460681727192764
0.276224970817566 -0.7585821653913637 0.1845783603128746 0.011060878438810132
0.276224970817566 -0.7508146221236006 0.3495748620435259 0.010187437187139489
0.276224970817566 -0.6677327274368813 0.3276359932864137 0.022103841780550356
0.276224970817566 -0.4667976371445608 0.15514929644346478 0.011242665939956386
0.276224970817566 -0.5384592635340615 0.07425668234317755 0.01304271652462275
0.276224970817566 -0.7914474315797506 0.4078022293898129 0.010239428171856196
0.276224970817566 -0.6598651834302132 0.31372149736944643 0.05051513697097319
0.276224970817566 -0.49870177664564586 0.08334278432514652 0.011889607787014778
0.276224970817566 -0.7223202444663095 0.3753327581152973 0.010779649763211354
0.276224970817566 -0.8238246205373173 0.11347857357110024 0.012057353664164694
0.276224970817566 -0.8155702919384459 0.517586018148299 0.011882586466447633
0.276224970817566 -0.7396864214093514 0.07876057167600387 0.008958049656604024
0.276224970817566 -0.5640778600323005 0.01724494071913315 0.05268829576413027
0.276224970817566 -0.5877893412650621 0.2037905438559077 0.12847589740212817
0.276224970817566 -0.7639601639683014 0.14120203804135417 0.011718431730961225
0.276224970817566 -0.6223741606230845 0.07005065422871674 0.08307227961674087
0.276224970817566 -0.8515789961157629 0.5000126966166349 0.012914128103656683
0.276224970817566 -0.5136685752804198 0.19595864764711557 0.01044364702164874
0.276224970817566 -0.7792378361520975 0.07791637197886768 0.010538341325380951
0.276224970817566 -0.8913736121809434 0.3608198495519229 0.011280974241291226
0.276224970817566 -0.7284939853992451 0.21749082390585625 0.01055891995224441
0.276224970817566 -0.6220211133651097 0.16636044571083256 0.0782366930579487
0.276224970817566 -0.4743446500697983 0.037365750782479557 0.011673220908351841
0.276224970817566 -0.4821778100427953 0.1595580043046041 0.012214665644759568
0.276224970817566 -0.7240322766315256 0.3879484804009374 0.012584453926698826
0.276224970817566 -0.7663709220115917 0.2061325957028296 0.010727222826511694
0.276224970817566 -0.8649212554355151 0.3093860554198432 0.011452907083336312
0.276224970817566 -0.7874876730291435 0.15295530362300563 0.011937249449405649
0.276224970817566 -0.6448848792573036 0.3347542919028833 0.11255361690970547
0.276224970817566 -0.49036645683324975 0.03447033531847542 0.011509128555603085
0.276224970817566 -0.8143545880225977 0.2972961260154349 0.012682773224022377
0.276224970817566 -0.9057715592766528 0.23419982408408982 0.010690561823005948
0.276224970817566 -0.591222399118174 0.148291510801652 0.12340174368437254
0.276224970817566 -0.8470513997481762 0.5159435069423502 0.012309226361272588
0.276224970817566 -0.5900247704798316 0.11430950432800345 0.11601026128378876
0.276224970817566 -0.9130323605738666 0.19606521206362826 0.018319683021146484
0.276224970817566 -0.8174341377661836 0.4795404390664763 0.01159383717878391
0.276224970817566 -0.5526442780001544 0.24606798732610202 0.019457276474750464
0.276224970817566 -0.8521899583166795 0.5854930108766678 0.011312654586226809
0.276224970817566 -0.5872608315172332 0.3304524400973325 0.12662756196478123
0.276224970817566 -0.5732170298041581 0.22941830335653998 0.08650433370343022
0.276224970817566 -0.7408768526937319 0.1772657425436041 0.010003716965573369
0.276224970817566 -0.5048207941567993 0.06576634860428321 0.01221015238379478
0.276224970817566 -0.6167877244847053 0.17806944164945468 0.0627000359238377
0.276224970817566 -0.7904028755850477 0.1746567684426521 0.011686812370692346
0.276224970817566 -0.7795842694548256 0.42824303309899847 0.009587183688625201
0.276224970817566 -0.6792698136813821 0.0159902931984245 0.012235044273095064
0.276224970817566 -0.7812829628162538 0.323816502510234 0.012030338256030539
0.276224970817566 -0.587766863645836 0.31566851019102404 0.12654628127988315
0.27622497081756603 -0.9111046970622109 0.6095985658539006 0.010409651715231581
0.276224970817566 -0.6943755934460387 0.08199191659381261 0.011509438920625547
0.2762249708175659 -0.3630776499889069 0.06551412987688629 0.011450742398567835
0.276224970817566 -0.6085577917773501 0.09392733801699116 0.07931561381499248
0.276224970817566 -0.760797064618282 0.020618974905989386 0.011330591554354879
0.276224970817566 -0.8815849765337307 0.39906610329276104 0.011558084973900007
0.276224970817566 -0.8463337683942447 0.6100882405450263 0.01150772766668779
0.276224970817566 -0.8348219656869114 0.5152604554402722 0.012178661217268879
0.276224970817566 -0.5154471520422932 0.2343000907938206 0.011144386256714767
0.276224970817566 -0.6066825297324794 0.1873194163751678 0.08485630185824225
0.276224970817566 -0.8591523272492259 0.19739607379733315 0.01302224030191424
0.276224970817566 -0.7180304125567027 0.33069058591941847 0.010525495148487815
0.276224970817566 -0.8052442038492359 0.025790759424157973 0.011295013932692177
0.276224970817566 -0.5234088655647136 0.046452731029131306 0.010749453193335078
0.276224970817566 -0.879557525876738 0.5155228385119031 0.011152059268689703
0.2762249708175659 -0.4301626249489592 0.12765304293116972 0.010291141956096993
0.276224970817566 -0.8640671643241203 0.45694089574421115 0.012639593487933358
0.276224970817566 -0.8710049297416014 0.2863236767131722 0.011672089371992407
0.2762249708175659 -0.37522796656889296 0.055611005217843956 0.01105350437180955
0.276224970817566 -0.6086977881957611 0.11311550280650406 0.06740500997192697
0.276224970817566 -0.8761231606529521 0.24024047624849598 0.011601738831108873
0.276224970817566 -0.6958994753394785 0.06365313164418823 0.01230687324234212
0.276224970817566 -0.6892675625639668 0.12884017314419752 0.010208180787832371
0.276224970817566 -0.7864376092938059 0.2860022399286126 0.010541810179725476
0.276224970817566 -0.5313761126214828 0.15819722441170347 0.011312995456632795
0.276224970817566 -0.7471413432151182 0.1233371145704809 0.011728927785337637
0.276224970817566 -0.5353237623612779 0.029027097447669518 0.012367639159615217
0.276224970817566 -0.6872496068552129 0.41555066822950276 0.012637637421484901
0.276224970817566 -0.7852142607296909 0.2104299601689388 0.01090523130458304
0.276224970817566 -0.8542152849856457 0.39304905988143735 0.010956431782809061
0.2762249708175659 -0.8755366165316087 0.49594008964240704 0.01206619078574628
0.276224970817566 -0.6942078886037107 0.04855484651521838 0.010422455100098404
0.276224970817566 -0.5166837712404377 0.1832481287946582 0.01131858496616887
0.27622497081756603 -0.8861804537299323 0.28102087890939165 0.011346527956945678
0.276224970817566 -0.6693497667230818 0.2817677845062253 0.015890461281044023
0.276224970817566 -0.8523094580025631 0.2818485044442503 0.011484506275527833
0.2762249708175659 -0.4187059159967551 0.12422899569499389 0.011286580881547981
0.2762249708175659 -0.4358833805128969 0.15267381793982968 0.011059880190772964
0.276224970817566 -0.6342986052497792 0.0481497651506991 0.16453651831433208
0.276224970817566 -0.6416263856231518 0.21805225664154712 0.10534417748420842
0.276224970817566 -0.8029205291094917 0.29238926717540675 0.011064398006150531
0.276224970817566 -0.6198694413266203 0.28904778993768604 0.10309895827573091
0.276224970817566 -0.7447056226533827 0.33121889789987247 0.010663464405368828
0.276224970817566 -0.6568304865336254 0.01257908325754723 0.08420966778651721
0.2762249708175659 -0.9014130021740955 0.6569855464306007 0.01293367365386051
0.276224970817566 -0.8819846583924781 0.48174709068423693 0.011335597713526376
0.2762249708175659 -0.35494447284414343 0.019589697880270353 0.014101090192160763
0.276224970817566 -0.6086785515521158 0.25932823550600803 0.0754361243294702
0.276224970817566 -0.6533952686562208 0.12654146792701912 0.06831516957739953
0.276224970817566 -0.6986401925143668 0.14039187799325134 0.010742867110409251
0.276224970817566 -0.7889141761454913 0.5314746094931851 0.010188488198451067
0.2762249708175659 -0.4022938159352878 0.06139135756580918 0.011125778159890458
0.276224970817566 -0.8080243126630462 0.11525182112330122 0.012425332926130375
0.276224970817566 -0.5270773184285864 0.12343996359065085 0.01157153960105672
0.276224970817566 -0.8060021873062304 0.23698293265117193 0.012378005621028743
0.276224970817566 -0.7167579185902434 0.04544433137558047 0.012231935415687414
0.276224970817566 -0.7099831430684042 0.10875109807559417 0.010881756590781368
0.276224970817566 -0.837334247323774 0.2836859556484978 0.012170255644905509
0.276224970817566 -0.5955209753640113 0.2140638780639565 0.08972836374382329
0.276224970817566 -0.7588429576031446 0.5255821712295999 0.011728260694292506
0.276224970817566 -0.9141329590306448 0.6701860021445514 0.015065653858764795
0.276224970817566 -0.7445321519173101 0.3657614713011315 0.011585582128939871
0.2762249708175659 -0.9065847166623531 0.012094254080394572 0.018499662745212777
0.276224970817566 -0.8556017205831902 0.3034451211461987 0.012245675512871191
0.276224970817566 -0.816942689054965 0.21602804022940283 0.012189204569592358
0.276224970817566 -0.6807923319808211 0.4406697623071262 0.011628881774711462
0.276224970817566 -0.8670259028490652 0.13363775450276186 0.012588972290885887
0.2762249708175659 -0.7119837977520036 0.009990069086682382 0.011662326439345222
