x y z curv
0.013681241834571319 1.6006872343090317 0.333316253158395 0.1946611459294118
0.0013360019375175721 1.6530005971678827 0.18138722440186708 0.11934618360509722
0.01101675055467142 1.488004778808464 0.6605698473938374 0.17814516197441566
0.018998110071565658 1.5959275827057855 0.34713928432639135 0.1736699141162078
0.013083897905852938 1.6631095637421982 0.15202865539700583 0.2006121177637911
0.008649431738504545 1.6057446887044962 0.31862833993139605 0.1951515261709176
0.01843437674952875 1.6426268879265022 0.21151466189614596 0.15527434159103895
0.014335046620638755 1.6146498483722844 0.29276587983875474 0.12487490581646533
0.017203056397893598 1.6773285157842541 0.11073382257362334 0.1820970129727991
0.011523620069447429 1.5037093567622073 0.6149604438848123 0.17044010790109312
0.020287579799404837 1.715372733774999 0.00024539718352044137 0.20027118173823918
0.0034250947809032675 1.5276488245595115 0.5454351850860992 0.10202058129901816
0.013400987483051184 1.5697099035714424 0.42328094889263973 0.14318097532972188
0.011906892377415242 1.57364336385544 0.4118573514035518 0.1470966363999889
0.02551826207252655 1.7103015718423686 0.014973119986783067 0.21833383509681847
0.0014571595310627174 1.501262257579632 0.6220673355423548 0.15024674040478855
0.015589487822072796 1.6963118136896218 0.055602325461878974 0.16089568250191735
0.019278910693434702 1.6328294806988863 0.23996839690913058 0.15157076872501568
0.0025084170829574723 1.6925944904060402 0.06639821555926083 0.1312895999749265
0.0113636146418688 1.477735905529892 0.6903928191620023 0.14894178998399352
0.02248538954091817 1.686377249477059 0.08445439325967073 0.15325499611845364
0.0021483870686620646 1.4301417342084528 0.8286163213071077 0.1388091535385436
0.013858555824355436 1.6716108370934661 0.1273391662709334 0.1836241672953112
0.00352881231120089 1.6266262077593918 0.25798400862485843 0.10750872731926193
0.013021937619906922 1.546529150632264 0.490602739873594 0.15846596413476707
0.0034815858755459176 1.5665521943365732 0.43245160187558096 0.1370336194936545
0.00488944201480716 1.7089688736522148 0.01884355634549965 0.19161913808231595
0.010337007432743198 1.6850742174881237 0.08823867271904572 0.1460477623675323
0.0010434339381910965 1.6594678883604352 0.1626048480476411 0.1066709631387566
0.017594001379592446 1.6817651135612062 0.09784900778826089 0.15456033400291336
0.017044074738546317 1.6914902498720976 0.06960516274574055 0.1677634934153235
0.01986959409019549 1.704572218575157 0.03161236911399128 0.15145631513431396
0.011589728883865232 1.6239495499785526 0.265757586822341 0.1736557537666227
0.010858956938171606 1.51938592854261 0.5694323762043841 0.1578556452091073
0.0035807371156857085 1.6314257761748652 0.2440450506232327 0.12321413892471612
0.025618438996464602 1.6621364103416907 0.15485489792645457 0.13967880833142418
0.004095296126417675 1.6983829129230632 0.04958741688404331 0.13326646980967724
0.0026344493217651532 1.462852534035188 0.7336172660765334 0.15190503136361372
0.016293418320804522 1.5920547182062168 0.35838689888928493 0.12881523939253522
0.00014801258319718113 1.594511361178087 0.3512522900566464 0.1350923968810053
0.0017462373922097311 1.5988494786082925 0.3386534829491543 0.1395441592265194
3.890042844828138e-05 1.3528007358332856 1.053230877207547 0.11130404500872107
0.01145493236710064 1.655824534867391 0.17318591428703395 0.17748580347793222
0.006463622526376036 1.5805066384262378 0.39192495588074633 0.17600971323952597
0.0042066590235965455 1.4942942752917756 0.642303824338593 0.1514791203982922
0.00495520148459779 1.5613637754255882 0.4475198636513504 0.11723873638044618
0.004290077678982533 1.5081456207884532 0.6020765983818265 0.14107482703524865
0.001182058722749833 1.7023715429110136 0.03800359494979869 0.13778227996305067
0.0040450111112844125 1.6119784486500366 0.30052418752615434 0.11986635018472144
0.002318040519727598 1.6215304446602765 0.2727831783993353 0.11743462628403313
0.0031395114135646294 1.6408574703387433 0.21665342340720117 0.09607138221976472
0.009626250488037903 1.6359733649907433 0.23083789447376854 0.1381091673402244
0.015607590719104435 1.5653740455925993 0.4358731940772832 0.1695976914703348
0.013525268603028147 1.5340621919170085 0.526809414911233 0.13965426976892384
0.025114983502530188 1.6585608981363718 0.16523893877137114 0.15525481354608633
0.013772908981561534 1.712075048440126 0.009822570255413552 0.2492313397016926
0.016037917910265046 1.5861402767127253 0.3755636832257835 0.17107994917690514
0.015119667549314765 1.6198819711991985 0.27757069268222034 0.15432408025054833
0.0009569425306462969 1.5413548128536638 0.5056301070738647 0.14703691641429156
3.735359064967953e-05 1.4590263171412954 0.7447294061633668 0.07807871601448019
0.0020781900300787365 1.7142767302963908 0.003428422225668883 0.1990184620044636
0.011439793281836513 1.53817967368406 0.5148513802599576 0.1430158021090442
0.0034102831892457307 1.3865534177756793 0.95520597677681 0.14675085610881264
0.012992707914496566 1.6513281653987848 0.18624431865952726 0.17696571554037058
0.02132532707960439 1.6477308864115816 0.19669157482554078 0.17621835318510892
0.020216343348189184 1.6064023257010493 0.31671842352188695 0.1816207482768623
0.01308561883301424 1.5775641389081576 0.40047059449902117 0.18082261953886886
0.015834747550426395 1.6667276267597049 0.14152103802756116 0.190913984498641
0.0019888438424664943 1.5492497980819144 0.4827014064087667 0.13557997701598598
0.015011385981538311 1.3730235729543856 0.9944994970284509 0.17136038717480362
0.028313948597834947 1.3599608384087676 1.0324364306141358 0.1144400790556115
0.027097450122083002 1.6359981334468392 0.23076596165827395 0.14647733445265929
0.017689516035127476 1.366581167059372 1.013209601235012 0.15735368117508688
0.017299915588376895 1.4676777406095871 0.7196038494591374 0.19208405078563995
0.020242516112391928 1.4741787617993714 0.7007235140856598 0.1285754986989658
0.02523796523318217 1.502298254512172 0.6190585821540423 0.1789159733653395
0.029143997368863847 1.617439923755592 0.2846629130253393 0.12320880252854961
0.01123240153450163 1.3918874288028462 0.9397148848177508 0.1620766442555012
0.012278568979042689 1.4826904590963637 0.676003751624761 0.15902514941654539
0.029812223560161853 1.4714452592019893 0.7086621816082248 0.14300998597260528
0.018314142870421796 1.4036571614408548 0.9055331012218201 0.15259539996950341
0.014293805380304543 1.4588988207331262 0.7450996825976183 0.14282821151032649
0.018763642702905377 1.344647573945537 1.0769093772925546 0.20190362626383163
0.010393873568429326 1.4074511089693136 0.8945146781717248 0.14568486223078528
0.010706773024890578 1.349733481604023 1.0621388297943182 0.1839754348654787
0.0222169830096597 1.4556785655741589 0.7544519821232705 0.16609933052020953
0.018383114633718743 1.3318430589793793 1.114096386809716 0.21283125445624845
0.022942914109779496 1.5625803887834167 0.4439865621060858 0.150884862359896
0.009599524785822603 1.3362317675322255 1.1013506524219563 0.22089793179047976
0.0219366949634133 1.5308562678142972 0.5361200940298025 0.14549643058076883
0.028592335314862334 1.4447096370926849 0.7863080617101751 0.12232887781082726
0.01881793647320535 1.5541610639461083 0.46843805548014594 0.15222110350414345
0.019921428388349396 1.4139399424995978 0.8756697383295127 0.15666385362073038
0.015344562798136235 1.4919516202350425 0.6491073882471371 0.12205731622663714
0.013642136304111893 1.3540771389109287 1.0495239337175744 0.19583661399336372
0.017311538715324707 1.3837466080559464 0.9633575436293174 0.21974351568021894
0.01335565086684212 1.3996408023891402 0.9171974542000623 0.1622030792589758
0.01289267633238645 1.4182812740009092 0.8630615968822883 0.14294282635939365
0.028795705228989242 1.6541576571706584 0.17802687834823916 0.13661308923752255
0.026241421315464503 1.4983651912835736 0.6304810265105876 0.12423876192913005
0.027234050667006716 1.527401155486073 0.5461544682620261 0.1389760668084864
0.02709083858540824 1.48295200826615 0.6752441577243483 0.1583697515079507
0.009052224140278925 1.411542961709351 0.8826310756152235 0.16793501121706084
0.028762674863038296 1.6772795823601236 0.11087593554812063 0.1422168504056067
0.02948670913432088 1.4669803356643338 0.721629260371226 0.12695241491041426
0.028886661539160252 1.6735200962470227 0.12179427538660861 0.1585938334983142
0.028212375019733053 1.4084514507987882 0.8916094747156472 0.13982012164748409
0.022323238386220964 1.540669884657849 0.5076192828765915 0.15722719187562814
0.014564863803604815 1.3877973933697292 0.9515932095320281 0.15846442109653727
0.02553432065995668 1.5819348361839851 0.3877771686549033 0.1183752405463812
0.012144054322195025 1.45355358362775 0.7606233774532579 0.15423165942217093
0.029625147936996755 1.3312619753746178 1.1157839760387995 0.20372122546515015
0.010294839077591818 1.3597881421832514 1.032937976842074 0.17672004259814497
0.010391678158308056 1.4218541928491097 0.8526850876928939 0.1403721451738801
0.0109381154455897 1.4426352662751776 0.7923324716574981 0.16767108023677288
0.01880128501404568 1.3628985185595934 1.0239047884538615 0.15948201852272417
0.014095212948142552 1.3397249233004649 1.0912057920237475 0.1819072586311116
0.02082202698979465 1.376710048595799 0.9837931949838709 0.1760544859250379
0.024491337393957053 1.6103044968357885 0.30538569631522117 0.2049437335660918
0.0011495672040966525 1.3313124427349552 1.1156374081903384 0.1833816005405412
0.02902489219601958 1.5879313085767635 0.37036214930204214 0.11535864278038006
0.006804935884505639 1.3698682787101457 1.0036631363697384 0.12809997149894295
0.015368270997035218 1.463925274006153 0.7305018031624632 0.1484216088646022
0.026578246320980006 1.3527372589158018 1.0534152275512207 0.12147848186648068
0.02044837934733484 1.3943990003074882 0.932420751951883 0.1582709381100134
0.022202771388487558 1.4517578708701284 0.765838505678283 0.15782706229611018
0.014148238314756329 1.4488905717160145 0.7741657465940377 0.19479886061648605
0.028897126538202565 1.6289348698268082 0.2512791675199958 0.14301499978487967
0.014719168840000879 1.4994830694746124 0.627234472694293 0.15946349777568256
0.02998686005775585 1.6035608288715504 0.32497072905011914 0.12121312613308026
0.026412942599545398 1.6210860529271285 0.27407378563073803 0.125221368607856
0.017295195173185444 1.5235506949497621 0.5573370169948513 0.1795441589576792
0.012409961991134155 1.4711918528549965 0.7093981270354615 0.1593679043358004
0.012380016369329994 1.4264139040917665 0.8394427254617332 0.12913670229984328
0.0081998307138732 1.3792476294671765 0.9764235254365365 0.17652663374983277
0.015091473226211963 1.4337810906260362 0.8180468634170812 0.10943529408541328
0.0051040061429945445 1.3447408845092919 1.0766383837538251 0.12367166141279835
0.02335139639360578 1.51490007643062 0.5824602359571381 0.19010733268774982
0.021256767957435627 1.4860261305924407 0.6663162587366207 0.16384468249894082
0.014895312415731407 1.5097166719993425 0.5975139346272296 0.13814849953189534
0.028166689854970735 1.3811349913382318 0.970942228874601 0.1419178836321127
0.029558076224461084 1.6252065776818843 0.2621069135019783 0.13428654759245912
0.010257787416988965 1.3321214099382133 1.1276168905715696 0.20247291099975503
0.008361454896002887 1.4964312985686496 1.1588020401995074 0.16318389639403189
0.012074691987386827 1.3517537148407908 1.1325033869214196 0.2082380908386751
0.02256352314165008 1.3627031541721992 1.1344937125900305 0.1905859089604675
0.017011774938970176 1.4331109027606015 1.147292025365976 0.1858550592748462
0.005014078553290933 1.4723221043427774 1.1544196105001496 0.16631761791639557
0.024204123749371313 1.3866764512495429 1.1388514396927694 0.13872526975541352
0.003610680984207774 1.4277244207061064 1.1463129018536131 0.15106899644457708
0.010776889967353173 1.4180845803291604 1.1445606274984768 0.16781031566257162
0.022720772808355084 1.3386609117689101 1.1301234530052344 0.18962289470813734
0.0087083294829052 1.3745485924203078 1.136646907752593 0.17046718174137196
0.001855481501388891 1.5509418694826989 1.1687106560854053 0.15124728712281166
0.01566656717075993 1.4663022406099526 1.1533253545344937 0.18393528330893333
0.013880132786670583 1.4475610089134325 1.1499186819754732 0.1724919010330967
0.020664716724095377 1.3997264459463126 1.1412235921504492 0.14867051354343833
0.005320342817416557 1.4071167943441953 1.1425669668814358 0.1418932792582509
0.01050869323789614 1.5312964824931656 1.1651396314135845 0.13123873536393574
0.00995642805377997 1.5960166675654963 1.1769040918327776 0.16757436235144055
0.02629044536103247 1.5627859817855434 1.1708636102253163 0.11953708573848724
0.018135674842387716 1.4771521110755845 1.155297581151331 0.15925670113485507
0.01181848936836969 1.570146165492612 1.1722015017935037 0.1495262963706174
0.019191500205922307 1.5180349518553105 1.1627290271776323 0.16226400200372498
0.011254426840975027 1.5090072852550258 1.161088030226248 0.13883346230304625
0.01757824247490334 1.5549117932439775 1.1694322858351438 0.15467234944800573
0.020285979793788947 1.501160581283258 1.1596617018219981 0.13943267542169782
0.029723505783557102 1.3526737059233394 1.1326706175723296 0.18609319445572203
0.028226580607473895 1.4579898086415615 1.1518143687922544 0.13810369295181724
0.0297301334783024 1.4454820681835001 1.1495407841696526 0.11755841426008987
0.01961551810194518 1.541982665068546 1.1670821037937211 0.12507273718192577
0.022817392005175404 1.4172562530013437 1.1444100589540367 0.1852202707666816
0.0 1.067419659787444 1.1381915990992466 0.1749342831594871
0.0 1.077244024665429 1.170568588956693 0.2021621595900139
0.0 1.0926242772253676 1.181927481282918 0.21162079381261287
0.0 1.0696830476339292 1.1577724787386225 0.19475666776564596
0.0 1.1131362688348627 1.1391609256139472 0.21005606254362996
0.0 1.1246402178914316 1.1293255342857502 0.21016522852538622
0.0 1.061742445672239 1.203513302030511 0.19641568037931897
0.0 1.0725699498318915 1.116443899180618 0.17272926676032443
0.0 1.0948639534628248 1.1253711944277054 0.19679890450361795
0.0 1.1231216381100895 1.1504157950168759 0.19616837074203441
0.0 1.059112194711761 1.1171524037745737 0.18199131632138268
0.0 1.0855732566396594 1.1432669247032536 0.18258584133659206
0.0 1.087887837473298 1.1574488360517088 0.22746482563581266
0.0 1.0757111488472897 1.1838493396968146 0.20777521732979812
0.0 1.1472582610007895 1.1232585589666617 0.16329307225964496
0.0 1.0710834407248635 1.1942980717727485 0.1967166941800092
0.0 1.1559673962044406 1.1141002867116916 0.1403392166864135
0.0 1.0993670582542767 1.1456940143079943 0.20866283776386751
0.0 1.1054945549755406 1.1642921449937373 0.20971590266262582
0.0 1.0779128803442057 1.1336009876580688 0.16707133243684524
0.0 1.135094446823627 1.1094131804636502 0.14175417576086732
0.0 1.0889755097297162 1.1090544647604634 0.1153953035389328
0.0 1.10266148887058 1.1060555624394977 0.15092888993238338
0.0 1.115447497993079 1.1213254132322483 0.17378408321145883
0.0 1.1390808645592132 1.1368741231479254 0.20700762272359077
0.0 1.1391246763102196 1.1825846256244108 0.21947124842456953
0.0 1.161113815117476 1.1580701008434402 0.2309099112351934
0.0 1.1729234889634161 1.145244435788767 0.1773010213853901
0.0 1.161897188382047 1.1811446363764078 0.22148513328607994
0.0 1.1584823594948752 1.1413411897955494 0.18698477844421282
0.0 1.0805766450086796 1.2054963620614194 0.16606780857771244
0.0 1.2112223434270968 1.1153661458327075 0.22144648724370078
0.0 1.2716896875143509 1.1364127919365243 0.20184764614640413
0.0 1.1670875219063173 1.128954377568401 0.2000443861211386
0.0 1.2650837124038348 1.148372274205928 0.21009265075252112
0.0 1.1504899054100877 1.163037501212923 0.2204609656497857
0.0 1.2420598753554373 1.1566936009030793 0.20641250035297012
0.0 1.195993128399493 1.1536064039166682 0.20751216096254266
0.0 1.2483659956550786 1.1246492840459104 0.20887104535192222
0.0 1.3076681005331743 1.1274106439663447 0.20284640025181447
0.0 1.2239550973921105 1.1353523746755612 0.21709914880784298
0.0 1.1208300344771682 1.1863205117818396 0.23954466309827727
0.0 1.1177220730894237 1.1999253881921979 0.21414714859106498
0.0 1.1729221623371942 1.1736195757360628 0.23251139853939204
0.0 1.2352788588474035 1.1271019561713977 0.1967254670710255
0.0 1.1413066290071945 1.149128328574563 0.21422829502079513
0.0 1.1993328451282588 1.1177011858610344 0.1973287886349592
0.0 1.1374888629351236 1.1620881850604488 0.21873714987764886
0.0 1.1846734846989269 1.1745255240197616 0.2167965807454525
0.0 1.2380949200512807 1.1419401831627152 0.20238045780793718
0.0 1.297972748899093 1.1368240897496076 0.2493178689711277
0.0 1.2237900621928954 1.1212383951811646 0.2610570262246635
0.0 1.182738762792 1.1242591235479291 0.20400060610075268
0.0 1.191802742432059 1.1305110882140035 0.2142621490229668
0.0 1.2078630564202606 1.1475966970791158 0.21374938089770293
0.0 1.1685642863159638 1.1111281452804338 0.15716949498609603
0.0 1.1297388056941753 1.1744276113048135 0.21228077474395013
0.0 1.2093625243713035 1.135720364739536 0.21253760700905713
0.0 1.2824190699597695 1.1384052625848111 0.24516052244590172
0.0 1.1057002903621698 1.1939342011753384 0.20177756347031003
0.0 1.18931969650993 1.142706305594112 0.22054016546634317
0.0 1.223221846145569 1.1554313633323807 0.22632337552561366
0.0 1.1795850463778856 1.1604084572192015 0.21270891031714226
0.0 1.0972291630519853 1.2059982103569704 0.1898619842100659
0.0 1.2049674833127404 1.1621807464247662 0.18381091582356174
0.0 1.1043377284247777 1.1807577217234821 0.221619592321618
0.0 1.257141973703454 1.179745891926317 0.22104654049542616
0.0 1.3283443125772143 1.1808198781065313 0.20292839384668787
0.0 1.322419475683241 1.1459875695514754 0.20434101897213064
0.0 1.3220728284253496 1.207030973827414 0.19987676328825152
0.0 1.3033126290855461 1.151935378065614 0.21357105006099233
0.0 1.4960246126711332 1.1957766158004919 0.18883288533825734
0.0 1.226800462367659 1.1999692951728549 0.18022957222455008
0.0 1.2898699171970156 1.1760202551571382 0.1765308839887906
0.0 1.3381867149226554 1.1886431277967202 0.20501473999220954
0.0 1.3545998070956247 1.1799460579799144 0.21936705604579027
0.0 1.2351920652442083 1.1876441985557318 0.19253654675840579
0.0 1.4484000463900017 1.1696242824278176 0.19178793017113477
0.0 1.1959315523266514 1.1777553608233886 0.1955708642429344
0.0 1.4320025902338043 1.1832065079070702 0.18743786195699555
0.0 1.3726616207007596 1.1622320339544405 0.20908958990075374
0.0 1.2371258261062197 1.1693332836691062 0.2149503135428818
0.0 1.4443748125209361 1.1939550553751928 0.17646042262827513
0.0 1.481133575596845 1.2077992078470463 0.1358641065500173
0.0 1.4578469564045031 1.1864778313877178 0.18769910460202444
0.0 1.4452222388421878 1.1818015612074184 0.1900467323133469
0.0 1.3828905067258461 1.1553103081741618 0.16891436743320853
0.0 1.3747273502689366 1.1854260620510555 0.19209050088419477
0.0 1.2145959125702943 1.1960811902854303 0.1708548839679805
0.0 1.2448125498731604 1.1785580017750519 0.23575663224291138
0.0 1.4073755040126523 1.1779526294946803 0.1976712573941067
0.0 1.2259695928160002 1.2130310087398672 0.1588689403558298
0.0 1.2023617117056833 1.1874134430818992 0.18254418840352993
0.0 1.2640070969741308 1.1648141982674567 0.19859138481634897
0.0 1.2766837404472815 1.1747880636453552 0.18649703803310036
0.0 1.28203554479615 1.1946054749411361 0.21210070010532678
0.0 1.5182300609099704 1.219191868313083 0.13848298227558778
0.0 1.3126185978965301 1.217971750810809 0.12791536632823985
0.0 1.4196209933490889 1.184064685743786 0.18377906341545255
0.0 1.3986076051568472 1.151323243219446 0.20469607281787483
0.0 1.357352197400384 1.1533957595233548 0.1878379006728805
0.0 1.2933772670793169 1.1646754696817179 0.22483241800622367
0.0 1.4437432546786333 1.2066616131104517 0.1792850043749414
0.0 1.415432452644872 1.1637146808964434 0.16742201640561793
0.0 1.4726541503609372 1.1906453563954902 0.19409599005587017
0.0 1.3242852505901188 1.1920241720830158 0.2100126628351762
0.0 1.3712187123067445 1.199143190810568 0.19255334963579435
0.0 1.5095245700372673 1.1922811259866304 0.14623169181853193
0.0 1.2450814892909539 1.1989623155547944 0.19469647853618305
0.0 1.3334607194035186 1.1991013944026763 0.2030670461903477
0.0 1.3453017774133138 1.2123280492051953 0.1542642780500002
0.0 1.3352047895066024 1.140190878486416 0.20977728128608927
0.0 1.254936242983725 1.1925530210098494 0.1717322863711954
0.0 1.5422742110768453 1.2190948504952204 0.12814018949299902
0.0 1.3586975242184374 1.168899958118482 0.20404327362548397
0.0 1.3945984226913282 1.1625137129653607 0.19376259679786906
0.0 1.3850974919926768 1.1939713009292159 0.19693616626746024
0.0 1.4263873907514608 1.1713866440315681 0.1903812272968272
0.0 1.152851530683369 1.1978597514255995 0.1802370086169575
0.0 1.3576752204137996 1.216613908201873 0.1419335083378381
0.0 1.162295857473221 1.218009647499507 0.1579616165092782
0.0 1.178275916937047 1.2174580842155727 0.15783831545438867
0.0 1.2246245814737933 1.1668268866585003 0.207638296744286
0.0 1.2995817296920587 1.1816320308033372 0.20098634632063017
0.0 1.4685673443013163 1.2082311267557684 0.18364007500026025
0.0 1.1405339724988484 1.1990074339633594 0.2152289151584374
0.0 1.506246108807003 1.2098774410529813 0.14944867606321288
0.0 1.398457759536533 1.192805187236711 0.17183874406758423
0.0 1.3037062939669435 1.207122245758056 0.17815483580137045
0.0 1.3430857338181135 1.1760708120877377 0.2325713446096232
0.0 1.4847661774838532 1.1818215855824126 0.1780644706246366
0.0 1.1284325695661397 1.210244666738372 0.10928318865286206
0.0 1.3483857942655804 1.196757209308157 0.18977471126739262
0.0 1.2184383004645687 1.178798483960568 0.1915440422321392
0.0 1.3393673809935156 1.1512009041706055 0.2043015134759913
0.0 1.3158030444168547 1.168944911333683 0.21418362881591071
0.0 1.3793899118034774 1.2108953660711776 0.1785407769457902
0.0 1.3618850284429362 1.1901093099923428 0.16572865643193585
0.0 1.2649135361157837 1.2122490690762495 0.13779228064914611
0.0 1.5435814625374227 1.207319645769775 0.1942468954263181
0.0 1.2999814367767666 1.2183771832144557 0.12100671644984377
0.0 1.1460459001323848 1.218032284652928 0.09977134546515838
0.0 1.3352806942163502 1.1629180929273926 0.21492071808475044
0.0 1.430286156315455 1.2036993015566226 0.16483562944787822
0.0 1.1882482310438132 1.1957106598863612 0.18773142188662714
0.0 1.177455618090172 1.1879922834320202 0.2165457584237294
0.0 1.2807903047448819 1.1577859859671091 0.23285744851449391
0.0 1.2517425135800826 1.1643604689959073 0.22495855103020415
0.0 1.521184737473206 1.2072193409107155 0.21166434548372975
0.0 1.3930154106233368 1.1804744007148802 0.20137777993894537
0.0 1.4167816117443583 1.1996341370870809 0.16902968646523434
0.0 1.3469205794139318 1.1596998292273546 0.1928876259074656
0.0 1.3810954616330533 1.1754162848520633 0.21635160421195143
0.0 1.2780616240285543 1.2085082017916373 0.2011674560950911
0.0 1.3238901654121245 1.2185048628188715 0.15556311933370212
0.0 1.3988962329804608 1.2049887083941706 0.1586820737262546
0.0 1.3885709806982818 1.2195096247339554 0.13655205843331256
0.0 1.5312004317749353 1.2162217873854193 0.17404538266995254
0.0 1.1830517179346347 1.207444260960738 0.16435554788255352
0.0 1.2926600672458501 1.1490609062333712 0.24919231928206037
0.0 1.2061240078899964 1.2047255987213843 0.18396599418779214
0.0 1.5671068524879865 1.216345116701262 0.10977907624854569
0.0 1.3570705900814481 1.1417032705299845 0.2008492895425076
0.0 1.1621684762940294 1.2054199351141843 0.21221687581583593
0.0 1.1635792506914406 1.1936375140287325 0.18650824822076392
0.0 1.2960082838605202 1.198069543390891 0.2060848830303018
0.0 1.2665232453977056 1.1996508869727793 0.16584854164105942
0.0 1.2731712984950008 1.1210502856172782 0.1919606813220416
0.0 1.3208686631334132 1.1265017761915064 0.19876575895219384
0.0 1.1831763820050885 1.1100585084527625 0.15640841378916212
0.0 1.2614070787551965 1.1180702091299983 0.206083124468281
0.0 1.2411108991518454 1.1142951237294256 0.22543268523866006
0.0 1.299537331073204 1.1191675495881264 0.19905112519036752
0.0 1.2856899892361349 1.1160082679046648 0.2274470707868015
0.0 1.3367949235387402 1.089580518643939 0.16116675802349936
0.0 1.4175324106754328 0.6879453381239884 0.1838582258363499
0.0 1.4729894200177491 0.6138358972553188 0.17216642843420518
0.0 1.3153199288391937 0.9382510460997907 0.229793950446135
0.0 1.5435328953225496 0.3010470756182054 0.16592659051636216
0.0 1.4605979101230666 0.5621700300559973 0.22980660939008773
0.0 1.2209896724572031 1.1069737292544686 0.23273943198226918
0.0 1.6127032813498938 0.15805346814870072 0.19199147040273742
0.0 1.2093336605192955 1.0463940247119379 0.16094964563874434
0.0 1.2738652935345167 0.9733473348789861 0.21854259048470737
0.0 1.3424233527166571 0.7907955518219176 0.23478163322941656
0.0 1.3766863686386217 0.6915487426281 0.18249677049506802
0.0 1.3181441303306543 1.02962057944727 0.1937942910462111
0.0 1.3475943524859457 0.8220078037650048 0.23533555567214168
0.0 1.3234157989018795 0.8100461534610154 0.18582786235908902
0.0 1.4063238265485112 0.8213784416377614 0.18443843462191245
0.0 1.2956362724006267 1.0339249145159248 0.22353102822928725
0.0 1.4169928563935916 0.6096877347631512 0.1576905010433352
0.0 1.619741047973221 0.11692695793785222 0.1272184484470897
0.0 1.3858628757735243 0.7963854935833863 0.19026952176731324
0.0 1.3648829995386826 0.8570769482482212 0.224000930225646
0.0 1.2858014217492142 1.0858194717445104 0.21091140624806323
0.0 1.5028978227045633 0.5441724197717923 0.22540409609409173
0.0 1.3608248624932666 0.7872315015510037 0.21235149115387913
0.0 1.2385943435330624 1.0639389977098772 0.23111948712952646
0.0 1.5677144217819197 0.2970064131679771 0.18616680042111067
0.0 1.6017523672185878 0.20379601871972838 0.17908794923839416
0.0 1.3711176500303823 0.8189429585187014 0.20929928496234984
0.0 1.3338135167672691 1.0302930631334992 0.20770470730840682
0.0 1.404299730778165 0.6072777374663298 0.12458100346554395
0.0 1.3057973558405982 1.0389821792011917 0.22877005185182378
0.0 1.3848481175550371 0.6565765281043436 0.097902429155724
0.0 1.386376340855505 0.833829066737861 0.24515524369901415
0.0 1.3779861551434003 0.767052377668993 0.21025107466774753
0.0 1.2982856354261725 0.956855044037509 0.17009295672138725
0.0 1.5405956129696987 0.3513536944825937 0.1762984136245349
0.0 1.3526760740102115 0.8798441835297296 0.21202855193151104
0.0 1.2596452825386986 0.9743174202773128 0.19578717753203811
0.0 1.567862388995116 0.24796230371839817 0.1493855650571915
0.0 1.316680452299131 0.8781740856647798 0.20658417353249683
0.0 1.321383122321076 1.065322960512659 0.18287947051223033
0.0 1.294121119216813 1.0458028684430227 0.22038314289623429
0.0 1.4009102770934079 0.7823282128090724 0.1942794389986043
0.0 1.2896131967385989 0.8937248301263231 0.1972141028863086
0.0 1.4324496457067006 0.71369964860503 0.18941769798512986
0.0 1.2539544378353487 1.040370547856808 0.24890460829073002
0.0 1.2031251729470533 1.0978347302658926 0.20475955743324498
0.0 1.5099182896090775 0.4986747524773832 0.1959409152965867
0.0 1.3619875109346857 0.9530972613840086 0.17560336128812645
0.0 1.349698596430555 0.988297122804653 0.1735562673281568
0.0 1.4363004217130457 0.6443046792045793 0.22684964711324757
0.0 1.5090413285230495 0.4729222002554502 0.20246027341089523
0.0 1.3251504347564016 0.9788027000540278 0.20542524706467766
0.0 1.2186278495373 1.0932045556870147 0.23297007454796784
0.0 1.5334889830229121 0.36084478891798794 0.20653379950903758
0.0 1.33937877526625 0.883452933418113 0.2340351727203448
0.0 1.1891584766398307 1.087964591227623 0.13887530856945066
0.0 1.3573179661210264 0.9983086552671053 0.1558309526506965
0.0 1.3470497212983186 0.8510626087623188 0.23171924754863968
0.0 1.4318310011165072 0.656605623363476 0.2175308785061947
0.0 1.491573246655577 0.5148223075017186 0.2443860074760967
0.0 1.3919796936916942 0.6312270838212699 0.13874927301629003
0.0 1.41766939195394 0.7310390106672793 0.23452313693484161
0.0 1.318269128341843 0.9030009765398411 0.23677692709493037
0.0 1.3383491197365824 0.9980704820476011 0.18322351141217133
0.0 1.325874152375973 1.082217984595832 0.1948989103451149
0.0 1.5012305154957026 0.43937943477440555 0.19265731655112495
0.0 1.4509443290392263 0.603675137168234 0.23744928016366065
0.0 1.4383852386403748 0.5877234411202382 0.19892790353652534
0.0 1.3957983137875631 0.8100810511296808 0.21603191590951504
0.0 1.3418877487619292 1.0608724492537132 0.16515697583558384
0.0 1.2000702864930015 1.0545322414427796 0.15774686953306688
0.0 1.245234853083657 1.0483664634296888 0.2182549328952905
0.0 1.3124430097783097 1.0070731817461887 0.20929484965984513
0.0 1.4560890638626005 0.6864671976180755 0.1781720936974025
0.0 1.5439759052531918 0.3904858519113345 0.1900148570286046
0.0 1.473583542333549 0.5688467155446738 0.2587452029702232
0.0 1.3884399036782704 0.7220969787331716 0.21475853634191894
0.0 1.5786097089759246 0.28311281965798485 0.18957858497339952
0.0 1.262250293225678 1.1041506223456279 0.17696510770420992
0.0 1.4356064483267095 0.5265555015061796 0.10993360699058038
0.0 1.332256684007492 0.945060880935317 0.20852994884850481
0.0 1.298610014620449 0.9807741301435432 0.20968665664574349
0.0 1.310959374340701 1.1096939831403787 0.1987250986406104
0.0 1.4294450935839467 0.7635223808029622 0.17439699169708975
0.0 1.2273656456781517 1.0768784603487471 0.22392713128574743
0.0 1.363283892943197 0.9678645298201538 0.176527424049756
0.0 1.4422367625500636 0.6614509604803546 0.20640824277690226
0.0 1.3655178919924507 0.93125596757542 0.16944161914938688
0.0 1.323442626619204 0.8560676227312164 0.2066589057090429
0.0 1.241067530096291 1.1015399752871557 0.2297343347846781
0.0 1.2261150249879222 1.051999757700063 0.22477869377822995
0.0 1.450001007217987 0.5536798312696953 0.19512611869388882
0.0 1.2652452434091714 1.018568665632673 0.22860132448536455
0.0 1.335632389207074 1.0174642064400754 0.19746708289702267
0.0 1.451592880446259 0.6987269008725745 0.19106514177362668
0.0 1.2974181077276934 0.9131337667532745 0.1934604476701421
0.0 1.200190668053698 1.0669460290056236 0.1822942595754576
0.0 1.3374155774762737 0.9809838068990252 0.19212252700256083
0.0 1.2682039940731493 0.928834805282529 0.2089561139182908
0.0 1.3113921195714706 1.0982019299510408 0.24279152177325206
0.0 1.4029363471019773 0.638225556821539 0.14941499737089045
0.0 1.4674869969802218 0.49752082912762574 0.20470967970726192
0.0 1.344370657321395 0.745092752824661 0.15488302006015156
0.0 1.3872185709990597 0.8927039746339993 0.20422994061409352
0.0 1.5498292657544543 0.3739517029917672 0.20587632864147118
0.0 1.4391509190310123 0.6316164118600373 0.18489309694415673
0.0 1.2546985691818116 0.9866082966185866 0.180923289604943
0.0 1.3236894321415054 0.9542213692998837 0.22584991474931054
0.0 1.6163227591284686 0.14466140006304518 0.17250460241622603
0.0 1.4087587510651711 0.8057262999493393 0.1923892704152662
0.0 1.3612172498604929 0.8268313299919164 0.22091259241610672
0.0 1.2983442807440986 1.1071935153422896 0.18638448123127796
0.0 1.6489812905063854 0.050926757920675414 0.11673872804287005
0.0 1.301017844580345 1.07901847815749 0.24010765075849633
0.0 1.396872197714438 0.6562159522678535 0.16570534277304244
0.0 1.3770267440217407 0.9431720107836727 0.18136284046158277
0.0 1.4299503028053342 0.6109269717288667 0.19470460766969577
0.0 1.5124643112950582 0.43909377914883063 0.1950332855040089
0.0 1.3196187785099582 0.9651984181824098 0.1941678977274587
0.0 1.3451711685713525 0.8369159980292242 0.2206885792948814
0.0 1.5804159579444406 0.2461781939845965 0.19020935313545434
0.0 1.2911917303999911 0.9415127996687632 0.1954658024671712
0.0 1.3215697453946806 0.7888654435115211 0.1316324544009967
0.0 1.4618929149218176 0.5988552337423227 0.21729815267770042
0.0 1.3233182255891012 0.8405660776423883 0.18976022619487598
0.0 1.5080620330552343 0.5220621465991394 0.21365078512305286
0.0 1.4049283639595815 0.7351195631387915 0.2289872539360938
0.0 1.228329386270318 1.0337702547048662 0.20326871264862587
0.0 1.5185438062866794 0.40736308309630026 0.17155833086159925
0.0 1.4221296426919636 0.793294741671178 0.17950272792197738
0.0 1.4948223763700725 0.4496034562584853 0.20694110604264512
0.0 1.4366856862202222 0.5443998046356273 0.1569184245552195
0.0 1.307400494613207 1.0521786201704209 0.2125646915173549
0.0 1.3639600779606913 0.7264666702987435 0.18534133711743792
0.0 1.3058873671622664 0.9266182581193968 0.23034652321809865
0.0 1.3501941642786224 0.7306218589346112 0.18244684255162175
0.0 1.2853493292316789 0.9924089922326809 0.2225404167261056
0.0 1.2763774838752509 0.9087797268087648 0.16351105774530061
0.0 1.4725827552942983 0.5578698835431493 0.24477633179317101
0.0 1.2324889411540125 0.9840449298047801 0.13561436367027427
0.0 1.5644424492652416 0.3334600079986724 0.22253194756157887
0.0 1.4102093246665999 0.7477574869839768 0.21234466322838838
0.0 1.560231411819795 0.30739752195218484 0.16444834621655016
0.0 1.4711203608870749 0.652843101252194 0.17491790599991783
0.0 1.499032802493093 0.503695416013225 0.25000668243771385
0.0 1.3380993787178541 0.7666168925638914 0.1844388158115163
0.0 1.27290485985545 0.9919687657392454 0.2527945635787821
0.0 1.4253940949997312 0.7528403457124614 0.1988559042710851
0.0 1.2715994405508557 1.068995721313567 0.2093244211091085
0.0 1.3113321681101422 1.0725078955964629 0.1887825577239602
0.0 1.300912675299138 0.889431406275828 0.19414510596421397
0.0 1.6332466753479546 0.11567738111930873 0.17612969299642892
0.0 1.4598006180392664 0.6112553043736013 0.19199199783107948
0.0 1.4459434437174177 0.7150339716210055 0.16352041116348756
0.0 1.3872742961842968 0.6954088894810382 0.1856622932658364
0.0 1.2544225038963648 1.014285359695486 0.22531736297090105
0.0 1.2129196460705838 1.0304061391095738 0.17387193993622685
0.0 1.2791674484923143 0.9325380723799289 0.21975872515717076
0.0 1.4329469559687005 0.6797596433507616 0.20119072482640465
0.0 1.3467932582362092 1.0224913162701563 0.16468171131590473
0.0 1.5219098706144063 0.3527860545005482 0.16265692186067787
0.0 1.2969434025727193 0.992575567412656 0.2506406569347749
0.0 1.3456670128472334 1.0066876189130245 0.18974450473169
0.0 1.2836657285184834 1.0494696926403762 0.21225584484690735
0.0 1.5181835868846312 0.3649234317440136 0.1550923320745498
0.0 1.4560063544681927 0.6636821125356336 0.20608723562968412
0.0 1.3045142168364792 0.900640502374719 0.20139315508599778
0.0 1.4086265719201858 0.6193365948186169 0.15442192907314958
0.0 1.3899642429829855 0.8803908027061597 0.21369842917063894
0.0 1.243786386800238 1.0315439418992172 0.192218182813552
0.0 1.2475243050729867 1.0730817406588748 0.26099456593229525
0.0 1.635742629025631 0.0946512172258187 0.19347573409783722
0.0 1.3856873301857902 0.9241943407067104 0.1742334656019243
0.0 1.2590067205247548 1.0670372296250201 0.19198152255704623
0.0 1.4391994483537038 0.7038773033831123 0.19208156577391652
0.0 1.260202212468545 1.0856976473035407 0.233773305834377
0.0 1.3041239500342086 0.9414698764251267 0.22094069756140294
0.0 1.473111103134185 0.6271481361856303 0.16909298041053344
0.0 1.557872343756605 0.343967223936736 0.2217113836545361
0.0 1.3498496545453706 0.8965995048662061 0.23147187123641702
0.0 1.3229030417702419 1.050295219166325 0.17565144201397803
0.0 1.4524774209105402 0.6489534732194134 0.2078660788200752
0.0 1.4866781973386354 0.582109113798858 0.19201964737090618
0.0 1.4207847056885452 0.5863234119122794 0.18945854629973116
0.0 1.2696370702200683 0.9455261945749198 0.2132160390036394
0.0 1.4867609468585448 0.5680113539156092 0.1968120738998109
0.0 1.4608017630612884 0.5870149582371401 0.23250220170161068
0.0 1.4550803571861968 0.4961324725730516 0.1537723868394265
0.0 1.3266333209977679 0.9986742877041854 0.22506002188863336
0.0 1.2840389420017388 1.0684632263966085 0.2199023215546972
0.0 1.5895423032311147 0.22258624699701457 0.1576823367396227
0.0 1.3833779810020066 0.8202876931706494 0.25843897866089977
0.0 1.3637899509236782 0.7464231456200365 0.21344065745686366
0.0 1.3695987683559925 0.8354352426111687 0.2168416542188262
0.0 1.274003607324802 1.0942067574016017 0.1801536059355801
0.0 1.580666039764729 0.23402639205339912 0.18258381223770925
0.0 1.4867796704976097 0.48622861333744155 0.20262125125312164
0.0 1.3750274095942474 0.7493805620593464 0.23263043653468962
0.0 1.4132798586125088 0.6644433667325814 0.197504027001112
0.0 1.4070350455550784 0.7598765533141429 0.21451834274792678
0.0 1.580601772258679 0.2590512551573287 0.1895738386893895
0.0 1.3420399692382547 0.8726163723249621 0.21051878786690964
0.0 1.5330512478837435 0.33684581180482076 0.1946784914588869
0.0 1.5182295230740306 0.3929226784214192 0.20961197748573315
0.0 1.3219776823993694 1.0138281468111867 0.21032685933882242
0.0 1.2798188758400602 1.0331744788402193 0.21070360615458453
0.0 1.3776617872812515 0.8666897153166284 0.20863205325295656
0.0 1.2920780324223966 0.8595668179671786 0.1735067231227864
0.0 1.4083269270463106 0.8362421817303841 0.21450674535996764
0.0 1.335345975160359 0.9236512691339424 0.17828289415717763
0.0 1.3326401514881994 0.9010977222822101 0.2418828146020373
0.0 1.3358647284810663 1.0474667701328808 0.1967804819866344
0.0 1.3756826314591148 0.9603032766618647 0.18169686521282255
0.0 1.5715163370753384 0.3091618268774797 0.2055985825780001
0.0 1.4296620290256135 0.5628335938797009 0.16875601216706
0.0 1.3785592667583648 0.9001517007590949 0.22767022062725137
0.0 1.3102388245000571 0.9143544765320103 0.22438609979319665
0.0 1.4488713535926798 0.5222355250584367 0.1913969153431886
0.0 1.5308566144565854 0.3897939803564632 0.20373277428178904
0.0 1.5524747707136404 0.3552906293185645 0.2091706432262697
0.0 1.5647279543812653 0.27075680126794166 0.15500230745003757
0.0 1.2033832805401952 1.0857405565404235 0.23144729676149312
0.0 1.4913324160313879 0.5501423896218851 0.21068694628336374
0.0 1.481585283972072 0.5065720985639087 0.21582636472897934
0.0 1.4091680714340478 0.6761681186818561 0.18223316546447477
0.0 1.4787558467602608 0.439007197259857 0.1421144812189705
0.0 1.418904337594292 0.7093285605343411 0.202626603278039
0.0 1.3906483944268406 0.8618642501021833 0.244191042542382
0.0 1.2677116553090826 1.0321295682376985 0.22023326806189888
0.0 1.5519344955769812 0.2935739965375901 0.18845563328058387
0.0 1.3500017714327863 0.965828392483121 0.20531259226486398
0.0 1.3025626284940008 0.8391611199313123 0.15233138713495836
0.0 1.4377711022074178 0.600560456757809 0.2077814369274594
0.0 1.5086453682447545 0.45968581102154515 0.20707513622878854
0.0 1.246029282802874 0.966456439948205 0.15224700417939316
0.0 1.5982671490957363 0.1890546889350195 0.1611278795054372
0.0 1.4460080662607633 0.5074239127064392 0.12834146240619163
0.0 1.364877787054189 0.7977289587015122 0.22489460237422407
0.0 1.484033841517506 0.59456944669919 0.17339308125496508
0.0 1.3996984464123339 0.6919825912462622 0.19395277561194033
0.0 1.260612182487802 0.9612793921775054 0.163625832131483
0.0 1.3651221699991871 0.6849459653581979 0.15394942932255387
0.0 1.2805958284668328 1.0135972074603465 0.21979038142617316
0.0 1.4143027833465787 0.6354603591553329 0.15818940438250903
0.0 1.2573538923886165 1.027366601920514 0.21497340474944268
0.0 1.6197768131400812 0.13202256975202895 0.1778914415955651
0.0 1.4423182713411793 0.6189784482767599 0.1969367210627286
0.0 1.3471839821743843 0.7572060036904676 0.19408246526387962
0.0 1.3600498047323448 0.9031259368617216 0.21145040477168797
0.0 1.3659317266195037 0.9803122393228709 0.18601350807863967
0.0 1.3598423120496885 0.8101278013440649 0.2579156940349764
0.0 1.3579939282062117 0.7659301086464292 0.18785478311481807
0.0 1.2887313587651195 1.0060223819476757 0.20083945436432316
0.0 1.32659549401171 0.8903263397470185 0.21909007788890514
0.0 1.5932559483052948 0.25087116334854354 0.18714782934162466
0.0 1.3946901433846806 0.8512014147331878 0.19384083055040424
0.0 1.3272190870978884 0.9131925391568047 0.2219255655651708
0.0 1.2394413112611053 1.0039525543477412 0.17844494367471772
0.0 1.4996371587879886 0.3978168225282339 0.17956474179193088
0.0 1.3586697088108992 0.918760699783882 0.20161742693283488
0.0 1.3774657733375653 0.7300511688768607 0.2120260329289301
0.0 1.4241375108882637 0.8057894928498576 0.17964077781095075
0.0 1.3373652896743695 0.8012855009629851 0.20095238889858413
0.0 1.4278328718642475 0.6280688515355974 0.19516314857916323
0.0 1.2115128356756386 1.0630848408410452 0.17421016540488105
0.0 1.3844750076512433 0.6796957362256902 0.1856813305771473
0.0 1.4896321019323384 0.46388816033034075 0.1814995784789679
0.0 1.3377542644670373 0.9566943507861326 0.2147282909473225
0.0 1.311671398685234 1.0193133607973062 0.22075712733307765
0.0 1.2280644326436416 1.0206231551298965 0.20893928371247594
0.0 1.408141418692207 0.6512341134510046 0.16897743994922862
0.0 1.2542494532693609 0.9989987313539841 0.2008390715051933
0.0 1.523383385856286 0.47011358618192883 0.18932520126542626
0.0 1.5984282988719019 0.1639266799110081 0.11656766606326516
0.0 1.4670268795226815 0.5160095146588832 0.23017393833367453
0.0 1.4927117920443924 0.4152349972599166 0.15959455019999577
0.0 1.50844291723202 0.4156690678325481 0.1927243864008777
0.0 1.532831355218061 0.32505200859192357 0.1596189517005449
0.0 1.4086846394297325 0.7236159524947368 0.22430654484133528
0.0 1.4087781750682395 0.7006357598743187 0.2218588350676399
0.0 1.4606283557788258 0.5749025333259247 0.22299369756930204
0.0 1.4221403687248908 0.5741886066586247 0.1697446512295619
0.0 1.234181051629393 1.0930277428902435 0.22549605406469608
0.0 1.3876960372398646 0.7602093269238835 0.2169560622434561
0.0 1.5641473348444594 0.32019975436293074 0.18880659878071474
0.0 1.325162122064449 0.9284352460178055 0.22226681884977884
0.0 1.4755868284198006 0.4684813382114418 0.1598100236131762
0.0 1.2556985893504933 1.0533143744136357 0.19726577176024412
0.0 1.267709987536488 1.0567902171438848 0.21364281482937392
0.0 1.5508689428235647 0.3181230682610037 0.17919152885417106
0.0 1.423981168134389 0.6417045555066128 0.1642118203390375
0.0 1.3731998939379815 0.911630303764956 0.1905663701898205
0.0 1.2876374978070275 0.9782787937876721 0.21758061387619995
0.0 1.4622252436528682 0.6400830496375229 0.1740125035742453
0.0 1.4826774097388544 0.4507863332765015 0.18040004006575694
0.0 1.523797037585501 0.4463569836978714 0.19887690543853245
0.0 1.2933689762524343 0.9252265739510838 0.2244778509566071
0.0 1.2633368695935356 0.9114980262491613 0.1294587719467889
0.0 1.4935879232319558 0.47401612451018726 0.20128878453961685
0.0 1.3974468186463977 0.749177095930921 0.23264942734477437
0.0 1.4449220859887224 0.6805835376760927 0.19500753828545744
0.0 1.4465173321151967 0.575846372116167 0.20261401230576254
0.0 1.405639231466354 0.7936111369223663 0.21648934917146423
0.0 1.4014489239925005 0.666457912362134 0.1904076723414331
0.0 1.278336263016247 0.9603746170132351 0.19547525179178224
0.0 1.3765602958662417 0.8800781136842994 0.22158504492156816
0.0 1.3702892618139475 0.716859338377522 0.1620973999412619
0.0 1.307526248225251 0.9709760721339806 0.21816342415193832
0.0 1.3516778678089965 0.9373928396793267 0.21688869539201255
0.0 1.5753092763654717 0.2219290940081371 0.1349430369965191
0.0 1.3068771830938766 0.8611537780381957 0.1885626728397321
0.0 1.482920965408231 0.5286685608549825 0.2268907592555519
0.0 1.3848184082272996 0.7832756119441674 0.19777518134097977
0.0 1.5644371177077068 0.23720880891049653 0.13341073690967992
0.0 1.4022581270667058 0.7098403686328704 0.22734293022849125
0.0 1.45980617654011 0.5359254810286004 0.20627397084356158
0.0 1.4441491539447726 0.5357241187759295 0.19609158628121742
0.0 1.3857779508815842 0.7084696096114381 0.19929712053076118
0.0 1.47374025323444 0.5847278271417892 0.21131325565148065
0.0 1.2949480855605677 1.0582634360354057 0.20227217985534754
0.0 1.4491819367376242 0.6382493213563443 0.22083523900015128
0.0 1.3283448431364053 1.099959995659021 0.17792661134217452
0.0 1.4822596589242587 0.4230043980469162 0.14262797302793695
0.0 1.3257578941948482 1.0388796880941944 0.1808171610980032
0.0 1.2963072918003442 1.0900932235748226 0.20080633367293493
0.0 1.5505239313428474 0.3319847106742206 0.18814272971576324
0.0 1.3431997631682853 0.7765203315222273 0.18407390616256178
0.0 1.3805227999637029 0.8557228958155344 0.229508183793177
0.0 1.4808727726091724 0.5426182660702934 0.2087567527724647
0.0 1.5551464354652609 0.26158328266835146 0.1255282349673335
0.0 1.3673485661727645 0.8727587250488537 0.21757308587803037
0.0 1.5180275970685129 0.4234985529802283 0.19323405599490107
0.0 1.3825716132746322 0.8079336306355293 0.23270612187884424
0.0 1.6112640029740155 0.1859294766966374 0.1946868320003653
0.0 1.3621286997776607 1.013248084332501 0.14453311727656581
0.0 1.2924514836264616 1.0189306527004067 0.19150924572914377
0.0 1.3135057900467961 1.0865776619504275 0.2270071206566843
0.0 1.334427596696813 0.8188296577807268 0.1602798673311677
0.0 1.2446038334337688 1.0853905650856666 0.22742760402859535
0.0 1.432797401609052 0.7409966994728774 0.187341119394231
0.0 1.3291717824924851 0.8662409260678976 0.21872763951894406
0.0 1.5436356561553033 0.40961401678359316 0.18475453336586475
0.0 1.3100259731334567 0.9946773820108827 0.2296592484021958
0.0 1.3926657118607173 0.773508230854119 0.21028164833420385
0.0 1.4124411472279261 0.7735992702847262 0.18842497528785387
0.0 1.5305785409071462 0.41034489098148497 0.1986141625208958
0.0 1.2676495150935918 1.00558141105116 0.2370010269474432
0.0 1.4163670522669314 0.5977175014127161 0.1783447203504981
0.0 1.4931976862701677 0.4289410264631481 0.1802731736033113
0.0 1.428021874238169 0.6996199781372896 0.2324813941025347
0.0 1.4303722340714002 0.6681666018658768 0.19155352183946286
0.0 1.348694218967288 0.9126959604831033 0.2338833049514369
0.0 1.351581129199768 0.9489211308754102 0.18312800765368675
0.0 1.3105184345275287 0.8481552794985365 0.18712532843568924
0.0 1.5378683106379643 0.4294336802058262 0.19693117139250127
0.0 1.3911186789793235 0.9099102233643029 0.2012902032762047
0.0 1.5018048078998172 0.48962356631123405 0.22343641962574806
0.0 1.56269783266951 0.2840432084323919 0.17867792804471475
0.0 1.4682183691411443 0.4864277432309907 0.18279966908642512
0.0 1.5387751005857617 0.379753690876324 0.22149970256122797
0.0 1.5200246149366023 0.480887927536293 0.21283857822137112
0.0 1.3861123704082832 0.7428611165728964 0.23943274201804354
0.0 1.2968593239601989 0.878687161073887 0.17122394804577495
0.0 1.508528311931278 0.3802444195675942 0.1490891728307783
0.0 1.6288750415264854 0.10553659712310255 0.156233548700715
0.0 1.6015906448515962 0.23388166050757728 0.17232663748879817
0.0 1.5307693864050358 0.4916894847711514 0.1752533177801263
0.0 1.3758141222844058 0.9852233743571326 0.12223561731558151
0.0 1.6057912439963795 0.268222804666036 0.16355609905896024
0.0 1.685259440408152 0.01368869355695282 0.18050778811173407
0.0 1.6699615633422806 0.10563692412137506 0.18168407847550608
0.0 1.67531079450002 0.03188812903476174 0.1881502440512935
0.0 1.5732939794478535 0.34453176853656386 0.18996710657566004
0.0 1.646530246432413 0.1603865934069443 0.16331079777859936
0.0 1.6821510526303496 0.07208887247265172 0.18141344883836785
0.0 1.488748677889295 0.6274413412905191 0.16341237931616165
0.0 1.6220705614390112 0.23585394279137603 0.18645372748850916
0.0 1.3975807693330078 0.8975477141667701 0.20996553154591285
0.0 1.4989808678087453 0.5729225690360579 0.17808386154015857
0.0 1.5350496405266403 0.46970797659087293 0.17604649742005035
0.0 1.631981289466134 0.18175157910432319 0.19971660600288116
0.0 1.644721436162421 0.20407874506508744 0.10234084313809876
0.0 1.5648182459393585 0.42019540779931847 0.16766365763447091
0.0 1.6881671630945045 0.052550504502242405 0.16018481330568823
0.0 1.6497879459520348 0.13614039872907321 0.18265273172901056
0.0 1.5604598041773428 0.3948814889490802 0.22376449887272667
0.0 1.5205375964680354 0.5591457300697512 0.13541458432744966
