x y z curv
1.4179999828338623 0.473942762587686 0.47581776401602166 0.16564370297223854
1.4179999828338623 0.432433263979236 0.15944891661413807 0.13907108250465955
1.4179999828338623 0.4838064144370047 0.22211975514419455 0.13849216754828444
1.4179999828338623 0.4486124528555347 0.32885598303043734 0.08887197909057334
1.4179999828338623 0.44495598088584193 0.34331125462752204 0.1453736477846713
1.4179999828338623 0.4434692209080032 0.16373720317349374 0.16137236094879842
1.4179999828338623 0.49029288205193094 0.20892480656376652 0.12054067993677721
1.4179999828338623 0.46942973796781107 0.3967238119864214 0.08824460568177626
1.4179999828338625 0.49824023711865306 0.4064552337637076 0.08203261834862831
1.4179999828338623 0.4472758411230833 0.2782945736869464 0.13184722373470256
1.4179999828338623 0.46015020770360265 0.23478714733198197 0.12390904167636412
1.4179999828338623 0.43990063742692864 0.21951059451817417 0.15115510577884042
1.4179999828338623 0.43966929156716605 0.13448400696310822 0.1650006469095338
1.4179999828338623 0.47296998720480443 0.21422693613795188 0.14110350988877413
1.4179999828338623 0.49887464895100564 0.4377386672759635 0.09132178146210418
1.4179999828338623 0.48905779826992113 0.3787602090521127 0.12727701591240245
1.4179999828338623 0.4863901657647122 0.33711072157067634 0.14419968177013168
1.4179999828338623 0.44739021605638374 0.23180157196333534 0.06998190935315853
1.4179999828338625 0.4849480698801697 0.5561909713196428 0.18681629273521977
1.4179999828338623 0.4876870891978586 0.43020068240000275 0.14563373830328483
1.4179999828338623 0.4886198933204494 0.39552542046428146 0.1447955946627011
1.4179999828338623 0.4251042425486867 0.1352711017215209 0.15303813405313602
1.4179999828338623 0.4598140319227151 0.20814807019556603 0.13820627862964585
1.4179999828338623 0.47837666363541936 0.12370672917245965 0.1917533779234763
1.4179999828338623 0.4872259744480381 0.10833480490933674 0.1617041882880655
1.4179999828338623 0.43042778996806424 0.2298096994931949 0.12971089825002166
1.4179999828338623 0.464116632674638 0.4256187761429679 0.16805867035727431
1.4179999828338623 0.46840047298300647 0.25268578567858324 0.15080605519737644
1.4179999828338623 0.4930351071563757 0.4940809568424839 0.11304659625499403
1.417999982833862 0.4862688805030926 0.4597335474469701 0.14817908688241035
1.4179999828338623 0.4388365887681305 0.1777699798555985 0.140052912479656
1.4179999828338623 0.4800746982737324 0.14044037907195817 0.13392854678788638
1.4179999828338623 0.4612256261913241 0.33468632044778385 0.11819732485359824
1.4179999828338623 0.46515248313231616 0.12293621415870408 0.15801685118268433
1.4179999828338623 0.41523410363009927 0.1168994559203516 0.1701627209731666
1.4179999828338623 0.4674595933078485 0.2763655511146191 0.1457750583005417
1.4179999828338623 0.4357278740860265 0.2713694527178058 0.12695232369431197
1.4179999828338625 0.4816800072031573 0.4441847338869888 0.12481148809763233
1.4179999828338623 0.4714244919570637 0.3809178734754524 0.19461896843232226
1.4179999828338623 0.41384858503697597 0.13072870252651486 0.1350396562865302
1.4179999828338623 0.44552363432083814 0.24915497454913782 0.07564612325102835
1.4179999828338623 0.45661356976344003 0.3954181389975261 0.18163372656537186
1.4179999828338623 0.49027669178949257 0.3666973253484025 0.13403876887348373
1.4179999828338623 0.47810053406539943 0.23608005946732985 0.18774172101823497
1.4179999828338623 0.44671481553671355 0.2992688289263084 0.16349322432807878
1.4179999828338623 0.4996297091345657 0.5577007069803573 0.08429179772925743
1.4179999828338623 0.47497580183095267 0.4170088330509861 0.13760871467412325
1.4179999828338623 0.4535193316704247 0.12702707623972384 0.14085541326352222
1.4179999828338623 0.4667955951337079 0.447489573545015 0.07111123266020683
1.4179999828338623 0.4019674142979822 0.11089754357884014 0.1577423570259913
1.4179999828338623 0.447629054732923 0.20602345822193444 0.19573185439127258
1.4179999828338623 0.4827542460559495 0.34997319172353397 0.15857764839731492
1.4179999828338623 0.4256372049893733 0.12069766196619136 0.14997733963017043
1.4179999828338623 0.4466035324437052 0.10051453100052914 0.20855872077930104
1.4179999828338623 0.41869462694083764 0.1051613520872612 0.15386063398190034
1.417999982833862 0.4901164071481169 0.09231594307059884 0.14155628074720272
1.4179999828338623 0.47243094568678845 0.09658343674463646 0.12999772425309944
1.4179999828338623 0.4097724891296521 0.09800889840636177 0.14539727404350147
1.417999982833862 0.43243190873090664 0.09194479287674193 0.1649350107410918
1.4179999828338623 0.45829239524227583 0.09380759464067182 0.18083771945553123
1.4179999828338623 0.4727340866175058 0.08367164654667075 0.12839149000067174
1.4179999828338623 0.4167647421418613 0.08873915401296895 0.17284889107206758
1.4179999828338623 0.4423058972914831 0.08067896926979262 0.09236284266479274
1.417999982833862 0.5005305085238416 0.07577840083706677 0.14112132953736606
1.417999982833862 0.40217218839572033 0.07889889329790144 0.14118688127699477
1.4179999828338623 0.42282085259082147 0.07775153349742447 0.12815628724783984
1.4179999828338623 0.45944634653882266 0.07515489831187612 0.08055385814063243
1.4179999828338623 0.476933098428129 0.07159789055942509 0.14505039552638227
1.4179999828338623 0.44843991402019606 0.06887706221975863 0.12861996483208474
1.4179999828338623 0.38960688991714054 0.06717844475310916 0.14937303994396997
1.4179999828338623 0.43519073908260586 0.06564589503387588 0.07800800210913614
1.417999982833862 0.3768313135122489 0.06692764692344318 0.14670795797352812
1.4179999828338623 0.4192201339623727 0.06441342108573328 0.12738037315657727
1.4179999828338623 0.49792715564264595 0.06318881706885002 0.08851199078531118
1.4179999828338623 0.5400825830930844 0.04315622238224144 0.14033409685944367
1.4179999828338623 0.5576259665798706 0.044305100306682256 0.1320158849982314
1.4179999828338623 0.6916999014874499 0.024221368407217204 0.09627653967721472
1.4179999828338623 0.507403372065665 0.05338385835535508 0.12883394967069875
1.4179999828338623 0.5215931732851216 0.057623140027407836 0.15856706199155846
1.4179999828338623 0.6070672728201837 0.03881375730602939 0.13534673449178283
1.4179999828338623 0.6310949276842506 0.032059782758336514 0.16509412667262272
1.4179999828338625 0.45451583049214483 0.051498634619754284 0.18926938820839373
1.4179999828338623 0.5377204856893214 0.058701158640364834 0.13154080734421664
1.4179999828338623 0.4820424857253123 0.047232589941322886 0.18746236864786636
1.4179999828338623 0.5480322833809299 0.05114282142371602 0.14154324880572494
1.4179999828338625 0.6197719988087469 0.04556940478312898 0.13409151961879573
1.4179999828338623 0.4431657677074161 0.05689538127071406 0.11511102274967513
1.4179999828338623 0.6687446731828193 0.03299695250426935 0.1106869098950826
1.417999982833862 0.48283402163175687 0.06107031128085622 0.06837066081418475
1.4179999828338623 0.6427354519581068 0.039575950951245345 0.16840329354709282
1.4179999828338623 0.46516124035062784 0.05876350081776191 0.1383985606811873
1.4179999828338623 0.5715192695575668 0.047150258302512744 0.15057721766115095
1.4179999828338623 0.5869330685957175 0.03967035417505189 0.1349944079605047
1.4179999828338623 0.7222673581693397 0.01893979305989568 0.11728566532089728
1.4179999828338623 0.30637157706605256 0.04962758483918342 0.16396691739794514
1.4179999828338623 0.4195528465694434 0.023322862963342315 0.10124426347287765
1.4179999828338625 0.20490871848509634 0.017535616360324423 0.12517799359906132
1.417999982833862 0.3251218398762818 0.024186772426375864 0.14576557767211235
1.4179999828338623 0.4293899958367961 0.048149848850476164 0.13577618632216762
1.4179999828338623 0.5681319425179939 0.03427396592032873 0.1303927096728192
1.4179999828338623 0.1883930094902649 0.018052541940103358 0.10030734697006448
1.4179999828338623 0.46201333563797037 0.036064701402113514 0.11378107517779795
1.4179999828338623 0.3971912078333804 0.036739644646690786 0.1705198303123297
1.417999982833862 0.23999813161405 0.02274817062263 0.12977244066238497
1.4179999828338623 0.3133374002902426 0.023105316479955933 0.13497383797350948
1.4179999828338623 0.48762619559184445 0.02185940553892824 0.14998123451809697
1.4179999828338623 0.6668603344268819 0.009952053462854354 0.10344683091694822
1.4179999828338623 0.628703335653416 0.01802744801020524 0.13603039996753802
1.4179999828338623 0.5900106385174506 0.027784503887457127 0.15907575999244775
1.4179999828338623 0.2921678733343359 0.03597948096399759 0.10252189135068915
1.4179999828338625 0.27969638056754725 0.037963404065091425 0.1340720157660025
1.4179999828338623 0.4715160759676462 0.030516686606707668 0.17500237303196214
1.4179999828338623 0.7543562005058724 0.007814129927629402 0.07961925812041452
1.4179999828338623 0.2368592667696997 0.0077366241976994125 0.11187096635934862
1.4179999828338623 0.25904848039791795 0.028135913166210724 0.12841904488962588
1.4179999828338623 0.7051042969074461 0.017681261927416897 0.0964190732536993
1.4179999828338623 0.40320984413676975 0.023001990142360713 0.14049764421507466
1.4179999828338623 0.41080732344745274 0.03545102197615926 0.12212842605826749
1.4179999828338623 0.4318607206489654 0.020565214148898763 0.1277386552040384
1.4179999828338625 0.4074327094548417 0.05139774534072598 0.07631909517003665
1.4179999828338623 0.16377802007285872 0.01676707505781547 0.12469583568660444
1.4179999828338623 0.35213610060135525 0.007921596923995949 0.08550519530243136
1.4179999828338623 0.5431778658578001 0.026958165019357126 0.1670625545802323
1.4179999828338623 0.48651985852052715 0.036904117049891196 0.18301707572058665
1.4179999828338623 0.5347851642836778 0.018115061034649643 0.11306240963720417
1.4179999828338623 0.5242365784799338 0.038258191895176506 0.14211042137042076
1.4179999828338623 0.6086475066935128 0.024158536137880188 0.13008348622745483
1.4179999828338623 0.6144866346352496 0.01077909922975715 0.10681528583764081
1.4179999828338623 0.3672250972087877 0.028684880804382397 0.13360829803701707
1.417999982833862 0.3507388458409168 0.02278968508397212 0.14007153488780177
1.4179999828338623 0.302584263225721 0.02955627991775828 0.1412281024792679
1.4179999828338623 0.5109037358068432 0.017806641529938164 0.12248672484996175
1.4179999828338623 0.49866591687995254 0.018754074545245823 0.15001087558623993
1.4179999828338623 0.4736989962643876 0.018345182436523066 0.10638916771327404
1.4179999828338623 0.3447078624391691 0.053849506121177275 0.12837720233446623
1.4179999828338623 0.22252676642157213 0.03167360068236354 0.14030032382747665
1.4179999828338623 0.28216529139330193 0.014372487313789812 0.09861460989565461
1.4179999828338623 0.4698535066230561 0.047058821685142395 0.13739436626407653
1.4179999828338623 0.22780854577205106 0.01723056748458199 0.13106456489067658
1.4179999828338623 0.44697923621551394 0.023044461042217673 0.13823588166135506
1.4179999828338625 0.3821273734174301 0.026370025278038604 0.12914327618115076
1.4179999828338623 0.309357675133939 0.008681742707359792 0.08012814077345629
1.4179999828338623 0.5818200201212607 0.012714340561217879 0.11659564047963304
1.417999982833862 0.3618218211205527 0.0590907433099283 0.16108433785184492
1.4179999828338623 0.6008887096444597 0.009270770724570871 0.06925621814359322
1.4179999828338623 0.36277431388329345 0.01144018833826988 0.1069828118839554
1.4179999828338623 0.24809199920433644 0.032315975141860756 0.15290380193530334
1.4179999828338623 0.5530953755551034 0.033153825846777514 0.13556211698910278
1.4179999828338623 0.3173100538715982 0.049955772320353926 0.1132619534552963
1.4179999828338623 0.35917443789018855 0.04770278588007228 0.1423422214761921
1.4179999828338623 0.3859141241683429 0.03853956132523634 0.17138528717554363
1.4179999828338623 0.5113116737817833 0.03134154186213356 0.14252297895750213
1.4179999828338623 0.5235736435443661 0.025851010837416824 0.11426531285213896
1.4179999828338623 0.39080677485179344 0.052448607131927734 0.18403685671071068
1.4179999828338623 0.2686784670774126 0.03448286448216441 0.19574457750361557
1.4179999828338623 0.5531610268622498 0.01982308134466501 0.13908972516517976
1.4179999828338623 0.267683103034854 0.018229053733450473 0.12532628564252513
1.4179999828338623 0.6830799056825327 0.008843141669546455 0.10230515936940823
1.4179999828338625 0.3745095025048738 0.03778958671186269 0.12966542621297292
1.4179999828338623 0.4986788323196426 0.031111483519996538 0.18056665167977964
1.4179999828338623 0.3794458843373376 0.014672191212690661 0.1083198719044578
1.4179999828338623 0.4443349664861088 0.045041084183081004 0.11699140431434274
1.4179999828338623 0.3334661084962154 0.0358665836701308 0.1405117648885241
1.4179999828338623 0.5674131192642726 0.014206091382291121 0.09905940290857922
1.4179999828338623 0.33425626082217424 0.013873642942132234 0.12339446418372124
1.4179999828338623 0.5744374225103757 0.022600192712701247 0.13877985099609857
1.4179999828338623 0.6504425443925624 0.019393200768232137 0.15276929592037147
1.4179999828338623 0.4375781032200786 0.03213221889638254 0.13175771394804592
1.4179999828338623 0.3463073449684715 0.03961401614436214 0.13727974780753782
1.4179999828338623 0.6700598959941663 0.020412120793490255 0.10575562641455584
1.4179999828338623 0.31786041229538936 0.035656262135159766 0.09958318315106862
1.4179999828338623 0.4178176308484382 0.011044928575325082 0.08202105163193878
1.417999982833862 0.3292430122243424 0.05189875865595901 0.14255109309819913
1.4179999828338623 0.24258722333371135 0.04405943523259036 0.0975062768732868
1.4179999828338623 0.15937666145482648 0.034662572922899246 0.10765032260470477
1.4179999828338623 0.2633501055369247 0.050484293313255726 0.14336343645403699
1.4179999828338623 0.1539309761453218 0.022613467572278216 0.16605868909452146
1.4179999828338623 0.23117354607637441 0.04626598286596377 0.08122436474079521
1.4179999828338623 0.12144041996268115 0.02949516711964157 0.14659200855149826
1.4179999828338623 0.11896026597536945 0.016370890308228067 0.11907970542465801
1.4179999828338623 0.19846084799047736 0.03149542256063022 0.1285445897117887
1.4179999828338623 0.18623501585030172 0.030913568345161024 0.13007675045258685
1.4179999828338623 0.28534515925908666 0.04853503427935686 0.12618316616363845
1.4179999828338623 0.17423828565205368 0.03142356875318409 0.14550790387219184
1.4179999828338623 0.21069153428746726 0.03174978729155916 0.13236051235893678
1.4179999828338623 0.13318172186457175 0.025488940597447288 0.061309757691402976
1.4179999828338623 0.11150906808962328 0.037478728523181244 0.10819085990778177
1.4179999828338623 0.20081613104981982 0.049376663598236815 0.12145457428078335
1.4179999828338623 0.14090403158043496 0.04115024401340364 0.17403899193190567
1.4179999828338623 0.16425745815943538 0.04482365673603762 0.12885056298122008
1.4179999828338623 0.12417799244231592 0.047364490135291044 0.15109642699136774
1.4179999828338623 0.21444108540463397 0.05146625447450237 0.11449513659436365
1.4179999828338623 0.18493098922863258 0.04991155067834435 0.1594523480569315
1.4179999828338623 0.17958914917874064 0.06122899810595135 0.09126105963886155
1.4179999828338623 0.15695815008391423 0.056037169306172495 0.12789506604548914
1.4179999828338623 0.16802860627024735 0.06067109287178133 0.10248322459118615
1.4179999828338623 0.2410067555162433 0.06066699928799897 0.08931597036864516
1.4179999828338623 0.14032584867751657 0.057608433154318614 0.10767862055874823
1.4179999828338623 0.20891706513507613 0.061547286316946156 0.08991107358027772
1.4179999828338625 0.7129784680897449 0.028342499956952448 0.12132753897584958
1.4179999828338623 0.7333087644978877 0.022610788941685767 0.13388864776517498
1.4179999828338623 0.775499695231306 0.026198363881737085 0.16422977099490052
1.4179999828338623 0.6335347263685958 0.04878206849902128 0.12054563966825535
1.4179999828338623 0.7261217541158861 0.03532627628910671 0.13569088574096744
1.4179999828338623 0.746885327891895 0.02948391513654576 0.16500776746800463
1.4179999828338623 0.7694970010058747 0.016741786634783797 0.10643566666293314
1.4179999828338623 0.654680531018661 0.04024448357993188 0.1883237190127201
1.4179999828338623 0.5662888251747684 0.05819811266289174 0.10462038099135426
1.417999982833862 0.7962512390525712 0.03197398057709611 0.11227929861045316
1.4179999828338623 0.7559907140639501 0.02000811868141534 0.12926310819394107
1.4179999828338623 0.6028039587794707 0.04949202319467725 0.12143673144192557
1.4179999828338623 0.7012213929150013 0.03473867193073174 0.12323529093246215
1.4179999828338623 0.7876560988153107 0.02456673188697201 0.14360674865398274
1.4179999828338623 0.6888537605529517 0.03584295041570741 0.11674654925019341
1.4179999828338623 0.6686242031250994 0.048243412398383805 0.16131585667349896
1.4179999828338623 0.7105599158169561 0.04472196369226741 0.14148490047730694
1.4179999828338625 0.7823796524430985 0.038135944365992956 0.1255491888805748
1.4179999828338623 0.6518381829128985 0.051369583510694046 0.1357430036766615
1.4179999828338623 0.7676348035538967 0.037854735640323864 0.10696830129455313
1.4179999828338623 0.6797404364681138 0.04654540728784861 0.1142933519992405
1.4179999828338623 0.7241888084843404 0.046067910610569536 0.1194657620290381
1.4179999828338623 0.7363596635748735 0.048327744674216716 0.15783682044499175
1.4179999828338623 0.624537573357627 0.056493303487259214 0.11183680504258052
1.417999982833862 0.7654070297416065 0.04947794548648617 0.09478244215828431
1.4179999828338623 0.6967897265998045 0.054531932122111215 0.09976558108362045
1.417999982833862 0.7519747872030864 0.05164370631143643 0.08936775134686147
1.4179999828338625 0.5950492071781368 0.05990813678068716 0.10223424108980761
1.4179999828338623 0.6645955487631455 0.061073430492640274 0.08113951278137103
1.4179999828338623 0.7260521923521451 0.061931748684823144 0.0856310103811356
1.4168079454979448 0.5716745134335077 0.6650000214576723 0.10185353385017218
1.4140733949359827 0.608429398410118 0.6650000214576722 0.0900299615448947
1.4179051372719593 0.5592764800128571 0.6650000214576725 0.09032595107756279
1.414626750663338 0.6230394209435614 0.6650000214576723 0.07489346488174145
1.4115320474683337 0.5959818121825438 0.6650000214576725 0.12498967414070618
1.4113927897845957 0.5328883739349016 0.6650000214576723 0.11814401237364874
1.4107729570464784 0.5492744519767991 0.6650000214576723 0.1395563514448394
1.4063828877199243 0.5791349475142377 0.6650000214576723 0.15708045557912037
1.40676379235846 0.6364537249460878 0.6650000214576723 0.16033741602812587
1.408013396880407 0.6773929686147004 0.6650000214576723 0.14621798256410912
1.4077678527076212 0.5188168152027596 0.6650000214576723 0.20393617078690712
1.4045724920757119 0.5011356721458372 0.6650000214576723 0.26758816827069254
1.392235609310816 0.6003800375772486 0.6650000214576723 0.1727618141498085
1.3949275943955448 0.5830026796576416 0.6650000214576722 0.17906261125515274
1.3989444890994114 0.5670799325052789 0.6650000214576723 0.21372102688120995
1.3957350398173929 0.6250904612528706 0.6650000214576723 0.1995169525601237
1.3946170520914725 0.63685129908441 0.6650000214576723 0.18718567889210017
1.3982200670835585 0.6570747362443883 0.6650000214576723 0.16612606611932582
1.4061190553505878 0.46706107334568914 0.6650000214576723 0.2647691385036305
1.3927433600604215 0.5225957864622156 0.6650000214576723 0.21705516076468995
1.3979693674557554 0.535207631450442 0.6650000214576723 0.1798250305071816
1.3958807416413903 0.554086886852588 0.6650000214576723 0.1993512298330966
1.3896377594453524 0.5441664730892805 0.6650000214576723 0.178963652025253
1.4081489602961266 0.45006427009603334 0.6650000214576723 0.25854763390295354
1.3935019036123695 0.4439949242102668 0.6650000214576723 0.23839704841478596
1.4005338562920504 0.4103927566362405 0.6650000214576723 0.2698289686380375
1.3810982454225247 0.4292596363271024 0.6650000214576723 0.23620069937708357
1.3828874465636551 0.6398517687709471 0.6650000214576723 0.20403600753278628
1.380724034500044 0.5562280989287428 0.6650000214576723 0.21109779231093828
1.382113782585248 0.6041873217416492 0.6650000214576723 0.21988642339765782
1.3964341810111474 0.6819424014645854 0.6650000214576723 0.1563827797810417
1.3873937978734194 0.6518233825628996 0.6650000214576723 0.2379508721984404
1.3878547894544462 0.6746427130472598 0.6650000214576723 0.18230577960131858
1.3889075613610462 0.2574460632807231 0.6650000214576722 0.18626241271916638
1.3943127903236057 0.23289850312669758 0.6650000214576723 0.17438657962627574
1.3869679689385095 0.2947493914600996 0.6650000214576723 0.22898896339341435
1.4139968522527415 0.35925622317726447 0.6650000214576723 0.0894714469619098
1.407913980430856 0.29729655050127723 0.6650000214576723 0.162493230657193
1.3919343577472518 0.3334243268532394 0.6650000214576723 0.17769849685524564
1.3925448916298269 0.37467498643513797 0.6650000214576723 0.19052537847145035
1.3996089610732174 0.21617890187649394 0.6650000214576723 0.15687471482277615
1.4001012759997384 0.362979456287715 0.6650000214576723 0.1530201091156055
1.401693566460402 0.286332608380063 0.6650000214576723 0.17673807152088933
1.4094573542384914 0.3201034991522062 0.6650000214576723 0.09733445051223669
1.3855663482275964 0.34410959121626994 0.6650000214576723 0.1850298506966013
1.400137498537783 0.27446821904135993 0.6650000214576723 0.17183550797959776
1.3967297289834644 0.3162371413234425 0.6650000214576723 0.2056226724628195
1.4053864132339258 0.37494985333664643 0.6650000214576723 0.16140351828178726
1.4049702301986047 0.34871141066100425 0.6650000214576723 0.13900034165980185
1.3870968793780503 0.22046667983926066 0.6650000214576723 0.1813358041246934
1.3810212125696875 0.2107906116659766 0.6650000214576723 0.17438661234547498
1.383668720108455 0.3185587591101802 0.6650000214576723 0.2113548112953972
1.4130235116141332 0.33668063492012895 0.6650000214576723 0.12691024337227447
1.403704500067338 0.24851239182618107 0.6650000214576722 0.15684956041903994
1.412981458070235 0.2767707947680441 0.6650000214576723 0.13209620334406594
1.4150203622510455 0.24513745159791284 0.6650000214576723 0.09086274346195802
1.4160391283044529 0.2295585020907759 0.6650000214576723 0.07669744050477943
1.4137644514310548 0.26421486044799547 0.6650000214576723 0.07952379153603562
1.413280717580194 0.21789405455704675 0.6650000214576723 0.12530474135671693
1.3799999952316284 0.5222596628840648 0.6652769356223197 0.21937546515891163
1.3799999952316284 0.6646382221342848 0.6656647161860416 0.18353735729523515
1.3799999952316282 0.5832736054920443 0.6664713676082997 0.21109994123571652
1.3799999952316284 0.5685189612792039 0.6676294477704875 0.23881907571399363
1.3799999952316284 0.6177590347431796 0.672320286926489 0.2463913158381876
1.3799999952316284 0.6907265286743446 0.671538416179201 0.21435823372950683
1.3799999952316286 0.2509570274193692 0.6749582013958918 0.2592089589529086
1.3799999952316284 0.6497733592973026 0.6745147804455093 0.2259199552175895
1.3799999952316284 0.3990970636533398 0.6719879163517336 0.20639358874933575
1.3799999952316284 0.4216997799165653 0.674869074051739 0.2230477084013965
1.3799999952316284 0.5117333028819683 0.6745022818779618 0.250967838569321
1.3799999952316284 0.26852179811127325 0.6748287032671343 0.23296787617613915
1.3799999952316284 0.35399599994492625 0.6681607407148349 0.247312628475255
1.3799999952316284 0.3855856682300897 0.6738505381616493 0.24943524729235197
1.3799999952316282 0.3338681615138879 0.6670305641858822 0.23414338184700564
1.3799999952316284 0.30715663000227766 0.6676200289610217 0.21278910183923547
1.3799999952316284 0.28074953973323025 0.6684310045043083 0.22403398328113824
1.3799999952316282 0.23979748644631455 0.6687249245311373 0.23530540161297556
1.3799999952316282 0.3768489335675782 0.6650775833952365 0.20187345111923025
1.3799999952316284 0.4406258939374551 0.6635222281915342 0.23989632313679204
1.3799999952316286 0.4955472826584285 0.6620921449809958 0.2734502652404454
1.3799999952316284 0.4830993853239107 0.6630451126461947 0.23730432839942422
1.3799999952316284 0.41736588857656876 0.6606281927846818 0.2256037784770818
1.3799999952316284 0.47162579849129305 0.6578447521589624 0.21875754165223543
1.3799999952316284 0.4485994378396469 0.516079690224698 0.1638244855331136
1.3799999952316284 0.4237613771533313 0.5016117464565979 0.126966189255403
1.3799999952316286 0.4833739829694085 0.5917956161231577 0.16274087276870441
1.3799999952316284 0.4775325089253366 0.6072486215609213 0.16503072705132754
1.3799999952316284 0.47418454208429395 0.5164605242955056 0.1978592455767474
1.3799999952316284 0.4336215600468869 0.29186691126211717 0.13453305879058375
1.3799999952316282 0.4918110618679445 0.639588614105016 0.30803729359497084
1.3799999952316284 0.4218254844365948 0.563240115711145 0.1619678292003555
1.3799999952316284 0.4119589865824682 0.45986262770197406 0.14053306781858516
1.3799999952316284 0.4299242654039406 0.6338691209374656 0.2275176524903654
1.3799999952316282 0.4129997361547033 0.2913128428247026 0.11973321857532276
1.3799999952316284 0.42420273986764423 0.308803615518768 0.09337463423174647
1.3799999952316284 0.44509773786054185 0.5701108120828005 0.1259011987797468
1.3799999952316284 0.4297405415280273 0.4576782414360726 0.18587943693900644
1.3799999952316286 0.4387723813888625 0.43654612202725074 0.203874614924087
1.3799999952316284 0.40682975407962374 0.5909786581456297 0.13648027059610152
1.3799999952316284 0.46203987889968157 0.6005616343699517 0.14902877047275162
1.3799999952316284 0.4100674182885453 0.38787195975480593 0.11540249087955164
1.3799999952316284 0.4762774479385816 0.5472650223092848 0.16747451159289725
1.3799999952316284 0.40536323602885094 0.359233236786101 0.10305507103601887
1.3799999952316284 0.4647298019251316 0.6478895341857605 0.18586295057594535
1.3799999952316284 0.4330308510494961 0.6536649648966281 0.19323266093547892
1.3799999952316284 0.43151471725751356 0.478454074812922 0.22636798014502454
1.3799999952316282 0.4606411451642739 0.6170563492054304 0.2622675845081352
1.3799999952316284 0.4129701945912702 0.27774637765734944 0.15612161894779847
1.3799999952316284 0.4693856453505639 0.5779490153714066 0.01829513538257977
1.3799999952316284 0.45246779475425947 0.5951865735823992 0.15634287092188562
1.3799999952316284 0.4352067987470942 0.5924541994927945 0.1306061663629493
1.3799999952316284 0.46607437962576903 0.5602667931606885 0.11290236496699138
1.3799999952316284 0.411891744557745 0.514815863223336 0.09988268706202454
1.3799999952316284 0.4896336731474661 0.6110903282801378 0.22113704086214955
1.3799999952316284 0.4084442930613005 0.37601404292070123 0.11815534978606142
1.3799999952316284 0.45057344281558853 0.6442518304349071 0.24156607662983343
1.3799999952316284 0.42345495997673277 0.5254254605186248 0.1278465349452536
1.3799999952316284 0.41920086207088203 0.6477095173771223 0.19254177365539268
1.3799999952316284 0.42592398027831924 0.4355427200648702 0.1561878285646653
1.3799999952316284 0.4142947893070557 0.33370593755777544 0.09708741111763144
1.3799999952316284 0.416671656997353 0.5842895576389044 0.1542626076853591
1.3799999952316284 0.4177452537798308 0.35867569322913195 0.1239150423684784
1.3799999952316284 0.4311086111696648 0.42067122262976653 0.129479977481217
1.3799999952316284 0.40232600588791767 0.5027376710368816 0.09624703640155559
1.3799999952316284 0.42589736170254755 0.5485362642457422 0.15934094097732074
1.3799999952316284 0.40037579455513217 0.28136955439054767 0.08309598853354265
1.3799999952316286 0.4062901085857578 0.20127583272268487 0.10484168351056472
1.3799999952316284 0.4072418541361386 0.6500398077903546 0.24196903314824098
1.3799999952316284 0.41604575453464265 0.3989943007532708 0.15323902705922096
1.3799999952316284 0.41422116100935213 0.47151494634179264 0.11767147755150209
1.3799999952316284 0.41344767443377617 0.5499965971754031 0.12541954155940976
1.3799999952316286 0.4793052506906186 0.559416856524439 0.17440583352639993
1.3799999952316284 0.41503552386570775 0.31996115716374096 0.12641241628478764
1.3799999952316284 0.4034640452218994 0.5399459550419281 0.10162012562870457
1.3799999952316284 0.44366990469952294 0.6116744703260011 0.18637770436319817
1.3799999952316284 0.4514062900059568 0.4044663793656056 0.12697007685578396
1.3799999952316286 0.42878236866658737 0.33898418745046915 0.13528383038103076
1.3799999952316284 0.44617697422474706 0.6325859877332063 0.2853836119591128
1.3799999952316284 0.4324013429065652 0.35400490271533014 0.06795803176933657
1.3799999952316286 0.45774208437677305 0.5475340175280081 0.22012316377066826
1.3799999952316282 0.4741502052889263 0.5365963914957164 0.2129428005029239
1.3799999952316284 0.40656149874749165 0.15582558074131878 0.11226832057078258
1.3799999952316284 0.45047869812049507 0.5367159277702319 0.22456840775704193
1.3799999952316282 0.4148781661525537 0.23790925272530067 0.09815045339126433
1.3799999952316284 0.41268276620773403 0.2580676372377682 0.11958229301047346
1.3799999952316284 0.40504321803758414 0.4175706307357007 0.13227867224459103
1.3799999952316284 0.45520403102658735 0.5607141550433739 0.05958819568309531
1.3799999952316284 0.42254479159351566 0.37214772129614526 0.150771306340978
1.3799999952316284 0.45897086652331076 0.5208539704974016 0.2383213176509501
1.3799999952316284 0.40033372411235274 0.11425628954188692 0.1413869833782388
1.3799999952316284 0.4105965257411357 0.6052352144586925 0.17987096859510066
1.3799999952316284 0.419047567437571 0.345375961485699 0.09579566223975913
1.3799999952316284 0.44903431587854953 0.4557650245252733 0.1193835284989401
1.3799999952316284 0.43095757014694486 0.5349483628698373 0.2160826814593568
1.3799999952316284 0.43568255997662075 0.5785318622991349 0.16455024711709293
1.3799999952316284 0.4006956744609681 0.49112926241293087 0.07090885462278226
1.3799999952316284 0.43401836137943134 0.4054113061506691 0.07859258531401345
1.3799999952316284 0.4203436215069258 0.6245662088745466 0.22424360932459173
1.3799999952316284 0.42778239715955113 0.3203747337538334 0.16711548738753823
1.3799999952316284 0.4230559731223178 0.2693319404629466 0.14471798232996425
1.3799999952316282 0.4128888355207385 0.5290271451997035 0.11598865528379633
1.3799999952316286 0.4582493585943329 0.48657447305676593 0.18135790513048172
1.3799999952316284 0.4226547786695084 0.5962181449234483 0.14448068927129995
1.3799999952316284 0.43527396413465674 0.3773823168201281 0.1484568311940219
1.3799999952316284 0.4397402053050791 0.3676199330473889 0.12282002139791097
1.3799999952316284 0.4005879042739574 0.3025647876557056 0.0907631255309785
1.3799999952316284 0.4121776167882237 0.30601669966355544 0.14215414050517078
1.3799999952316284 0.4082977986687154 0.6193020141320811 0.22810828867761238
1.3799999952316284 0.4209341877092554 0.41109787194207126 0.162024311123933
1.3799999952316284 0.444076882079191 0.42179944744803033 0.1380541536276873
1.3799999952316284 0.44831972083348726 0.5828811914171876 0.07416553296275467
1.3799999952316286 0.40897114690107556 0.22828763558430798 0.11693809603751208
1.3799999952316284 0.4810916780058912 0.5718256570332463 0.12479661876741674
1.3799999952316284 0.4290871522045129 0.6144517184141847 0.1904233625946676
1.3799999952316284 0.41735196934333063 0.4445758158702239 0.11022330874148602
1.3799999952316284 0.44113832561134947 0.5534148108186803 0.16148562413643316
1.3799999952316284 0.42647534770409273 0.39052019128280435 0.12735494450776744
1.3799999952316284 0.45905457578050074 0.43682106559189876 0.17991273410966593
1.3799999952316284 0.41319802157610974 0.492597686753147 0.09219883635854337
1.3799999952316284 0.40051874453487124 0.3932529311593233 0.08950028162228706
1.3799999952316284 0.40151223095600586 0.17737960068257827 0.11641638956603934
1.3799999952316286 0.44992717360819273 0.3532080912244225 0.1721233928316196
1.3799999952316284 0.4837167123033027 0.4750509235572337 0.12619697245052677
1.3799999952316284 0.43637483874838606 0.19258914677274155 0.11942762307756874
1.3799999952316284 0.41644429953324963 0.13863749229000785 0.1719581438367406
1.3799999952316284 0.4243908989841098 0.19093750894848913 0.09761106344452046
1.3799999952316284 0.4811687965372269 0.40434972987946977 0.12173231060594816
1.3799999952316284 0.4285339576087912 0.20245497593889894 0.08919624763823711
1.3799999952316284 0.4692981591475364 0.1559562787904118 0.12697510218565683
1.3799999952316286 0.4568585528747743 0.33078139108085824 0.13306668116246223
1.3799999952316284 0.48556081572153253 0.4404112662522836 0.10853925320549965
1.3799999952316284 0.47352299714344165 0.19635216228821212 0.13874859331798828
1.3799999952316284 0.418349887313399 0.16840237454550017 0.14848953962451464
1.3799999952316284 0.48349845278795356 0.2826946096582178 0.1377451102796296
1.3799999952316286 0.4463528756314138 0.2916466987124091 0.07437807112105153
1.3799999952316284 0.4234954205134413 0.155993766676898 0.12260507254421443
1.3799999952316282 0.4652191454745444 0.3911639262845248 0.15666197624731384
1.3799999952316284 0.46885833060857757 0.4097743695537182 0.12411544093091831
1.3799999952316284 0.478041478778456 0.4161546935226373 0.11911907610682408
1.3799999952316286 0.4993313322906755 0.5276636854167206 0.04908966512563241
1.3799999952316284 0.4297349179591968 0.1278971042478803 0.16269684905039786
1.3799999952316284 0.4436632662023625 0.2517085476347377 0.1811455369208645
1.3799999952316284 0.45221407599645164 0.27226189490489117 0.07221186774930352
1.3799999952316284 0.4975032301224678 0.3088229137544689 0.08205444631875218
1.3799999952316284 0.49979956982074697 0.5523314144684912 0.0892202224614556
1.3799999952316284 0.44584818794773506 0.1265667896863423 0.13324464168194075
1.3799999952316284 0.49249380063155457 0.48768534388372203 0.09133549359542861
1.3799999952316286 0.4231771861645496 0.22913575936448868 0.16244174521243515
1.3799999952316282 0.46098232986100335 0.3530660323885639 0.08579703285357207
1.3799999952316284 0.4897570640832192 0.257392294831302 0.12023583165933421
1.3799999952316284 0.49590048979959167 0.17644137216590072 0.1584384718990638
1.3799999952316284 0.4592071437930449 0.4228650926990304 0.15206461979821861
1.3799999952316284 0.47164260007268577 0.34755182184705247 0.16986403671311587
1.3799999952316284 0.42122641864179594 0.17917053352889228 0.16120908204882264
1.3799999952316284 0.48137844215485953 0.2937413701375552 0.08502017283491085
1.3799999952316284 0.49889334206977737 0.5662641525564095 0.09170054098250587
1.3799999952316284 0.4692149492279307 0.20831461694049255 0.1197346147038866
1.3799999952316282 0.42348124990508695 0.213288745540689 0.10455826489095534
1.3799999952316284 0.44789523208233667 0.21378301913811915 0.12885757904914652
1.3799999952316286 0.4510473881018112 0.3095991248990435 0.1328483090374203
1.3799999952316284 0.4403142374174246 0.15199159669292694 0.24798560240352766
1.3799999952316284 0.48959269874998435 0.3536351620094852 0.12534264289782537
1.3799999952316286 0.43991430662145214 0.3180312961491383 0.07485809120022842
1.3799999952316284 0.49584058658406527 0.27985662338499556 0.08082998659361049
1.3799999952316284 0.4859119761025163 0.12437640539422874 0.1369483296884958
1.3799999952316284 0.48391445624032425 0.24609344472649042 0.16530208659194937
1.3799999952316284 0.4792628079905622 0.31725708631795235 0.1638421862893058
1.3799999952316284 0.4828957662669505 0.3354170292549006 0.1095486052543724
1.3799999952316282 0.44592785282949104 0.23313096535605618 0.08416723050558386
1.3799999952316284 0.4900070477449285 0.15823856286903737 0.12489428870867512
1.3799999952316284 0.45533253642642046 0.11066436478555546 0.16435458707675796
1.3799999952316284 0.46782382047658033 0.316466479186338 0.0772100930431401
1.3799999952316284 0.49138553701944093 0.31794855116857695 0.11233788385668164
1.3799999952316284 0.4952107800925124 0.5147549514829457 0.07765269680349066
1.3799999952316284 0.46098539569134467 0.22197103436518958 0.06805664887358144
1.3799999952316286 0.46765223328029526 0.37861105318544164 0.13122260020902182
1.3799999952316284 0.4938298440004898 0.40675978108977284 0.10929808071135162
1.3799999952316284 0.4998674483618232 0.4170185853573167 0.06392004828947052
1.3799999952316284 0.44529550438532817 0.14220724427251874 0.16765899871758008
1.3799999952316284 0.4735387411273201 0.27711924758480677 0.11559912184487858
1.3799999952316284 0.49538927275917516 0.2928071533138298 0.09837665134458262
1.3799999952316284 0.4946868768703129 0.2684134025481663 0.10448453080133865
1.3799999952316284 0.49033970929303655 0.19274421002643777 0.14294586680628632
1.3799999952316282 0.474978202061857 0.4974371657182512 0.18131487676695407
1.3799999952316284 0.44095609879397984 0.20340265138837915 0.15197082750851176
1.3799999952316282 0.48131374543818206 0.38767498104347203 0.18887560053056066
1.3799999952316284 0.4842811574221876 0.5205603233240559 0.14336626625886828
1.3799999952316284 0.4808640812153107 0.3738151090774656 0.17829304298225762
1.3799999952316284 0.466773396176158 0.17873883072058905 0.152778019168245
1.3799999952316284 0.4549845249625486 0.20326771292615067 0.16664724506534817
1.3799999952316284 0.4696748981076704 0.11585185348697641 0.1733509328535645
1.3799999952316284 0.4988652482293608 0.14871779852131442 0.10622752373287996
1.3799999952316284 0.4730522519879838 0.22529398199712325 0.16175089510558552
1.3799999952316284 0.477620816753413 0.2604690120573681 0.2107344049537881
1.3799999952316284 0.43354084438000534 0.22535371175590022 0.14234041611759782
1.3799999952316284 0.4457745494519552 0.1632552273577831 0.12835058571421532
1.3799999952316284 0.463177381501943 0.2844265415736177 0.13696683626594167
1.3799999952316284 0.42641898608171075 0.24322893799353043 0.16614086074747533
1.3799999952316282 0.47844440870655286 0.4505158060633762 0.17148060583865293
1.3799999952316284 0.48755153005248064 0.5399301418885059 0.15644875605496228
1.3799999952316284 0.4932754637757567 0.2369281194046079 0.11089915695784504
1.3799999952316284 0.4717345575661157 0.12963858950512175 0.1267927474617256
1.3799999952316284 0.4514607778598476 0.38870982846871643 0.14986322051913342
1.3799999952316284 0.45586416583424383 0.3705174667324588 0.18292772726048287
1.3799999952316284 0.4701996012693741 0.3041943827699989 0.13950948840926877
1.3799999952316284 0.49244355436453624 0.391640309517021 0.0901722756277744
1.3799999952316284 0.4825156664808381 0.2037850589233317 0.13311976779470627
1.3799999952316284 0.46903965824327737 0.47381756176618506 0.17015809509041419
1.3799999952316284 0.4561506136561393 0.15505556687176988 0.15428220711191887
1.3799999952316284 0.4386971798371573 0.17225504111343315 0.14142539258387865
1.3799999952316284 0.4620793037201511 0.262065431054016 0.12502160035372872
1.3799999952316284 0.4891418785856483 0.5029359875640826 0.10921808077783599
1.3799999952316284 0.4194518271832022 0.11233841560298824 0.18622742091411304
1.3799999952316284 0.4802007744479585 0.4296395044767163 0.13146303927670805
1.3799999952316284 0.46833761541704516 0.36360707770619544 0.07060647545089781
1.3799999952316284 0.4507714503956284 0.19245653422463435 0.130680046337639
1.3799999952316284 0.45735308451088996 0.2952409342627543 0.19272841376539324
1.3799999952316284 0.4807869502901268 0.1751216009533122 0.15657494107832912
1.3799999952316284 0.440005262426141 0.27521475539733375 0.16376999430206657
1.3799999952316284 0.41054469186857256 0.11934723632527115 0.15833132645012768
1.3799999952316284 0.47196188922167226 0.32969509307736583 0.14238715935790283
1.3799999952316284 0.42788128691310673 0.14464001225862577 0.16100036541845675
1.3799999952316284 0.4743824424505772 0.4861322614261462 0.18016973472722186
1.3799999952316284 0.49504312671301565 0.4332738906779808 0.10750606696932893
1.3799999952316284 0.4918493420280073 0.5767534009108456 0.13979245069256602
1.3799999952316284 0.44484058145012295 0.1821076716004242 0.13125256846733727
1.3799999952316284 0.4946404636454277 0.36423315248441085 0.10084042917070474
1.3799999952316284 0.44834777080258176 0.3416672942583021 0.06662791996664423
1.3799999952316284 0.4575030233912397 0.16842744960240205 0.12163498740130996
1.3799999952316284 0.4960049626353863 0.20697158532824522 0.10429042663239793
1.3799999952316284 0.4679627261459632 0.2406612888044643 0.16130645351409165
1.3799999952316284 0.4568846810577086 0.24132052435871382 0.06769227258020791
1.3799999952316282 0.43288998408676277 0.26247642089015155 0.17215479140108936
1.3799999952316284 0.4872858533891519 0.13729146209375337 0.13443059348797476
1.3799999952316284 0.47081673783096206 0.14377368106055843 0.12668751542130058
1.3799999952316284 0.4839195158862692 0.21988857281649182 0.15562433087268757
1.3799999952316286 0.48608289604917065 0.4637834985339676 0.0826285778138831
1.3799999952316284 0.46840331213780795 0.4308794406873129 0.2008149084055425
1.3799999952316284 0.4561295866430837 0.1316999033828289 0.1374875604242501
1.3799999952316284 0.4992288023604912 0.21961195628802035 0.07387987737192243
1.3799999952316284 0.4362074729444629 0.10577464227728475 0.10429225301149328
1.3799999952316282 0.4890405903621705 0.10503855222589725 0.14938082636026334
1.3799999952316284 0.45329571267891244 0.09675913561134514 0.15053942590557387
1.3799999952316284 0.47192737447464006 0.09745763150769209 0.08819565958682032
1.3799999952316284 0.44117736503066785 0.09362826384902356 0.15604862819215473
1.3799999952316284 0.4265990876882626 0.0910207753738409 0.1357908154051924
1.3799999952316284 0.4635577319836153 0.08706077236775411 0.11815345139341589
1.3799999952316282 0.49396055043367826 0.0873049688201666 0.14710771546341014
1.3799999952316284 0.47956387373961396 0.08333340392142165 0.1449011486761248
1.3799999952316284 0.5071640884091853 0.07987968459179816 0.1335036018269173
1.3799999952316284 0.45232401344888806 0.08212440083140332 0.1732332238645216
1.3799999952316284 0.4110512047877411 0.07932268373942959 0.1502271785188695
1.3799999952316284 0.4285011801249125 0.07693110270725803 0.08352915657471992
1.3799999952316284 0.49609945990672044 0.07417929777757154 0.14181596470312388
1.3799999952316284 0.38531340103493045 0.06975502397595597 0.14012205883582282
1.3799999952316284 0.4383658050587984 0.06873430386487239 0.1458151084409445
1.3799999952316284 0.4080718898758211 0.06533298891883643 0.09806144043676548
1.3799999952316284 0.484425638264697 0.06509568002952275 0.16376956517748584
1.3799999952316284 0.5180196609491959 0.06501981979981644 0.13231215125086446
1.3799999952316284 0.45254800807138323 0.06351072144274152 0.1613368231870276
1.3799999952316286 0.46836995050543084 0.0627187256733998 0.14915306451871665
1.3799999952316284 0.4202598887954314 0.05744047055277185 0.08622440398480784
1.3799999952316284 0.5587017062342933 0.0502178788157552 0.1544166210039782
1.3799999952316284 0.6340033890915193 0.03374952381325107 0.14048485250257906
1.3799999952316284 0.39673511397168576 0.059458139099040457 0.14177305077447672
1.3799999952316284 0.7275251031528771 0.021704093149110485 0.1392345965932787
1.3799999952316284 0.7508761170605335 0.012863166043417262 0.11179458480598187
1.3799999952316284 0.5801726307127083 0.04534319782286496 0.15370516653224875
1.3799999952316284 0.563074873001854 0.0383279117820957 0.20103577606001966
1.3799999952316284 0.48462985906688427 0.04838274140226675 0.13518899776173357
1.3799999952316284 0.5294736048236057 0.052721097795994855 0.14208949933422446
1.3799999952316284 0.6233511900753623 0.028860600873265307 0.132033009604911
1.3799999952316284 0.535094351294486 0.04239098852190386 0.14272453213246997
1.3799999952316284 0.5464418762217763 0.049932410191899076 0.16844210285401545
1.3799999952316284 0.46256259446433357 0.051878180364279006 0.2011341296412949
1.3799999952316284 0.6532386962718609 0.0313362907425518 0.137941534488251
1.3799999952316284 0.510054529691673 0.05613942337715232 0.1473598203234747
1.3799999952316284 0.441800629539819 0.05480942652342882 0.12759653202875237
1.3799999952316284 0.5913614903561747 0.03496660233091103 0.15352907933338614
1.3799999952316284 0.5040310241095209 0.0438491810006678 0.08334647820172629
1.3799999952316284 0.45109117724469044 0.04110643079089444 0.1878371895945498
1.3799999952316284 0.4778232119586689 0.024570931580925756 0.16602674875743167
1.3799999952316282 0.6223410886852321 0.01647940552815573 0.10622316840866715
1.3799999952316284 0.3225815276240573 0.011215889733604862 0.09446311739979561
1.3799999952316284 0.2748404856125559 0.03817368086109284 0.15388149962439107
1.3799999952316284 0.13227804051846842 0.008197599125212805 0.07693223679796926
1.3799999952316284 0.43242690380430593 0.03650961873278957 0.1428299827734136
1.3799999952316284 0.20291326440676014 0.0224004053348664 0.1790157972299788
1.3799999952316284 0.4775575012079207 0.03877401452972787 0.1916811511123749
1.3799999952316284 0.4506069363703092 0.01323739895088915 0.11546485820530397
1.3799999952316284 0.6395756810758357 0.0104067127440492 0.07036301834948595
1.3799999952316284 0.5050833867503588 0.030658594308695566 0.14817254008677697
1.3799999952316284 0.22134904492696134 0.021019238421027382 0.14444617259374262
1.3799999952316284 0.6505267126799629 0.014746654668666865 0.10925514580352425
1.3799999952316284 0.3409636092166215 0.03056082127697956 0.18421334664667177
1.3799999952316286 0.3803424486514652 0.04563239226240136 0.18295011673097772
1.3799999952316284 0.2736726596008324 0.026849299518471675 0.13409495539265512
1.3799999952316284 0.5728032160420807 0.031392508749960406 0.1226137793072287
1.3799999952316284 0.6699039554531793 0.019190946526183337 0.14388290180321675
1.3799999952316284 0.3681343864068436 0.05250000077048779 0.13056646214814227
1.3799999952316284 0.27247189422118645 0.007920597322729551 0.08939069558691627
1.3799999952316284 0.4073649471015417 0.010502553332963788 0.08877566113204674
1.3799999952316284 0.49422229454709077 0.026190062115703117 0.21902612221207718
1.3799999952316284 0.38851922322815224 0.03193369065491001 0.17230516904557877
1.3799999952316284 0.4075420592273592 0.03372563511580082 0.18951368419148545
1.3799999952316284 0.6096538116994966 0.02925915858246577 0.1278075560822338
1.3799999952316282 0.6864663769050955 0.02016481855078888 0.11941586425831477
1.3799999952316284 0.2934997504917617 0.03887409813818534 0.11514378878621423
1.3799999952316284 0.3795233560514999 0.014095101221695144 0.10416969423879037
1.3799999952316284 0.7146931414510328 0.011543942174862381 0.1359561655358007
1.3799999952316284 0.5941385501600213 0.021521189666619464 0.11057309432368387
1.3799999952316284 0.49784230391634887 0.007868842502677716 0.1176062502344156
1.3799999952316284 0.42630042777664023 0.04749759032576421 0.09840600430670483
1.3799999952316284 0.23636512122885758 0.009571681657948462 0.10085652246119961
1.3799999952316284 0.25988924597365654 0.017447656878057778 0.13770579123456342
1.3799999952316284 0.3082493330639834 0.02394288549408325 0.1395314560753282
1.3799999952316284 0.35643977749365097 0.04875213552430969 0.12534016490595387
1.3799999952316284 0.6808785750106615 0.009004385956519062 0.09028789553301506
1.3799999952316284 0.33057570175376044 0.04407696465029729 0.13859810579343276
1.3799999952316284 0.237772977741968 0.024408830568023395 0.13687945745376565
1.3799999952316284 0.46472527709145367 0.029026680078025814 0.14146922412430069
1.3799999952316282 0.326964317688089 0.054904330023814896 0.1280768315406285
1.3799999952316284 0.15681913954483395 0.01855202013104906 0.1302438629728544
1.3799999952316284 0.7311751444383032 0.009636617885530368 0.08936715878034941
1.3799999952316284 0.3206621893471175 0.026329170483069327 0.17371222467154107
1.3799999952316284 0.4086960239244507 0.04681104759171056 0.13395738065710036
1.3799999952316284 0.19672715034860352 0.012278840222874187 0.13566936091249482
