x y z curv
1.164183723036278 0.4259999990463257 0.5718305232444797 0.2096023286565079
1.1629221266568726 0.42599999904632563 0.5204037793454787 0.18036215693540247
1.1346001684393627 0.4259999990463257 0.18489771624966708 0.1343292938244055
1.1347744360427914 0.4259999990463257 0.3910831371051062 0.1320162203231577
1.1385809836672405 0.4259999990463257 0.15975839586463603 0.13905493902345262
1.160568612516947 0.4259999990463257 0.40563817968245536 0.18986283766911577
1.1400965108034053 0.42599999904632563 0.4910165635005271 0.1387921477962725
1.1419432564804133 0.4259999990463257 0.4174855812985526 0.14662206369840292
1.1757746178394008 0.4259999990463257 0.5722362319810139 0.24411534756245057
1.1350561887778043 0.4259999990463257 0.11689614189374051 0.15478267299254359
1.1390210335938147 0.42599999904632574 0.2096513648574016 0.14794561156815497
1.1600812220676606 0.4259999990463257 0.4442280413334685 0.20053420733290125
1.181723285913933 0.42599999904632574 0.6155668003593444 0.2176877675606255
1.1462643406776962 0.4259999990463257 0.48066580005832704 0.1375312190916745
1.1494579673032974 0.4259999990463257 0.40966569075047454 0.15180167728895266
1.167710127844957 0.4259999990463257 0.5411447459979611 0.23673731323389555
1.1515249858656365 0.4259999990463257 0.4250096766233099 0.16509181862411274
1.1366824847933554 0.4259999990463257 0.3059662720593669 0.12811957048243355
1.1596647684589287 0.4259999990463257 0.4610489158161756 0.17872820338013748
1.1370643748749267 0.4259999990463257 0.6703860039173498 0.14147835564853936
1.1630990964119636 0.4259999990463257 0.5965534391231395 0.19065180431725912
1.1529783808116911 0.4259999990463257 0.6109052240017555 0.16719711572171125
1.1610485960402628 0.4259999990463257 0.47407737372625824 0.2026900161093152
1.1502615109710301 0.4259999990463257 0.4936324212251761 0.17277689514122108
1.1421544244852107 0.42599999904632574 0.6092592229503824 0.11322771319548165
1.1512139651158304 0.4259999990463257 0.38307425826844177 0.17336277415896217
1.185304759690434 0.4259999990463257 0.6792650127883243 0.2540914023489125
1.149937559398674 0.4259999990463257 0.6791342325336325 0.19153663451489655
1.1514806741536132 0.4259999990463257 0.5052358778306016 0.15902742941694828
1.1349311886133735 0.4259999990463257 0.2527142050145035 0.1368707888979632
1.1853572173275848 0.42599999904632563 0.6345095955854209 0.22511352861424322
1.163757668323408 0.4259999990463257 0.43266773013455717 0.21004936631257812
1.1462206385999267 0.4259999990463257 0.2503473564885669 0.1305682180607663
1.1699663409315675 0.4259999990463257 0.4116934527103826 0.21368345047890175
1.155442124814818 0.42599999904632574 0.26696586901464747 0.1732478673279745
1.1352433344752768 0.4259999990463257 0.651345075681253 0.10781908798573289
1.1522058844275087 0.42599999904632574 0.23003471143754933 0.17105067703126178
1.1786231717093334 0.42599999904632563 0.5590402773648462 0.2399611438462059
1.153559216280414 0.4259999990463257 0.5618370886097187 0.1841859807800187
1.1441626577065875 0.4259999990463257 0.1484608706696984 0.1258526589603906
1.142554685935796 0.4259999990463257 0.12729236455016943 0.1386105883442608
1.1527748068255965 0.4259999990463257 0.5384796081412992 0.18097264186091047
1.1657958363676049 0.4259999990463257 0.5003850064852745 0.21730484988298332
1.1980000138282776 0.42991509917711135 0.12306790190616879 0.17068512836809538
1.1980000138282776 0.4308804657441203 0.3463206169423971 0.15800533997397445
1.1980000138282776 0.42964657472441137 0.4581215673858508 0.14659778981839724
1.1980000138282776 0.4413965872966132 0.10843018068373962 0.16038028132541335
1.1980000138282776 0.42780338846402133 0.09654951958493964 0.1503155985271665
1.1980000138282776 0.4308442382285127 0.304048779994227 0.162047113168612
1.1980000138282776 0.4378297771032033 0.3200854487868313 0.17675722711582492
1.1980000138282776 0.4281686523768351 0.10769465082137533 0.14866279311642064
1.1980000138282776 0.44033377452589345 0.17423255676908309 0.18437965097248585
1.1980000138282776 0.440339726476493 0.02051437299350821 0.15117745618349068
1.1980000138282776 0.43707395917552117 0.03381632891129472 0.15809994713395778
1.1980000138282776 0.4287820767144892 0.5445732833849785 0.1602363548147496
1.1980000138282776 0.43137497039246686 0.23079626719495225 0.17343618845714906
1.1980000138282776 0.4308534813194811 0.06242811312400911 0.14787152349210075
1.1980000138282778 0.44133023398314264 0.0890963125510547 0.16425745594332147
1.1980000138282776 0.43256111873017244 0.20551771010945732 0.15096908784107224
1.1980000138282776 0.4379131772192679 0.07161243620468946 0.16829928106571737
1.1980000138282776 0.4329902849835634 0.14161255837788345 0.1369873828056769
1.1980000138282776 0.4336798623133554 0.18518196356492853 0.1867865026206496
1.1980000138282776 0.42994582153107175 0.4235737698555968 0.15297341753301194
1.1980000138282776 0.43537040269000105 0.3807594201247857 0.15922431724308708
1.1980000138282776 0.42938552393278884 0.17274984819368622 0.15569534301977497
1.1980000138282776 0.4357445000261322 0.16298078629222001 0.15019865922676584
1.1980000138282776 0.43229084742272966 0.3329941860103735 0.1493843302091424
1.1980000138282776 0.43850412041206044 0.2741098103387079 0.16405945923257853
1.1980000138282776 0.42829593079511463 0.26409899806948295 0.15724316975419775
1.1980000138282774 0.43984649211313864 0.19700101513735513 0.17734760315070883
1.1980000138282776 0.43283933545020703 0.24360659550168157 0.17849139974857467
1.1980000138282776 0.43385148806672086 0.3697287988111617 0.13868482783059
1.1980000138282776 0.43174781583865296 0.5283665292197708 0.1688149579997198
1.1980000138282776 0.4464502733715095 0.2513431416671305 0.14578753532866642
1.1980000138282776 0.4441776215069914 0.6314674614792533 0.1961082280845878
1.1980000138282774 0.42990428335579806 0.6242500149690099 0.16037396762124642
1.1980000138282776 0.43881741403545343 0.49879343350952293 0.14671752636464705
1.1980000138282778 0.43760507978027774 0.40377146227077976 0.1653385068933328
1.1980000138282776 0.4455667246875418 0.3947498152428203 0.1537061794413955
1.1980000138282776 0.44556609346543574 0.514097771165758 0.08631279342368813
1.1980000138282776 0.43755017640249694 0.5689685494460404 0.16306447566168183
1.1980000138282776 0.4439144419387916 0.28815532611023353 0.13852238677762327
1.1980000138282776 0.43953516701037704 0.3552193666605597 0.13983684234877683
1.1980000138282776 0.44674995894028907 0.14933997243824151 0.14826712882565937
1.1980000138282776 0.4316839270645504 0.6455476030004731 0.17052877371607114
1.1980000138282776 0.4397403415473268 0.44900598137535336 0.13170463193796958
1.1980000138282776 0.4458859304805414 0.6883662130839038 0.179397241994199
1.1980000138282776 0.4387514933980391 0.41719170729734634 0.15583368977138418
1.1980000138282776 0.44040869678942896 0.6208015140933849 0.15314560158867183
1.1980000138282776 0.4324153947659471 0.6049493997415675 0.14526814572798774
1.1980000138282776 0.4435254704947099 0.22924286351080903 0.19586121681633187
1.1980000138282776 0.44388538437441527 0.30976602106239937 0.16079603462983869
1.1980000138282776 0.4348204681601305 0.5559502665376828 0.17655881671611956
1.1980000138282776 0.4462478924847015 0.5893110929806381 0.11619476535523449
1.1980000138282776 0.44522419783156286 0.48979537628338843 0.14436160135021353
1.1980000138282776 0.44698332026738574 0.3320573032058636 0.13045412173788354
1.1980000138282776 0.4452022595706127 0.6514545395751221 0.17341944206677204
1.1980000138282776 0.4371496352555275 0.6638081510795408 0.16008982926085888
1.1980000138282776 0.4365705037828962 0.4743320542521332 0.1605980527653835
1.1980000138282774 0.4335388623991162 0.5836845941571969 0.15267938942466608
1.1980000138282776 0.4454386084936757 0.3430144948576849 0.15809195647815197
1.1980000138282776 0.4465045403868127 0.21548297753842963 0.15728581718734938
1.1980000138282776 0.43734151575851066 0.4344623801725047 0.15820706870073525
1.1336802968089001 0.42995066495823575 0.0003197106602949754 0.1513686392637563
1.1330000162124634 0.44060870322560153 0.14272463866438345 0.14204119410116237
1.1330000162124634 0.43794478281597066 0.23334248505174535 0.16888154453292184
1.1330000162124634 0.44063105349245063 0.05663043175412622 0.13033895415726227
1.1330000162124634 0.4380896536227471 0.021956557236668908 0.1644131430063844
1.1330000162124634 0.4377503511987131 0.30524762363882163 0.1515495417823412
1.1330000162124636 0.44113083137982506 0.03308897383942416 0.11992931051742359
1.1330000162124634 0.4302729201437124 0.10667914993293205 0.1526352693674826
1.1330000162124634 0.43953517668764214 0.1923617691106998 0.12332473015148696
1.1330000162124634 0.44599860518897794 0.4291611630222927 0.15227499069242795
1.1330000162124634 0.4296325898778591 0.03027409557123359 0.1541750487140382
1.1330000162124634 0.4444802340236562 0.2697557873911875 0.1601178146630397
1.1330000162124634 0.44035368597518393 0.40703988943608754 0.14939344602436305
1.1330000162124634 0.444090932982595 0.10494057107221773 0.1383731169001328
1.1330000162124634 0.43050148018525425 0.07024572528279169 0.12591366962296555
1.1330000162124634 0.44275835084937315 0.5045603153248387 0.13865726704902867
1.1330000162124634 0.443102506621041 0.37798399089487816 0.1301225070902118
1.1330000162124634 0.4385637506214587 0.15653455900136282 0.14992107290713255
1.1330000162124634 0.43898911749153424 0.17221867035851807 0.1306907736587729
1.1330000162124634 0.44538287272358 0.08658905665816458 0.14707842691142534
1.1330000162124634 0.43491893656712954 0.21870338109585433 0.1677613599329916
1.1330000162124634 0.44633660235103556 0.48232192448344763 0.15795034883318976
1.1330000162124634 0.44017470445024015 0.3951634225621634 0.15420204799489806
1.1330000162124634 0.4362408730841921 0.09470241260780611 0.16295909095695543
1.1330000162124634 0.44569280128659816 0.00782080872060911 0.1998517225183529
1.1330000162124634 0.4458466975135529 0.20678649889708742 0.1283505182114832
1.1330000162124634 0.44309799581543924 0.12649252709131814 0.14048105792251164
1.1330000162124634 0.43621901407597075 0.0447615249208146 0.15832772797707578
1.1330000162124634 0.43839670181939977 0.35494737543162846 0.1671868065833711
1.1330000162124634 0.4363578366931229 0.514777575306721 0.1181966021116852
1.1330000162124634 0.4347868946768407 0.27630033841333623 0.16187896591274115
1.1330000162124634 0.4335946486821637 0.2613719217241932 0.15158058563319585
1.1330000162124634 0.42796641424359155 0.37876177241012554 0.1323182699987903
1.1330000162124634 0.42920549455310814 0.31770786469177464 0.13115538233432472
1.1330000162124634 0.43784537565442727 0.6784126833325423 0.1436877770133851
1.1330000162124632 0.4279941064467519 0.1373953329399492 0.15003729827390455
1.1330000162124634 0.43510669809924407 0.3418111966296208 0.1429580733792612
1.1330000162124634 0.43447399899562655 0.5654766928328523 0.10449044931893076
1.1330000162124634 0.44016786379215334 0.5297638942536309 0.1071306505623416
1.1330000162124634 0.43551297231404634 0.49572298693536876 0.15766773068832662
1.1330000162124634 0.43598367094057644 0.6670332318124745 0.10160900692851431
1.1330000162124634 0.43608447653409893 0.42427218330345023 0.1636227408867103
1.1330000162124634 0.43526436532168356 0.48363850816151843 0.13984574732624752
1.1330000162124634 0.4297728520603083 0.4702002648749406 0.1372798423489366
1.1330000162124634 0.43500873243272764 0.61014349661165 0.10906215476129652
1.1330000162124634 0.4368717987102811 0.4551272529623035 0.15254255553272844
1.1330000162124634 0.4280070522946362 0.17035094034738893 0.14888255421981722
1.1330000162124634 0.43617056441791036 0.6227060274125138 0.11011282927437642
1.1330000162124634 0.43761342208375764 0.6412310489638102 0.10340508070957508
1.1330000162124634 0.43440052702543186 0.36753712415805334 0.1420570299071894
1.1330000162124634 0.433319832900537 0.24349488407382516 0.1457629795279219
1.1330000162124634 0.4370685421613991 0.6550729469656209 0.10560813298579257
1.190745030972888 0.436540790845591 0.6980000138282787 0.22521066952290353
1.146540114046707 0.44059159763024053 0.6980000138282787 0.18310244185696395
1.1336907291463496 0.42630927784644 0.05124683769432126 0.1340193137894068
1.1336443119455901 0.42635569573887866 0.40529637766510285 0.12199677065434407
1.133931578259448 0.42606842514436416 0.08718991729215059 0.1622027729311898
1.1338292798143437 0.42617072511385357 0.3499961527272152 0.12605427815056075
1.1334107196664422 0.4265892914988676 0.22837780395719678 0.15743265737737935
1.1333799805888125 0.42662003103455115 0.5199699519291175 0.111246106391614
1.133535460437734 0.42646454886876967 0.6328201722183585 0.11390238910656864
1.1970128724548807 0.4260128449897447 0.6135583701391184 0.1565401054710972
1.1975686310632736 0.42656861187969264 0.25282788157594777 0.15274013792057234
1.1979405442515334 0.42694053060996223 0.49931972615738945 0.16210276981689165
1.1972261346300948 0.4262261103428536 0.0208062314937376 0.16359925945042814
1.1979918496906095 0.4470081611598831 0.16461073708301766 0.17797008236316417
1.197853007559259 0.4471470053601695 0.6752512217519316 0.16919054451800367
1.197364635241251 0.4476353849555857 0.608658662889643 0.1485962287569785
1.197500258823991 0.4474997593518706 0.09757946477442729 0.13712513131523446
1.197589613276955 0.4474104035674047 0.03935575947138648 0.13635467809037458
1.1337710589067334 0.44777105108440785 0.5537800159474673 0.10566840813191088
1.1339140539472599 0.4479140482557539 0.5181938007717495 0.11339782464809872
1.1335474319563423 0.44754742080167287 0.3356059929736258 0.12413888970693027
1.1338280196046389 0.44782801263110467 0.6885088858947574 0.10579816700063309
1.1337305168188025 0.4477305083923452 0.449654237010226 0.13423761766802925
1.1331758948450654 0.44717587815399007 0.24725629425465862 0.1330532440746762
1.1330261703653126 0.44702615144313995 0.3650475739209208 0.16747780383113067
0.9081852469417383 0.4479999989271164 0.6984259068780612 0.15366959121246174
0.6545777320318499 0.4479999989271164 0.7062543721851156 0.16403201349968138
0.21709922890995048 0.4479999989271164 0.701328733429215 0.17389644102169194
0.12678672784768577 0.44799999892711634 0.6993427046693468 0.15489690563806421
0.31768506366569016 0.44799999892711645 0.6983616090248507 0.1587405320396469
0.35510331014155727 0.4479999989271164 0.701438072862236 0.1557508989371154
0.058193838855194496 0.4479999989271164 0.6988225569425501 0.1853840098048692
0.47857684433025327 0.4479999989271164 0.7077343910251344 0.16701239187559858
0.023925571923788413 0.44799999892711645 0.7129495479800212 0.18372705546450543
0.502577860064768 0.4479999989271164 0.7060093181201605 0.17152073017922004
0.8236820980518605 0.4479999989271164 0.6996480161561104 0.13599885266775658
1.003429143474881 0.44799999892711634 0.6989978954705524 0.15890446353969032
0.3321290315367245 0.4479999989271164 0.698283506930219 0.15550429948988886
0.4386880916455694 0.4479999989271164 0.7023941965726818 0.13133482862827442
0.09330351025638846 0.4479999989271164 0.7013441048952124 0.1466592086407
0.8813486896612874 0.44799999892711634 0.6983936223317622 0.15272106168492142
0.7845982939840361 0.4479999989271164 0.7103713309816676 0.18572897885900538
0.8104707342648234 0.4479999989271164 0.7182864458938358 0.1770797148314771
0.38061103803855506 0.4479999989271164 0.7193056697258837 0.17251600884414495
0.1994974219450255 0.4479999989271164 0.7189012446632802 0.16908313873598044
0.5347784061188503 0.4479999989271164 0.7178001119119759 0.18198928701758785
0.6986690176284166 0.4479999989271164 0.7087320705109068 0.1699910586645542
0.9210690316983319 0.4479999989271164 0.7035787770160871 0.1535341693494897
1.0794175396238541 0.4479999989271164 0.70613324487804 0.14390238180242243
1.0111869783897791 0.4479999989271164 0.7085338166099542 0.18592129860561551
0.6909682465891835 0.4479999989271164 0.7170609051120167 0.19353158070083434
1.1044465753906119 0.4479999989271164 0.7169804249320476 0.18030919859882155
0.6662390563137659 0.4479999989271164 0.7189560078246129 0.12963938365876115
0.6411026488996306 0.4479999989271164 0.7191966273432744 0.1620505092733982
0.555706883576592 0.4479999989271164 0.714370710963097 0.16233080163390334
0.7333113639400497 0.44799999892711634 0.7085666921044185 0.1815395534468057
0.8724216296111835 0.4479999989271164 0.7063062651533843 0.16178733662096711
1.1599606116390553 0.4479999989271164 0.7039526534953785 0.1605479243088779
0.6776630283451809 0.4479999989271164 0.709593430653094 0.14785717532237766
0.544432078039799 0.44799999892711645 0.7128436637067781 0.16300460189132043
0.41204134048963653 0.4479999989271164 0.7193916429129138 0.12948775006852767
1.0267991039447113 0.44799999892711645 0.7081702219555219 0.15011261623389113
0.6158383681704149 0.4479999989271164 0.7100065688121918 0.19847330016502168
0.6519918805573683 0.4479999989271164 0.7179505322279577 0.15310280919296188
1.1980000138282776 0.2930450238402026 0.704253385364608 0.14974598762808572
1.1980000138282776 0.25267353595402403 0.7066109694088033 0.17434904917823238
1.1980000138282776 0.28137107519285876 0.7082560413272405 0.16318359365521207
1.1980000138282776 0.21580659886367753 0.6991086508942359 0.1538373354777276
1.1980000138282776 0.20440106328801305 0.6983454214445369 0.14665045628756448
1.1980000138282776 0.06350585842419658 0.7162374523060042 0.17753182454208416
1.1980000138282776 0.3822528252421209 0.71897974142326 0.17685117402584408
1.1980000138282776 0.041117942595195495 0.6980322894261773 0.1635575240233238
0.39217958177839396 0.001999989151954651 0.6990394071979594 0.14304852978430252
1.0120353551764505 0.001999989151954651 0.7000949692244962 0.14919642750558976
1.1876122253103243 0.001999989151954651 0.7081300241350146 0.20914334477040203
1.179275643082317 0.001999989151954651 0.7002214156703275 0.18148772830425963
1.1671721663171633 0.001999989151954651 0.7190461767196716 0.12199144871867564
0.5798861528665827 0.001999989151954651 0.6989726714237509 0.1378470854026348
1.1784312510946837 0.001999989151954651 0.7176639382540322 0.15495609734352525
0.867114147923009 0.001999989151954651 0.7018923612362877 0.15436280645473072
0.7401737115412815 0.001999989151954651 0.7080035233352957 0.14351918750637044
0.8451448556509015 0.001999989151954651 0.7088643682047789 0.1610599343517219
0.4831287541060063 0.001999989151954651 0.698689745299072 0.14235592126130972
0.8297603055158854 0.001999989151954651 0.707530029266418 0.1543322727221259
0.9776413483588966 0.001999989151954651 0.7096847918197335 0.14362306858082735
0.8042201023203892 0.001999989151954651 0.7079506616365318 0.1579740711337878
0.19384454996907596 0.001999989151954651 0.7195910414249196 0.15438304066292516
0.6158291930574471 0.001999989151954651 0.7172667260110407 0.15639284847687832
0.07931623965868186 0.001999989151954651 0.7190688066134815 0.15286052817719498
0.842481393773812 0.001999989151954651 0.7191623724224493 0.12708013516221295
0.38697871019072255 0.001999989151954651 0.7116601098210391 0.14219980978147365
0.13843113724562744 0.001999989151954651 0.7094163560962262 0.13741770764334144
0.1662687602315981 0.001999989151954651 0.7076781581565162 0.15535204699161978
0.5581710243671091 0.001999989151954651 0.7095417783977296 0.15267973708704743
0.15153557298883572 0.001999989151954651 0.7014186287312859 0.1396751102088996
0.1616385809397216 0.001999989151954651 0.7178328211627463 0.14949359096237505
0.9992891957028712 0.001999989151954651 0.7199281091355695 0.13876026692497717
0.0988063558293896 0.001999989151954651 0.7103852693625632 0.15059614656889855
0.31301806472743193 0.001999989151954651 0.7086229259441004 0.16973724044911837
0.0020000338554382324 0.3201939410692851 0.7086070254202812 0.1481946654234711
0.0020000338554382324 0.42737030838036516 0.7070544318907294 0.16823202322651565
0.0020000338554382324 0.39687934078167597 0.7093272200936985 0.1597080253247941
0.0020000338554382324 0.27563576912345916 0.7171154156429086 0.1654324779057016
0.002000033855438233 0.30228626424039096 0.7197722836547443 0.1251964688396197
0.0020000338554382324 0.02955806691581929 0.719659260375629 0.15776220458485887
0.0020000338554382324 0.3894781080577779 0.7198351963048333 0.1582157968124482
0.0020000338554382324 0.34828734784184956 0.7179395124115762 0.18339016688492035
0.0020000338554382324 0.09582339118260842 0.7109150265730249 0.1676535514254023
0.0020000338554382324 0.15957753398564886 0.7194285390539596 0.16626200846519618
0.0020000338554382324 0.25871571166379315 0.7001546638222559 0.16416329976666794
0.0020000338554382324 0.0842121400707725 0.7086098584129059 0.1849376417120933
0.0020000338554382324 0.04451086068138396 0.7007122211597833 0.1827486368494023
0.0020000338554382324 0.03037032665610925 0.7043909576850433 0.19914067962968093
0.0020000338554382324 0.04958916666036445 0.7126260584784143 0.17718185417877524
0.011896150014147764 0.0397947830057427 0.6980000138282787 0.22907087670545218
0.02875849098314754 0.03680533991135576 0.6980000138282787 0.19211486490240826
0.019497985738461204 0.025160469160588627 0.6980000138282787 0.23996717806614334
0.009951208503836823 0.016655543871232543 0.6980000138282787 0.18135445824347676
0.0362663477336543 0.046038394800070964 0.6980000138282787 0.17976948707090862
0.022132156722256074 0.012394653221525505 0.6980000138282787 0.16041729818119527
0.029864430232721353 0.021035397504736413 0.6980000138282787 0.17136539771367781
0.07241906827544672 0.04177068913765713 0.6980000138282787 0.11423671642822036
0.04878723439652489 0.03308004400507882 0.6980000138282787 0.13683631280808076
0.2507356464461632 0.020139710234932506 0.6980000138282787 0.14442370385024536
0.5326683066923384 0.02743011331964723 0.6980000138282787 0.12801807949711924
0.3280539673770149 0.03196085041705729 0.6980000138282787 0.12312405556794177
0.23593693784041997 0.01799665176467086 0.6980000138282787 0.13246347671669725
0.14561926259114133 0.04011981078807889 0.6980000138282787 0.14082108023102982
0.6271439318323935 0.04488360874531651 0.6980000138282787 0.13764091040199392
0.20491634260353325 0.029366387831170723 0.6980000138282787 0.13244418073345213
0.3293476279090807 0.02029281370841463 0.6980000138282787 0.14070778789896743
0.2143015184268952 0.041921784838846524 0.6980000138282786 0.13676030103602158
0.15750943933694947 0.034376975615036054 0.6980000138282786 0.12366089619331165
0.4377201121052815 0.03737802047251215 0.6980000138282787 0.14231127915573802
0.3424264412263176 0.04725708692464441 0.6980000138282787 0.147431588081657
0.07530519097648679 0.013108813834349219 0.6980000138282788 0.12007074882429966
0.34036778999498585 0.027660280361098667 0.6980000138282787 0.13754923931480106
0.47382016582251313 0.046891661458833056 0.6980000138282787 0.13535471743998212
0.09912989230947011 0.01191065578724214 0.6980000138282787 0.1366081913937662
0.4882090145698449 0.03418616674172924 0.6980000138282787 0.128550233522437
0.9585708510349235 0.04725808425941907 0.6980000138282787 0.13796468165011758
0.5056615394816106 0.04290700297388969 0.6980000138282787 0.13301567249541385
0.45704740878104494 0.03269551261888556 0.6980000138282787 0.13153607006188892
0.06417038350720666 0.011706736894218665 0.6980000138282787 0.14173424368052961
0.6596512485986101 0.039897120082430244 0.6980000138282787 0.14249277059772558
0.8866877961858433 0.04059820129671169 0.6980000138282787 0.1296333488821712
0.3556909348831627 0.025952826541468615 0.6980000138282787 0.12045670911534984
0.460514903381475 0.04458010482962792 0.6980000138282787 0.14173489336071468
0.18859428999652367 0.032223019151509984 0.6980000138282787 0.1379393065052284
0.6389860332649336 0.04380304460994264 0.6980000138282787 0.13746017455679108
0.08463619964991567 0.02099600009042438 0.6980000138282787 0.1206386090030572
0.30763913618902966 0.028041948147798243 0.6980000138282787 0.13591274793598923
0.2563643302681097 0.02932326598104129 0.6980000138282787 0.13296597537252144
0.4799160127802954 0.02407220108154964 0.6980000138282787 0.11946372658973542
0.06419662192641626 0.02807028287901344 0.6980000138282788 0.11075494783885059
0.7086022134420004 0.03880993789795515 0.6980000138282787 0.14221288555620845
0.14226267359282618 0.027089646728156235 0.6980000138282787 0.13271102650051636
0.8101371875006584 0.04765905985446509 0.6980000138282787 0.15124027986234767
0.5022361372305194 0.030110268911361267 0.6980000138282787 0.13923675376802572
0.17040514239810645 0.028299310628417604 0.6980000138282787 0.13576072079089607
0.6245401416467332 0.031639321495937164 0.6980000138282787 0.1293715912749043
0.42342118571592463 0.03383165329628317 0.6980000138282787 0.12920327480315444
0.1083961493995294 0.024711260273903086 0.6980000138282788 0.1317962112572011
0.603577365593022 0.031625985647257056 0.6980000138282787 0.1379690487855046
0.30392442919023627 0.017892470770601538 0.6980000138282787 0.13994944315791155
0.7281874399783257 0.03839529497423502 0.6980000138282787 0.11855374282797179
0.561496623148265 0.02999545924336151 0.6980000138282787 0.13670089501067575
0.2626032585837604 0.044413545802989327 0.6980000138282787 0.13954707378333878
0.2031202666686253 0.04443421738991962 0.6980000138282787 0.14393100440403458
0.05144683073037553 0.022136065608350866 0.6980000138282787 0.1425870823258308
0.6457194576511661 0.03564453098954894 0.6980000138282787 0.12929231378935907
0.36589945373596017 0.03983866998574056 0.6980000138282787 0.12723219454846366
0.6769385572476538 0.034275382176690336 0.6980000138282787 0.1328061046342753
0.17369523824064592 0.04516648812072996 0.6980000138282787 0.13734889490898716
0.24983749267892982 0.038253063174278706 0.6980000138282787 0.1320435925481901
0.4316076111094815 0.026295646525802276 0.6980000138282787 0.12453418315997647
0.31651572983965676 0.0345054661499283 0.6980000138282787 0.13767514453299093
0.13943752546942106 0.015453952311332446 0.6980000138282787 0.15912647851946293
0.2748904816705729 0.033809032130253665 0.6980000138282788 0.12066890408910491
0.6133586886835446 0.0436276619054929 0.6980000138282787 0.1506368433960532
0.9028360608445534 0.04491150236658262 0.6980000138282787 0.15172381766289667
0.27858699449723323 0.020312808157250735 0.6980000138282787 0.13729224833861312
0.08132772772540028 0.03340029976481368 0.6980000138282788 0.11019547846629858
0.3025908775347802 0.04306240401188088 0.6980000138282786 0.13723645343650365
0.6882264933361145 0.03950006503158721 0.6980000138282787 0.13786201178970608
0.13236160180120987 0.04582614562943951 0.6980000138282787 0.13910865451593715
0.9351298983586693 0.04283761268397461 0.6980000138282787 0.13337296220735306
0.7466540280844325 0.04404627812521534 0.6980000138282787 0.14116374361947623
0.773828602449087 0.04032443568682248 0.6980000138282787 0.13645343432654272
0.039199392005491294 0.011519356697436046 0.6980000138282787 0.16434121618694053
0.18563200350517 0.020935799642085477 0.6980000138282786 0.14019428245641113
0.2040999257316123 0.014878099875761394 0.6980000138282787 0.1499057277079975
0.36662892021588633 0.018872906441468912 0.6980000138282787 0.12192352865305066
0.2664224384495516 0.02179555781365347 0.6980000138282787 0.1250108657059698
0.6695227239642747 0.04506712554170877 0.6980000138282787 0.14120554083850484
0.23595986998341378 0.03854362231670183 0.6980000138282787 0.12922082491529074
0.3919539648158298 0.03659191325648821 0.6980000138282787 0.12166245673711233
0.2884507440210547 0.03423528357766418 0.6980000138282788 0.12578975052063526
0.5943538303103763 0.04047734544155455 0.6980000138282787 0.13101898202245502
0.5527803297335618 0.03982605093041169 0.6980000138282787 0.13084878980323286
0.21865192356765845 0.019218149873168798 0.6980000138282787 0.1245465468593515
0.35258625965147816 0.036656406810252624 0.6980000138282786 0.13255889620624145
0.5172137799489276 0.03323226958474815 0.6980000138282787 0.12740914100749778
0.6981077669874587 0.04657257121731054 0.6980000138282787 0.13577554353777285
0.10424546199667162 0.03891328504539122 0.6980000138282787 0.11343411628740814
0.5738624367419788 0.03490155203877641 0.6980000138282787 0.11861368106641611
0.5332545339671059 0.03831282940199199 0.6980000138282787 0.12095175633145061
0.09341518676111782 0.03329310773569927 0.6980000138282787 0.11596884074689637
0.17143801473317608 0.014131379983778978 0.6980000138282787 0.13850381833498226
0.22427230382246324 0.03365765405107957 0.6980000138282787 0.11673133283987353
0.12074493759715164 0.020552176230222693 0.6980000138282788 0.12315275788139322
0.8308571476797131 0.03893488261295941 0.6980000138282787 0.12845417717573904
0.1506275840669011 0.01698697061452782 0.6980000138282787 0.14009750250113995
0.41518688923581304 0.041007750301402926 0.6980000138282787 0.1434651944611028
0.5460104301244822 0.028876775280544845 0.6980000138282787 0.13866064531811467
0.7998353742753418 0.045568333952067025 0.6980000138282787 0.1440548169714181
0.13127518152935536 0.027703211203248656 0.6980000138282787 0.12960012485860795
0.433140333199113 0.048039005092334386 0.6980000138282787 0.14222161637969533
0.12311052856949867 0.034987487132267715 0.6980000138282787 0.13382323956924386
0.7627162053613421 0.03481154616289479 0.6980000138282787 0.1269914554431042
0.5834881540385194 0.0435918243001476 0.6980000138282787 0.13759465553370015
0.38563894025882645 0.0259649668070473 0.6980000138282787 0.12504650728072964
0.4692174717059066 0.03162677081941534 0.6980000138282787 0.12545698116370319
0.4048381630185767 0.033618347678085324 0.6980000138282787 0.12302495228989067
0.8764206475290796 0.04854158137279065 0.6980000138282787 0.13726436977098574
0.9209092921278302 0.04838975159564317 0.6980000138282787 0.13429686161559976
0.4960644763854079 0.04823128922102671 0.6980000138282787 0.1456991205688641
0.7878309921179394 0.04925908050427498 0.6980000138282786 0.147527724786247
0.5590666512875353 0.049540503790388504 0.6980000138282787 0.13878294500674615
0.602483777046612 0.04968796467753364 0.6980000138282787 0.14312864698581987
0.8397488973295888 0.049553160729366656 0.6980000138282787 0.1278857120448179
0.998157781665678 0.013692786346806523 0.6980000138282787 0.14071894478316027
0.6972118185015466 0.01438421130752773 0.6980000138282787 0.13185136318220606
1.1591640576438522 0.007462235270071725 0.6980000138282786 0.14066454620501584
0.3305762466816752 0.006303229331554916 0.6980000138282787 0.13096624520726685
0.5608374310683191 0.010047898585390848 0.6980000138282786 0.12013177559838398
1.117566294664018 0.029101655689884386 0.6980000138282787 0.11408307912161608
1.0475695769169815 0.04383667441813851 0.6980000138282787 0.1344630394985155
0.8257359492601766 0.008218694402902342 0.6980000138282787 0.15248245806299693
0.45284276943116375 0.013500299866493544 0.6980000138282787 0.14429390609061093
0.5883495349310977 0.02501739345957208 0.6980000138282787 0.12215446048313555
0.3699173941526256 0.007014845291898447 0.6980000138282787 0.137967864573109
1.1470893904638033 0.013936276407258273 0.6980000138282787 0.14557353263793738
0.6089532075673176 0.02002530261973619 0.6980000138282787 0.1249215925843489
0.21343966678780468 0.005676183768047357 0.6980000138282787 0.14628055259790274
0.8519104609498426 0.03048766506167012 0.6980000138282787 0.11825913046178566
0.9987924332555851 0.03220771589795223 0.6980000138282787 0.12418741719468683
0.11913274179259102 0.006324243602953334 0.6980000138282787 0.14822141222285484
0.7721496613873283 0.010893665193631686 0.6980000138282787 0.14327974916955932
1.0096482903089736 0.022849865250484207 0.6980000138282787 0.13515971969092808
0.7046259392973356 0.02741427845612353 0.6980000138282788 0.12625605607394638
0.18357328715995883 0.009321117067863585 0.6980000138282787 0.1556945987203815
1.0554578319426544 0.033640843379607425 0.6980000138282787 0.13086293708661134
0.40545140702298493 0.005183548920251028 0.6980000138282787 0.09567701703937288
1.040591670821913 0.003480377445554922 0.6980000138282787 0.14458232718248304
1.0431382344257176 0.021832772562514247 0.6980000138282787 0.1322653182765252
0.6342868699927675 0.01598776162752193 0.6980000138282787 0.14470704532617545
0.7962889745958553 0.01831488533794652 0.6980000138282787 0.13891577456296716
0.5941733823115029 0.01471560299327568 0.6980000138282787 0.12560407171431553
0.2835093139738678 0.0062564817347370025 0.6980000138282787 0.14458790307497962
0.809904015079638 0.023236597592065922 0.6980000138282787 0.12424220151412864
0.847646158802744 0.005525741166682349 0.6980000138282787 0.13218935918092192
0.2687570917377545 0.009051613676706 0.6980000138282787 0.1392210999744167
0.12998187841301911 0.004129237953652038 0.6980000138282787 0.13822397378381224
0.8004514819918398 0.007916854795344486 0.6980000138282787 0.14903481681489955
0.8543514553475571 0.01468720773392033 0.6980000138282787 0.1362580785191886
0.5024800709693985 0.007424787979998817 0.6980000138282787 0.12541466784717273
0.5257438923800505 0.013537004917454364 0.6980000138282787 0.1406912758467349
0.6727598668219139 0.008931303329787837 0.6980000138282787 0.13349285128124208
0.8233170258260514 0.029027810742412914 0.6980000138282787 0.1269843679576149
1.0874291545658568 0.0112086072968113 0.6980000138282787 0.1267862272496025
0.7284069201265602 0.0263609894377202 0.6980000138282788 0.12154952498185724
0.7400372861708241 0.028141424677070842 0.6980000138282787 0.12301085511845504
0.9741791049207937 0.022610528828124393 0.6980000138282787 0.13294748237961848
0.22735422552388412 0.008823149076160428 0.6980000138282788 0.1513328912511106
0.4262672750790547 0.007760073813589814 0.6980000138282787 0.13008131966122657
1.0636108629030998 0.04305159960823239 0.6980000138282787 0.13269410637021287
0.3967412899391488 0.014756300187929611 0.6980000138282787 0.12208619716790664
0.7151240701853533 0.02195406924677466 0.6980000138282787 0.12363379767044581
1.0974272884618603 0.026974101418466154 0.6980000138282788 0.1102817997280515
0.5407175456187372 0.01886809423280412 0.6980000138282787 0.14154014138734822
0.8718745772194171 0.03693669523096795 0.6980000138282788 0.12346801691564686
0.9303971312323648 0.0069070117679256955 0.6980000138282787 0.14111369014583397
1.0216678123329503 0.035107928372943936 0.6980000138282787 0.13970894685616958
0.7521513943829243 0.030592097560478114 0.6980000138282787 0.12757266367939454
1.135681824891694 0.028333366398365617 0.6980000138282787 0.1038795290723128
0.3830308831962647 0.013063087018191456 0.6980000138282787 0.14899520241988035
0.4634938243912431 0.01263390896156744 0.6980000138282787 0.13809131213370507
0.9550544203736764 0.021961740493094642 0.6980000138282787 0.13716950273158796
0.4345515189269225 0.015808712812014163 0.6980000138282787 0.13246294335883121
0.9170566005875903 0.015779828338557893 0.6980000138282787 0.1311728495129048
0.662533910611804 0.016513063269410603 0.6980000138282787 0.13651663610225323
0.8446294326197324 0.02170692390187202 0.6980000138282787 0.12660811797091825
0.6614914997751229 0.002659581228881506 0.6980000138282787 0.15512401177488666
0.626277203286883 0.0033440520424389926 0.6980000138282787 0.16049397988101813
1.0926656317204508 0.046451082244893124 0.6980000138282787 0.11514291636010751
0.8427270570235298 0.03629949905589043 0.6980000138282787 0.11742935813646314
0.24582638909145677 0.008716045733743698 0.6980000138282787 0.12342071257542124
0.3445801358148141 0.012700386225641543 0.6980000138282788 0.13953140329602723
0.49385641201249764 0.01736078135833199 0.6980000138282787 0.12363359415671707
1.0563277964481956 0.020241273843406547 0.6980000138282787 0.14059563102549286
0.8010181757953441 0.03373811835696889 0.6980000138282787 0.1281195667623823
0.5147481466497874 0.009504570048916987 0.6980000138282786 0.12136629362936432
0.983135901119163 0.011192205156874548 0.6980000138282787 0.16093837483887893
0.8959716873987644 0.017417774200570498 0.6980000138282787 0.1305941549766626
1.1195146709992643 0.012063399872573688 0.6980000138282787 0.13567607463729076
1.1034164865590632 0.013383107603646891 0.6980000138282787 0.12221281456672176
0.9117120018224254 0.036262235743682876 0.6980000138282787 0.11648098201944097
0.9752747156859413 0.03996342925728074 0.6980000138282787 0.1296510730911429
0.05749857941531874 0.0029865493242495745 0.6980000138282786 0.12258588805790863
1.0680424325832985 0.0030748150425241594 0.6980000138282787 0.1375782628838775
1.081798677497358 0.02659606495780214 0.6980000138282787 0.12283940392875971
1.028465949293365 0.014462955552738983 0.6980000138282787 0.13451406217310435
0.7411913027459504 0.015378104689290132 0.6980000138282787 0.1376223009557297
0.7254258959590095 0.015515657462573709 0.6980000138282787 0.13641603606389388
1.1266749210345366 0.036017231222059395 0.6980000138282787 0.10940759523731107
0.9892164101392209 0.020328349408033096 0.6980000138282787 0.1415727938310114
0.7839714998138688 0.007892785605522937 0.6980000138282787 0.1279447522944801
0.9505968964566283 0.004211178018330964 0.6980000138282786 0.11994067315381064
1.1058662131147643 0.03677379917328395 0.6980000138282787 0.11465433279067655
0.7765984095949455 0.022710225994611286 0.6980000138282787 0.12985810073039947
0.9647383525491502 0.015254815180543424 0.6980000138282787 0.14067238580184818
0.7120287265040857 0.010642159064351541 0.6980000138282787 0.13490369389887824
0.8792817426196726 0.021720720499510696 0.6980000138282787 0.12605463145916418
0.7868124907734703 0.02945724799473562 0.6980000138282788 0.14251642137699383
0.5488599315447482 0.010619027216428094 0.6980000138282787 0.14339999024324368
0.8717810775975694 0.012571371663450027 0.6980000138282787 0.13163995518663152
0.08712997738478863 0.004470600403987392 0.6980000138282787 0.1451250565749521
0.35720127145303043 0.010182214804224805 0.6980000138282786 0.12496309384308746
0.8979149274007372 0.0321934180069735 0.6980000138282788 0.12337307889091934
0.9475971908411156 0.029795448812968202 0.6980000138282787 0.13499897887267262
0.6442020460950401 0.009663603078620466 0.6980000138282787 0.13444333865160177
1.0520508576011824 0.0048487618666521815 0.6980000138282787 0.13864669869444277
1.0774383645946304 0.039565362192956935 0.6980000138282786 0.12599171895862013
0.4106829810645757 0.01782548152439365 0.6980000138282788 0.12333994942682532
0.8334007515431732 0.01633716745116601 0.6980000138282787 0.13322646776959324
1.0725102379264655 0.016211313072745294 0.6980000138282787 0.13336687947955744
0.5737457932155453 0.01146080122322143 0.6980000138282787 0.13089811480336086
0.6177284308640155 0.01096038385865695 0.6980000138282787 0.12984332635394263
0.3044192581760573 0.005015394019037354 0.6980000138282787 0.12638184711640216
1.0709820544034594 0.027202498930319292 0.6980000138282786 0.12321388073741349
1.170443575304344 0.013728938636427596 0.6980000138282787 0.18233127163794324
0.7462593976469588 0.003761010738775811 0.6980000138282787 0.13202093297939224
1.0095900098928858 0.043248903366346736 0.6980000138282788 0.13399030120979716
0.6660443333049534 0.028276775769122957 0.6980000138282787 0.13227750810091884
0.6800644915773298 0.020313484607284417 0.6980000138282787 0.14621768217168624
0.9309370892786013 0.02875204309766974 0.6980000138282787 0.11557512909425519
0.9412471229896643 0.00977547076442579 0.6980000138282787 0.1343863997995684
0.7616158481970958 0.019691846718700206 0.6980000138282787 0.11934973571608035
1.0279818803833227 0.02506506668798881 0.6980000138282787 0.13535612729208749
0.5127081329010124 0.020783684761117704 0.6980000138282787 0.12954182209361895
1.0386688518054124 0.03243127714794403 0.6980000138282787 0.12718424433256406
0.9642181849060096 0.028862503567823685 0.6980000138282787 0.13294064871488856
0.6508470929645935 0.02543663000130008 0.6980000138282786 0.13441498983360284
0.8122533991272956 0.03411810345485711 0.6980000138282787 0.11918616848077475
1.1152169256330051 0.04151032599626004 0.6980000138282787 0.1119470308922199
1.1340338818483782 0.016998971523667018 0.6980000138282787 0.11625091088261479
0.3152089311510696 0.00566342577489123 0.6980000138282788 0.1369451654375061
1.1401586908304802 0.04098665887057101 0.6980000138282787 0.12784811339005425
1.1575418577374181 0.023496365691385582 0.6980000138282787 0.169510581249726
1.1883541405618652 0.008956222685234636 0.6980000138282787 0.2010216593224462
1.1623709692930981 0.039617595938280147 0.6980000138282787 0.18260133086693753
1.1688905160687404 0.029170098696881596 0.6980000138282787 0.21136619249327784
1.183584501918806 0.0447417469385288 0.6980000138282787 0.20542230711313153
1.193545494637207 0.019528787582484743 0.6980000138282787 0.22990156564596134
1.1849537731310058 0.08690656661949084 0.6980000138282786 0.23270745392471995
1.1658438140040204 0.10803457874408975 0.6980000138282787 0.20118394913896018
1.157896018781289 0.09362522308992277 0.6980000138282787 0.1683688502564059
1.1609513916417034 0.08220123381452704 0.6980000138282787 0.20797596723302664
1.1502817873076348 0.10524255723834829 0.6980000138282787 0.152885759250863
1.1198798661774496 0.08066759192032193 0.6980000138282787 0.12082397351893426
1.1409670183943863 0.08593508958050626 0.6980000138282787 0.11778840734016895
1.131500613705765 0.09418265873273576 0.6980000138282787 0.11234313485890433
0.43924900822252877 0.14303417917779268 0.6980000138282787 0.13650232608921412
0.44877153062001307 0.19516753323222652 0.6980000138282787 0.13588774068888737
0.6927984866645911 0.20227379370586762 0.6980000138282787 0.14692821622050004
0.5800907216952135 0.18033151758852137 0.6980000138282787 0.17228710605155584
0.1608675640814184 0.07706245927542532 0.6980000138282787 0.13425266351349105
0.8653755515124165 0.08573468194443157 0.6980000138282787 0.12904245709538908
0.7488559659459109 0.15545094865708187 0.6980000138282787 0.1400358854354743
0.43682611987380904 0.09671999759602237 0.6980000138282787 0.12929554895775883
0.9568859746942502 0.13296530760836256 0.6980000138282787 0.14391763535826482
0.2661779508793493 0.1038583131783962 0.6980000138282786 0.14575251982172865
0.5176181322035066 0.19043347872512728 0.6980000138282787 0.12480416342493432
0.4173692572183174 0.10566233659472049 0.6980000138282787 0.13995193375943796
0.7948821390941062 0.2268771493333832 0.6980000138282787 0.14267925262163342
0.5722942475531514 0.08788602438391821 0.6980000138282787 0.13366602191329324
0.9899265071840808 0.07606194342324525 0.6980000138282787 0.11314894483398563
0.6896206427333129 0.26946088749746544 0.6980000138282787 0.13993067513837654
0.5226583867892937 0.16436126497094294 0.6980000138282787 0.14746418354030238
0.8246051514888473 0.2331138934205777 0.6980000138282787 0.1317809477077248
0.3222693598486344 0.08576947568444834 0.6980000138282787 0.126653413423521
0.5961988835379155 0.11190237555325293 0.6980000138282787 0.13642998975700402
0.31075234749895153 0.12082059575331211 0.6980000138282787 0.1349713652928253
0.3833361859027078 0.11834930673746966 0.6980000138282788 0.14197688676487535
0.6450202232876501 0.2355050621177588 0.6980000138282787 0.14382592859910834
0.6513516492828143 0.2714059154475291 0.6980000138282787 0.1333589686619968
0.2987971647101027 0.10375574867726554 0.6980000138282787 0.13392404013984485
0.5754812519638086 0.25596715489188754 0.6980000138282786 0.18014907268662264
0.4143812872205669 0.1446048152918327 0.6980000138282786 0.1297986102315766
1.018336010144779 0.09613074496756693 0.6980000138282787 0.137671119069931
0.9380465195591159 0.17842543521105142 0.6980000138282787 0.14584557150910143
0.43523533124063674 0.13319375212766232 0.6980000138282787 0.13398975753934347
0.6849863614026328 0.14671663602636745 0.6980000138282787 0.14600333844649732
0.42034204470516157 0.07657459937193795 0.6980000138282787 0.14830092004669415
0.5063523573344976 0.2193919887710177 0.6980000138282787 0.13741147279731103
0.7512895145195946 0.1850003895206586 0.6980000138282787 0.14850211064301008
0.7625103633890444 0.24900710950310725 0.6980000138282787 0.13474505661311278
0.789431465644936 0.09497593296463383 0.6980000138282787 0.12224780157604256
0.40011461718288777 0.14968970483842275 0.6980000138282787 0.1259534366056952
0.7083302444052877 0.20569437541511246 0.6980000138282788 0.15163029216611779
0.40901648749303704 0.09680633296513336 0.6980000138282787 0.14410499576651944
0.8214715036619317 0.12889482179152623 0.6980000138282787 0.13162744054840678
0.3813111001098038 0.14354752266850565 0.6980000138282787 0.12720218241585768
0.9423716037494319 0.09267276519972201 0.6980000138282787 0.144201853107738
0.7924424465495976 0.08156973488193978 0.6980000138282787 0.12151086405404375
0.778455287736052 0.1721294703372029 0.6980000138282787 0.1491053385924633
0.7579781395224335 0.19935267309354426 0.6980000138282787 0.1371783023554314
0.7097347798563851 0.09055379968298462 0.6980000138282787 0.1440606080611019
0.8190555683819984 0.19045316557875286 0.6980000138282787 0.14401433778790315
0.5866060720473758 0.08274688392983014 0.6980000138282787 0.13229705727649851
0.8584846259644421 0.14088211462616682 0.6980000138282787 0.14477660917804078
0.5446299321540399 0.13829855079079797 0.6980000138282787 0.154721101015255
0.6054800174257401 0.09511408748016975 0.6980000138282787 0.14346971673351294
0.2848325483921016 0.13443662718429655 0.6980000138282787 0.14708434777199408
0.9072756681403076 0.12332612469176066 0.6980000138282787 0.14981400744546658
0.577154484617479 0.1395801805851023 0.6980000138282787 0.1487132662620832
0.5080507425104202 0.13628159176550284 0.6980000138282787 0.14628124201391887
0.6860225225994364 0.11264308086351053 0.6980000138282787 0.1525939371070381
0.6123573537876303 0.2680379160466042 0.6980000138282786 0.18267782891188816
0.6385275241353087 0.27364383375785717 0.6980000138282787 0.14583245350842985
0.6781951591378304 0.19755558371025292 0.6980000138282787 0.14010141420112487
0.6835161641198089 0.12372647940054986 0.6980000138282787 0.15105837807046357
0.34758826769732637 0.16663046240787766 0.6980000138282787 0.1326455271934972
0.44590457796223665 0.09028405986706667 0.6980000138282787 0.14053976372246785
0.7641362480808646 0.21210158205461982 0.6980000138282787 0.14041652657228107
0.7802324715300295 0.18546669942246125 0.6980000138282787 0.1405927840006856
0.999963566555732 0.09415699116028052 0.6980000138282787 0.12121921275243618
0.739758539359084 0.23156662050382903 0.6980000138282787 0.13320839078363547
0.7664700771173261 0.13558189270746132 0.6980000138282787 0.14431492025318776
0.6677929838369854 0.21418807572568213 0.6980000138282787 0.14470804359711442
0.1107944247991875 0.07697336962481648 0.6980000138282787 0.1184505155325286
0.6334335816627799 0.22805415383028566 0.6980000138282786 0.17310606558970254
0.5566336850543305 0.10946475860219995 0.6980000138282787 0.13400860123271413
0.6038954998781297 0.18683369208121398 0.6980000138282787 0.16672510171135727
0.5134570014055893 0.23005206490005434 0.6980000138282787 0.1349089369988068
0.8742181319468691 0.1663979824391248 0.6980000138282787 0.13436029421694945
0.4796453836799484 0.07965401603698767 0.6980000138282787 0.14842997401412056
0.6104380708948878 0.14965570185798927 0.6980000138282787 0.1428273234781027
0.6724965532435104 0.22791867109852074 0.6980000138282788 0.14363897054708924
0.7870653983960391 0.12041859629191876 0.6980000138282787 0.1253744105898515
0.24105765309324054 0.12701625738120106 0.6980000138282787 0.13409895518812381
0.8127428085960603 0.0936888132814761 0.6980000138282787 0.11401260662104268
0.5512468382989401 0.17628441420111726 0.6980000138282787 0.1420199411053956
0.7957833959582528 0.1552816620206862 0.6980000138282787 0.1420801695348776
0.6455271050806457 0.24770299670130952 0.6980000138282786 0.13628702309669305
0.5227828897863354 0.0862006479732645 0.6980000138282787 0.15222894162246442
0.6668030184619905 0.2928181237425375 0.6980000138282787 0.14369062362186946
0.6774935123325236 0.2696097765080435 0.6980000138282787 0.13719126069895038
0.6187198805260694 0.15946416314474318 0.6980000138282787 0.13571882488358272
