x y z curv
0.04107161482402642 0.9547879961162498 0.6696601053336053 0.13065069197498852
0.035859102411447005 1.1356061492779523 0.6696601053336053 0.09287320301379978
0.04099572211733345 1.2281161677921206 0.6696601053336053 0.08410431981994702
0.037216005721003254 1.1241643814038313 0.6696601053336053 0.07659166758610368
0.03697351780533369 0.6529296450624731 0.6696601053336053 0.08728108919169988
0.03648863067583794 1.012715219492357 0.6696601053336053 0.09213236128217432
0.0362681481535986 0.5084097652187403 0.6696601053336053 0.07484253998938133
0.035625321799958004 0.5263963934840574 0.6696601053336052 0.09406695939231412
0.041424009846131205 0.6177020916688559 0.6696601053336053 0.09231163422968594
0.03915408669957924 0.7787231156880967 0.6696601053336053 0.10423905071145063
0.0390337626737182 0.815117065868813 0.6696601053336053 0.07441285712767796
0.04282229843611263 1.0908653310609497 0.6696601053336053 0.06347561660924415
0.04006182524353691 0.9803654428974907 0.6696601053336053 0.0909334868934014
0.04299575971770605 0.8330008816403373 0.6696601053336053 0.07649522380184605
0.04222056609241236 1.163847639154702 0.6696601053336053 0.12134812686831516
0.03703735839048449 0.7101942929981904 0.6696601053336053 0.11245118865869573
0.04355968930507401 0.31523666889815044 0.6696601053336053 0.07368630497378711
0.04994841058592567 0.5057370221191827 0.6696601053336053 0.06849176616900628
0.05192621590035969 0.6395760699196151 0.6696601053336053 0.08568947988417192
0.04927810338724499 0.20034088638080658 0.6696601053336053 0.14161459060740703
0.04878470081123384 0.8880012023063154 0.6696601053336053 0.07511103825393438
0.04726902450757088 0.17753556674703908 0.6696601053336053 0.0814382628006689
0.03749417535785492 0.17020929924734327 0.6696601053336053 0.12867234435818106
0.03993381387223762 0.19149557801579195 0.6696601053336053 0.15494784801498038
0.037584780916812124 0.21924104191078062 0.6696601053336053 0.14514203782337615
0.04259715065659615 0.4024154323823211 0.6696601053336053 0.0897455762182079
0.05198706438766579 0.8686784905717555 0.6696601053336053 0.08253532630369081
0.05141236692949717 0.4362699728334338 0.6696601053336053 0.11696097311290017
0.05046834492933141 0.9024494732172916 0.6696601053336053 0.11536051185593472
0.05169331921010838 0.26041017022904667 0.6696601053336053 0.09067014051877631
0.05208806488418673 0.4497202484486539 0.6696601053336053 0.10671971524662364
0.05214135426357691 0.6949122142324614 0.6696601053336053 0.07093953888255497
0.04621812232630873 0.38013713262280396 0.6696601053336053 0.06232362146885824
0.037393486909417205 0.2070404335638981 0.6696601053336053 0.16239043067929074
0.04764687619707828 0.2270983564687639 0.6696601053336053 0.0981388978035464
0.0456791464993344 0.7467009463049897 0.6696601053336053 0.07458889296845087
0.038273000299918015 0.29869772715430526 0.6696601053336053 0.0756252496297889
0.04345810930957859 0.3450194097609191 0.6696601053336053 0.08476501145799938
0.04541987170832306 0.5424082720351687 0.6696601053336053 0.0776176824739127
0.045207553904642594 0.5180909820064704 0.6696601053336053 0.07702633332198038
0.05133290241112642 0.8420259437403964 0.6696601053336053 0.08335844789494848
0.04211787643118774 0.3913425755085091 0.6696601053336053 0.09145431165064169
0.049139560039022756 0.23773743244683715 0.6696601053336053 0.11529346788682207
0.03971729909115165 0.24984335586862877 0.6696601053336053 0.09866785093012866
0.04768026869922254 0.4186662567658186 0.6696601053336053 0.08273390857452308
0.046954858297025934 0.7316143817128982 0.6696601053336053 0.05980770046273461
0.04105125825673402 0.4914116763551604 0.6696601053336053 0.13037777650637578
0.04564887269341507 0.5688181516202838 0.6696601053336053 0.07332573988851511
0.0424527740506966 0.2778684634854424 0.6696601053336053 0.08357076228717644
0.048898333940735395 0.8087703066713938 0.6696601053336053 0.07968242190338332
0.03741970787002793 0.1590723313133345 0.6696601053336052 0.09297399945233492
0.051839503164275214 0.21456293432167647 0.6696601053336053 0.11136296424504473
0.047329538992293876 0.7899483345893964 0.6696601053336053 0.08971837405473249
0.04384594723505553 0.3601540558640461 0.6696601053336053 0.05991943433530554
0.045330504629688795 0.48031520511150183 0.6696601053336053 0.15680630119411212
0.04172987859815127 0.46852989385825433 0.6696601053336053 0.19101985483550188
0.05087395075446596 0.600014881967439 0.6696601053336053 0.07687375993650045
0.051674253769435886 0.6838483938009025 0.6696601053336053 0.07794104720746362
0.03767015716061995 0.2614669123750438 0.6696601053336053 0.08225542011815384
0.026274846885586938 1.3396258613133376 0.6696601053336053 0.2034020470974816
0.020460137700680964 1.3263825987216085 0.6696601053336053 0.21554654258640057
0.02931567881474327 0.05431222915649414 0.43149415350314135 0.14034542322685986
0.0209417190594509 0.05431222915649414 0.6216329977190078 0.1731478085591082
0.01430967091195317 0.05431222915649414 0.480708349778906 0.16166987151469558
0.020134739876587954 0.05431222915649414 0.42415602964794935 0.15826865327845577
0.02396493893816621 0.05431222915649414 0.38689724242395457 0.13111637450596142
0.023102630448830146 0.05431222915649414 0.6690313779234486 0.22184674642754762
0.027906075879529223 0.05431222915649414 0.18295028470311447 0.15833675714107298
0.02381024649340283 0.05431222915649414 0.6325192702941752 0.13776774362063374
0.020800545649292394 0.05431222915649414 0.355541865919325 0.15354508417081128
0.03409623858224249 0.05431222915649414 0.3691989100297173 0.15543382614958173
0.034215624951423086 0.05431222915649414 0.06615900283569623 0.065539057685322
0.03176127903253293 0.05431222915649414 0.6568651411895111 0.17636968574469356
0.0332774611461965 0.05431222915649414 0.14110368891359604 0.1495942862638775
0.034136062805534724 0.05431222915649414 0.6412197778319835 0.15714001174864384
0.033871307191614325 0.05431222915649414 0.31912039731574127 0.1548252903547522
0.030946466435332443 0.05431222915649414 0.4610492627667581 0.158729791257241
0.014374358049642016 0.05431222915649414 0.5546774017148419 0.1702898592567585
0.025817594171125325 0.05431222915649414 0.5863086517697488 0.1533174469625283
0.024536883339213233 0.054312229156494134 0.5167209926817746 0.152339732901987
0.029516846387990223 0.05431222915649414 0.28111395589599725 0.17451679158871408
0.017608254150695363 0.05431222915649414 0.5332132396140026 0.15114062054015856
0.014067520526881299 0.05431222915649414 0.5733020810638565 0.15984833170825288
0.019641852063150562 0.05431222915649414 0.6441799425579907 0.1727533696424885
0.025092285364104003 0.05431222915649414 0.3266209292014794 0.1616734037941456
0.02301171690876773 0.05431222915649415 0.5448205906287937 0.16055426278574242
0.01933275684840797 0.05431222915649414 0.46838785427344665 0.17961428614486186
0.026538373525932336 0.05431222915649414 0.2109364470458929 0.15892427633985515
0.032606341865135925 0.05431222915649414 0.30700080112852846 0.14011833053856626
0.005704735045280699 0.054312229156494134 0.6576629820702707 0.16129175391486025
0.016206789599116672 0.05431222915649414 0.49998836050702916 0.1755905428473898
0.020043744431972117 0.05431222915649414 0.6044574650361887 0.14703168053818788
0.02158551968390089 0.05431222915649414 0.405078817353012 0.20076719720927746
0.03394054169180438 0.05431222915649414 0.25318999028517203 0.13400107356355168
0.033686412900477095 0.05431222915649414 0.472497979569698 0.15437249453057617
0.016808674010153245 0.05431222915649415 0.657568129184337 0.20624935563693142
0.03395011470270103 0.05431222915649414 0.6012263093893819 0.12098550536419185
0.02560981964228366 0.05431222915649414 0.48510494615284167 0.16876978830572886
0.006365347284641245 0.05431222915649414 0.6173212087886265 0.116060149805803
0.006889979925146013 0.05431222915649414 0.27237287049225134 0.14051533103979716
0.015185929348972777 0.05431222915649414 0.30806102092541104 0.21678311414238366
0.0063067683508062165 0.05431222915649415 0.2599732420454621 0.1141613866253073
0.017907814598107905 0.05431222915649414 0.26689725044116724 0.1864961010168741
0.006322954236385635 0.05431222915649414 0.4704884017833065 0.13634024476581286
0.017707500626914882 0.05431222915649414 0.031887343006933855 0.16651768939419717
0.02015217025315851 0.05431222915649414 0.2374032629335395 0.1661652475661767
0.022423526518548675 0.05431222915649414 0.10432140234101979 0.16813042373061413
0.0140904108399101 0.05431222915649414 0.04448440955596528 0.15421900388651977
0.004691747001204263 0.05431222915649415 0.19554391909487437 0.15931857181012757
0.005720414915731566 0.05431222915649414 0.23953755479050381 0.11919463656820832
0.013947492304393825 0.05431222915649414 0.07642062636637326 0.12020842973644336
0.0288959261320784 0.05431222915649414 0.0003390196317245208 0.16704211114823556
0.018198434896497806 0.05431222915649414 0.19511041995776035 0.203251793794998
0.0057598797231593075 0.05431222915649414 0.08818329527359282 0.12971244364870715
0.013587366703889322 0.05431222915649414 0.33423220966660644 0.16592224324290566
0.01627598876198654 0.05431222915649414 0.18365583568823943 0.20124061087103587
0.00803525340015662 0.05431222915649414 0.5265022953045266 0.18126747363729404
0.02243746340071191 0.05431222915649414 0.12071991799553786 0.137709304758449
0.00653125089405533 0.05431222915649414 0.020250933239261755 0.1413191530757845
0.021113368142902916 0.05431222915649414 0.22544058702312061 0.18225480126081642
0.022234612074448823 0.05431222915649414 0.16960101100397504 0.1406136187467463
0.015466512438720036 0.05431222915649414 0.2804998201455433 0.17178630230483546
0.014901482905058258 0.05431222915649414 0.2957324397118988 0.15736233950324655
0.005940500529371074 0.05431222915649414 0.5641656600509651 0.12496779884865108
0.008605690180590583 0.05431222915649414 0.17399537554559388 0.15308904605963977
0.01443919269983781 0.05431222915649414 0.4457076359371601 0.1874231613382234
0.004726410787193775 0.054312229156494134 0.49491435912748255 0.13519575747127072
0.018044039970646013 0.05431222915649414 0.13230456257416676 0.12717546114254155
0.014710048039973212 0.05431222915649414 0.3210579328136083 0.1473498932138261
0.016010519841901345 0.05431222915649414 0.3737568031582833 0.16274643927489857
0.018471636594133076 0.05431222915649414 0.010738350153032896 0.2238923656228647
0.017420576855082706 0.05431222915649414 0.058049060909477784 0.17283792565913908
0.007863037908053056 0.05431222915649414 0.3511923099428964 0.14183104565958432
0.027535958537406986 0.05431222915649414 0.04831898724186551 0.1806932755804207
0.025212666217236234 0.05431222915649414 0.09066172807623585 0.17993480849277577
0.007882185605605687 0.054312229156494134 0.45616720258074245 0.11939308200814358
0.0212842900654103 0.05431222915649414 0.2510773075562163 0.20954758915505323
0.017965815215804568 0.05431222915649414 0.15531399496336062 0.1571449880668849
0.00495362651089225 0.05431222915649414 0.591652416053805 0.09686086788876822
0.0065024218247677935 0.05431222915649414 0.06595484306074523 0.13400419534949118
0.01219618226537561 0.05431222915649414 0.38552079431539604 0.13184469214335295
0.023613049314249544 0.05431222915649414 0.07059928222722514 0.1576787709227139
0.010018825796387206 0.05431222915649415 0.10537463889720189 0.14764586573437344
0.012343287282150013 0.05431222915649414 0.14579658555001246 0.18465631613110628
0.02101981108187536 0.034400194539114436 9.46332625062496e-05 0.17043560241591574
0.01426020166289557 0.046021684962915456 9.46332625062496e-05 0.22289826358866427
0.022711010778475274 0.005926292604917886 9.46332625062496e-05 0.2580369790494318
0.02085431922263364 0.018524993617625555 9.46332625062496e-05 0.16186475574271575
0.009894974986581326 1.3411478400230408 0.4465355073505297 0.15347949136125322
0.0070995122184633625 1.3411478400230408 0.09248853973115889 0.1731421521367249
0.008003561417354178 1.3411478400230405 0.13165268266649177 0.1518510723716358
0.005514593519736873 1.3411478400230408 0.3856666579761697 0.11897374102395193
0.010372183402794282 1.3411478400230408 0.5310443071037676 0.12183054508842164
0.005179002868271777 1.3411478400230408 0.5960685382034616 0.11693095758682927
0.020371701875187744 1.3411478400230408 0.6067924761055258 0.10921574412428305
0.026479598521290133 1.3411478400230405 0.6174642682756494 0.1553855604367647
0.022096442083125133 1.3411478400230408 0.516938749020894 0.13570744951818714
0.006877085976453118 1.3411478400230408 0.42446435115829745 0.11871424029533546
0.033869262675722864 1.3411478400230408 0.6589882307820867 0.18892419249977974
0.022046599439245692 1.3411478400230408 0.4655171963341195 0.17531047902918362
0.01492449113818659 1.341147840023041 0.24170842645668908 0.20390862226762635
0.022158922182358615 1.341147840023041 0.5053118002755694 0.14275027457060033
0.006177226526703796 1.3411478400230408 0.06029529989297071 0.1047439128259344
0.009988361707045772 1.3411478400230408 0.5768498658289039 0.13726153758533652
0.013281540580250906 1.3411478400230408 0.3757465773682147 0.15963439302970284
0.02274915485282616 1.3411478400230408 0.5658519373120647 0.17009697698543785
0.021652264878697806 1.3411478400230408 0.41340100861184287 0.18622946357698794
0.005664150658887768 1.3411478400230408 0.29628931653674584 0.09467399189351121
0.01871071059585538 1.3411478400230408 0.48210142343722473 0.14245975872353434
0.024012082862729912 1.3411478400230408 0.43732714816677554 0.14865249642973993
0.006822303341063568 1.3411478400230408 0.6087496959426193 0.12526832027237852
0.012608680897495554 1.3411478400230408 0.45757862169922053 0.17639987680504451
0.013394589106676718 1.3411478400230408 0.4040406803777805 0.1692979249932922
0.014852110782685217 1.3411478400230408 0.6647424266029084 0.2048701114182107
0.029498814736884003 1.3411478400230408 0.5856877328307415 0.16038626119109575
0.006490310370173046 1.3411478400230408 0.2747283321329388 0.15168850601982478
0.008619247351419822 1.3411478400230408 0.6534016538417378 0.2120241219679486
0.007729513698431508 1.3411478400230408 0.11483027001934684 0.18522284259414068
0.020670559865258984 1.3411478400230408 0.6396399993212012 0.1697316748672547
0.015528277233297512 1.3411478400230408 0.34956128845374246 0.1612014483572998
0.018714837372514174 1.3411478400230408 0.6276045289302583 0.1440034085210496
0.005230642791351652 1.3411478400230408 0.26221685125435873 0.13595641081812607
0.01306203604414574 1.3411478400230405 0.22733238919931276 0.15943198384443857
0.004718161119717416 1.3411478400230408 0.411906091545494 0.10691266050329322
0.022585253046715367 1.3411478400230408 0.5289116459295576 0.14915631836004337
0.008809228793035962 1.341147840023041 0.6209842329289026 0.1352236341554763
0.02488575955216611 1.3411478400230408 0.554034869850523 0.18848313593946855
0.005291845187214705 1.3411478400230408 0.6422997979150603 0.11698313424869528
0.011033521217985849 1.3411478400230408 0.309696472484707 0.13460374474606077
0.005461802727425553 1.3411478400230408 0.5557073028629348 0.11466423028244646
0.017556418156785113 1.3411478400230408 0.4272241322465361 0.17695189612876727
0.0045933954070139175 1.3411478400230408 0.16729035945253246 0.12523524231700706
0.010214009684791775 1.3411478400230408 0.211181578703034 0.12124388623038307
0.025705365949052657 1.341147840023041 0.3729742176538121 0.151624787971758
0.03338453962227675 1.3411478400230408 0.631673120717422 0.15300562132958628
0.018707362860023908 1.3411478400230408 0.039463932790556266 0.18464011877358258
0.02185185752348604 1.3411478400230408 0.30209395854961685 0.16096023159920927
0.02502555513169559 1.3411478400230408 0.33290395063835077 0.14141555175106502
0.02407205889350904 1.3411478400230408 0.3169297098212916 0.18276738144886823
0.016361957794301475 1.3411478400230408 0.052611543123420264 0.16015632376697186
0.0219256663976924 1.3411478400230408 0.1886873146186246 0.1645836598795464
0.02098366494558882 1.3411478400230408 0.09164066668838766 0.1967629863677738
0.023520835072173184 1.3411478400230408 0.21642376239652855 0.155539844364962
0.027227854916151022 1.3411478400230408 0.49316187034725517 0.14855432487885378
0.03145206903065039 1.341147840023041 0.20800696250056813 0.13542368656488984
0.023460817694105147 1.3411478400230408 0.14577242952967856 0.1410027270747067
0.01086344461438734 1.3411478400230405 0.03140286115654455 0.14356272173713974
0.02153165222974775 1.3411478400230408 0.2505218668177744 0.17516265497885464
0.02723568910957574 1.3411478400230408 0.28786756601200253 0.14710255091553062
0.028714900026865796 1.3411478400230408 0.3976975541266657 0.13999390602301545
0.027000941846023963 1.3411478400230408 0.1193847882930851 0.1573637114893052
0.02127169455411991 1.3411478400230408 0.06710191525791055 0.15067107105722985
0.027206599367918506 1.3411478400230408 0.26438333754947907 0.14314955450267255
0.01783862528227962 1.3411478400230408 0.2704916531276533 0.1713380869038231
0.016553504664809093 1.3411478400230408 0.17103235733635097 0.16459488655899931
0.023721629602141817 1.3411478400230408 0.10274250753839519 0.15063943760112833
0.021463496459417888 1.3411478400230408 0.13057760924374218 0.17194771128335992
0.0233051269824249 1.3411478400230408 0.16146210114862072 0.17396411730930877
0.006287455020274869 1.3411478400230408 0.011548596853063782 0.12912041695105123
0.030392119760078506 1.3411478400230408 0.013243064371677578 0.14810310257355122
0.030942869743699912 1.3411478400230408 0.17711740781057508 0.16618492786245606
0.02630620130971325 1.3411478400230408 0.38407484826265714 0.15353273304195628
0.03354900355664417 1.3411478400230408 0.4823040116245636 0.12125836142327896
0.028021369091384706 1.3411478400230408 0.4509905385522835 0.14667326800497535
0.009844341304962428 1.3411478400230408 0.08014544109066912 0.18335561605451928
0.033942353774132336 1.3411478400230408 0.5968033997892436 0.1669231459095901
0.03363273418348247 1.3411478400230408 0.19123266322345372 0.1510100153071169
0.01809075256161198 1.3411478400230408 0.019610176627557943 0.17338181647485565
0.010914687103487286 1.3424656303188032 9.46332625062496e-05 0.11893437038627007
0.025633311737209397 1.3519599054625522 9.46332625062496e-05 0.18903854139073156
0.005609109996531967 1.364376312165378 9.46332625062496e-05 0.13651878442417395
0.017244366739353926 1.3631584195378992 9.46332625062496e-05 0.17752705245672679
0.027596421015300892 1.3734351936628606 9.46332625062496e-05 0.16172593331575075
0.01577470785332635 1.3744090677651752 9.46332625062496e-05 0.17437446537013834
0.005684390276663024 1.390757203102112 0.15601068959667005 0.13628331845119174
0.016365591793511245 1.3907572031021118 0.042536345957543686 0.15925186545325723
0.021991483359811975 1.3907572031021118 0.0308259442578736 0.13343777569766613
0.013474604785520216 1.3907572031021118 0.17248401052627932 0.17302042931310102
0.015284596366283605 1.3907572031021118 0.08355716798183227 0.17621156242478767
0.0122615780041194 1.3907572031021118 0.06855620570520782 0.11483897719331392
0.015821695175877306 1.3907572031021118 0.36385061324456225 0.12824099827290555
0.0076637735187814835 1.3907572031021116 0.5126747153846349 0.11627027316477502
0.006761802095632362 1.3907572031021118 0.665930298585129 0.15254290081966962
0.012695618736656894 1.390757203102112 0.33445629967927515 0.17478297768446438
0.006711096878626416 1.3907572031021118 0.5551502243080546 0.16398817616003997
0.008948788596632791 1.390757203102112 0.28942919856694527 0.14702331157528808
0.016028784977779084 1.3907572031021118 0.43118452139133095 0.18504015517617256
0.021231005327583586 1.3907572031021118 0.10647751455790562 0.13517587738211698
0.025622396307369417 1.3907572031021118 0.13074312989554904 0.1510208069876306
0.017433903174854198 1.3907572031021118 0.001601908206830837 0.1878483634404571
0.019353481036093356 1.3907572031021118 0.19090382393660307 0.1843852387939393
0.023188448484314932 1.3907572031021118 0.2128804377869362 0.17746436003437485
0.019648924248271846 1.3907572031021118 0.2775571487068389 0.13782303482337901
0.016684949061067517 1.3907572031021118 0.012439156748661001 0.17262491801440114
0.022375908050958293 1.3907572031021118 0.23786434327277234 0.15854601108542685
0.006993852396024472 1.3907572031021118 0.3182726117699201 0.14500259521235523
0.011769588637481884 1.3907572031021118 0.37630517399953245 0.12881207973222925
0.021214868385503963 1.3907572031021118 0.057511915078927306 0.14067860514562144
0.005519759664462967 1.3907572031021118 0.6042102908619499 0.1293221866328487
0.006550874568524643 1.390757203102112 0.09197593144241707 0.124248490634212
0.00947319602719961 1.3907572031021118 0.5389904978949024 0.12139036130269397
0.008945013789329109 1.3907572031021118 0.21508001716195857 0.15349267323147028
0.026019090155867 1.3907572031021118 0.14197996682184966 0.15423951301882252
0.01997283577628772 1.3907572031021118 0.16248941380047613 0.18706026774197448
0.02471177498996743 1.3907572031021118 0.17982532567730267 0.18713209743268716
0.013153683174584756 1.3907572031021118 0.2621187031949117 0.128927371480499
0.014799328159910516 1.3907572031021118 0.4114206237878097 0.12323702399933426
0.006113063057074569 1.3907572031021116 0.05675380553544044 0.15644082287981925
0.005488675251383438 1.3907572031021118 0.1033334568493225 0.15080366863903413
0.010227306070427428 1.3907572031021118 0.4445117256024418 0.12740348092629208
0.006305221101075988 1.3907572031021118 0.49977577615333585 0.12859657456861984
0.030299059334918742 1.3907572031021118 0.018154636702919454 0.1610702933054064
0.032560257955530136 1.3907572031021118 0.10257402989562502 0.15013235310482334
0.025603546289079297 1.3907572031021118 0.3032758059541473 0.13624347590337532
0.024629598400583156 1.3907572031021118 0.47362591758245043 0.15240011441179893
0.024634866576227352 1.3907572031021118 0.3439642259120042 0.15598080784959956
0.0321771573349524 1.3907572031021118 0.19431941796381905 0.12144404084750526
0.034147406348899186 1.3907572031021116 0.5692926975274745 0.11876672420067118
0.01440194344129595 1.3907572031021118 0.4819850975401946 0.14576055559184217
0.022051622689316326 1.3907572031021118 0.5133376064138047 0.18368880931261386
0.021948858486464055 1.3907572031021118 0.6698501346397925 0.17103508377358084
0.024635616094009872 1.3907572031021118 0.3251358394324199 0.16436279393072767
0.027614711712078528 1.3907572031021118 0.6586694367700731 0.12932435725564886
0.023579475563993552 1.3907572031021118 0.5753011809559456 0.1547094663961923
0.027804004147852696 1.3907572031021118 0.36017402563212064 0.13855961145201284
0.01741033516762181 1.3907572031021118 0.5023390608860688 0.16957225328423756
0.009903197564315503 1.3907572031021116 0.6451791228062986 0.16014932664744888
0.03280067099428106 1.3907572031021118 0.11753261551998027 0.13591274350400545
0.011358300388863174 1.390757203102112 0.7108365512967691 0.1835633913846626
0.03279369410449369 1.3907572031021118 0.5101576282093342 0.12982015245273368
0.020339789536020413 1.3907572031021118 0.3991297706424106 0.1740721265724724
0.03291600194326176 1.3907572031021118 0.26136096963960304 0.15974053046644038
0.019891932673983367 1.3907572031021118 0.6075893775548505 0.11568027507033249
0.028220953236913156 1.3907572031021118 0.4104142091044504 0.1718400842656019
0.030736294719741385 1.3907572031021118 0.5347381326182619 0.11213070840092526
0.026110724739526116 1.3907572031021118 0.4246865755692076 0.18447457453130736
0.03260512454535594 1.3907572031021118 0.6105779908823701 0.15475747176649074
0.017766872393473482 1.3907572031021116 0.593344348432367 0.13067386524149757
0.03282791829496226 1.3907572031021118 0.5580578645686216 0.15470203988092382
0.022347681594233677 1.3907572031021118 0.3845259337743238 0.18269147131727262
0.02379624641267168 1.3907572031021118 0.2895978919591691 0.14795343710923795
0.03086112885794393 1.3907572031021118 0.16859721948717973 0.15471760641193133
0.022238250627316356 1.3907572031021118 0.6389128236822017 0.1547124945440898
0.019276966860870236 1.3907572031021118 0.5637822461829666 0.16378139210984144
0.029879957707240702 1.3907572031021118 0.49585754473425053 0.14890759645257984
0.028249388878395853 1.3907572031021118 0.438233601751803 0.15569627472627895
0.02323094732103908 1.3907572031021116 0.7112681333457295 0.18133042754860243
0.02092920403928361 1.390757203102112 0.6189568191642781 0.15663194600786504
0.01799144968673455 1.3907572031021118 0.6901959621747139 0.14632267040541286
0.012984714519442907 1.3907572031021118 0.6272464249045316 0.13296326617478565
0.018786189377403867 1.3907572031021118 0.5317253965189737 0.1291010009035922
0.015851013893770118 1.3907572031021118 0.4657519533786299 0.18511580869904
0.015023059266816782 1.3907572031021118 0.6785384254247532 0.16565798321469072
0.02129954301273981 1.3721834707110023 0.7192695876219659 0.27578316308558154
0.02804750630179092 1.3568291687580132 0.7192695876219659 0.2721536400523253
0.014560466486081775 1.2984546671247532 0.7192695876219659 0.23489417744149582
0.031365257980773546 0.5213265191777688 0.7192695876219659 0.24506674747775326
0.03035141669163617 0.8237481976404987 0.7192695876219659 0.23226804283843938
0.02043770613345564 0.8298542167111262 0.7192695876219659 0.26832773867431015
0.015625214683997544 1.283610769491125 0.7192695876219659 0.23733566671673012
0.016241974650824435 1.2340053792845085 0.7192695876219659 0.2654735401866678
0.03302642473464843 0.476864433457679 0.7192695876219659 0.25773810578257556
0.03103143718842539 1.093404114004988 0.7192695876219659 0.23525069745611693
0.01900780763164152 0.8987415122641089 0.7192695876219659 0.26434755995376197
0.027744581251485694 0.5853668420069118 0.7192695876219659 0.2752893685396228
0.02348926693228489 1.2513746959847558 0.7192695876219659 0.30546615079086625
0.034206898288383095 0.6209255520935659 0.7192695876219659 0.27081798398679896
0.031126389704057723 1.1907868077250046 0.719269587621966 0.26410186149918424
0.03402569676580339 1.0517895421603642 0.7192695876219659 0.22786154042282136
0.030884023499313882 0.4611634129202049 0.7192695876219659 0.3097052059548584
0.02778327777814859 1.1456236981278964 0.7192695876219659 0.2573449749295765
0.03196575652723043 1.032278219179822 0.7192695876219659 0.24236192784529956
0.009350106422431451 1.323424408369918 0.7192695876219659 0.20257070941524977
0.0193954507260478 0.8833383148527535 0.7192695876219659 0.3008248168161281
0.013014505448544572 1.3452239393808494 0.7192695876219659 0.22268388520349594
0.020073904636897948 1.1361254114048502 0.7192695876219659 0.24795655347818013
0.023346960108649846 1.022011788150429 0.7192695876219659 0.2584358913466363
0.005820138430936269 1.3823117008646886 0.7192695876219659 0.19989751528974478
0.032501590934595745 0.798669089229942 0.7192695876219659 0.2314865982100112
0.021146645285817608 1.1556255362038375 0.7192695876219659 0.2661334321616409
0.03019977105199203 0.6582295071786592 0.7192695876219659 0.24780953662209831
0.03398637745587097 0.8367257921454166 0.7192695876219659 0.2040019079019948
0.018816595192191733 0.930140997246335 0.7192695876219659 0.2508302786783008
0.02447122506002132 0.8710025262137456 0.7192695876219659 0.24005293796288377
0.01868898260748282 1.3340276728344613 0.7192695876219659 0.2508377790893826
0.028422589737436527 0.7408749426071679 0.7192695876219659 0.23536447526139967
0.030063781793945386 1.2248208267020289 0.7192695876219659 0.26595132867740623
0.03335926087697567 1.2132209895983057 0.7192695876219659 0.2578256257815325
0.022716651081057155 1.0492924489827369 0.7192695876219659 0.24391551159404753
0.025541778503417864 0.7269717716575528 0.7192695876219659 0.23877794769312313
0.031607045165821135 0.4298676089328286 0.719269587621966 0.25759606395530404
0.03193753434427378 0.5082811043288012 0.7192695876219659 0.26577275964939656
0.023088819830169777 1.0076760772180413 0.7192695876219659 0.2620411856848027
0.02112715220731955 0.9664444906067193 0.7192695876219659 0.26569861836511854
0.0313856402812974 0.9027896155803529 0.7192695876219659 0.28005262049634694
0.03168760104064463 0.765695965832928 0.7192695876219659 0.24373792456458185
0.03269737269184497 1.1338779951873972 0.7192695876219659 0.27015095468172534
0.024281248481348366 1.084451475906371 0.7192695876219659 0.22195323731440442
0.02386310891925613 0.5722241196083331 0.7192695876219659 0.25874218717162806
0.02905986803039306 1.309880073938537 0.7192695876219659 0.276289712039535
0.027425958013844457 1.2899139279932914 0.7192695876219659 0.2762798773357291
0.030536896599669072 0.393774903067289 0.7192695876219659 0.2784576847483636
0.01659883449354164 1.2021980132625365 0.7192695876219659 0.2750542943492992
0.02604142993578777 0.8549997832064683 0.7192695876219659 0.2775751109095472
0.02608511215007893 0.5999774746734752 0.7192695876219659 0.2732187616225376
0.018920459336985586 0.7946406923224598 0.7192695876219659 0.27595486137713904
0.03257965703965715 0.8900953262306488 0.7192695876219659 0.25437875939003496
0.024388149315824392 0.9814074728909457 0.7192695876219659 0.24719786455802467
0.030782721549479926 0.7098953669419477 0.7192695876219659 0.24941815677889417
0.02517118159754596 1.3242642967277887 0.7192695876219659 0.2694308467695904
0.019841452122212937 1.1133079947270526 0.7192695876219659 0.2734287350791729
0.03187378289224058 1.1118993608371324 0.7192695876219659 0.23940100784368015
0.029305093185347235 0.5438256707017325 0.7192695876219659 0.22183571265785013
0.03147805525315704 0.6707910598799617 0.7192695876219659 0.20147568079634426
0.02368016721491747 0.6956896812901445 0.719269587621966 0.23891481256662683
0.014531010069622924 1.0316961416253758 0.7192695876219658 0.27342829977912425
0.019121006495650354 1.1910847695032816 0.7192695876219659 0.26958163549157
0.029169101134987566 1.2392637974172525 0.7192695876219659 0.23325672017691318
0.033301190093991385 0.32504270381808775 0.7192695876219658 0.25364310560755127
0.011419768671967798 1.1676094385272893 0.7192695876219659 0.19611748757126227
0.032195560609256414 0.9977542230443146 0.7192695876219659 0.242906247306801
0.03286404780338341 0.5630731120149712 0.7192695876219659 0.266630959431174
0.018569741487799742 1.0941807084206236 0.7192695876219659 0.23738578831842946
0.023748001142194223 1.0670139349275145 0.7192695876219659 0.20208453081886557
0.01549834685093272 1.2639095503317201 0.7192695876219659 0.2535703371280767
0.03205435345300805 0.9155643514953419 0.7192695876219659 0.26216642506370946
0.019798655943282336 0.8099497797639451 0.7192695876219659 0.22568168438146916
0.01746209106736395 0.9553057140034957 0.7192695876219659 0.25913774599627776
0.03091364499226818 0.7530416010189143 0.7192695876219659 0.26655412750023916
0.0053660132763994695 0.7373021091945435 0.7192695876219659 0.19331930339968345
0.01148290328345911 0.17229383436380943 0.7192695876219659 0.23759778828002812
0.019275030135457387 0.18327416051857204 0.7192695876219659 0.28676532561260115
0.008972378430243991 0.9628165949703595 0.7192695876219659 0.21681972570919672
0.0053261781361474 1.2554875043675735 0.7192695876219658 0.162840801114334
0.022587418722108378 0.15672126913868795 0.7192695876219659 0.24235433901164302
0.005757719972909285 0.252826334818952 0.7192695876219658 0.17523399899164907
0.012993349089202943 0.34858998593711954 0.7192695876219659 0.22159190581058666
0.01673279823028244 0.7156395575469212 0.7192695876219659 0.2618288332007551
0.006242188287743734 1.2734813989829585 0.7192695876219659 0.20408949463981332
0.005328606127910441 1.3075006663873239 0.7192695876219658 0.19908992305886797
0.020353159018769825 0.6433953363061975 0.7192695876219659 0.26563826924032197
0.004807780161378408 0.04931218213830312 0.7192695876219659 0.19222247655126248
0.01673562210546318 0.73663140043733 0.7192695876219659 0.2835712950333543
0.004631027962954001 0.31447090196684985 0.7192695876219659 0.151630193881653
0.005847342702833154 0.2854821671517585 0.7192695876219658 0.16738521982345206
0.008440600300354574 1.0502438619374708 0.7192695876219659 0.21791099485759308
0.0047007715397770706 0.6852810113251333 0.7192695876219659 0.2177109997623413
0.008880116221317461 0.07624929971282167 0.7192695876219659 0.20708573901147614
0.025735054838958684 0.30246556816645154 0.7192695876219659 0.22832683417514354
0.01751775562526996 0.749578082809557 0.7192695876219659 0.25828155630691035
0.015105359325321201 0.1465719024560098 0.7192695876219659 0.26555879439483426
0.007566540473022217 0.43305396658054834 0.7192695876219659 0.19343514017265825
0.009307603889152121 1.0058670069960185 0.7192695876219659 0.200418102715129
0.012525332259700615 0.5062306849733929 0.7192695876219659 0.20050510931358348
0.012664475228996577 0.6107711554210777 0.7192695876219658 0.2525972437435781
0.018202449163670975 0.4014444209048767 0.7192695876219659 0.2322447774495644
0.017587526467076113 0.20769457720157553 0.7192695876219659 0.2697522059251901
0.029545271461225996 0.1720558952267756 0.7192695876219659 0.2510083156339531
0.013875557285601739 0.8491418390372147 0.7192695876219659 0.25806579633418075
0.015128706457524243 0.7774790028233539 0.7192695876219659 0.26885643712287277
0.023106577225542723 0.37272630025850995 0.7192695876219659 0.28296098683691806
0.00613145020187061 0.16119370742539496 0.7192695876219659 0.17606745174353144
0.005591134617682132 0.8884552137834044 0.7192695876219659 0.15394313873518292
0.02721094822232473 0.25261635102640734 0.7192695876219659 0.2669826657242231
0.021633106745577294 0.38482693510756305 0.7192695876219659 0.2857621475901421
0.005128288673738028 0.8676577194739029 0.7192695876219658 0.15685977066332987
0.018671891168647 0.4331138532321305 0.7192695876219659 0.27969005280325326
0.007777034553457216 0.23178501248252956 0.7192695876219659 0.21089034331734346
0.015784294741396088 0.6752721279207232 0.7192695876219659 0.27343530267951677
0.015616933937383556 0.23947855019306657 0.7192695876219659 0.2660715373903581
0.007759638908537599 1.1413106682701866 0.7192695876219659 0.21345851337747476
0.017968953811077708 0.7643310667871339 0.7192695876219659 0.276820041915806
0.01991511747923256 0.5555630074642748 0.7192695876219659 0.28419643237396264
0.02509325847107701 0.10908905697782481 0.7192695876219659 0.27087730855796877
0.018133723513207457 0.4573360823641302 0.7192695876219659 0.2804495935843479
0.010703474984650824 0.4794570271761113 0.7192695876219659 0.18652263467281846
0.007483367735062056 1.2431131146818732 0.7192695876219658 0.16394229781515993
0.027962536604172902 0.13762462496852323 0.7192695876219659 0.2630209062766283
0.005290869029865973 0.12810537905834185 0.7192695876219658 0.1880055432134065
0.007602380541254877 0.9401329198779126 0.7192695876219659 0.19431647695009244
0.019785675759657402 0.5270305980662187 0.7192695876219659 0.2625892969134355
0.005952121667001361 0.4650159701199464 0.7192695876219659 0.15866844398902819
0.007270335436409833 1.1009267143520203 0.7192695876219659 0.17418556748739877
0.016169546992781423 0.5876711756659201 0.7192695876219659 0.268506489582141
0.01467916111104659 0.6567675610526669 0.7192695876219659 0.256260878352062
0.005795632466149451 1.1184954500394206 0.7192695876219658 0.1710780621343702
0.017029218480572948 0.28934774136274916 0.7192695876219659 0.23891997862113729
0.006047045491398718 1.0789595726790953 0.7192695876219659 0.16231127179912033
0.008798322621373481 0.8183729275607589 0.7192695876219659 0.1895572793444135
0.015795843278280392 0.09581279850666348 0.7192695876219658 0.20744861880817975
0.0124501630668859 0.10897501195163833 0.7192695876219659 0.22225557095254544
0.025134252619974984 0.4917872251466571 0.7192695876219659 0.28422454663479624
0.006301291839515995 0.2172457334959922 0.719269587621966 0.1817481546037866
0.021453440931690784 0.6190786943861571 0.7192695876219659 0.27343628573766665
0.02110843539807021 0.5146090791717235 0.7192695876219659 0.2747538659369348
0.016807631314217638 0.06465926150497175 0.7192695876219659 0.23102550565705754
0.01379494862736676 0.9841803858050383 0.7192695876219659 0.2211907690206547
0.009299294618095182 1.1533236587865077 0.7192695876219659 0.21067524192095388
0.01594228342110471 0.277244602745259 0.7192695876219659 0.24445728186364735
0.02846303095864365 0.19567825720815865 0.7192695876219659 0.270073939689653
0.01502925400961578 0.12221848091177961 0.7192695876219659 0.2441117170782086
0.008878843900208617 0.37650273529807393 0.7192695876219659 0.1810316238057408
0.010754326207779583 0.5765651718430058 0.7192695876219659 0.21144919538225035
0.015729447462499407 0.2613645479000616 0.719269587621966 0.2632438630521328
0.010551031305542793 0.44585859551009827 0.7192695876219659 0.19196754406333225
0.014142499494549907 0.41343666620690994 0.7192695876219659 0.20482324206930802
0.019789507775369045 0.32286489976345084 0.7192695876219659 0.24609387693379914
0.009442545196966447 0.8047063196639731 0.7192695876219659 0.1809070980469665
0.0051643661423120026 1.2891734503293255 0.7192695876219659 0.19441344568449495
0.005233906967818065 0.6645290951832528 0.719269587621966 0.21014804071410959
0.02702551348977273 0.12342969956973612 0.7192695876219659 0.2886001979706368
0.02111479684825433 0.3392626307550594 0.7192695876219659 0.2592270479298026
0.008495331770444498 0.9244749295174342 0.7192695876219659 0.18013006442374116
0.02244104842289131 0.35984131044912926 0.7192695876219659 0.2608855337369273
0.012789055976995447 0.5381695159180822 0.7192695876219659 0.20617020977615205
0.00526754552265484 0.5873615632091226 0.7192695876219659 0.19336823741826234
0.012497639113829203 0.49289100946334247 0.7192695876219659 0.22165332219383455
0.007738694506790398 0.9045538776065807 0.7192695876219659 0.1705727211506283
0.03544165090606917 0.20813244887082516 0.7192695876219659 0.2735700851055493
0.04549498813384415 0.21366086933246647 0.7192695876219659 0.30589128655760933
0.04979458938615933 0.18249041155055687 0.7192695876219659 0.2559771337401691
0.04484072540612037 0.3483714100766793 0.7192695876219659 0.2524311582291889
0.04084670279149907 0.7352152436144758 0.7192695876219659 0.2873023533620243
0.047551288717453156 0.4633385893068106 0.7192695876219658 0.30070947808623477
0.036053846719644345 0.8748246029890656 0.7192695876219659 0.2555636117780459
0.038969505927253484 0.3045192404630679 0.7192695876219659 0.25437116816976646
0.04038958396214529 0.6475670292436636 0.7192695876219659 0.24397952672947248
0.04266801444947738 0.6740213227642831 0.7192695876219658 0.2396159424314249
0.035427036192705146 0.49601826599627286 0.7192695876219659 0.2484152868393001
0.0347880790204354 0.6847840243872467 0.7192695876219659 0.24749345316241708
0.03628114048503592 0.9415096585476055 0.7192695876219659 0.287882429568395
0.045385386525926455 0.5639625391615805 0.719269587621966 0.26992963965994776
0.03503774055481271 0.38198113290591235 0.7192695876219659 0.25879656817811486
0.03562143889447099 0.3603004507718496 0.7192695876219658 0.2537764146358623
0.0421041234943393 0.16902746710389624 0.7192695876219659 0.2925995892167264
0.043234857116763004 0.5991141171949507 0.7192695876219659 0.2619538713090026
0.03702378277937335 0.8594942749142477 0.7192695876219659 0.256989128089755
0.03827178596932936 0.9876995840859226 0.7192695876219658 0.22788885692018673
0.034806791436645994 0.9691696318391946 0.719269587621966 0.2400441407221267
0.034411119348860666 0.40631701867983827 0.7192695876219659 0.24466594268682706
0.044983674037704806 0.23177063062518088 0.7192695876219659 0.26701900293554054
0.04258956847488048 0.7606970210185005 0.7192695876219659 0.2490617268552339
0.03725291963169046 1.063087667241228 0.7192695876219659 0.2380466754541842
0.03455822329994638 0.29107489092481137 0.7192695876219659 0.1976277458798356
0.04213017392657578 0.4163644795123683 0.7192695876219659 0.21644488541046297
0.04018343673376931 0.5331773830177194 0.7192695876219659 0.26310460664582763
0.03941297952767904 0.9288542867363214 0.7192695876219659 0.2996976663993762
0.04184897493002773 0.25595072584355083 0.7192695876219659 0.2558784038807352
0.04235951183431167 0.33170537744617584 0.7192695876219659 0.26434100930461646
0.03739504443887405 0.6319934335275013 0.7192695876219659 0.2460199873499374
0.04304844367450856 0.39228407149452654 0.7192695876219659 0.2900003020730776
0.03497669585459131 0.44987496939533644 0.7192695876219659 0.25997631731973564
0.03554021108057281 0.15229170019826221 0.7192695876219659 0.26718818158799695
0.038793858831104644 0.2683692843803838 0.7192695876219659 0.2177785403441107
0.03538811889876669 1.0196593093677004 0.7192695876219659 0.24729503426282826
0.03555322196875756 0.8104477926174785 0.7192695876219658 0.24037477793904585
0.03987533104690977 0.6098460104685147 0.7192695876219659 0.25803909255853663
0.043178329305183706 0.5866265577904154 0.7192695876219659 0.25721730543187804
0.039067886975584054 0.5529519655384652 0.7192695876219659 0.26147732375079946
0.03586066599336668 0.23941301943214166 0.719269587621966 0.25020762061142365
0.037073741295969576 0.6988632543122578 0.7192695876219659 0.28136376244826145
0.040369085236799815 0.7891804234842977 0.7192695876219659 0.2691203748354165
0.0458502850752211 0.31665775686358927 0.7192695876219659 0.2824742404042624
0.037582942037494106 1.1588654047622091 0.7192695876219659 0.26991575831520526
0.05010074861044675 0.3666173069669354 0.7192695876219659 0.26717853714232404
0.04443027053982724 0.8463349224974216 0.7192695876219659 0.2629632746999678
0.04348892755806498 0.7762145811673776 0.7192695876219659 0.2613788826591513
0.04892603662224335 0.42635820256000784 0.7192695876219659 0.2766033596665149
0.05134230111161985 0.4385839350830329 0.7192695876219659 0.26136582846653766
0.04191133830202729 1.1700540214828539 0.7192695876219659 0.2836101927017604
0.03981742396640805 1.1205477582677592 0.7192695876219659 0.26129810254451924
0.051764341748862554 0.6938784958513889 0.7192695876219659 0.2796549158131159
0.04572132748573848 1.1370612016178485 0.7192695876219659 0.2849509824726056
0.04810778899336431 0.8212202885843856 0.7192695876219659 0.23597602134044568
0.05187693169217169 1.1216027452344148 0.7192695876219659 0.24846504229294772
0.05080950120165943 1.1001082792256978 0.719269587621966 0.24325311300703595
0.04832400407722146 1.2087823293773552 0.719269587621966 0.2730505746463151
0.051801066169944454 0.656771296775305 0.7192695876219659 0.2330784423822464
0.05108325615170337 0.722378361327043 0.7192695876219659 0.2353312895147147
0.042343407035559666 1.0359786698347953 0.7192695876219659 0.2500326392248249
0.05029751493899638 1.0469135870606157 0.7192695876219659 0.2642378307749389
0.049597558622113236 0.8755688818499517 0.7192695876219659 0.3074673576141838
0.03953273999546358 1.0840623820948683 0.7192695876219659 0.27060261290641235
0.050300261303588896 0.49794334689952235 0.7192695876219659 0.28395660446228876
0.04984935315987594 1.061643712351483 0.7192695876219659 0.23583011126523185
0.04871511597230174 0.6348084231090438 0.7192695876219659 0.26045563030484353
0.05217903940006002 1.0259517664128623 0.7192695876219659 0.27431855539753636
0.05169524618525492 0.5742151534732676 0.7192695876219659 0.266032867114888
0.046447546529880535 0.7074150678928445 0.7192695876219659 0.27290924575388903
0.04761889501968984 0.6199803481655686 0.7192695876219659 0.21405202132089524
0.04013401428664973 1.1823943842505147 0.7192695876219659 0.28527664186952933
0.03868782232998954 1.2512115843637295 0.7192695876219659 0.2569071319452716
0.03899644448349997 1.2805250064750682 0.7192695876219659 0.28662013381002494
0.04117458975090642 0.9584440564592357 0.7192695876219659 0.26799497770153374
0.050173765152299696 0.9354291939838765 0.7192695876219659 0.3089485405106118
0.01784664968226461 0.035068637982281825 0.7192695876219659 0.2338708159290032
0.010559313139289008 0.01667138177121551 0.7192695876219659 0.2001816455899304
0.022387281372353737 0.052132832482853206 0.7192695876219659 0.2680687315810959
0.03131542879610496 0.042344693157695686 0.7192695876219659 0.27190647190020156
0.033408852942247665 0.019360732334407584 0.7192695876219659 0.23214764244488267
0.033220278701383124 0.06502013470102874 0.7192695876219659 0.2449780502539763
0.004953525476651445 0.004702866077423096 0.21148331336839923 0.11391896245971735
0.0050023798750310974 0.004702866077423096 0.22502544114332196 0.1415098295500134
0.023039809879246288 0.004702866077423096 0.5362443743168447 0.19965164186937737
0.007137088542414969 0.004702866077423096 0.5238974548498905 0.1593380560884587
0.028505880230000284 0.004702866077423096 0.7017435413216669 0.16029629005190732
0.012999473870830718 0.004702866077423096 0.6958663053858862 0.15374594626245874
0.017544856973167256 0.004702866077423096 0.4911451298637107 0.15736697692259025
0.004995419506551968 0.004702866077423096 0.4074821878067496 0.134950163151879
0.009589633513548208 0.004702866077423095 0.14019762747388537 0.14264387413261842
0.015941153665492223 0.004702866077423096 0.5091503688067882 0.1548594998837474
0.007250981636645826 0.004702866077423096 0.26240845900518034 0.13114223015053364
0.004659498216318676 0.004702866077423096 0.4897865081067033 0.1568815493050052
0.014725053726129322 0.004702866077423096 0.3797345590642415 0.12559500057238934
0.016423947173334383 0.004702866077423095 0.3547021246726779 0.15688501006720063
0.010248726662718194 0.004702866077423097 0.3271039217307752 0.12836751994684387
0.01130052107650466 0.004702866077423095 0.34386447218521776 0.13132891900839566
0.019310166589594717 0.004702866077423096 0.6699464888523923 0.17466887955923374
0.015639229697727457 0.004702866077423096 0.6328885180813735 0.1654263549344869
0.02204092912063074 0.004702866077423096 0.518747505431655 0.1534304906266135
0.007621436633091694 0.004702866077423096 0.11511454695504846 0.14549792800545386
0.013621516396446027 0.004702866077423096 0.28798378849509826 0.12171986872905927
0.02069914687864124 0.004702866077423096 0.7184951118364967 0.21992667919206693
0.013570210500168779 0.004702866077423096 0.25005457181706087 0.13916043707330367
0.01292061753225844 0.004702866077423096 0.5709274706105416 0.1717059483868686
0.024397339722113807 0.004702866077423096 0.5960495707734917 0.16069288437092946
0.0316737131231825 0.004702866077423096 0.6725609373715802 0.14150267408033934
0.02122617873047031 0.004702866077423095 0.5490654167974026 0.2011134905670858
0.015712276368073482 0.004702866077423096 0.4413097267260094 0.17611103129200825
0.019655490523930955 0.004702866077423096 0.4786878588173736 0.1614015460725314
0.01565123459011157 0.004702866077423096 0.4170128655780815 0.16143732163238533
0.005119848685679124 0.004702866077423096 0.18653047456257363 0.12603370023715946
0.0165066460096942 0.004702866077423096 0.3678725828406011 0.13622444219034577
0.009211351759131408 0.004702866077423096 0.2366382429006712 0.12794354773550545
0.010444771760518607 0.004702866077423096 0.6564404888976537 0.14124287022177043
0.022374710074589303 0.004702866077423096 0.6842249152140976 0.12314056180479745
0.010070426035871959 0.004702866077423096 0.454627546697055 0.17188206468981423
0.01798437431525679 0.004702866077423096 0.6190814619495312 0.15852693887758434
0.01742341472665042 0.004702866077423096 0.584893026402977 0.17103528943812404
0.021418180743883533 0.004702866077423096 0.6497650293208094 0.14619683041244444
0.016375407395409963 0.004702866077423096 0.4661325409405407 0.2202880479679161
0.010396718070349236 0.004702866077423096 0.6826975631022298 0.11999911104981065
0.012889417744806352 0.004702866077423096 0.5979418613799485 0.13484218112121243
0.02777346838633181 0.004702866077423096 0.564189181181175 0.19474296617730444
0.0232489959076086 0.004702866077423096 0.6069403510189005 0.15572623564631746
0.015233895097957998 0.004702866077423096 0.05534861114827954 0.14744379576724245
0.020517468311373018 0.004702866077423096 0.24089303701930612 0.16671923304859151
0.030318036566044607 0.004702866077423096 0.5077066073827257 0.14131396335238314
