x y z curv
0.8799178437979225 0.2900181352166926 0.7250005902150178 0.04320587153299225
0.652448781119502 0.57728457746211 0.7250005902150178 0.0444114719669404
0.9427984044187546 0.4859428974975438 0.725000590215018 0.041940817815070745
0.5903544503182705 0.48174869411279037 0.7250005902150178 0.040370745794126764
0.22052282100840268 0.6206791970559501 0.7250005902150178 0.08258427450700208
1.1839641936494818 0.3147532957365098 0.7250005902150178 0.04281404028532525
1.0884468678215689 0.12250697097834597 0.725000590215018 0.04404197288235795
1.1211734256224 0.5867218174594284 0.7250005902150178 0.04171607952867745
0.8393168118877328 0.693207494863221 0.7250005902150178 0.10164312357353082
0.33217120162461344 0.5439213537003242 0.7250005902150178 0.04437329419758635
0.3722338230250094 0.6962760642463989 0.7250005902150178 0.08834657230607751
0.6884296665449637 0.4069403841077086 0.7250005902150178 0.043683227007872805
0.45835450020990715 0.46817654393375546 0.7250005902150178 0.04401228689041654
0.791107788615965 0.5887425459406381 0.7250005902150178 0.04563809801504162
1.117869455940385 0.16267283634904364 0.7250005902150177 0.042743387091504985
1.262773931977638 0.4159499921544851 0.7250005902150177 0.04788199907513295
0.9894071466629858 0.47075477485105366 0.7250005902150178 0.039139181864737714
1.0362295288447891 0.5613234680108223 0.7250005902150178 0.042195046181900904
0.811992426109166 0.4900883518997691 0.7250005902150178 0.04504360809367168
0.7699020332624541 0.5345617253456654 0.7250005902150178 0.04592169063471151
1.0311164053230624 0.6664456119525186 0.7250005902150178 0.04516519771728836
1.0156326772018658 0.2038415705032166 0.7250005902150178 0.04318150854428442
0.9953740083816179 0.6514745019936226 0.7250005902150178 0.06468843217181697
0.88617445853678 0.3845679575345793 0.7250005902150178 0.045065843203715025
0.3576033828572097 0.5945946057856926 0.7250005902150178 0.042311066989537564
1.2215122922117372 0.5476376918344065 0.7250005902150178 0.08377771858356908
0.9571862462872988 0.6643597527721569 0.7250005902150178 0.04871533445819082
1.2614824011230434 0.553885103030789 0.7250005902150177 0.0436167093914087
0.9277703419714239 0.5215245520907772 0.7250005902150178 0.04428254732395127
1.210108483707204 0.6674044295365545 0.7250005902150178 0.10382132152821061
0.8375347674038992 0.28912917114535047 0.7250005902150178 0.03960511050200174
0.7046544592816 0.5803725389962622 0.7250005902150178 0.040616022812097016
1.1247385429379217 0.6514422890153031 0.7250005902150178 0.060942231542484786
1.2401365868322447 0.6704871133425978 0.7250005902150177 0.13981775123641313
0.4855081212111149 0.5997357670449992 0.7250005902150178 0.04322085366727483
0.6155325136976996 0.5494479036873257 0.7250005902150178 0.04173991042712695
1.2080065242937195 0.438435510719443 0.7250005902150178 0.0630676416806786
1.0968432341105316 0.42919848475395533 0.7250005902150178 0.04440822812360027
0.9956157230994391 0.3613570706120911 0.7250005902150178 0.04208496328892708
1.2348402095388942 0.6026880791167976 0.7250005902150178 0.10284666561260467
0.7553911509091227 0.6215219829084906 0.7250005902150178 0.08181227385326702
1.2740798899251913 0.07684236220355097 0.7250005902150178 0.0856886430105262
0.866149759596427 0.29571743090820823 0.7250005902150178 0.042885663083006675
1.0483184128580139 0.16489297674982878 0.7250005902150178 0.04545632486810315
0.7555367970375876 0.42529950649851134 0.7250005902150178 0.04693767165126739
1.2382150276595374 0.5326975403260915 0.7250005902150178 0.08938918341942598
0.8417714553600727 0.3380773830696313 0.7250005902150178 0.042044450244881
0.8738529620083635 0.30721706887557687 0.7250005902150178 0.043813945385079746
1.0390751053648573 0.3376406631253387 0.7250005902150178 0.04384795147530067
1.2139161784782546 0.3381516878565627 0.7250005902150178 0.07670869978670376
0.6614957197070436 0.5697614607755674 0.7250005902150178 0.04066760440929171
1.2474897688888837 0.026014540228168466 0.7250005902150178 0.12883356615446662
0.8290725737336122 0.6265814032470411 0.7250005902150178 0.08735885421148204
0.577651968897756 0.48574843963309167 0.7250005902150178 0.0454548225455963
1.1650550426491284 0.09446675283337869 0.725000590215018 0.05387197009233164
1.0758360431912986 0.4120587836641023 0.7250005902150178 0.04238224040497806
1.0096588976491006 0.3103228048686303 0.7250005902150178 0.04412662431539691
0.9966810903398596 0.6698193786637723 0.7250005902150178 0.04952922078247983
0.9971951964165171 0.5509227577854842 0.7250005902150178 0.044308662572608314
0.5468390839632732 0.6776679640961876 0.7250005902150178 0.07563903070995583
1.1537124840890969 0.4775792875122016 0.7250005902150178 0.04244829392928764
1.1974955050930722 0.5009818914170144 0.7250005902150178 0.050542224834475506
0.6766390242042074 0.5391577100403715 0.7250005902150178 0.043746491589843506
1.0786373359473982 0.37990820192695046 0.7250005902150178 0.04160902909059658
0.8648759247883072 0.6155371994663298 0.7250005902150178 0.06956037073769865
1.1683790430106826 0.3755135098086396 0.7250005902150178 0.04351951050042245
0.9997683937191548 0.43525081914772773 0.7250005902150178 0.04217760624404713
0.7966380187440555 0.31823161060450195 0.7250005902150177 0.041548155756429526
1.213809077422545 0.30246076991830995 0.725000590215018 0.08555159504856781
0.893799892373099 0.5411218493734802 0.7250005902150178 0.04250441409366293
0.715711799798424 0.5537175160458963 0.7250005902150178 0.045701046224538376
1.1199774432413296 0.6070263206104465 0.7250005902150177 0.05690872124731047
1.2712507142791594 0.35607566503376975 0.7250005902150178 0.07218364323709638
0.5576559954569107 0.4448416114298762 0.7250005902150178 0.045960509850179326
0.9678437113452812 0.4396531071869626 0.7250005902150178 0.04177907569102547
0.2372478877967963 0.6459070792249593 0.7250005902150177 0.10519502386716194
1.2138467494045433 0.6443544138187755 0.7250005902150177 0.12694575825847618
1.0226340257966653 0.38620276533830655 0.7250005902150178 0.043979389982045175
0.8206924079074532 0.39389147410662884 0.7250005902150178 0.04529067016561911
1.1372378796164457 0.36446939346403107 0.7250005902150178 0.04159274145479594
1.2553473618534543 0.6347112355208389 0.7250005902150178 0.108665013956218
0.5800877406574882 0.422416999747172 0.7250005902150178 0.041152175431222
0.9836993331807182 0.4815644425175779 0.7250005902150178 0.0437442388639008
0.5926545493177787 0.672376058092619 0.7250005902150178 0.05137367111720955
1.2756335692698886 0.1816327964006769 0.7250005902150178 0.0747047561049461
1.0388762712425754 0.6296840540197877 0.7250005902150178 0.07922533230147688
0.5778817594434461 0.5369055127598967 0.7250005902150178 0.04130693944504085
0.6538789506042177 0.41791723835677225 0.7250005902150178 0.04352263157750628
1.0683932916678098 0.286047736444042 0.7250005902150178 0.04767070421497671
0.557857354602988 0.5963564928381105 0.7250005902150178 0.04226768111583978
0.7294822147869076 0.4390023517541213 0.7250005902150178 0.04455092201522274
1.1317075225280606 0.1857575046580226 0.7250005902150178 0.04262464807915637
0.896865472517821 0.4950141058573459 0.7250005902150178 0.04635722943682903
0.30049974634195126 0.6021419329808818 0.7250005902150178 0.04728333296621037
1.0796628753097848 0.49400766916570754 0.7250005902150178 0.042497580950299714
1.2053187260067721 0.6893983886260615 0.7250005902150177 0.15624864850934186
1.104558686623857 0.1166021261454535 0.7250005902150178 0.04486234629593551
1.0382974898263528 0.20569277476631914 0.7250005902150178 0.04343809636104646
1.014105013078488 0.6445336903279527 0.7250005902150178 0.09510813817961881
1.2233030061390866 0.20979709301146135 0.7250005902150178 0.08027510231098743
1.0041109103025974 0.16718184202073222 0.7250005902150178 0.0422481815113166
0.23075951484103657 0.6035493343392689 0.7250005902150178 0.05335680799237674
0.833015804791991 0.5914047935708996 0.7250005902150178 0.042243785688837986
1.1241685027608195 0.6245296232886749 0.7250005902150178 0.07859255109063819
1.1562310964925555 0.4127437090440732 0.7250005902150178 0.038834878820821365
1.0915973670645176 0.27473232607519654 0.7250005902150178 0.04406545482343214
0.9739532529132437 0.32847565061641404 0.7250005902150178 0.04436331252523605
0.9618053126375414 0.25008227807991407 0.7250005902150178 0.04327536183233102
1.259130420738463 0.27698918254596694 0.7250005902150178 0.04292473179955498
0.4624172058748596 0.6575796865504452 0.7250005902150178 0.0663662009437176
1.2176019837624834 0.24595662893057807 0.7250005902150178 0.08181669578043695
0.7815248723034595 0.40623163666004947 0.7250005902150178 0.045606321524939965
1.1887052305424022 0.18727183198368558 0.7250005902150178 0.04318355621360121
0.7909986993629323 0.6119031797825918 0.7250005902150178 0.07569656316518793
0.8563939588677394 0.40811587077283784 0.7250005902150178 0.040634756331103285
1.1922870306833533 0.6929363644926904 0.7250005902150178 0.15541406882023104
0.579242364617185 0.6236587410408402 0.7250005902150178 0.09715981302580401
1.131527559841083 0.3847747287759183 0.7250005902150177 0.04322750567777462
0.6901323470809949 0.6593571474476569 0.7250005902150178 0.05573684624469449
1.2029571608496736 0.15183803084243047 0.725000590215018 0.05100920998327528
1.182650807051112 0.3284396472831136 0.725000590215018 0.04844595956471231
0.4216021291379813 0.5031219680839605 0.7250005902150178 0.04545580101836993
0.6433073778427647 0.45740650650231646 0.7250005902150178 0.04187264416807794
0.4334934782220388 0.555229588685845 0.7250005902150178 0.045023397494532096
1.1153451668148304 0.28476132943838545 0.725000590215018 0.04327842400112779
1.149061530741668 0.6443918337867931 0.7250005902150178 0.08558999875995352
1.2686432070636777 0.6164774865399112 0.7250005902150178 0.12065500832545502
0.46005418505906204 0.535903180958601 0.7250005902150178 0.04159254782445303
1.058470881369233 0.31797928124483726 0.725000590215018 0.04431644290520879
0.9688468627562602 0.5365080329454344 0.7250005902150177 0.043081104634190966
1.084697327165233 0.2085512096196548 0.7250005902150178 0.042698853799942225
1.127471132642855 0.25106216891484556 0.7250005902150178 0.04307226121033798
1.0960356508003615 0.3162748600977864 0.7250005902150178 0.0446660384284606
1.2099034990442084 0.5675509319967897 0.7250005902150178 0.0705054995913179
1.1861601403307478 0.24802378335746927 0.7250005902150178 0.04253262127654648
1.129492455117943 0.20945410441207266 0.7250005902150178 0.04599117605418979
0.4181031966389456 0.5510283211062046 0.7250005902150178 0.04393652270097125
1.1000937655430525 0.6253076314468673 0.725000590215018 0.08380848789240596
1.1252225175920811 0.27432246756587564 0.7250005902150178 0.04099798274091295
0.45683770672096985 0.4941983706109983 0.7250005902150178 0.04283419580268044
0.8212954712276258 0.5480751558039214 0.7250005902150178 0.04066886403666173
0.7881599397123306 0.3002501302293945 0.7250005902150178 0.04526042626295088
1.2429659520465965 0.3481425520252285 0.7250005902150178 0.09341214617682225
1.2682141076978837 0.19180647733946102 0.7250005902150178 0.06370620254857678
0.6739530530275449 0.5204037383014503 0.7250005902150178 0.040836272373890974
0.9015069889641061 0.441273520694256 0.7250005902150178 0.04238449296905895
0.5987928543865925 0.4257783265280762 0.7250005902150178 0.03921392844843799
1.2341183594671383 0.6452722970787579 0.7250005902150178 0.12599578676631623
0.7198877454505398 0.6026110259276081 0.7250005902150178 0.04196415618974176
1.044536214653216 0.5483085936561831 0.7250005902150177 0.044405059805683204
0.34455620166828016 0.6343893917461565 0.7250005902150178 0.1127024570451228
0.9778731027051937 0.4973186248507364 0.7250005902150178 0.04687672459387555
0.633372992117332 0.48228933869799984 0.7250005902150178 0.04636340157428661
0.9790247338677738 0.4352130502146864 0.7250005902150178 0.043499599989373805
0.7446489118538361 0.510382105482419 0.7250005902150178 0.04292117222016653
0.5642360235769196 0.4678445545211615 0.7250005902150178 0.04750548363621138
0.38693024370323426 0.656644754408596 0.7250005902150178 0.050740384238791854
1.2215343966497814 0.08270369828418661 0.7250005902150177 0.08764939587055647
0.7872481349674184 0.4728645441248533 0.7250005902150178 0.041311701970071474
0.5918781532678801 0.5017672533529911 0.7250005902150178 0.039559763690087235
1.0415464824234073 0.5995784696332729 0.7250005902150178 0.04189807616970204
1.1472644598772836 0.08628065975497756 0.7250005902150178 0.071670030168654
0.690291656156634 0.4252084587249558 0.7250005902150178 0.042074388682969074
0.9289203875077334 0.5952323485429252 0.7250005902150178 0.04121741078313145
0.41086153822388466 0.6436879922056628 0.7250005902150178 0.10541653990712166
0.8740477317352803 0.4242248902456555 0.7250005902150178 0.042381032572848934
1.2516899239624568 0.33030596435661347 0.7250005902150178 0.05984004992747976
1.140319624399929 0.6163472462047349 0.7250005902150178 0.07806392262633839
0.9958352520696555 0.686906936084659 0.7250005902150178 0.08999268189882412
0.7649750469544516 0.3176960120062695 0.7250005902150178 0.04486969117345193
1.159371818160802 0.3526441485632455 0.7250005902150178 0.04585514460010653
0.9770180967286896 0.450282743201728 0.7250005902150178 0.045586436570569745
0.9952220491350937 0.5632511293814162 0.7250005902150178 0.04572800949275192
0.9879379375467567 0.4023304788977471 0.7250005902150178 0.041266028190521206
1.0513384111202706 0.6815390628924828 0.7250005902150177 0.07107791033606835
0.8788539217328509 0.5093452487973145 0.7250005902150178 0.042969380265652106
0.8833021667332234 0.6892502851889962 0.7250005902150178 0.10005218953969272
1.024749627626123 0.6456573517387171 0.7250005902150178 0.09171390605715488
0.9911034856775092 0.5109102841709461 0.7250005902150178 0.0422448065440736
0.8214571773494482 0.5629082379784127 0.7250005902150178 0.04392160867089576
1.1134112638229032 0.45269624341998155 0.7250005902150178 0.04255037776850949
0.7368376999318804 0.6863521755458819 0.7250005902150178 0.10724063240629625
0.732089791084796 0.47817793816997833 0.7250005902150178 0.04478580877720675
0.9688560758808566 0.4165560727550874 0.7250005902150178 0.04505509545084292
0.6346982272403293 0.6558712831076622 0.7250005902150178 0.07787962987087307
1.0819222522321852 0.6422640188202495 0.7250005902150178 0.10410082850189607
0.6198358535351035 0.4802641402115049 0.7250005902150178 0.04402782538263991
0.8092217051601451 0.6213330843179083 0.7250005902150178 0.08742018854647508
0.3025788743083677 0.6223287995409716 0.7250005902150178 0.09281296184201844
1.1898583563727188 0.5549924677490391 0.7250005902150178 0.04553705234087911
1.2488749053130046 0.19140247589286288 0.7250005902150178 0.07068386470317413
0.8953368486255724 0.37419555005991645 0.7250005902150178 0.0447185731249438
0.9746461108019466 0.5237854595705922 0.7250005902150178 0.045347653825787905
0.8296501761229587 0.4633466808241667 0.7250005902150178 0.043932281318851664
0.628862661180603 0.414625757301347 0.7250005902150178 0.04417398248494886
1.1855081843061601 0.38449843955575624 0.7250005902150178 0.04282329910038142
1.0252736582088637 0.3123971121264233 0.7250005902150178 0.047549888522326514
1.2029363020417227 0.6005357127995483 0.7250005902150177 0.0560681526002318
1.2864689890851344 0.3225193949425405 0.7250005902150178 0.08321209232764085
0.9636959535531514 0.5803672175816432 0.7250005902150178 0.04673597129997593
1.2781604838972744 0.385140854221238 0.7250005902150178 0.07743714354375666
0.9839875205244439 0.2850566904607308 0.7250005902150178 0.04598046134258244
0.6291721172719116 0.5681073230182757 0.7250005902150178 0.04428575907907884
1.0615676368964626 0.5798782824848041 0.7250005902150178 0.048494029089781766
0.7444520629637155 0.37917904144954306 0.7250005902150178 0.04442423133022021
1.2157592326704467 0.40623581141756904 0.7250005902150178 0.09668011281732615
0.9073175893288915 0.3071251401136843 0.7250005902150178 0.042805615557014065
0.6995678366429784 0.6302089865447256 0.7250005902150178 0.09103761273408234
1.1696354916883005 0.3511738421710482 0.7250005902150178 0.04183612774241153
0.9793740925377412 0.41407374277416287 0.7250005902150178 0.043175389040945526
1.060572366450675 0.4489252049948915 0.7250005902150178 0.043447069393769425
1.1966228880029723 0.39049991994966254 0.7250005902150178 0.04328317221431973
0.9489100708534879 0.3440683703519969 0.7250005902150178 0.041278231673152845
1.2551838948410838 0.359964869639843 0.7250005902150177 0.05065225789476303
1.047677987586817 0.6911075314693512 0.7250005902150178 0.09006714289003233
1.257406606294385 0.5070478475963109 0.7250005902150178 0.044546139319349996
0.425379169442229 0.6753605471373165 0.7250005902150178 0.06064605689791471
0.9070738037063383 0.4791841318073338 0.7250005902150178 0.04563715431352359
0.8450331192634915 0.5680433902137075 0.7250005902150178 0.04038656182782574
0.7942475428571316 0.6408204923373318 0.7250005902150177 0.08137566308602823
0.7555963690754649 0.3749632599301899 0.7250005902150178 0.04110945354900679
0.7295772483825738 0.3690459734825393 0.7250005902150178 0.04243345185908881
1.1985243124690887 0.07629582494410815 0.7250005902150178 0.07956242738231381
0.6935475519164472 0.5066640712104975 0.7250005902150178 0.04145707159044476
1.1493155245569198 0.6891512583787746 0.7250005902150178 0.09506237335996655
1.1165287753467583 0.5300779892071956 0.7250005902150178 0.04508933021728398
1.078808214255926 0.16925626262097132 0.7250005902150178 0.04455337624738573
1.086953584277753 0.4869888637356591 0.7250005902150178 0.04582066967194444
1.0911626376513224 0.3704933432794657 0.7250005902150178 0.04292766986522389
0.3730445759650037 0.551569625430912 0.7250005902150178 0.04508052901642155
0.6920008748847198 0.43874777109207436 0.7250005902150178 0.044541313925550656
1.0592945936455478 0.529707453052415 0.7250005902150178 0.04296423926063555
0.5259480890260273 0.58402052139813 0.7250005902150178 0.0421193757387486
0.6132110100721475 0.6021019666976901 0.7250005902150178 0.045161446254205526
0.17326959656111296 0.6867130359175475 0.7250005902150178 0.09882652088759306
0.8586371825187562 0.41857524141585656 0.7250005902150178 0.04240859024069755
0.15634841966981133 0.6849787230394719 0.7250005902150178 0.12544826117554916
1.136748234096169 0.12292239304394742 0.7250005902150177 0.044930407450422705
0.17130443405419157 0.6468871709806018 0.7250005902150178 0.06853006887463596
1.2273268447714643 0.16753931258754162 0.7250005902150178 0.10802959833673913
1.1148659428788765 0.23107444305406785 0.7250005902150178 0.04335984433627281
0.474852419723174 0.6249634499808769 0.7250005902150178 0.09147822598426558
0.7345803612503465 0.35974027038790896 0.7250005902150178 0.04078248054499853
0.5628445018142058 0.6890929618420047 0.7250005902150178 0.09323579258313887
0.9145933748247201 0.260944636046701 0.725000590215018 0.04402215678955904
0.8108777707823088 0.38520103500545966 0.7250005902150178 0.04455821328851522
0.8417679209517084 0.5172934422313944 0.7250005902150178 0.043798380378399525
1.1973238475905301 0.5295869147713603 0.7250005902150178 0.050121577085804746
1.0480436208073118 0.17552562800932353 0.7250005902150178 0.04657775434463777
0.8428703611568503 0.44832071749981023 0.7250005902150178 0.04364621064352835
0.1506183382146794 0.6400799738241489 0.7250005902150178 0.09168850891493452
0.8166813763248493 0.32319566886940904 0.7250005902150178 0.03868924862919649
1.1839595877733942 0.29583975250148137 0.7250005902150177 0.04207346160053265
0.772399376337345 0.4687028386991461 0.7250005902150178 0.042805393371725335
0.46717978756056794 0.4894751858289953 0.7250005902150178 0.0452482558379502
1.069676823922539 0.6418250842926633 0.7250005902150178 0.08902764145439052
0.5507336733688434 0.553898963055437 0.7250005902150178 0.04286670838825691
0.37178722775406225 0.674276682991732 0.7250005902150178 0.06190193151848155
0.19428928947900734 0.636942537204194 0.725000590215018 0.0825569823945793
1.032578322307248 0.5852949114884279 0.7250005902150178 0.04162989401257475
0.9236148032762485 0.5097778744292311 0.7250005902150178 0.043104617678102614
1.2530457653781433 0.2585181527480104 0.7250005902150178 0.047461255171269874
0.7428366598691769 0.3483998835883906 0.7250005902150178 0.044626855272536604
1.2031988959482696 0.4665320255598485 0.7250005902150178 0.053430330884441435
0.9983824150773104 0.6250291734932546 0.7250005902150177 0.08250179578564422
0.9699435274180063 0.2190494423348018 0.7250005902150178 0.04323931892985569
0.9441404080475193 0.4505174369241007 0.7250005902150178 0.0405931349703456
1.0847641849640255 0.5892018001341863 0.7250005902150177 0.041440708998155516
0.8422254581666829 0.5020445890363373 0.7250005902150178 0.04595445052388948
0.8482059677239164 0.34559280143277477 0.7250005902150178 0.04316761359566874
1.074162674420484 0.3093902497933018 0.7250005902150178 0.04331185622100172
0.38825506141238536 0.6243326893790333 0.7250005902150178 0.10374089654192284
0.9853434015597011 0.6209498845751464 0.725000590215018 0.062242061544759565
0.7437656920033631 0.4199573604496307 0.7250005902150178 0.04405117329682345
0.8650285431108596 0.59654961490086 0.7250005902150178 0.047029288466324495
0.599643618093575 0.45275199727158694 0.7250005902150178 0.04368225283822383
1.2801690375586396 0.4321372860446648 0.7250005902150178 0.08536245676849431
1.2369244071365502 0.2101535268779614 0.7250005902150178 0.0864097885954409
0.2913487910577726 0.6965392920191404 0.7250005902150178 0.08729249058217084
0.9722301717119585 0.6165022991017454 0.7250005902150178 0.055271401437701526
0.7418475560367565 0.3089242245221502 0.7250005902150178 0.04308804684617574
0.890502665349272 0.5149667808257608 0.7250005902150178 0.04468707135184619
1.2301238924805538 0.2957554782713428 0.7250005902150177 0.09868081385022082
0.724343464196794 0.4908272961229414 0.7250005902150178 0.04276193965675524
1.1949842129697197 0.6240260869949115 0.7250005902150178 0.08502795081671194
0.2939425534135138 0.6123518717236062 0.7250005902150178 0.06223141126387385
0.6422948242441464 0.4388794650155481 0.7250005902150178 0.04505980994316289
0.46430028480089475 0.5057172455460522 0.7250005902150178 0.042489323101127026
0.9476615074293905 0.3064788445246196 0.7250005902150178 0.044076652286043114
0.9540310291060363 0.6044661869669723 0.7250005902150178 0.04735788032470789
0.4823177315226503 0.5480342686357347 0.7250005902150178 0.044730909372405
0.6623744429729248 0.6167247007704045 0.7250005902150178 0.07729430049803113
0.5093983857762174 0.5025448052948036 0.7250005902150178 0.04310615310867509
0.484402822141307 0.4532101505019026 0.7250005902150178 0.04578884333977229
0.9146958359159203 0.39145693252810965 0.7250005902150178 0.04192281254453332
1.040847813099407 0.2989378539304407 0.7250005902150178 0.045739860200230034
0.6333443510886289 0.6210436695933794 0.7250005902150178 0.08110330847138775
1.076046010052243 0.5332910331059247 0.7250005902150178 0.0418812487000461
0.8476883530874816 0.3231428360770872 0.7250005902150178 0.04578566861458707
1.1429658749558613 0.6288133598652208 0.725000590215018 0.08442917319693821
1.2435277666573914 0.36833017468901064 0.7250005902150178 0.07275822980481403
1.151544376278173 0.5432619911701229 0.725000590215018 0.04453868010099546
1.074673404957186 0.3240446103262601 0.725000590215018 0.04307677614540661
0.7706158417909518 0.4327996926582915 0.7250005902150178 0.04255156887928542
1.167321707125893 0.2274358134349318 0.7250005902150178 0.04559005154715499
0.38196740865871814 0.5652193175883817 0.7250005902150178 0.044507741919256154
1.1620046494283132 0.6088827412003428 0.7250005902150178 0.06032539622966468
0.8415950571333547 0.6543919891742256 0.7250005902150178 0.06294784080469099
0.5055736827638017 0.6490826163997535 0.7250005902150178 0.06848299178225031
1.2331842747839157 0.5903805629477552 0.7250005902150178 0.08954330133094866
0.28454033560033587 0.619629732581468 0.7250005902150178 0.0979982227946987
0.537418694837648 0.6550619278830391 0.7250005902150178 0.053457342188159195
0.9964289441182715 0.2099304775070731 0.725000590215018 0.045424446354058665
0.40613690199759034 0.5353831124447346 0.7250005902150178 0.04437013621877442
1.0087717807457386 0.21276420188179201 0.7250005902150178 0.042418905655131414
1.063443138398668 0.5560376316138715 0.7250005902150178 0.04511475204682768
0.6480083989367588 0.3721826089919018 0.7250005902150178 0.04107895136078238
0.7835746447095645 0.4325528299197036 0.7250005902150178 0.04153730210092545
1.1352304688285622 0.13549488044433042 0.7250005902150178 0.04416886009635744
0.33543753037548657 0.6805968405398626 0.7250005902150178 0.07681675159960588
1.069752079440492 0.502639011755506 0.7250005902150178 0.045335793687463835
0.8594040869230264 0.5724986626933718 0.7250005902150178 0.045127429017939966
0.7359942395431557 0.6652158745197576 0.7250005902150178 0.05068262471781431
0.6972372878406017 0.6958229696725117 0.7250005902150178 0.09354791763238002
1.1930570890078278 0.5698919986961247 0.7250005902150178 0.04424245721870564
1.265201912957369 0.628486021111952 0.725000590215018 0.11084627349729502
0.6661344033711173 0.44636415935000906 0.7250005902150178 0.042067146748850474
0.6414422230286894 0.41766579295279327 0.7250005902150178 0.04227847271497753
1.1973538982853356 0.1233356395059077 0.7250005902150178 0.05377226241350406
1.2736066544313625 0.25198931381514206 0.7250005902150178 0.0753366613473076
0.9281710869824045 0.254953959993934 0.7250005902150178 0.04459486154955233
1.1585679616025535 0.2722978438587969 0.7250005902150177 0.04222244771316092
0.8694868935530987 0.24517848036698045 0.7250005902150178 0.043585305409716474
0.8461299996666284 0.676646545488026 0.7250005902150178 0.06931048543401627
1.137417824400384 0.23408091465754555 0.725000590215018 0.04535089642731667
1.2258649059963185 0.41107301658171247 0.7250005902150178 0.09003508493628531
0.8678915277702232 0.6517646503797154 0.7250005902150178 0.0665537685114997
0.35863371950753425 0.5284505509685812 0.7250005902150178 0.04641385577576383
0.47968053758422563 0.49874581691500647 0.7250005902150178 0.04319527427018157
1.0275672441279267 0.48511414225672217 0.7250005902150177 0.04592284927517544
1.184674356938596 0.48625388025607286 0.7250005902150178 0.04410209791837331
1.2817076962808154 0.1547447610560882 0.7250005902150178 0.09380956606076651
0.9025230858120286 0.29277990823173283 0.7250005902150178 0.04437075697042911
0.6658302502903604 0.404768593169858 0.7250005902150178 0.041394705771252246
0.4206183472837224 0.564565950848625 0.7250005902150178 0.046549994047689155
0.39943699956550277 0.627171617545046 0.7250005902150178 0.08316524829035575
0.5252256277126968 0.5413070595608682 0.7250005902150178 0.04366618893640156
1.092380502036211 0.6334891944810244 0.7250005902150178 0.06734068465460057
1.1088946396865267 0.3934461712504424 0.7250005902150178 0.04355049270999963
0.719484501573161 0.40878243276750786 0.7250005902150178 0.042610568491072885
0.8925526890196639 0.23881564893437013 0.7250005902150178 0.04124811735777792
0.9090892169582042 0.5995602233870866 0.7250005902150178 0.04539526366633876
1.1095274240435287 0.42935274930437395 0.725000590215018 0.044871651302455386
0.6158071544461295 0.5704163477408897 0.7250005902150178 0.04400066533213669
0.9031990038770025 0.6506918361193379 0.7250005902150178 0.0861887030909473
0.5011023123748445 0.6350879429023719 0.7250005902150178 0.0942803415329867
0.9564839816314104 0.2953772758877552 0.7250005902150178 0.043237043707163414
0.6860663380489589 0.6819537066855016 0.7250005902150178 0.07848351558246161
0.5013229948575656 0.5175928199787247 0.7250005902150178 0.044580213245988334
0.5605081481971701 0.652342454600482 0.7250005902150178 0.0776698426846317
0.8061911799084616 0.5118797341551471 0.7250005902150178 0.042140215349944436
0.4072101141603546 0.6765178326141331 0.725000590215018 0.0647343140813513
1.09282366758923 0.14863893451831878 0.7250005902150178 0.04609655034551309
1.2774074723059785 0.2321584065388678 0.7250005902150178 0.08690711615775988
0.6340764625633378 0.5001063869279332 0.7250005902150178 0.042866414999596515
0.3395597274852825 0.6554754659092565 0.7250005902150178 0.07061057734071877
0.45450466916101273 0.6078252779717327 0.7250005902150178 0.05706560837225668
1.0580147608676511 0.34843796335860233 0.7250005902150177 0.043654783956247147
0.22006575639140147 0.642985058839969 0.7250005902150178 0.10537564365975925
1.2739385804766719 0.595135551626295 0.7250005902150177 0.07825510780290575
1.028965996046202 0.5475797873690276 0.7250005902150178 0.04273277840426993
0.7930712576520688 0.38366811321903554 0.7250005902150178 0.04292681423432915
0.3670726172577205 0.5999577764481409 0.7250005902150178 0.045307668957879715
0.6889324385777823 0.5867967911584712 0.7250005902150178 0.04474158656958046
1.2467560193116967 0.42197120898178625 0.7250005902150177 0.0690732059725409
1.2137281482799747 0.5563107825675628 0.7250005902150178 0.0794635537755651
0.5518654764357448 0.6126034791022044 0.7250005902150178 0.0573863441897587
0.41907288819006766 0.5831414018555029 0.725000590215018 0.04515132729444863
1.06673134210942 0.24332226671851048 0.7250005902150178 0.04273835278488529
1.2713538977952323 0.20476819678859923 0.7250005902150177 0.07720832182733521
0.371961379300562 0.6208316566288674 0.7250005902150178 0.05774275767828085
0.6715451085692279 0.5892874165701074 0.7250005902150178 0.04076286190415183
1.2062506397741442 0.08389456127092156 0.7250005902150178 0.08989125870718243
0.8999796867452147 0.5064438339020887 0.7250005902150178 0.04731188654661918
1.0092101634986939 0.4581631959211995 0.7250005902150178 0.04254371945760875
1.1619057943153923 0.08232846872512778 0.7250005902150178 0.08192674562955489
0.8830223753545645 0.6489954345457019 0.7250005902150178 0.07096968632035296
0.7550215250221021 0.6373584799875915 0.7250005902150178 0.09674371704829672
1.2197188307691984 0.635278827560533 0.7250005902150178 0.10958179295152093
1.2646898558044684 0.5301499045709708 0.7250005902150178 0.05492255447397
1.2046678507561068 0.4177996046626668 0.7250005902150177 0.0673220020600622
1.2472982958568635 0.3846940720331566 0.7250005902150178 0.07195484813079575
0.6175140542091941 0.6586055571668639 0.7250005902150178 0.06355378692665242
1.1785184469994396 0.60090996655287 0.7250005902150177 0.04433409449381871
0.8566627949532053 0.49442189624346694 0.7250005902150178 0.043483309265399596
1.1482351832958357 0.25714477588197715 0.7250005902150178 0.042773597964465386
0.862452416532314 0.35784311961895615 0.7250005902150178 0.04151537754562584
0.37333751700558115 0.5296525086170079 0.7250005902150178 0.04423919355864692
0.46893462208804415 0.5615528826934219 0.7250005902150178 0.04395349313633532
1.2756773922180893 0.6065466826587956 0.7250005902150178 0.11148942088564515
0.8685772701758973 0.25584989897626215 0.7250005902150178 0.04192609831127805
0.961028186010961 0.3492161819810671 0.7250005902150178 0.043233616531473375
1.1979859475895671 0.25952826027620757 0.725000590215018 0.0467677073685357
1.0538982041727687 0.4884608885709485 0.7250005902150178 0.043293730276671154
0.08739431900368771 0.6867256012442922 0.7250005902150177 0.13918327306162306
1.1345356314856576 0.43380336026994254 0.7250005902150178 0.04550253234741076
0.20111265391488337 0.6813324050728167 0.7250005902150178 0.08537158567909975
1.018614252251447 0.6305065164917596 0.7250005902150178 0.09457287776160188
0.8478646460317406 0.4584144264237394 0.7250005902150178 0.04319066437140776
1.19039369863938 0.4702878165032532 0.7250005902150178 0.042389249017658004
1.1440530353942269 0.4419013084069539 0.7250005902150178 0.04152265992342568
1.0556424457333704 0.36471450121520166 0.7250005902150178 0.04244477305253557
0.7046559206951699 0.4679430426947806 0.7250005902150178 0.04709402107092211
0.6468750417240371 0.6905683946686084 0.7250005902150178 0.0991404965979973
0.5107351514302736 0.5511970214352575 0.7250005902150178 0.04338246925532369
0.8837872647170354 0.5234766831799877 0.7250005902150178 0.04225890633463489
0.3954884374211498 0.6366737052601937 0.7250005902150178 0.1119361608832193
1.018109339208577 0.32038770944528117 0.7250005902150178 0.04451698637471068
1.1068527528333088 0.22230736816263302 0.7250005902150178 0.04488137508492793
1.2261742388882937 0.2568129807194273 0.7250005902150178 0.07511545950933758
1.206175962342674 0.29045478531526747 0.725000590215018 0.06577186098899737
1.2627652952716193 0.3342383232063288 0.7250005902150177 0.05412305975857022
0.587939963619856 0.5641223068634773 0.7250005902150178 0.04167306713420349
0.9116738460148051 0.3433284660082986 0.7250005902150178 0.04353441945810472
0.8846976127106632 0.2503794918969388 0.7250005902150178 0.04065982918280647
0.8019357568525513 0.6119604631563051 0.7250005902150178 0.07248362390758929
0.3123849044502446 0.6354264458617528 0.7250005902150178 0.10615648064593217
1.017576238756414 0.21990902640203377 0.7250005902150178 0.04152480622429323
0.9765205452254301 0.5085436332923662 0.7250005902150178 0.044930330601021674
0.6560362853180247 0.5425891830396172 0.7250005902150178 0.04334870639020087
0.24339498226219972 0.67128158214174 0.7250005902150178 0.058654962090262476
0.7265360279812642 0.3270006469424883 0.7250005902150178 0.04073857163230274
0.5483863653576088 0.5865100007594569 0.7250005902150178 0.0434230278663196
1.199043604544342 0.4905216326746974 0.7250005902150178 0.0524304444218929
0.9823679313813454 0.533774017867881 0.7250005902150178 0.043602389344459494
1.0306741924801117 0.24971179762537488 0.7250005902150178 0.04003844516466772
1.126619292114421 0.35174651010916436 0.7250005902150178 0.042800168459346664
1.060600074484284 0.3344323002672384 0.725000590215018 0.0418301153092592
0.35894057322461487 0.6193785302462353 0.7250005902150178 0.07687804510811515
1.204660913099495 0.48158327423574465 0.7250005902150177 0.05531222929062176
0.5191721087849932 0.5924118795949567 0.7250005902150178 0.040893533695745186
1.0676960200152688 0.2276730793791052 0.7250005902150178 0.03930113575761164
0.6999163765072398 0.5212222413898578 0.7250005902150178 0.04350031045601276
1.2391953084909206 0.11752224520225565 0.7250005902150178 0.08588765305854278
1.262551053618413 0.34741564466466157 0.7250005902150178 0.04907779427433602
0.7135242865818686 0.35892405818925943 0.7250005902150178 0.04044086829633767
0.9179961741724063 0.4501903172972307 0.7250005902150178 0.04386628547098021
0.7856838602286814 0.5587669094915064 0.7250005902150178 0.04246361431872487
0.9186850002215126 0.42821964427168324 0.7250005902150178 0.04537013684263524
1.0710032187736334 0.33614638244503825 0.7250005902150178 0.04406502666847518
0.39331146786209115 0.5517629204779391 0.7250005902150178 0.04543869750166511
0.9530151930264738 0.24528295884000662 0.7250005902150178 0.04505788948405428
0.9963046354076408 0.2927149677799493 0.7250005902150178 0.043908812946272795
0.76749455495017 0.51479647027967 0.7250005902150178 0.04185851046154165
0.8502749663965717 0.5961553256393536 0.7250005902150178 0.04642787447551344
1.2156483890265937 0.07095641387011434 0.7250005902150178 0.10881635443395192
0.9968416556884551 0.5757034976616994 0.7250005902150178 0.04667204135480659
1.2220602022128535 0.2883126188320272 0.7250005902150177 0.11186677441979943
1.1665471408598966 0.46201704417593603 0.7250005902150178 0.04497070182858949
0.7586017261998886 0.6513638186392157 0.7250005902150178 0.08086240583103003
1.0922974069711922 0.4124914022494238 0.7250005902150178 0.04451479935750755
1.2318275910846463 0.5554322543708724 0.7250005902150178 0.10677620964041402
1.2219401640392666 0.5005009750375392 0.7250005902150177 0.09246584717989828
1.131281236057153 0.4438523237023584 0.7250005902150178 0.040934531053382295
1.1929238610904966 0.6076428846343676 0.7250005902150178 0.06334793705702053
1.1155028889379892 0.21514205103297573 0.7250005902150178 0.04523421123455166
0.5382743543753494 0.6126051716192035 0.7250005902150178 0.05234218419512551
0.12412303896580462 0.6767921234514088 0.7250005902150177 0.14356966778503893
0.5326868205265618 0.574934891215798 0.7250005902150178 0.04319308186792341
0.9040198212552883 0.2704028759291124 0.7250005902150178 0.043425587511647656
0.47240514619712237 0.4755796778314909 0.7250005902150178 0.04454030353349523
0.7497859246236267 0.325992561504304 0.7250005902150178 0.045263004416355425
1.0008679325556007 0.24699606806016614 0.7250005902150178 0.04531443118990901
1.2334087041757709 0.47682234757215136 0.7250005902150178 0.08483884893078938
1.27234524723599 0.10280047830074533 0.7250005902150178 0.07260165803132902
0.6933347974913194 0.6449388977647947 0.7250005902150178 0.07976088998445108
0.7929479895990357 0.4576070982560533 0.7250005902150178 0.04600120235694286
0.5643866837804354 0.4949689040013323 0.7250005902150178 0.04453013485982396
0.590845570003075 0.6325139051979971 0.7250005902150178 0.11553133509729735
0.8184919359180134 0.35401309690417193 0.7250005902150178 0.044144028995620664
0.6728717646039007 0.4647638818180623 0.7250005902150178 0.04266469468261886
1.0260339627089625 0.3419785758618881 0.7250005902150178 0.04434807695624295
0.48986003246590365 0.4823936202926541 0.7250005902150178 0.045817214203881775
1.0972366259291628 0.6848066603402558 0.7250005902150178 0.08055796874876431
1.0208679963004208 0.42510684323143033 0.7250005902150178 0.04523642362304277
0.7577749417971964 0.36339097230960404 0.7250005902150178 0.04208738538470054
1.0899311041497197 0.15937524807488535 0.7250005902150178 0.04644829199641564
0.6365215979166557 0.670352262399699 0.7250005902150178 0.04967060115393257
1.0071790745967775 0.36965837483207653 0.7250005902150178 0.04291811412669775
0.3452380250599077 0.5981160213127686 0.7250005902150178 0.04040905678283169
1.2143085254148667 0.2572260761118425 0.7250005902150178 0.07658711832508745
0.27107198149924083 0.6622840155158526 0.7250005902150178 0.052321200055165516
0.7212330500235704 0.5867295368612065 0.7250005902150178 0.042220287290094166
0.5777433143788507 0.571196131828205 0.7250005902150178 0.04517932775923272
1.141948347293171 0.40371671183528657 0.7250005902150178 0.04212178127285022
0.782328379514821 0.5805214699151502 0.7250005902150178 0.04558412584094846
0.6128802042818088 0.5079399604909501 0.7250005902150178 0.04361354387118011
1.22501846891115 0.27726766867848407 0.7250005902150178 0.08627436570453982
1.046067040395033 0.39682358108760374 0.7250005902150178 0.043447671401229446
0.5486474397737982 0.6971021418773078 0.7250005902150178 0.09228412265953784
0.5302647317184824 0.6781496800226072 0.7250005902150178 0.07478829929053127
1.250585976203222 0.44711134273295955 0.7250005902150178 0.06478222942195676
1.1602812463278358 0.23787056893267572 0.7250005902150178 0.04436750863907251
1.0748391639790857 0.5538567678621575 0.7250005902150178 0.03967687838336381
0.8702685361820487 0.5873154122535178 0.7250005902150178 0.04342373833821031
0.995282970125093 0.5365665015263825 0.7250005902150178 0.04510516259978623
0.395652218622591 0.694512894608111 0.725000590215018 0.09409646152191917
1.1325178283575357 0.19861046747011296 0.7250005902150178 0.04191124352318043
0.71203581693883 0.5187260944449582 0.7250005902150178 0.04611185618917249
1.0569935385199007 0.2873076837874866 0.7250005902150178 0.04808029862709483
1.157929413748452 0.5305633711336136 0.7250005902150178 0.04358796435623403
0.7337413425004056 0.337708147589587 0.7250005902150178 0.04360190519830572
1.0091636159733663 0.42577589609842703 0.7250005902150178 0.048202340098808805
0.9764433903603883 0.6977479264528891 0.7250005902150178 0.11197954616707798
1.096347294617863 0.5799740089965191 0.7250005902150178 0.04351761390633851
1.1489631436071392 0.2767373829495162 0.7250005902150178 0.04251476240084009
1.2159156591366722 0.4642824172206246 0.725000590215018 0.08848388486053464
0.6389477659087404 0.6821288847559598 0.7250005902150178 0.09786215617313446
1.2318992323334872 0.6148126374893067 0.7250005902150178 0.10165691887118466
0.41007130974342165 0.6176133590950869 0.7250005902150178 0.08815790752043452
1.164700771318984 0.1606793732678415 0.7250005902150178 0.042759485843973905
0.47271306446767253 0.6481667889739814 0.7250005902150178 0.09445244866402218
0.89129037089222 0.5784167917381757 0.7250005902150178 0.04696380082603646
1.1059572481023143 0.3643868552602859 0.7250005902150177 0.04367399272833645
1.1058968342547935 0.6529429580866289 0.7250005902150177 0.06500812514909898
0.7990089490982518 0.5994316301545164 0.7250005902150178 0.042904942341428214
1.0868252114545525 0.5061686171569177 0.7250005902150178 0.04344474125302042
0.9409699951127751 0.4228275036816559 0.7250005902150178 0.0454462946714719
0.7439353736499029 0.4317968587560087 0.7250005902150178 0.042361990759242255
1.0538489660960808 0.6084553800867831 0.7250005902150178 0.055059288057417353
1.2371095314364948 0.48781546853716246 0.7250005902150178 0.08469788540614291
0.9849969326667671 0.19772422939184583 0.7250005902150178 0.04366049398316529
1.1951674513044925 0.06473329069818354 0.7250005902150178 0.10081394925256743
1.2915654367216938 0.1795005184421901 0.7250005902150178 0.10372422038471295
1.2904094018347134 0.5129341184992215 0.7250005902150178 0.10312296193739999
0.7615418081643793 0.6988020184053103 0.7250005902150178 0.1252833793708704
0.9876665059040601 0.698186168433684 0.7250005902150178 0.09879345476800545
0.1375663173488699 0.6987697277125502 0.7250005902150178 0.10347703394430999
0.5773015076621884 0.6988798712097732 0.7250005902150178 0.10892577781042505
0.10137027307093939 0.6996278250032943 0.7250005902150178 0.14936625857769603
0.06658231622383302 0.6983644074984137 0.7250005902150178 0.16204570768790616
1.0233418612272709 0.6986982500453897 0.7250005902150178 0.08438863503467023
0.9469808271696376 0.698671755767385 0.7250005902150178 0.11613398148515287
0.32027884028363496 0.6999348071261096 0.7250005902150178 0.08705934877166842
1.2077207010269881 0.6996375121337116 0.7250005902150178 0.14367766450092184
0.8158153446710886 0.6994673567183658 0.7250005902150178 0.11186649153374266
0.8884571931868257 0.6997602837545601 0.7250005902150178 0.09561675076042932
1.1215654675671085 0.6982822292034506 0.7250005902150178 0.10959053681227678
1.2917886900131414 0.38938575830854066 0.7250005902150178 0.08399655997701283
1.2920196579545888 0.33383344851968955 0.7250005902150178 0.08823862528564631
1.2914061291864938 0.6338785587751483 0.7250005902150178 0.10778769646947875
1.2918542198894933 0.21234891546973772 0.7250005902150178 0.11211496644660121
1.2901325821876528 0.5485375959452328 0.72347096795022 0.10625303582521022
1.2901325821876524 0.6804763990649455 0.7233143750568364 0.19243056126087105
1.2901325821876526 0.45208165172110737 0.723527780239381 0.09154704435179307
1.2901325821876526 0.5375858673001088 0.7238971881141759 0.1032824752853314
1.2901325821876526 0.3450923865278833 0.7246167283557726 0.0865101118363626
1.2901325821876526 0.3659918093188567 0.7233088246574574 0.09200430043226367
1.2901325821876528 0.6692417453801711 0.7243819073690224 0.16496869820088025
1.2901325821876526 0.13404035281995258 0.7196230460990827 0.128047794994846
1.2901325821876526 0.3728945880855307 0.7135437299454819 0.15510584179212059
1.2901325821876524 0.08034790581455031 0.7047710774423278 0.1893896959954156
1.2901325821876526 0.15513132995726983 0.6999547660816234 0.1680868683416644
1.2901325821876526 0.3253070456515028 0.7064387096708277 0.16515011562503076
1.2901325821876526 0.11779303327640339 0.702607088965667 0.13460933001657752
1.2901325821876526 0.44787066380881546 0.709436323886925 0.1523852727125318
1.2901325821876526 0.6212284494156937 0.7107784783496903 0.16209600885388736
1.2901325821876526 0.23638284824869826 0.7051957378938557 0.16226437708522037
1.2901325821876526 0.06591437424994423 0.7079660858525259 0.23215388031013495
1.2901325821876526 0.49107428379643 0.7119646983182784 0.18384897805609043
1.2901325821876526 0.10723917415589511 0.6969047160619485 0.14538656396134866
1.2901325821876526 0.2625764636272669 0.7025484073354935 0.16659706474714409
1.2901325821876526 0.3672862270765594 0.7011632350354366 0.1518330145499546
1.2901325821876526 0.3793880411463509 0.7048387910270305 0.14849050742488631
1.2901325821876526 0.08524620902274749 0.6944827883883531 0.17641371701632358
1.2901325821876526 0.4371619227110278 0.7033873829761361 0.16749654951960471
1.2901325821876526 0.40272432222365767 0.6963796959074412 0.1602653173206662
1.2901325821876526 0.2059034634916358 0.6943164189852886 0.155797871528594
1.2901325821876526 0.2913431216130751 0.6949610843833132 0.1549120817082582
1.2901325821876526 0.33451761539949926 0.6989717836675686 0.14520039058602396
1.2901325821876526 0.6112304691603594 0.6944143019864668 0.14037969226505143
1.2901325821876526 0.658262143051059 0.701094613496702 0.2477064858493173
1.2901325821876524 0.6689369604356512 0.7048152336407868 0.2613107944589063
1.2901325821876524 0.5656399003199601 0.7065316887773672 0.15502887638160567
1.2901325821876526 0.5131302819759999 0.6909191872078876 0.18017519858206593
1.2901325821876526 0.1154814686345441 0.6895574815161666 0.15565807990626718
1.2901325821876526 0.011645198940923845 0.6999762224661552 0.2511194297904479
1.2901325821876526 0.21446801546300204 0.6867524959569449 0.13539231306482813
1.2901325821876526 0.43843697687882516 0.6842345187378276 0.1624804712627659
1.2901325821876526 0.16412364091257275 0.6832408151537657 0.16401028560929723
0.0441325306892395 0.039211538998104416 0.722996153713741 0.16376549623109285
0.0441325306892395 0.011723424666986624 0.7199734617277734 0.21302989668265482
0.0441325306892395 0.44191601223204047 0.7247495035283643 0.10820629387890822
0.0441325306892395 0.2320594302608161 0.7220149743090511 0.10470331006097855
0.0441325306892395 0.40286078437372497 0.7249804325858553 0.11325358621138287
0.0441325306892395 0.15755554508871025 0.7148146803015827 0.18386187089118827
0.0441325306892395 0.33989545575776603 0.7148272634953512 0.1494433240216959
0.0441325306892395 0.3512774857116484 0.7057108269997774 0.1436658405551415
0.0441325306892395 0.06578133545457686 0.7126884112852491 0.2152060125940463
0.0441325306892395 0.6185373270147434 0.6957298373833969 0.17465701762615615
0.0441325306892395 0.33432859308627155 0.7034355338040437 0.1537786632907884
0.04413253068923951 0.2496032570681319 0.7095129645391081 0.14732075226348643
0.0441325306892395 0.5213876316728656 0.6951765557560406 0.13650894321896864
0.0441325306892395 0.5618841903465438 0.694091045961204 0.14610000494508904
0.0441325306892395 0.569615237991435 0.7039273262721606 0.1710163624877882
0.0441325306892395 0.498600016540651 0.7076094943558586 0.1536933495563665
0.0441325306892395 0.38826034242188 0.7014509216888422 0.1580141804358335
0.0441325306892395 0.2504520675400447 0.6967517809288055 0.16925853314042702
0.0441325306892395 0.282136883301014 0.6961594707330726 0.16448683418473178
0.0441325306892395 0.06775487404119061 0.6995108467586912 0.2337653174807542
0.0441325306892395 0.20688434968173644 0.7052720465145667 0.14943270662190727
0.0441325306892395 0.550323077584655 0.6900137691217626 0.13706882066429962
0.0441325306892395 0.3457482038975426 0.6956472191149808 0.16567490074186444
0.0441325306892395 0.31369041267355974 0.6954788054971526 0.13275117008089532
0.0441325306892395 0.41982350550301256 0.6949507411960361 0.16521406802118085
0.0441325306892395 0.3993143663809288 0.6913655397916894 0.11792275183565885
0.0441325306892395 0.44552204616292373 0.6941713966703988 0.14445822075209006
0.0441325306892395 0.5103302494055865 0.691417574782965 0.17308629469660322
0.04413253068923951 0.1102167862921301 0.6962933742803158 0.14380016265320716
0.0441325306892395 0.5296535493177855 0.6850387240584277 0.12148775868117652
0.0441325306892395 0.18176413354221896 0.6879361831412067 0.14038272753674197
0.0441325306892395 0.4122376225226729 0.6872240857185516 0.1559266754633898
