x y z curv
0.16143482822927074 0.05668655289331653 0.4207930135676178 0.14538600419436362
0.17001355331477477 0.0675985193222783 0.5945396178644411 0.10059542877735304
0.17725392352559088 0.07833810430816829 0.7392828769926932 0.08324889751757898
0.16875615988858525 0.06743579658909282 0.5730432988462144 0.08013311223362643
0.17398282012067626 0.07659805051762089 0.6799036995314447 0.09740391396110942
0.16388833717032472 0.06466045999766291 0.4843303750008985 0.1120209590400658
0.16684172324969845 0.06784851273095782 0.5409782239973396 0.10354679201797007
0.17887349520974272 0.0822514659773981 0.774412488485654 0.10745547043624389
0.17297586493771233 0.07168485080410834 0.6534055405622428 0.1189827652356303
0.17101504813553736 0.07247481655286986 0.621253187602401 0.09493679388467409
0.1762978218742946 0.07477692638675633 0.7161955982977323 0.10152329166173042
0.1737080565784458 0.07162416370385177 0.6658515114266531 0.07583171209039055
0.17750065789540462 0.06412319924912778 0.6746669848271106 0.09578602771763367
0.1814217438827237 0.06725449848012506 0.7417465040876032 0.06482837934035245
0.1834133153113652 0.07064798666427313 0.7886753564685519 0.09656718701099795
0.1748325861711823 0.060326732771569205 0.6171438413481181 0.1009517352183456
0.16936266662875024 0.06010590024702081 0.5531439810983094 0.11531365065789762
0.18220420991034553 0.064137625114114 0.72844877530513 0.062496582456364816
0.16802601416732837 0.05864283980685792 0.5274559235019162 0.11252987465578218
0.17533621309145542 0.06135871516815314 0.6302508863313746 0.10697330656464066
0.1790435815058239 0.059541079735469384 0.6589051358558573 0.09166588181322051
0.17814494657232477 0.05852368910396838 0.6412153339885024 0.0643198157337143
0.17118382239273253 0.05119301199368505 0.5082934577367684 0.11477918581397444
0.16474205348558524 0.05219902682581749 0.4434490749906996 0.08832158178509292
0.16220325810441932 0.051570368701146355 0.4102389617640791 0.12540732163723903
0.17636801238129401 0.0555561961179762 0.5991002711809115 0.09882947687623848
0.16688451711029384 0.05201461432616767 0.4661368887928245 0.09483671548862443
0.17073534567125595 0.050058016903105976 0.49478187911912397 0.09920823694905388
0.18097203296559822 0.06099581299799751 0.6914274109521399 0.11819634815569212
0.15962537483427558 0.06674640135134718 0.36122086175808876 0.1491548229834684
0.1514196585282226 0.05701857168693217 0.16078750571237183 0.190145424521581
0.16382343355902945 0.07261785579169194 0.3922171920981553 0.1572847553615066
0.15799773437311565 0.06503459100205977 0.30405114051571824 0.16399749051184015
0.17309834959874357 0.037590139173801176 0.005344159589735715 0.24747799084488176
0.15112227095651448 0.05021621549001912 0.0037912444465533325 0.17043620045851413
0.16562998735089168 0.02365116919382068 0.0043517183783759635 0.23924778814234063
0.15467573828703346 0.019542958833360873 0.011377379091678495 0.24892876207963952
0.16407660082121261 0.04953975245902377 0.0031700969610832827 0.2486635044468051
0.1591016056049767 0.034054336804094906 0.006686613884495972 0.28277774644848974
0.14583001450036728 0.03210016071783326 0.005446321343067819 0.24006335558542174
0.1527244860731827 0.02458410191383785 0.0005049901717183948 0.22488077578225887
0.22359830141067505 0.22572545348642709 0.8345480300073287 0.16726063131125726
0.22359830141067505 0.3019920128058573 0.842671076291531 0.22289258062264436
0.22359830141067505 0.11224223220944969 0.845614356595175 0.27555512163294954
0.22359830141067508 0.36406293889314556 0.8604043872333076 0.1786220019334984
0.22359830141067505 0.3102556683411803 0.8532745896451015 0.22855566439587632
0.22359830141067505 0.2888995701743933 0.8439541213821525 0.2708029354387385
0.22359830141067505 0.1060573628354071 0.8262746809848548 0.27770137897513975
0.22359830141067502 0.2376942545781901 0.8274775245776925 0.1822327760726272
0.22359830141067505 0.17012883337043538 0.8339935685171984 0.18610156523068905
0.22359830141067505 0.18196972114684257 0.8256046748293306 0.18368886966711745
0.22359830141067505 0.15340729736222972 0.8135546703134497 0.16623492960316813
0.22359830141067505 0.13851089861734242 0.8563517678899984 0.1921653415256433
0.22359830141067505 0.31436277896450415 0.8425841871171835 0.2091354064613441
0.22359830141067505 0.2297587336138404 0.8545466348695976 0.23258080884699392
0.22359830141067505 0.1417103160261245 0.8443408224607836 0.22852392984146014
0.22359830141067505 0.1423900902976003 0.829008192364838 0.1644629205524774
0.22359830141067505 0.16471387224292094 0.8222221377035067 0.19172417427521005
0.22359830141067505 0.20355398099301605 0.8258621022146913 0.1735617668928612
0.22359830141067505 0.17297790292986803 0.8480890942597488 0.22321810436754602
0.22359830141067505 0.18201222393324704 0.838033035873998 0.20281392625617564
0.22359830141067505 0.28012752873604924 0.8514460765172789 0.2678974258370781
0.22359830141067505 0.24756303309618338 0.8399532357728567 0.20455567402976896
0.22359830141067508 0.43413453460341994 0.8665305851047939 0.28073128266253555
0.22359830141067508 0.26668141549178637 0.851251019204142 0.2268031960446941
0.22359830141067505 0.2482052845135689 0.8671341034895678 0.241212488198227
0.22359830141067505 0.35651856874041166 0.8524657948844135 0.2272533747947775
0.22359830141067505 0.3435151356604657 0.8489938351278418 0.22899853656906358
0.22359830141067505 0.19358357242532054 0.832256487414577 0.18867394667705104
0.22359830141067505 0.23618215280422467 0.8394190824885795 0.20108365871720127
0.22359830141067505 0.34288179338464736 0.8604189765332464 0.17809722338241885
0.22359830141067505 0.20524134263757654 0.8579408764575889 0.2287034775468805
0.22359830141067505 0.12448245626642417 0.8388019534811698 0.2055922639878229
0.22359830141067505 0.11879718283759302 0.826477467404697 0.2148891106803322
0.22359830141067508 0.19213345630219741 0.8537379014574956 0.24218094759216782
0.22359830141067505 0.2712796013156895 0.8401857114397975 0.2215942285410429
0.22359830141067505 0.2475233680821995 0.854357680155947 0.2212170385638524
0.22359830141067505 0.2977830556261173 0.860810468328513 0.20178775368051294
0.22359830141067505 0.39285708727221763 0.8563586620645685 0.17597802318204742
0.22359830141067505 0.1216953262892725 0.8529780965814021 0.24320325745729565
0.22359830141067505 0.1513133813419967 0.8520875188139088 0.2291937934562811
0.22359830141067508 0.331299546076374 0.8554879569651228 0.18547175894243778
0.22359830141067505 0.13352693516591704 0.8177897322070629 0.16004103043133758
0.22359830141067508 0.21509633392539404 0.828111738453426 0.19035851038513762
0.22359830141067505 0.2198304498232645 0.8498078850351872 0.2284350537631387
0.22359830141067508 0.18495818402912684 0.8630391135485397 0.2110128700202024
0.22359830141067505 0.1594429241719838 0.8387450675311675 0.18994627560189264
0.22359830141067505 0.20216816290711093 0.8449177586332369 0.23539219137671438
0.22359830141067505 0.3529838920271851 0.8052393236725955 0.16838569935676512
0.22359830141067505 0.3996884760633604 0.82549379074077 0.1829894907448022
0.22359830141067505 0.46556998052888965 0.8147891757220922 0.19667776007004784
0.22359830141067505 0.45163069204461526 0.8511138421105962 0.2706363647947951
0.22359830141067502 0.4022336940512123 0.8134414701503176 0.1542746363401675
0.22359830141067505 0.3569674045264858 0.8340397488347745 0.1854686519923161
0.22359830141067502 0.2544908612118378 0.8105003636738757 0.18998286449510052
0.22359830141067505 0.2915559866310778 0.8063964637309375 0.10842562995750138
0.22359830141067505 0.41896009886296076 0.8541804697031399 0.22632131576255954
0.22359830141067505 0.42175952074109296 0.8419765060588253 0.2391829774411985
0.22359830141067505 0.37838980694093527 0.8185939556285773 0.193569375459488
0.22359830141067505 0.4716914829759841 0.8516639248121318 0.2565143207119322
0.22359830141067505 0.330074751100246 0.8135748904865904 0.16030356435747758
0.22359830141067505 0.18569962270641543 0.8144067224303171 0.15108646147518137
0.22359830141067505 0.3334601255464616 0.834051351706119 0.16956788873003298
0.22359830141067505 0.24316064671725462 0.8148241542008896 0.18136636272127574
0.22359830141067508 0.44280372644942984 0.8441373241282331 0.2300537564291349
0.22359830141067505 0.46346060690224733 0.8400978614579377 0.18809008859172455
0.22359830141067508 0.4766003423609947 0.8268614888675843 0.2067853165222581
0.22359830141067505 0.4063407738549676 0.8366044990761291 0.17373926157620345
0.22359830141067505 0.41152666843675934 0.8198526838920839 0.18266883512956028
0.22359830141067505 0.48198150178125787 0.8060187766512951 0.18637437840971496
0.22359830141067508 0.30831629240484926 0.8139419850461572 0.18690266744162182
0.22359830141067505 0.43265670216302166 0.8233512132957252 0.16937101362605994
0.22359830141067505 0.2598890694876086 0.8284062583189695 0.18341006377713012
0.22359830141067505 0.16828574176001543 0.805252380429563 0.14316325864255885
0.22359830141067505 0.30158186276879045 0.8264509151653208 0.1760841113137392
0.22359830141067505 0.34386698119811665 0.8222646861609606 0.16966060254207121
0.22359830141067505 0.2742615664268595 0.8240777224867786 0.19884372877890447
0.22359830141067505 0.41822761898260935 0.8303706350531337 0.1612964330572809
0.22359830141067505 0.4221845920199278 0.8132378036742436 0.1727820001942303
0.22359830141067505 0.3771764132391324 0.8299185754073833 0.1823267684882883
0.22359830141067505 0.33855608361824424 0.8053898465908884 0.10636661599406014
0.22359830141067505 0.2850309385218233 0.828466743057283 0.18743868181104353
0.22359830141067505 0.21598168605632634 0.8076148079144148 0.15318166855289678
0.22359830141067505 0.22741014977534574 0.812622734523798 0.15703629468193658
0.22359830141067505 0.47682242030779587 0.8397022867323568 0.21377597987964297
0.22359830141067505 0.13074282644537674 0.8071893130892753 0.15265806703392004
0.22359830141067505 0.4324462632252012 0.8550912030409751 0.18669016865790725
0.22359830141067505 0.3653016207779334 0.8208281256464443 0.18758826229150985
0.22359830141067505 0.2643833020415684 0.8166689628216348 0.17599309888383333
0.22359830141067505 0.4570239267941275 0.8214762826820409 0.17415848600881736
0.22359830141067502 0.4430436698922906 0.8287329237742276 0.1664966484862961
0.22359830141067505 0.20353381043233898 0.8136462866762152 0.1544245714261801
0.22359830141067505 0.4970675541634162 0.8510575015624804 0.23152211118347035
0.22359830141067505 0.3819344895121708 0.8407711584545996 0.18635843741986066
0.22359830141067505 0.44330307725009527 0.8053247853878859 0.14640568782906013
0.22359830141067502 0.2822830260794787 0.8136724991771924 0.18104576415410054
0.22359830141067505 0.31646164805299026 0.8311779587879566 0.1576582130275925
0.22359830141067505 0.3697479889269503 0.8399476796599143 0.1989978256531591
0.22359830141067505 0.40063009558412277 0.8479681425435157 0.22812547647458598
0.22359830141067505 0.3886215466541237 0.8135044876799342 0.1766898453658388
0.21050918012147207 0.09401110355923167 0.8679668299108698 0.26206581852434874
0.21681313070016203 0.149828119061369 0.8679668299108697 0.29325110258932885
0.2160953322355718 0.32195220787265166 0.8679668299108698 0.2843291266489821
0.2025490157189684 0.16701713189267844 0.8679668299108698 0.29730449523679553
0.21514569444715587 0.13428158397476317 0.8679668299108699 0.28174720693678734
0.21628551782718639 0.17482199642116653 0.8679668299108698 0.30348174118429483
0.21544076284244312 0.2217854876588904 0.8679668299108699 0.27943782822963725
0.2150653198479001 0.3447102706851884 0.8679668299108698 0.2725664666507631
0.2083084977345895 0.23608245242961137 0.8679668299108697 0.3080872923672424
0.32597894721199727 0.08402115503524868 0.8679668299108698 0.2824962768811268
0.5951345597623481 0.08996493939417716 0.8679668299108698 0.2969441712967809
0.9473188718647994 0.09638758680649492 0.8679668299108698 0.3057925002064796
0.5345363010784311 0.08343673310507356 0.8679668299108698 0.2893265218923406
0.7977907416466875 0.08981733392622376 0.8679668299108698 0.2955306918539599
0.3759290218115454 0.08722873253112513 0.8679668299108698 0.27263502453464805
0.7031736512078297 0.09046590065462402 0.8679668299108698 0.29397879080244105
1.0010264290052686 0.09918303183615663 0.8679668299108699 0.27472980374070943
0.2566070476654755 0.08042803989351648 0.8679668299108698 0.3008148094564449
0.5564183163750641 0.0961476669048887 0.8679668299108697 0.2926454714806497
0.526997709564561 0.10181663491947608 0.8679668299108698 0.26552773151215187
0.4354958848353683 0.09412222789927392 0.8679668299108698 0.20952105753130656
0.3002520774951932 0.09537141996139126 0.8679668299108698 0.2986108109433326
0.8289851752755655 0.09498125358810225 0.8679668299108698 0.2855776292679495
0.6128284095666179 0.09195309718896483 0.8679668299108698 0.250052768887728
0.6750154026054153 0.10053542700965949 0.8679668299108698 0.2508524707285809
0.3141514515573085 0.07974645928139154 0.8679668299108698 0.27174716305631064
0.3494547593583768 0.08464426537506618 0.8679668299108698 0.2723263297762039
0.23851161004081806 0.08688637046572484 0.8679668299108698 0.29117641133901223
0.7179165493064433 0.09612518674877867 0.8679668299108698 0.2599763421012817
0.35833362180747125 0.09854165892186945 0.8679668299108697 0.2545923522697771
0.4543834675250995 0.08384725363003362 0.8679668299108698 0.2853623152818479
0.5062651748401271 0.08432453842838994 0.8679668299108698 0.25276595918701594
0.3450945164582617 0.09532609229228589 0.8679668299108698 0.23550765925076142
1.3198751673630666 0.10189213021031897 0.8679668299108699 0.25494577423254816
0.44750884100612376 0.09915925103662207 0.8679668299108698 0.214508683309648
0.4706332330367752 0.08359959799775074 0.8679668299108698 0.262283387592852
0.3968176060532033 0.09177112665308595 0.8679668299108698 0.2543244130359315
0.36263969055566087 0.08574642186780837 0.8679668299108698 0.29622951196595254
0.8989981037122632 0.09213775074046045 0.8679668299108698 0.2539701116356804
0.5225459950935148 0.08659569289030616 0.8679668299108699 0.29090628234879684
0.26328920539125095 0.0953980926387889 0.8679668299108698 0.26606207777914764
0.6763611974739986 0.08923495828355776 0.8679668299108698 0.2745872939152179
0.19659920626178304 0.10260264396211044 0.8679668299108698 0.2742608713223735
0.2000107810475497 0.25877854959451413 0.8679668299108698 0.2728681622190435
0.2044445987640678 0.32373088762778185 0.8679668299108698 0.30210072889458744
0.2058286117120445 0.24792583159540443 0.8679668299108697 0.3150362048068162
0.20242986974088845 0.38450201409580703 0.8679668299108698 0.2550378049019193
0.20559023089595257 0.30168296818048695 0.8679668299108698 0.2771402618322874
0.20590280729615962 0.35328194160959203 0.8679668299108698 0.2590812606567141
0.21141362806291222 0.3327619226465927 0.8679668299108698 0.29421789420211214
0.21399305139974933 0.4416680134718301 0.8679668299108699 0.2797885297451717
0.20553857551121216 0.27789065500667887 0.8679668299108698 0.3020380840383122
0.19683643773505405 0.20491647282021364 0.8679668299108698 0.2867305419032528
0.1998651701916444 0.4874959345645516 0.8679668299108698 0.2613435789850752
0.21762383049743073 0.4151120180774872 0.8679668299108698 0.23169310299717327
1.2138057128610367 0.08177556507496848 0.8679668299108698 0.24564356526774608
0.8796756085237022 0.08995079153953979 0.8679668299108698 0.2832884881799853
0.3961246352230795 0.07568107393622255 0.8679668299108698 0.29774212027468683
0.9111045825525005 0.0864159144136833 0.8679668299108698 0.3068268403295319
0.8206808253279029 0.08693848370388318 0.8679668299108698 0.28611066440692123
1.077965405207542 0.09130873075049559 0.8679668299108698 0.287616742728318
0.858115039486391 0.08211536511276563 0.8679668299108698 0.28450909098235233
1.34175238983846 0.09514037956951167 0.8679668299108699 0.26714930185971514
1.052178071498959 0.0892701750258289 0.8679668299108698 0.27121130045493536
1.1420657217211752 0.08593423603143263 0.8679668299108698 0.27748670126862235
0.7128576166731695 0.08419290792739015 0.8679668299108698 0.25688853699068454
1.1632581408465663 0.0767423909336775 0.8679668299108699 0.3004681709032303
0.9601714733935518 0.09216497796469006 0.8679668299108698 0.263310254723633
0.49418323402458514 0.07827942177186552 0.8679668299108698 0.24485202476846152
0.9215742537725522 0.09163446420084248 0.8679668299108696 0.28073110871452883
1.3105229335812272 0.08651239203095264 0.8679668299108698 0.2938961956237065
0.48277666003280767 0.08119998745328996 0.8679668299108698 0.2546622175419078
0.7667118414896029 0.08146441312954732 0.8679668299108698 0.2952092596648025
1.3510134534062146 0.07839576436265273 0.8679668299108698 0.29366128544941994
1.2606229681365477 0.08023435538406347 0.8679668299108698 0.2870913096983753
0.5563526281431135 0.08048292490449882 0.8679668299108698 0.283698665103562
1.1730371643617452 0.08363603057945183 0.8679668299108698 0.26640451964007306
1.3202793777401638 0.08028659530935575 0.8679668299108698 0.2505537055354886
1.1578401652636852 0.08863374557596684 0.8679668299108699 0.26427500387285613
1.3309034950672176 0.08640013297614448 0.8679668299108698 0.2857159163364479
1.0107453059133253 0.08872020562179739 0.8679668299108698 0.277716080430441
0.33620359587471393 0.0775815534161294 0.8679668299108698 0.29662074125517335
0.9867078528710153 0.0855030005757439 0.8679668299108698 0.3240349514216148
1.1228937818134235 0.08940585309224239 0.8679668299108698 0.29723183152522115
0.7401642064121421 0.08189045730811623 0.8679668299108698 0.26858002639722006
1.0060040881204055 0.07779661338455089 0.8679668299108698 0.2754512774133539
0.898624086068011 0.07964867355790944 0.8679668299108698 0.31079658169267604
0.42035001217243556 0.5244809396952198 0.8679668299108697 0.2561346139004738
0.7774726869078845 0.5166431964787946 0.8679668299108698 0.29960319607917874
0.8538787383325648 0.5236849092992304 0.8679668299108698 0.2655041637356097
0.2513687504961728 0.5106496056863185 0.8679668299108698 0.2512405880715887
0.6350232864206906 0.5102780199637393 0.8679668299108698 0.29115321274491424
0.43297325847682355 0.5240522747769863 0.8679668299108697 0.28389807515624804
0.6715627410794299 0.5219797382671219 0.8679668299108698 0.2895653369126584
0.7419113456028812 0.5249080958922121 0.8679668299108698 0.29645601872465127
0.9302679209647007 0.5170347879628987 0.8679668299108698 0.2718607413529384
0.7016303664248098 0.5248739692809571 0.8679668299108698 0.2471788052745827
0.403176260481346 0.5034693877146248 0.8679668299108698 0.29112561110838536
0.23846600767693843 0.5030765595179022 0.8679668299108697 0.2721963495023181
0.5994867508306474 0.5112061541232784 0.8679668299108698 0.28751925729043054
0.9582750140108524 0.5167648477239588 0.8679668299108698 0.3073707965613359
0.39825478137891834 0.5219490269096947 0.8679668299108698 0.2703415870706444
0.5353732888263139 0.5110764694607488 0.8679668299108698 0.28395097121072743
0.34751893213445273 0.521057004621268 0.8679668299108699 0.25699164907173544
0.2631656453985717 0.5049390893346799 0.8679668299108698 0.29717589058168487
0.6444155313841113 0.5192344541309047 0.8679668299108698 0.27810127487750375
0.5227818404027893 0.508636215912154 0.8679668299108698 0.29945420925221483
0.4429609025451484 0.5175698923880546 0.8679668299108698 0.298878161561401
0.6779847375787497 0.5113579741402339 0.8679668299108698 0.2836402393865615
0.7658162359895033 0.520256611968706 0.8679668299108698 0.30004854946021364
0.36060473378077673 0.5127203091213971 0.8679668299108698 0.31435252216849546
0.3908459456410661 0.5125387675341095 0.8679668299108698 0.304789381697288
0.8673617057749167 0.5214571049404562 0.8679668299108698 0.27236155131407674
0.4905958438976508 0.5150363569100789 0.8679668299108698 0.2632687272416369
1.030891308086227 0.5258472862996538 0.8679668299108698 0.26427015642169926
0.31422069212585235 0.510724728603787 0.8679668299108698 0.2730396629306193
1.2150212290148352 0.5261224823383728 0.8679668299108698 0.27194341177363557
0.7121015943779033 0.5165892205348485 0.8679668299108698 0.27935289070164526
1.182418098990706 0.5018912207355304 0.8679668299108698 0.25408443585907187
0.3688448180649442 0.5014444836585827 0.8679668299108698 0.2734767313588754
1.2070167139312327 0.5076955705669804 0.8679668299108698 0.2919855182904085
1.3850166247847062 0.5184418874230738 0.8679668299108698 0.2885992718813753
0.7862221013361624 0.5034124117755543 0.8679668299108698 0.30135827933404435
1.1439368993922996 0.49964749324161856 0.8679668299108699 0.2683145980886716
1.2474034740357374 0.5105715299595949 0.8679668299108698 0.2684511392828194
0.8067159076866086 0.510402108153747 0.8679668299108698 0.22798642658320434
0.9631156668235271 0.5010069963556367 0.8679668299108698 0.23796369504621923
0.5696333557055635 0.5062541975969563 0.8679668299108699 0.28941981185424703
0.42664830454208613 0.49978076521364945 0.8679668299108699 0.2751786233531911
1.2007311892692771 0.5175186768576138 0.8679668299108698 0.29203466554397794
1.2888946152027996 0.4992992850764218 0.8679668299108698 0.23512189370451209
0.9389833065437131 0.5077422712317262 0.8679668299108698 0.3071279696514318
1.3449806677054243 0.5183211909788735 0.8679668299108699 0.2655248366532138
0.7029125801778567 0.5016641860353138 0.8679668299108697 0.26723135638688317
1.3524385280337754 0.5020761475040898 0.8679668299108698 0.26048567023301006
1.2605421983696583 0.5205622741662342 0.8679668299108698 0.2862044914175528
1.2358450797450766 0.5211526637517393 0.8679668299108698 0.25174474237577127
1.315182093592881 0.50048523775148 0.8679668299108699 0.2718723232041433
1.2717261165022313 0.5106406276209157 0.8679668299108698 0.28146235681642
0.7737666213719445 0.5040227622448081 0.8679668299108698 0.3086468107710022
0.724472124213308 0.5010382319968171 0.8679668299108698 0.2684801253663073
1.1652077271958912 0.5163172327641766 0.8679668299108698 0.28159727456569433
1.3685876187703285 0.5202616436812944 0.8679668299108698 0.29805719795365826
0.45659186125326345 0.5020509478127065 0.8679668299108698 0.25168795588288767
1.259270422901634 0.5092474646491757 0.8679668299108697 0.29281418350316535
1.3227175618259353 0.5109030243670184 0.8679668299108698 0.2839279859898218
1.3760385770531773 0.5102501988994226 0.8679668299108697 0.2813206215943801
1.3838193605727382 0.4705644614645088 0.8679668299108698 0.26810199250051936
1.3929374789364397 0.18395383391664583 0.8679668299108698 0.2860986671076627
1.3841160030545778 0.3157705330281781 0.8679668299108698 0.2652389635301546
1.391362249224307 0.3582526529063599 0.8679668299108698 0.30723399657875733
1.3944704266450518 0.49846540156839036 0.8679668299108698 0.22994140769366586
1.385564945339007 0.44329601065449253 0.8679668299108698 0.24160256637706884
1.3930241127079972 0.4250779400933583 0.8679668299108698 0.24555613986753885
1.3928939866610976 0.37381081836625707 0.8679668299108698 0.29736360248444066
1.3952345787921987 0.10308547127787214 0.8679668299108698 0.26519982347034815
1.3957538414669353 0.3138698514091623 0.8679668299108698 0.28604744674495186
1.3862060546756654 0.2937714120138792 0.8679668299108698 0.27588931771392616
1.3864545664065473 0.19837018146700797 0.8679668299108698 0.29299094463015785
1.3804964424407022 0.2175451214753936 0.8679668299108698 0.25740392701359327
1.3831425426698356 0.11831067398149092 0.8679668299108698 0.2835356014676112
1.3732669603179652 0.2486557870331564 0.8679668299108698 0.27946313894208863
1.3728092378699643 0.33930852571603975 0.8679668299108698 0.26808397931779077
1.3923839029865877 0.125776333779121 0.8679668299108698 0.27646194705244026
1.3725765358083657 0.3109590414439058 0.8679668299108697 0.2723232497229714
1.3826138303732325 0.13721482635284946 0.8679668299108698 0.24452212142838667
1.373901732477514 0.15910711302761246 0.8679668299108698 0.27007430196835297
1.376853821389202 0.20450784395975488 0.8679668299108698 0.29615978554345085
1.3772820124680087 0.23462661007952726 0.8679668299108698 0.2722641773925901
1.3768724496249396 0.32451075517347666 0.8679668299108698 0.23856438624977802
1.3784727230120182 0.16927358100958384 0.8679668299108698 0.2693532401850069
0.4633922423191007 0.10255569219589233 0.859208414750584 0.182447597367497
0.28596048604957064 0.10255569219589233 0.866654948119465 0.23434122903945842
0.5568099518580393 0.10255569219589233 0.8560374500066972 0.21156107411036654
0.9434994830113463 0.10255569219589233 0.8386785959783379 0.17355248487846264
0.9050692589897671 0.10255569219589233 0.8385839274675171 0.17568372301807467
1.269842170560614 0.10255569219589232 0.8541935272300105 0.24913215690179893
1.08673531719724 0.10255569219589233 0.8221228563640652 0.17297783629842217
1.2149190401561423 0.10255569219589235 0.856856878145741 0.2131530394107597
0.7778412374773034 0.10255569219589233 0.8429971201164304 0.19912526256208019
0.6991000244751169 0.10255569219589233 0.8547922698335142 0.23990572693472442
1.0646003859557363 0.10255569219589233 0.8596929331975622 0.15582765665935697
0.8012656396918307 0.10255569219589233 0.8461145955244287 0.18966104419923235
1.325354489383058 0.10255569219589233 0.8155135893955273 0.18063880886134817
1.0816298530150303 0.10255569219589233 0.8367528371794404 0.1872407323501473
0.9944746754927047 0.10255569219589235 0.8491889980305364 0.24838134492269456
1.35078357660192 0.10255569219589233 0.8222472814054798 0.17334963431715428
0.7668799094812024 0.10255569219589232 0.8619983119928618 0.2391836801683077
0.9492922973983975 0.10255569219589232 0.8583296254267846 0.18498444245956291
1.0061542795116472 0.10255569219589232 0.8575022272877044 0.1710320327502898
1.349613871805226 0.10255569219589235 0.8529798874679383 0.2477690250346221
1.2337182955884984 0.10255569219589233 0.8158947320481479 0.20917552810892678
1.245781913462363 0.10255569219589233 0.8330949964884098 0.17452206098557066
0.4396290092258248 0.10255569219589233 0.8572497197834213 0.18700489556206573
1.2930684402188937 0.10255569219589233 0.8278875109434813 0.20584832767490627
0.6894231362694614 0.10255569219589233 0.8653599563390783 0.2559048202155837
1.1927124426070592 0.10255569219589233 0.8263695628507356 0.18000122025413104
1.0454581449223939 0.10255569219589233 0.8596278194928793 0.18943833597239002
0.7499767408304662 0.10255569219589233 0.8399521828852381 0.20377022530649166
1.0446471640659307 0.10255569219589233 0.8474354767474248 0.2209425596259743
0.913050952624939 0.10255569219589233 0.8646768666621203 0.2845668441423883
1.3045693332601207 0.10255569219589232 0.8176022934690701 0.20604411385174154
0.6592846644702643 0.10255569219589233 0.8583048204440605 0.20924010937392395
0.5887509795130798 0.10255569219589235 0.8631857120600951 0.19637607694704928
1.1280653871387551 0.10255569219589233 0.8296416712472559 0.17271691134477948
1.1711718483348075 0.10255569219589233 0.8315211491202945 0.17294888344140683
0.519543462035262 0.10255569219589233 0.8552866424646055 0.1869766068607763
0.6874296768056645 0.10255569219589235 0.8519111193639985 0.23482386637954922
1.248176708500508 0.10255569219589235 0.8444881397732682 0.235931211062193
1.1170526512712227 0.10255569219589233 0.8435402876522029 0.23473814394620152
0.9883963893603035 0.10255569219589233 0.8600484728539298 0.1696554359473154
0.9554777059915416 0.10255569219589233 0.8473471388318135 0.2588754120930557
1.0151682404420788 0.10255569219589233 0.8358193556505673 0.17275898117414473
1.1107774667105572 0.10255569219589233 0.859591849261525 0.18478361557996853
1.2935491053202108 0.10255569219589233 0.8155073396170462 0.21887883681648115
0.8734934591295538 0.10255569219589233 0.8404145690553275 0.21620110047294167
0.890388632963964 0.10255569219589233 0.8502331468122115 0.22136787424459622
0.6055904338911346 0.10255569219589233 0.867331230756813 0.28233666609382824
0.9789988282246198 0.10255569219589233 0.8399923231364779 0.18812464330127882
1.3616051795477646 0.10255569219589233 0.8589147238282742 0.21172397488334543
1.1787351057865092 0.10255569219589233 0.8228838237178031 0.1925542391306614
0.8444256664790469 0.10255569219589233 0.8613774087753178 0.2013226385077128
1.2805980331611757 0.10255569219589233 0.8278564328221212 0.19362463367910024
1.0287575890855742 0.10255569219589233 0.8431523942126913 0.21127617717134625
1.2379795900922914 0.10255569219589233 0.8618489425070783 0.19650174732834083
0.8056369417924917 0.10255569219589233 0.8561563104739494 0.19503860284593375
0.703359918204338 0.10255569219589233 0.8439722764697759 0.24206974323686026
1.2000077527763802 0.10255569219589233 0.8547343993488845 0.2313586922480861
1.1663709268781788 0.10255569219589233 0.8423406953245423 0.23364414490332283
1.033489149417517 0.10255569219589233 0.8593869006694447 0.1610145208632937
0.8265792441339375 0.10255569219589233 0.8469058520601078 0.2450087821476568
1.0008262850677443 0.10255569219589233 0.8305531214093307 0.16075289930848005
1.0598885776923124 0.10255569219589233 0.8426108674956657 0.22709239480870438
1.0069265269006924 0.10255569219589233 0.8443699764695745 0.22993941301946538
1.03752837696937 0.10255569219589233 0.8279357875033124 0.18577144389325517
0.8399169007021787 0.10255569219589233 0.8419306648519516 0.19475165040655731
1.3149898621178782 0.10255569219589233 0.8421998950444946 0.20086279605183974
1.2971252275311378 0.10255569219589233 0.8409432333817792 0.1965798114946925
1.346372832013332 0.10255569219589233 0.8336662709489542 0.18026897488170546
1.1020918349212852 0.10255569219589233 0.8367801629124081 0.1984948928065886
1.2815937162599302 0.10255569219589233 0.8465252398973542 0.24032251472385008
1.1511090048168264 0.10255569219589233 0.8368278724104399 0.18306866506373587
1.0569775982973026 0.10255569219589235 0.8222205779528162 0.17473341687900457
0.8122278928347623 0.10255569219589233 0.836234866149141 0.16504746646558976
1.1262611134776157 0.10255569219589232 0.8671774562466815 0.27182948501837234
0.5792549046348008 0.10255569219589233 0.8546553999097783 0.20480455510231044
0.9361311179629355 0.10255569219589233 0.8571504599612885 0.22025878077237304
1.2702213509363216 0.10255569219589233 0.8168813982887969 0.17852888035212905
0.6163271859134377 0.10255569219589233 0.8468926279430713 0.2276418886728257
1.186686593752885 0.10255569219589233 0.8447641445622094 0.20985764504677853
0.9671103654182316 0.10255569219589233 0.8477641599151987 0.22111710213424804
0.7130804202324432 0.10255569219589233 0.8563684439660484 0.20609929488699255
1.2305920011801073 0.10255569219589232 0.8414157367487702 0.20613953067720783
0.930562009961472 0.10255569219589233 0.8457008395112298 0.222118861647297
0.9617838208431042 0.10255569219589233 0.8350662920452159 0.16347681072048387
0.8517781983131674 0.10255569219589235 0.8522681165791567 0.22696793199113388
1.1021098010664203 0.10255569219589233 0.8512933483941754 0.2401249368502275
0.5994796097863287 0.10255569219589233 0.8562511382666933 0.19367808192198346
0.7645427122142582 0.10255569219589233 0.8420878827610554 0.20443478623521916
1.3282803485341974 0.10255569219589233 0.8374297195805493 0.18276686796923752
1.3298067686112747 0.10255569219589233 0.8586988877173986 0.18660438987687147
0.6340471169584752 0.10255569219589233 0.8541448456326763 0.2272259201633319
0.8558293414899449 0.10255569219589233 0.8418434680351022 0.21624121139991193
1.1504174025668874 0.10255569219589233 0.8246143722655758 0.19401073921155015
1.2131049891039494 0.10255569219589233 0.8242977771617068 0.17071767787383188
1.3336988970591712 0.10255569219589233 0.8258984972948596 0.18564162352449973
0.4903019760759363 0.10255569219589233 0.8575288250658895 0.2035415855446208
1.0745199323824441 0.10255569219589233 0.8480056326987278 0.23310065391682952
1.0877760847592264 0.10255569219589235 0.8489255040673407 0.24874350246319007
1.1459252570761165 0.10255569219589233 0.8550811026472587 0.22861211086964328
1.3087092548029333 0.10255569219589233 0.8283827552116332 0.2030812826801809
1.2162565057640649 0.10255569219589233 0.8408761305775038 0.2119847637707108
0.8198713878717949 0.10255569219589233 0.8562509791678761 0.2324878429296395
1.0129943856119745 0.10255569219589233 0.8665198504858654 0.2411842687915402
0.9151010371139157 0.10255569219589233 0.8496025100431686 0.227447943514003
0.8876678307884565 0.10255569219589233 0.8372538670857379 0.1899367109146683
1.1757240023811022 0.10255569219589233 0.8511226353383811 0.20957333815895232
0.6456684517890956 0.10255569219589233 0.8485626898060367 0.2354905629034336
1.2922897881170674 0.10255569219589235 0.855888513940143 0.20343063616372223
1.1966315720272136 0.10255569219589233 0.8381825720801477 0.16857441574044874
1.2572973040561939 0.10255569219589232 0.8594459389092921 0.23080951237517636
0.9810033160720446 0.10255569219589233 0.8518576259319319 0.17067135007133774
1.1163013467111302 0.10255569219589232 0.8279592320292634 0.19173910683518763
1.2536629619835469 0.10255569219589233 0.8222219834419187 0.1689256031889897
0.3712106003587039 0.10255569219589233 0.8642798173869521 0.26029014827845315
1.2226563598692293 0.10255569219589233 0.8308651662163715 0.15457123736670136
0.7411941709706744 0.10255569219589233 0.8592297492644303 0.21938549015931563
1.136247627981691 0.10255569219589233 0.8379297528198577 0.21235825754679438
0.8757790870358615 0.10255569219589233 0.8528403367289222 0.23895194827039323
1.2695885227544799 0.10255569219589233 0.837045000578817 0.21000616387476706
0.8325134502507253 0.10255569219589233 0.8598237681692595 0.21229668789283676
1.3568041111537326 0.10255569219589233 0.8393664060953441 0.24718065712156848
1.1369699672557376 0.10255569219589233 0.8210638539594254 0.18340155345089032
1.0914598455266118 0.10255569219589232 0.8597498194720952 0.17495252605207154
0.674857196348466 0.10255569219589233 0.8545950379874891 0.24129959165063047
1.3123598274889807 0.10255569219589233 0.8563307451652331 0.23492356328177216
0.754955550049542 0.10255569219589233 0.8609787867073293 0.24684238293865246
0.7805519012944203 0.10255569219589233 0.8548485937817487 0.22743100589835832
1.1949596050466795 0.10255569219589233 0.811872901719844 0.14001418407032945
0.8421782819881944 0.10255569219589233 0.8119581479406667 0.14810690169315432
0.7933939832928254 0.10255569219589233 0.8146040106109601 0.1734835859079891
0.9365522069659357 0.10255569219589233 0.8119707528524994 0.17592853959279073
0.894673717337629 0.10255569219589233 0.8056747651604501 0.1932555039914913
0.8325797197928491 0.10255569219589233 0.8316027482157611 0.1581096723771344
0.7812047219700637 0.10255569219589233 0.8092318920610992 0.14541708569287823
0.9972851961772757 0.10255569219589233 0.8140205544308761 0.1533867711041524
0.2754239574472662 0.10255569219589233 0.8455640232737491 0.22812116202336757
1.1250112652314055 0.10255569219589233 0.8051177466590289 0.14888633772916424
0.7633798529285729 0.10255569219589233 0.8202052768546761 0.18952937339322548
0.5284661863986181 0.10255569219589233 0.8137015333655016 0.169945348910424
0.6352290756891553 0.10255569219589233 0.840457999602235 0.2058430803906678
0.8671253950377432 0.10255569219589233 0.8054595571903421 0.14844751825366
0.8962170811297379 0.10255569219589233 0.821735335099964 0.19845016246857208
1.1789116635546886 0.10255569219589232 0.8096990302927833 0.14638354387183883
0.26961302235656526 0.10255569219589233 0.8202031329050521 0.15843300619268544
0.564703104653845 0.10255569219589233 0.8237207233806108 0.1676966289743903
0.5969617380592444 0.10255569219589233 0.8437661909188217 0.2126068412668119
0.3977709375537007 0.10255569219589233 0.8411301423291414 0.21934936414378564
0.6470950963975792 0.10255569219589233 0.8347735997466694 0.1854658755122866
0.4119144747397786 0.10255569219589233 0.8225149897934005 0.17875527920209758
0.6980327722699513 0.10255569219589233 0.8247452077321793 0.18433898039778615
0.2561931384912942 0.10255569219589233 0.8208916317731068 0.16092433387836214
0.6552509580477955 0.10255569219589232 0.8128929833666332 0.15089042164678823
0.33837549483379514 0.10255569219589233 0.8601360533385602 0.23479246524114358
0.3643030650516621 0.10255569219589233 0.8519326364913635 0.22833638209718846
0.6848553877449215 0.10255569219589233 0.8051515244984925 0.10761446875097566
0.5729928746567177 0.10255569219589233 0.809435555449596 0.16534563040375194
0.6889224848482034 0.10255569219589233 0.8327530160015482 0.13986797520706037
0.931626720689399 0.10255569219589233 0.8247564334585076 0.16627597607761319
0.6709341789191748 0.10255569219589233 0.8334928538507159 0.1690533841403135
0.29810377929020887 0.10255569219589233 0.8592796313012369 0.23497278392766713
0.6577337887923083 0.10255569219589233 0.8236255721561494 0.18103269216700288
0.5824516235341728 0.10255569219589232 0.8421636657947973 0.22609732812459785
0.6863264851083034 0.10255569219589233 0.8184404223218591 0.16346184733072366
0.2978764788466076 0.10255569219589233 0.8423928880031197 0.22071529428662565
0.25094702874266794 0.10255569219589233 0.8427907748078238 0.20860958778456337
0.46442461838749516 0.10255569219589233 0.8144255954222123 0.13779235943427448
0.8017874107147278 0.10255569219589233 0.828331723633339 0.17056167518377227
0.32778909672094286 0.10255569219589233 0.8437631367496877 0.21062632471822415
0.5730320527369946 0.10255569219589233 0.8338474454643869 0.1770465260736295
0.7514268540983076 0.10255569219589233 0.8062216965609236 0.1396416853090769
0.5623658344143592 0.10255569219589233 0.8052122940225919 0.1626008011910233
0.46093763395244297 0.10255569219589233 0.839359758578298 0.19376134907146517
1.1546420029551316 0.10255569219589233 0.8127797685492973 0.19890463057316152
0.6207172362568729 0.10255569219589233 0.8281433077463718 0.16871849018498034
0.6226160188875131 0.10255569219589233 0.8113760256128515 0.18111904638175697
0.4623732351222709 0.10255569219589233 0.8274705413213729 0.17467983917376004
0.31836820657795917 0.10255569219589233 0.8173012578997593 0.18043648223176756
0.8167480089859145 0.10255569219589233 0.8231935129101318 0.17968544848109871
0.6452005493684188 0.10255569219589233 0.8232881601097315 0.18708666582216882
0.7177643352105111 0.10255569219589233 0.8278482073040278 0.16491681144407472
0.4198270305809515 0.10255569219589233 0.8409067758904877 0.19607777751288225
0.45054028369344906 0.10255569219589235 0.8191641219054223 0.20374673657065095
0.44205999720058253 0.10255569219589233 0.8068954618390227 0.15452015877224254
0.38382986194418633 0.10255569219589235 0.85215256593068 0.22779597715722558
0.5416286933012033 0.10255569219589235 0.8330137840218419 0.1739114006687149
0.5670704638511891 0.10255569219589232 0.8449139374672685 0.245647399574265
0.7017196234082826 0.10255569219589233 0.8115578672743242 0.146629286493763
0.9516078976445692 0.10255569219589233 0.8162349933457742 0.16757414061286183
0.8280073503091853 0.10255569219589233 0.817500825244653 0.15740909464139125
0.4301461781570286 0.10255569219589233 0.8327815853573259 0.16620278971817026
0.3672869721808576 0.10255569219589233 0.8376306295432265 0.1844450081674123
0.5016794226372987 0.10255569219589233 0.8319391489189346 0.1796951653211192
0.7162628702153189 0.10255569219589233 0.8158620733448878 0.2019795878708158
0.9108783405015645 0.10255569219589233 0.8132806440231064 0.16326242332794325
0.67601357743025 0.10255569219589233 0.8229929886038972 0.1638369863221706
0.2735855174157365 0.10255569219589232 0.8323474702440702 0.18421692137019496
0.5019992605850072 0.10255569219589233 0.8431450401093841 0.22775010821485284
0.3386754636341766 0.10255569219589233 0.8221808858048423 0.16809580511161593
0.3558363588931596 0.10255569219589233 0.8241826872533651 0.16976697166284502
0.6055706510446497 0.10255569219589233 0.8148062203021308 0.18347497176160593
1.0731053494726444 0.10255569219589233 0.8162508903376 0.17661281732688344
0.6574200365960681 0.10255569219589233 0.8438624532871182 0.2073029056387274
0.23239612881924646 0.10255569219589235 0.8674392067875002 0.2678937698376383
0.7703847207046027 0.10255569219589233 0.8312308890159259 0.1736421450752555
0.946275761705259 0.10255569219589232 0.8268579812062968 0.1712346482260215
0.4425801710926813 0.10255569219589233 0.8329166253724479 0.1688159896869123
0.31639404655424597 0.10255569219589232 0.8593806123020176 0.19286565332753314
0.7357332385247066 0.10255569219589233 0.819454411568789 0.17603882864808942
0.28448148229862347 0.10255569219589235 0.8118133228667458 0.175040473082214
0.2868709590946277 0.10255569219589233 0.8481675953251466 0.22826944167182087
0.31465811160484686 0.10255569219589233 0.8431250178498297 0.22057778129941627
0.5972375682038922 0.10255569219589233 0.8221380641514835 0.16880603067975958
0.4285970061178747 0.10255569219589233 0.8178259612134019 0.17983467417869653
0.4264554746819539 0.10255569219589233 0.8561794713507399 0.22266891051222124
0.9110979565254278 0.10255569219589233 0.8252039220389049 0.17912497287086337
0.747351608670709 0.10255569219589233 0.8243130079198588 0.16746814741721525
0.3906579902010042 0.10255569219589233 0.8198198492120157 0.17870090827435645
1.099867376630978 0.10255569219589233 0.8146693064494446 0.14940396727306135
0.2351790334949534 0.10255569219589233 0.8529504476152404 0.23798730020292475
0.3940875546463105 0.10255569219589233 0.8580149782744824 0.2167733332439027
0.967085823142991 0.10255569219589233 0.812035166572727 0.14492452679127332
0.49894408752848207 0.10255569219589233 0.8167465244904064 0.1597999465836807
0.2484544184329956 0.10255569219589235 0.853451579233751 0.24520776297290323
0.3077898746536488 0.10255569219589233 0.828054065150133 0.18634977804599945
0.3512133238523626 0.10255569219589233 0.8456575495700601 0.24466839413110844
0.7160620912347605 0.10255569219589233 0.8396650643389338 0.19185916718814067
0.8119247800276188 0.10255569219589233 0.812542453244824 0.17969592956116165
0.5193048478219415 0.10255569219589233 0.8277958473739679 0.20483246465561014
0.7572064904535124 0.10255569219589233 0.8314190129840742 0.1690903801340003
0.4758739280979255 0.10255569219589233 0.8498185123575266 0.26593945764746835
0.49028467896277855 0.10255569219589233 0.8418066509339229 0.23084201542532928
0.9781200229677689 0.10255569219589233 0.826024954337059 0.15631008643603356
0.29731664415310366 0.10255569219589233 0.8222330636308055 0.179513812240071
0.4292887496895019 0.10255569219589233 0.8054663029098892 0.16571215545765453
0.36598819582673414 0.10255569219589233 0.8120863636958522 0.11732109505710857
0.637634294556026 0.10255569219589233 0.8133506648358153 0.1607413789169864
0.7923618614570727 0.10255569219589233 0.8365942719173964 0.16453820631566615
1.049926295469699 0.10255569219589233 0.8081562365771497 0.1548000610008539
0.378980956454831 0.10255569219589233 0.8413483922322985 0.23297203441527423
1.0274006139905436 0.10255569219589232 0.8159144106706027 0.20708761654298827
0.7838968242156099 0.10255569219589233 0.8218485230616727 0.179213668407077
0.26298221768599717 0.10255569219589233 0.8589016799834737 0.25164610639396756
1.12295739825785 0.10255569219589233 0.8182611997780521 0.19667732260057433
0.37594800918016014 0.10255569219589233 0.8297800146365609 0.16886738013602579
0.6077794955219438 0.10255569219589233 0.8275269619995823 0.16237400212263642
0.8776696873617644 0.10255569219589233 0.827120870893922 0.18672176114178088
0.38013986863588056 0.10255569219589235 0.8053599791899135 0.1533937216990392
0.2642504093253191 0.10255569219589233 0.8431792930734034 0.19076783349164203
0.34244639285684464 0.10255569219589233 0.8338465230634944 0.15440172409093247
1.2747358048461968 0.10255569219589233 0.8066863818278105 0.15395777403432995
0.5276322936132936 0.10255569219589233 0.8379197391973985 0.1742788615921412
0.2445761256377046 0.10255569219589233 0.8294596761193836 0.18719077295073305
0.7330677851374466 0.10255569219589233 0.8342624932534602 0.15593590302582777
1.0892923214994383 0.10255569219589233 0.8075422703204578 0.15344064488661038
0.290943347186679 0.10255569219589232 0.832431944418786 0.16775998265564984
0.40594038885536843 0.10255569219589232 0.8505706870200453 0.2301153021250161
0.8731448877068335 0.10255569219589233 0.8149280851095976 0.17682590685171387
0.3300828917690387 0.10255569219589233 0.8140891417527572 0.1885973133441955
1.0628961490947708 0.10255569219589233 0.809842239776422 0.1639958819151016
0.8477008792621447 0.10255569219589233 0.8229322999016372 0.15639581243207795
0.5409410755756986 0.10255569219589233 0.8108101454513934 0.1966069004208723
1.2538810001073557 0.10255569219589232 0.807965302738836 0.13176150999433006
0.514268829033451 0.10255569219589233 0.8417086009936612 0.20069470201727738
0.47361257390305084 0.10255569219589233 0.8332634158850605 0.18257642953083802
0.4017402839449983 0.10255569219589233 0.8150785369998571 0.18327478922702942
1.2119838781866816 0.10255569219589233 0.805428759166 0.16167797883767204
0.2340586916190301 0.10255569219589233 0.8158673127452312 0.2254688366247709
0.37851362126656085 0.10255569219589235 0.8186837325261754 0.1725304891913404
0.34790187759103197 0.10255569219589233 0.8124392048614839 0.1859075443861274
0.8616124002076233 0.10255569219589233 0.8220248415492948 0.19538793813174254
0.5442329462884838 0.10255569219589235 0.8465631688704625 0.22857563257477317
0.4804659153279196 0.10255569219589233 0.8190401192472386 0.18407300416598457
0.5305076497190377 0.10255569219589235 0.8501113641621219 0.2286925592082222
0.6673274822421429 0.10255569219589233 0.8101829394245799 0.1565888176692515
1.0421622777997082 0.10255569219589233 0.8177709992854445 0.19594801601880182
0.5527740013851974 0.10255569219589233 0.8189460471022965 0.17064343907528814
0.320555197687291 0.10255569219589233 0.8290465889209658 0.16708910265345772
1.0167841459953648 0.10255569219589233 0.8189897549512151 0.18040970195296335
1.3687981963157654 0.406262889950317 0.8340671229882166 0.15275859659662605
1.3687981963157654 0.4697956815560355 0.843866261601468 0.20832973475619668
1.3687981963157654 0.42777887038116613 0.8405314085677523 0.21460361990993307
1.3687981963157654 0.36383427504693816 0.8602808820099259 0.20667051466122927
1.3687981963157654 0.32415034951544436 0.8493545745833155 0.2393213777917111
1.3687981963157652 0.48725098389694266 0.8352914276266996 0.17189769604073615
1.3687981963157654 0.3366170230940274 0.8458441369365126 0.20480145196115557
1.3687981963157654 0.46849363881860506 0.8229243451742936 0.1961664563199573
1.3687981963157654 0.44412087049920584 0.8273382767434374 0.17289970511999234
1.3687981963157654 0.4393956987534286 0.8480504471239881 0.22960354562253646
1.3687981963157654 0.2566050251741127 0.8586993318048495 0.19153346980255156
1.3687981963157654 0.46250312451250775 0.8342311617774509 0.1686536554966532
1.3687981963157654 0.23169817000401272 0.8592867846714953 0.21282270856093274
1.3687981963157652 0.4146114461892479 0.8566655709429998 0.14282407192003052
1.3687981963157654 0.312495164241812 0.8523519492251093 0.2297673453559403
1.3687981963157654 0.3967901742924323 0.8428837779237373 0.22654706869564942
1.3687981963157656 0.3230034987545931 0.8361539028762226 0.18029897522812335
1.3687981963157654 0.44986421353545725 0.8544967494206488 0.20884986646568754
1.3687981963157654 0.3903813386026156 0.8223418048778932 0.1706624110700828
1.3687981963157654 0.19858933764379488 0.8610594299034013 0.1755582155310972
1.3687981963157656 0.47516061142027893 0.8105757243560793 0.19414529335749187
1.3687981963157654 0.37107936842772027 0.8479409794088038 0.22867275098490297
1.3687981963157654 0.210777213044815 0.8566808916521875 0.2083730850238355
1.3687981963157654 0.4990398165223484 0.8417485336857462 0.26916888345389306
1.3687981963157654 0.25704557791233984 0.8457235009791926 0.23264196557925734
1.3687981963157654 0.38256195053038516 0.8565981704934092 0.2314408402033375
1.3687981963157654 0.41891534734450125 0.830817754797021 0.14193453042935542
1.3687981963157654 0.40130162291141436 0.8624686575200695 0.2311086750669805
1.3687981963157654 0.35500113050423865 0.8296416969212976 0.16967405965448223
