x y z curv
0.7341727693549082 0.16369656405695424 0.2239980250597 0.16158268793595204
0.7078354763537659 0.10756018086816856 0.2239980250597 0.20955016675125454
0.7035385819970094 0.17437671661753062 0.22399802505969998 0.25022951088184386
0.6951021824110055 0.1349213686368013 0.2239980250597 0.25775463064628296
0.677135692410565 0.0704512483119524 0.22399802505969998 0.19457033436603982
0.7189713595035695 0.16688571201785216 0.2239980250597 0.22807993275710092
0.7007596070845514 0.12408618697245986 0.2239980250597 0.24050793563006131
0.6794141196181339 0.17184919407150637 0.22399802505969998 0.21433400226849667
0.7146440056324044 0.15319975572306577 0.2239980250597 0.21268138994239588
0.5601132065057755 0.05185937998662421 0.20622841444054105 0.27970482257772566
0.5601132065057755 0.0416475980132405 0.194658532035016 0.24115779112662264
0.5601132065057755 0.032067017144512544 0.20421324315179035 0.2861415998273577
0.5601132065057755 0.019937716614367842 0.2032596299938555 0.23209833800502627
0.5601132065057755 0.02487623923755277 0.2136296323431807 0.2751658514491619
0.5601132065057755 0.011390230783019446 0.21509496602905318 0.24911651745008123
0.6875913884814828 0.17471790313720703 0.19812573655658078 0.25102823433862237
0.6809081937668904 0.17471790313720703 0.21341950807600296 0.2648591748788564
0.6958543324734152 0.17471790313720703 0.2107807025434722 0.2873218573989198
0.7194394389411045 0.17471790313720703 0.2109339187100689 0.2360047661945921
0.560905326219649 0.0 0.21637384638367316 0.15280285035464763
0.654906203334167 0.0 0.21588453520342687 0.13550464907582027
0.6019851099795315 0.007533388471637951 0.20630806300512938 0.16138570637528063
0.5913659708098877 0.004157381837118637 0.21036413698717338 0.1482374410873892
0.6228062717366645 0.0050865464501000535 0.2092478001964767 0.15175447947094392
0.6609865049633817 0.006695723408623535 0.20731446845262452 0.17713909291737426
0.6419088745786447 0.0020681289735235706 0.212874251776431 0.12810955424016787
0.5945432376096429 0.018046885350269222 0.19744534619489842 0.1465842689061765
0.6646547682267925 0.016648036510182918 0.19857532679081263 0.18967564606935752
0.6717766920433744 0.03967744980247092 0.18802561022754027 0.20319822164180967
0.6494328690954614 0.031896199910214015 0.19030642521054325 0.1853804649046159
0.661823739563611 0.031104269977633395 0.19053855316951235 0.20919659074214605
0.6534346000019873 0.020650833994913565 0.1958746307315657 0.16996137192025637
0.5868096224088027 0.027201005352791668 0.19244533735554722 0.1331529634095921
0.6789568829513569 0.050908773929395926 0.18698689341545105 0.17350425495089544
0.6826334153489464 0.1190128230724819 0.18698689341545105 0.17422642925132692
0.6803370766206592 0.0731512319479204 0.18698689341545105 0.17697659458101117
0.6911888531925947 0.08992529229371551 0.18698689341545105 0.15611702607883038
0.6846904356322707 0.159549349156717 0.18698689341545105 0.1856771116049239
0.6759611629318776 0.16774074977447806 0.18698689341545105 0.10462458427166503
0.6632727419497789 0.05906030462056607 0.18698689341545105 0.1634171863146705
0.6204198017417599 0.04793197494904685 0.18698689341545102 0.1893731364985615
0.5719639448986652 0.05717553685067365 0.18698689341545105 0.1239759752584864
0.6543045805704507 0.043925052242559576 0.18698689341545108 0.20850107144685148
0.6083274002950387 0.04817829733861334 0.18698689341545105 0.19916563630442874
0.6399621021576286 0.044394889151008886 0.18698689341545108 0.19654799912262944
0.6157841197267746 0.06047189235687256 0.19424608852615333 0.16073244445128312
0.6271914163271997 0.06047189235687256 0.18895838119707925 0.10839463767407331
0.5936183185844266 0.06047189235687256 0.188520301578615 0.09225295042654671
0.5654856772894719 0.06047189235687256 0.20750265221522707 0.2139613703888348
0.5749864173239527 0.06047189235687256 0.21391903848647723 0.2332304801348009
0.5782748789143012 0.06047189235687256 0.20041782996635227 0.15330050827097375
0.6377305554918188 0.06047189235687256 0.2221890765857828 0.21007542586880712
0.6238279561631763 0.06047189235687256 0.22395701880314814 0.19274211732975485
0.7264252569301739 0.08119870886910538 0.2051948072545497 0.16871852418128164
0.7268083610493123 0.14204529860932597 0.2056550843861654 0.15098994757392709
0.7337515485007344 0.09826318486291252 0.21399691691878336 0.11738341333184485
0.7332047118924612 0.14643323249589413 0.21333992480373015 0.12197899960805299
0.7180736560328354 0.08433199950074773 0.1984432097728017 0.14599276041527748
0.7175554932006716 0.1062572424591603 0.19802464135490683 0.1475168180470062
0.7199392057739573 0.1670141614680388 0.19995018818803242 0.17825680297157537
0.7180970172817533 0.15598045051967005 0.19846208083107267 0.1400495213463564
0.692793251447864 0.11228722949105926 0.18731786675206885 0.17548303506615373
0.6947355081029255 0.1366038078669055 0.18788717478625883 0.19515542845684775
0.6940252869181512 0.1679204415537972 0.1876789970330818 0.22058616464635755
0.7028909024463965 0.10363254739136012 0.19027765778943237 0.1838041858238118
0.7135791859234639 0.09630772530710541 0.1955315922314512 0.1633187009762026
0.7082323882229088 0.150190312965807 0.19273231616131126 0.1626936929341434
0.7062977293166248 0.13728473627686522 0.1917194399158379 0.15805314717949695
0.7066034293445019 0.07829831906831539 0.19187948688611853 0.1814737580872243
0.7054980069733254 0.11927329234104656 0.19130075124577248 0.18830770325836732
0.6744133532047272 0.08524487637828748 0.2067528783392118 0.1948674893532144
0.6744133532047272 0.12120436246555649 0.19843616699997235 0.15341802998414802
0.6744133532047272 0.16409777621537208 0.2003919987154324 0.1726617921012706
0.6744133532047272 0.13885657804725698 0.2021080668754906 0.1563535755440229
0.6744133532047272 0.1042099609288962 0.2092917180380795 0.21624255300941145
0.6744133532047272 0.0806604944869166 0.19337129826320681 0.17904223448741735
0.6744133532047272 0.13198940397071932 0.1919777908832736 0.12626365817356877
0.6744133532047272 0.0727230997251978 0.2076978903519609 0.23914349152200035
0.6744133532047271 0.11020490826428787 0.19655673271577234 0.10197897645915815
0.6744133532047272 0.09417015894668165 0.21486640542508914 0.2125595551717782
0.6744133532047272 0.1439405262824984 0.2227888620818349 0.20091201425458002
0.6758636248914776 0.0015000162903223207 0.21371739154713282 0.14067093039420692
0.674029835375714 0.009188645701272 0.20476833924590834 0.19742544516663535
0.6745377740452912 0.0188773939294055 0.19708971535442316 0.23093704106831955
0.6748198493565888 0.029749613548002284 0.19132985368115593 0.23500293665755898
0.7038464642444305 0.04827282253518878 0.1921782283685652 0.2828825576429492
0.692455008694091 0.042898829448900194 0.19007749691456619 0.30128783185472335
0.6738343314661591 0.06158543665272713 0.20255011455471494 0.261715169788229
0.021795031336338165 0.012850186866511529 0.007446709088981152 0.1611930232736835
0.0128900159367999 0.010080125621160091 0.0 0.23426496297983443
0.012796800112527717 0.022199838601050556 0.006299666072761282 0.1611720087328212
0.006846477480370717 0.04391315147617329 0.1590810147904494 0.13327521815285537
0.014084098258341605 0.048858748809619136 0.19070685937188256 0.24392197349140274
0.021268713000933383 0.04377312653387669 0.17543570234066977 0.19141705334787387
0.028160343729321892 0.042437666573715574 0.18648696778534862 0.26783319955633167
0.007895696053291178 0.04749352797113854 0.17820540729869144 0.1662471177250896
0.03398365685697087 0.03510041986277754 0.16897386585592025 0.19812164524324075
0.038254655898671996 0.03475689995870679 0.1885430575283912 0.3035242183074366
0.04034698308266289 0.029868789364666106 0.176985594160939 0.23212828965936017
0.01793738609024315 0.04303722117131939 0.16452678950831912 0.1140761016972931
0.03962093415047996 0.023750704578629305 0.14891944086649042 0.14404328060262891
0.042115677265128756 0.024730727141687763 0.16753079378579 0.1558510889078288
0.04852493826263683 0.018579962545369894 0.18883703546099384 0.2298924682143766
0.03757189813559109 0.028945386549495876 0.15884852958730925 0.14033676769721362
0.011681148494014797 0.04137171636319179 0.14630190543905225 0.15714645849728925
0.0006301946995319013 0.03973804744413181 0.14125058409516228 0.11561347164228082
0.02318149186220507 0.03803030678814082 0.14550251816086437 0.21150849064011268
0.033021813530687526 0.029606700504444174 0.1368717282165967 0.19596342453397614
0.03311937023647922 0.026869508634221037 0.12506002528951454 0.17216324852794415
0.029263295227741373 0.02873294215807532 0.1135764766907516 0.1766800938313302
0.028104716684709957 0.026279786478999242 0.09529729202101771 0.17897678320846486
0.02445892380089184 0.02634701399185521 0.07881041636769337 0.14140216832678912
0.02505376362603082 0.022427838481729814 0.058751931801472965 0.14649893981926812
0.018324324084944166 0.024356422281537258 0.04117885497261207 0.1225601187560803
0.014324682939830375 0.02327783856862992 0.019239088790989456 0.132705766726251
0.02201923202159594 0.020552259112671372 0.031931139890575125 0.0989873352129305
0.02757394418934342 0.012711468406262808 0.038953929399255204 0.1077328297170851
0.03318401339562701 0.017270182498707647 0.0860164722313948 0.17244794117726361
0.035147906967970044 0.017821915883971293 0.09970849224524103 0.15796127666900464
0.0388240278995469 0.01572956192719091 0.11842174677868683 0.20349020804215798
0.029913921254932897 0.019187729228606534 0.07102800778213711 0.15973629588163996
0.02324994207517747 0.03627783743427968 0.1352688340683534 0.19151126693649118
0.048692198687401544 0.011238764193689438 0.17584817379347242 0.17783512312936892
0.05189732246462294 0.00541777691867743 0.1915108747817847 0.17614671733714854
0.05449842241149564 0.0014454067639538871 0.20650969341724856 0.1327603136126548
0.045001133496033255 0.01102062668102326 0.15082106400324083 0.12279167197837242
0.04056827924631623 0.01906284884316537 0.1383552778840576 0.1637867944881323
0.0103230977268225 0.038460073879270876 0.12893526305477776 0.1707251407202626
0.021030142311885727 0.03424609619361712 0.1175887363100343 0.18213869825995765
0.009693273566775854 0.02457770127170636 0.02998888839215805 0.11984098300800063
0.004826476297059535 0.023521134587571768 0.03952590672010753 0.11840606123628258
0.005043013365415469 0.026494041970265437 0.06073222694841303 0.14909617773488304
0.002383420537877433 0.01940458330054977 0.024631830765423936 0.121172439689022
0.01079441560216896 0.029375241493239994 0.07007042831397822 0.15527801710254738
0.00908826313041591 0.03572898897126906 0.11285673472567202 0.18939114875729723
0.01080886987140785 0.03283370827981104 0.09468397337976991 0.17451914981733677
0.014514861622921248 0.031065319886926006 0.0830278191193774 0.16849392704832408
0.01782017754805662 0.03328494455431188 0.10406687516299692 0.18188441391660498
0.014815581303210656 0.027335251003781764 0.054469147598470206 0.1332404678407933
0.002668524827275457 0.03232444490749256 0.10258348517413227 0.16503300740910087
0.0032622875927894833 0.029339358743857402 0.2236173922173517 0.15214067317237837
0.002072653080137073 0.014810746843535116 0.005043883242359003 0.17993140725388668
0.0002324504005421448 0.021614397743838838 0.21273303546284553 0.1631986687326869
0.0002386557781056778 0.0388453857691499 0.20814407381633115 0.13537249738243892
0.00024535051304407947 0.018398475939380116 0.20319490135153206 0.14445597319474024
0.00024187834736770795 0.05085142250766589 0.20576025493059139 0.1315151590460221
0.0002601256324298013 0.027759606703101562 0.19226819287987468 0.15879952566041206
0.000257274592263784 0.03776167448680881 0.19437568177095452 0.14407038548713202
0.0002629973203924802 0.04923572473276579 0.19014260860130358 0.12406181633209955
0.0002741462584104524 0.03678070417697403 0.18189892033958 0.14272746658890492
0.0002895023201849319 0.01764816457634085 0.17054783838152743 0.1407037520438315
0.00027360043239106673 0.022349828322605122 0.18230456494881686 0.14181167325030905
0.0002905746707730179 0.04127381670742283 0.16974987000615716 0.08888174607068348
0.00030591765506799123 0.023071835237146687 0.15841623457674728 0.17122281788273747
0.0002945651588862339 0.031053577061336598 0.16680319179300537 0.13216013723936695
0.00032212595038226186 0.029420050484319733 0.14643474499947612 0.1889400570833361
0.0003116614494966109 0.011148238547254972 0.15416600351170126 0.14238095772413456
0.00034055137410232553 0.028779611388983765 0.13281015121199996 0.1318312868355343
0.00033037391737372523 0.01994414030292773 0.140332832817002 0.150387106055572
0.0003534299909647154 0.03544425977281361 0.1232893583895336 0.1499562484119041
0.00034607295738342027 0.017489371440853142 0.12872810499799145 0.19136710466666418
0.00038193238410361374 0.020622075097977602 0.10222797509514764 0.15890989039935782
0.00036622682801512813 0.028051037305827135 0.11383073971920583 0.19944274179928126
0.00039682839174864785 0.02335342847765378 0.09121572545835417 0.18764804973732008
0.00041923152731159207 0.022621904140881235 0.07464675363523782 0.15266960231686322
0.00045471699015933834 0.01676946447054848 0.04842025217421526 0.12913106472628158
0.003357102230676901 0.004901976301651622 0.015517870000550112 0.1333559643557938
0.016611482753681607 0.001795880654496801 0.004598843836446109 0.21641049197856538
0.010874581659955319 0.001323219316850696 0.033866510181659704 0.11290366463347105
0.023545142606368787 0.008023534336158315 0.016883814165340294 0.14454835979758934
0.010908630002623538 0.00142545886360486 0.05325285197783273 0.127195038963806
0.02416112087095443 0.004676207814735071 0.032780122079708214 0.12524696843432995
0.02793755796778285 0.004720922490457072 0.059109490306082646 0.13994356613134395
0.017202659336654616 0.0011110186555881862 0.024114403199510293 0.12944923788319448
0.035119693269035086 0.00012384941704778583 0.20252863401238164 0.14540781584737092
0.03561262547032697 0.00020215559813604629 0.19157722078254835 0.15018169183340752
0.03568286885185423 1.595726900925106e-05 0.21551479691960435 0.15093995681408415
0.024176294860785336 5.253216110886121e-06 0.22059234546681566 0.15731877615337522
0.02376537217453216 0.00017499640333741792 0.20465831463053083 0.13264082604643412
0.02300283450687893 0.00032384246201511895 0.18548609511444358 0.1549273307560146
0.010872179498565232 0.0017768111607313103 0.06770934501417958 0.1369158382646973
0.003990336604724795 0.006854435954075242 0.07824336721693852 0.17572812235070684
0.017126079790607263 0.0008595645606068658 0.10228514697843721 0.19009872505421693
0.005418938706682754 0.005371744514183829 0.09139807138687843 0.1555290428841098
0.004647637021114306 0.005914892533320801 0.10489406812741812 0.16800046939752405
0.014821039304212857 0.0012883444469160446 0.13288943830397454 0.20243419850101907
0.019468481235957052 0.0006641535221624952 0.157804343694232 0.16988788976823457
0.02842776935922921 0.001657630555757647 0.097036910060467 0.21515103421865905
0.018599296755464602 0.00043491027480612804 0.07572815824955345 0.1519362882100485
0.016711224547689068 0.0008651200814577239 0.11290831634815926 0.18254971617883983
0.03339510795289133 0.0005980206554656098 0.16572033181864437 0.13986492613669044
0.03593597800762861 0.0012424426377568901 0.14843407480265433 0.16428512695626132
0.026581680223981073 0.00028337238604573753 0.1386149947685399 0.19794822181306984
0.036940705913500814 0.0028101089218120004 0.12542978997721232 0.17150555857276012
0.015085775914679543 0.001086773327333471 0.1782123621270828 0.17554429225936885
0.0069142636320794065 0.0033808471964701077 0.15168214164712399 0.16993463924450414
0.0026612423704434488 0.0075921405580017896 0.026899249104687224 0.11043775171867695
0.03364466231280732 0.00760480071699173 0.07552896749395287 0.17246038330630517
0.013876825005699924 0.00046003871192290796 0.21013681442283125 0.14914967918369257
0.021464326180912114 0.0016498872268423115 0.049586314143325205 0.13890878468281617
0.037534701833655634 0.0004970719159923293 0.18115909762484728 0.15499974684350687
0.02768314600726845 0.00021702528346094057 0.17472616646740757 0.15904490268231794
0.028789232743779838 0.0011655954421239305 0.10928504970629092 0.20224064731372335
0.026388325169339675 0.0006148543617726968 0.12125680414730726 0.17394709441258047
0.01806095858655013 0.0006511835349416407 0.08990005637302331 0.18929377512456055
0.0016861000218989402 0.009316261267532235 0.06548045611773644 0.1318126112882816
0.001454499278320004 0.004824624856304069 0.19565219038547266 0.1357111232843996
0.000822390100274989 0.006362325939589421 0.206659802198015 0.1625698544819867
0.0014762698786877717 0.005333638656224387 0.18091608447480645 0.07681672143636119
0.0014101861061985774 0.0062608802615601025 0.16375948155423733 0.07955436175946148
0.0011940844942144755 0.008008653034689958 0.11857752350590842 0.17919202595380707
0.004400824402707294 0.005035396817716811 0.13194237004558276 0.21690796819040867
0.0007140783675460289 0.008653330437323737 0.14122700445096353 0.17133334894144084
0.02959290126001487 0.05521149915908338 0.2239980250597 0.19427013870551993
0.01933614667044488 0.050538375849140435 0.2239980250597 0.18814907759328317
0.05002407001835639 0.08086373619435229 0.2239980250597 0.25663798704327667
0.022086379890591017 0.07674969325594631 0.2239980250597 0.19891460130941613
0.01379794480774703 0.12234599802526237 0.22399802505969998 0.2064790910205969
0.0007493667637668469 0.14679066850848657 0.22399802505970004 0.15138299257658377
0.02408602141258415 0.10137098492738705 0.2239980250597 0.1925030056435529
0.00881138381501165 0.09573183017669591 0.2239980250597 0.176279966262468
0.040029024474617564 0.1362138048294969 0.2239980250597 0.24359285003204986
0.04185547446754867 0.11171772473445495 0.2239980250597 0.24477332584593972
0.02891568097054063 0.13783994333329005 0.2239980250597 0.19798181159268585
0.041777313884546495 0.12491499306405715 0.2239980250597 0.24958850938089627
0.059887743857672704 0.16569284475162238 0.2239980250597 0.21239792903957336
0.017473196160465006 0.1647341764540759 0.2239980250597 0.23485560981920156
0.058721271516396764 0.1542104578992457 0.2239980250597 0.20931289998429584
0.03680013776691625 0.14829781426023114 0.22399802505969998 0.22305239067543928
0.01856165146830853 0.03700586920129892 0.2239980250597 0.17981879150007982
0.05362857212538892 0.05655184487590382 0.2239980250597 0.2034807008620987
0.03077719637173124 0.041152157727080176 0.2239980250597 0.20737747201149556
0.03784880653015753 0.018963246176092716 0.2239980250597 0.22018118226639322
0.03700914714617007 0.006141245511732448 0.22399802505969998 0.18147951522843128
0.05732660064310173 0.011647368997666312 0.2239980250597 0.19801681613074812
0.10993037050991719 0.03216391803950452 0.2239980250597 0.23756211004159059
0.10018485180512889 0.0565206355269892 0.2239980250597 0.22841347777492563
0.0844188129175608 0.05021196264806564 0.2239980250597 0.2334758125245023
0.06427438786169948 0.021300911117845808 0.2239980250597 0.20336875911184363
0.0782565747328389 0.024563392884019347 0.2239980250597 0.20184626096536343
0.130897776924788 0.009537779558379552 0.2239980250597 0.17309371271790117
0.11172957841393558 0.011463863291940251 0.2239980250597 0.19868400726966565
0.1652590644356856 0.04879770686606373 0.2239980250597 0.22580141875638204
0.09362062786855947 0.009832305235531405 0.2239980250597 0.18189836533377177
0.15236136346509996 0.04643306951140631 0.2239980250597 0.2293040005277497
0.1748868077993393 0.04911133760315329 0.2114551036612156 0.3007456742267063
0.1748868077993393 0.037209483362606925 0.19975671489518632 0.280919768480864
0.1748868077993393 0.028806619614675615 0.21052718257662315 0.27637502367016736
0.1748868077993393 0.015673841236206763 0.2082288281711285 0.24305299868782376
0.1748868077993393 0.04420630891846114 0.22328419960000867 0.25369703222909357
0.033245851244594685 0.17471790313720703 0.21521420075571443 0.26119832509318647
0.019210422495982465 0.17471790313720703 0.215910846098681 0.24418853331742238
0.022539562265239427 0.17471790313720703 0.20420308052883218 0.23979235808515165
0.05085106461935138 0.17471790313720703 0.19634829047510066 0.22691455088413634
0.03469566948140995 0.17471790313720703 0.19465409524451582 0.23389972823883587
0.04056708733746459 0.17471790313720706 0.2051375810941155 0.3167688266468638
0.1742169455495878 0.0 0.22137612196260692 0.19417485201727636
0.07182571108215191 0.0 0.21692357281378272 0.12490541100110998
0.0978600740112527 0.0 0.2171337949198548 0.15277470740798976
0.11637697913353362 0.0007186884539165542 0.2144955254214318 0.13721769674886253
0.168335911382909 0.00352625247579826 0.2111224019015787 0.18660826101784628
0.13929784975515833 0.0005409495055865605 0.21470906834416947 0.1259664763004536
0.1577694483662077 0.006514697721442327 0.20753196019933784 0.16856768063529629
0.11501332953765919 0.007821029336156362 0.20596247937540052 0.14251598782497643
0.0794910081563896 0.003922513162418425 0.21064631792571417 0.168820960972738
0.1289196554046917 0.008224440327879808 0.20547780472729132 0.14275442354986356
0.06532981666258415 0.00643129570149195 0.2076321628351122 0.15495130030762408
0.07333364828532338 0.01230957418285937 0.2020799072040029 0.16454952797341638
0.12458567326484485 0.015687417762057457 0.19935130809368604 0.13578929451063446
0.1073426221084819 0.016299435987996876 0.19885692392590512 0.15376123904990813
0.10145618691138826 0.03905888300538882 0.18820692254089716 0.1935552906429361
0.080359884801981 0.03746335208711478 0.18867459944044834 0.1762422732761931
0.09122832851455054 0.04066600662543665 0.18773584762582593 0.19925250503381875
0.06354989071271817 0.033524608586630394 0.18982911128809507 0.23360781574537862
0.12644890874365416 0.03536056457275819 0.18929096176465393 0.17032340886516975
0.08236670427891275 0.02111541235087154 0.19563140419722286 0.14947442646878314
0.10501510637610109 0.02506339102011785 0.19356446940126137 0.17165935331706073
0.12092007895516615 0.025087226728845634 0.19355199039367718 0.16427923164359035
0.13322081717025874 0.023377840077067946 0.1944469270299447 0.14965422229745962
0.16101096022432806 0.04620015650763811 0.18698689341545105 0.21131412051720389
0.1700045823891356 0.05702860523976658 0.18698689341545108 0.16501415087618035
0.17407442256928657 0.04579836529869574 0.18698689341545102 0.24203320717384877
0.1498971686114805 0.04771214456597382 0.18698689341545105 0.19081001989137517
0.12016564306121516 0.049708972514732774 0.18698689341545105 0.1726388165682051
0.07513573693591297 0.04663611057146372 0.18698689341545105 0.14752420465524654
0.04554755969580947 0.05839741512993628 0.18698689341545108 0.14951803291100713
0.058163984353802496 0.14471034520740317 0.18698689341545105 0.12164871091435805
0.05600330438535708 0.15680815439099682 0.18698689341545105 0.14520956401365423
0.05408651834472969 0.08471385296655348 0.18698689341545105 0.14645830019359868
0.044688103130312504 0.15750745125852683 0.18698689341545108 0.19008724185166598
0.15330197994744635 0.06047189235687256 0.2176694996449094 0.25452714994087894
0.12766792053519943 0.06047189235687256 0.1998059103360697 0.1487248142703359
0.148386257083932 0.06047189235687256 0.19461037580803686 0.14740969946825114
0.16928688835504133 0.06047189235687256 0.2058772455173107 0.20234179006704245
0.07437972148066932 0.060471892356872566 0.18752603336282422 0.16239654030463344
0.10264205177225641 0.06047189235687256 0.20062834432539672 0.1882077406523607
0.11649401138062312 0.06047189235687256 0.19783457877281796 0.15505453172051595
0.08600861947600105 0.06047189235687256 0.18781827392420944 0.11316946806900875
0.00011476874351501465 0.08867779633365902 0.21642650855628687 0.1410144255622022
0.00011476874351501465 0.11771181671984707 0.21642393326491197 0.12618496529209805
0.0035771078931807476 0.1281636651496804 0.21119919001466508 0.13301632088728646
0.0029556734772480495 0.1060944585545675 0.21194580702075705 0.12262633742474681
0.005348749726100654 0.08085307420638703 0.20907066625214288 0.1570038219656545
0.006857756210373635 0.16587606312385084 0.20725768345850368 0.1712975889149588
0.008192204976711522 0.11675619321234239 0.20565442152584917 0.1798802652213142
0.007066433186174332 0.13715932836188344 0.20700697031015186 0.13960067155003175
0.0017339307156005923 0.15815204437921113 0.21341365929853387 0.15686737145107443
0.01248234286966503 0.10418831076277771 0.20203305524358767 0.13183525382524883
0.01379816615749014 0.06971026265910026 0.20097014212511044 0.16506255151548854
0.013801273958514217 0.08279781070315409 0.2009676316645428 0.17312574410290993
0.012001510554198944 0.1569893579459377 0.2024214683235397 0.15317534869920924
0.03644819219870328 0.06771672525491337 0.1890058004928637 0.1933972373251814
0.02708302360126459 0.11272619694129335 0.19256719214182744 0.16437470250744476
0.027319029858748983 0.09246794042466483 0.1924436328253957 0.19995102512759264
0.02079285276349225 0.1005533087228608 0.19586036418412112 0.144976849576308
0.021193608536228745 0.07498863639642468 0.1956505514873596 0.16935705618743835
0.06058666110038757 0.09065899803689965 0.20288080596214356 0.1809462066081068
0.06058666110038759 0.07777024781860621 0.20100100406080984 0.23772739129165954
0.06058666110038757 0.09484456668961314 0.19338679546954324 0.14437070632353902
0.060586661100387566 0.10171180856922606 0.20282488728751813 0.17275228165580137
0.06058666110038757 0.11109428648171306 0.2115356185991361 0.2105278204548684
0.06058666110038757 0.09497773598079581 0.21397665807424715 0.24712190810517076
0.06058666110038758 0.15303756438350208 0.20076537602541675 0.1669060246623774
0.06058666110038757 0.11509536008668574 0.20033290056791692 0.17185625960927145
0.06058666110038757 0.16943579231477154 0.19937183460158076 0.16108278053575856
0.06058666110038757 0.06484080129497147 0.21179375033979178 0.3041685303000705
0.007085903558606543 0.058966113031094225 0.20725583326925143 0.1700118327786127
0.035541375651678996 0.05031730197713502 0.19021099120637885 0.24918653029691723
0.04873523048667559 0.02998923813466482 0.19257780318575463 0.2828212327117532
0.06111985202215198 0.061696080882565785 0.1940698619313127 0.20416100284164226
0.038829444598066996 0.007912111618118228 0.1091942152528984 0.14147624226106612
0.046855171498347545 0.0028292795429569815 0.1657855576204152 0.08950938604913458
0.03515631375844174 0.006489261126811911 0.08829928109882576 0.18475251820843852
0.04223258948732539 0.004066869590367547 0.13618786921577375 0.13592789442176265
0.7199828887241256 0.726898238573614 4.1915246661639005e-05 0.17516831214815068
0.7239653671349977 0.7143389880506892 0.0024257759398216947 0.2315319442180429
0.7294051305527525 0.6840724603386068 0.19576223775964197 0.16297322451597268
0.7214648818413766 0.6879228688271517 0.1803398296640521 0.1942263566087686
0.7103873318200857 0.6928869988031852 0.17321142851831123 0.2327096218062675
0.7213598294398664 0.6901870044879626 0.16785933821918428 0.1617216330847408
0.7033164309419445 0.6957923615235799 0.18108654883649222 0.22713074821976328
0.6982797708502404 0.7025251074680451 0.1702625730332238 0.20068703848748173
0.7136770284368963 0.6956207842275403 0.14900280056992132 0.17904475854979118
0.7106544412734623 0.694860298738059 0.16081270430936337 0.1163676693143165
0.6901279167090232 0.711273174404619 0.1804698576826076 0.22353842731865833
0.693309626279158 0.7107755695659161 0.1632854213489593 0.15614187642654573
0.6865296596027279 0.7159693376546294 0.1896870053152807 0.22992718662559375
0.6977640451692062 0.7064746366302279 0.15501300691578412 0.15788351034596154
0.7330442691251549 0.6909032451478043 0.16187236377495873 0.1405892824880172
0.7339520487762711 0.6999280232860469 0.11839089086220309 0.18111721061148273
0.7022050115042946 0.7035652622003417 0.14460452985825306 0.17839730889908031
0.6987534627151653 0.70990836901105 0.13403305006687743 0.19075830487872134
0.703913110980696 0.7107162805610603 0.09986541772511848 0.1505569777938218
0.7133573536813691 0.7083497865193633 0.06905094815400592 0.12671553739565872
0.7080607156496287 0.7149102547223534 0.05776091644548048 0.151926740094793
0.7151194620798378 0.7106020972868111 0.04747633430611383 0.11494120956654384
0.7144342043977109 0.7136249913078543 0.02809136155051598 0.11901992920690095
0.7195621557139775 0.7125870816709616 0.01305749351895312 0.15949768305861126
0.7138197116005369 0.7182029243339442 0.004862895214920051 0.17999012824764923
0.7050194655881175 0.7240023055411421 0.053151663522460785 0.12879982805043413
0.7041882895705612 0.7187218605123764 0.06817277982010111 0.12209419442922355
0.6979703654976914 0.7199023809369478 0.1055194186139482 0.1689161708138747
0.7060006675964907 0.7124660934576483 0.0819785923579133 0.12487390373641649
0.707067189327856 0.7050329136082433 0.11519832560860768 0.16190991100980526
0.7064504857220939 0.7023011840470874 0.13307748595076674 0.1637523549968905
0.6867028327418235 0.7220040859177435 0.1761456868919306 0.17689885258176374
0.6843350068879768 0.7257358681352889 0.1859722184353366 0.16422792420549412
0.6934763777993174 0.7222046863519455 0.13151531739598302 0.13092303782467257
0.6970347642915826 0.7165127397475426 0.12034303295630186 0.14455402491105457
0.6920043233161738 0.7163017260553622 0.15335221936879828 0.13946184687963312
0.6938476076573878 0.7158637130548475 0.14259111830094615 0.14507084183508395
0.7230864449288597 0.695119425909425 0.13804569866647748 0.16750137981421287
0.7166054402813459 0.6979869879953299 0.1282075088216125 0.17233634114502486
0.730862871321194 0.714809589605157 0.011792861030746043 0.1679450358741541
0.7264402980500748 0.7102780695719269 0.03646232813021775 0.1094122454457768
0.7272907936874651 0.7092747657166785 0.04845074506856868 0.128410543341226
0.7275837030891247 0.7009430500373383 0.10398757663587781 0.1889211180939076
0.7333580400667339 0.7051901473127047 0.09130093602247905 0.1951906493731473
0.7330971272747977 0.7105970825639585 0.06120591792928807 0.14259474580463435
0.7344185360421936 0.7190352662598216 0.023306253732892333 0.10958081291936772
0.727000655778939 0.6925184462156366 0.1515539205326178 0.1428109396668396
0.7222077802559056 0.6993197867183698 0.1154700547193058 0.19643286658097928
0.722942894805713 0.7023939986734806 0.09359481121554408 0.16981221679227623
0.7246609220178483 0.7058588248114303 0.0685340387697681 0.16048043902437256
0.7175211207342544 0.7047841491822492 0.08188890693064589 0.15160888003797376
0.7236957749317019 0.7117732677956092 0.22333656044255837 0.21224047928082201
0.7202848252822881 0.7326799271124165 0.22321744256219941 0.17625901289899343
0.7345364478995224 0.7223274526241884 0.04188248239647238 0.1139736313178891
0.7345715790363037 0.7213090170294151 0.06784442920190276 0.1591912813785122
0.7345771257047853 0.7101114579827887 0.07194131715177254 0.15473177099466898
0.7345904229262867 0.7231882591791151 0.0817810781433948 0.13996597034593972
0.7346044886879189 0.7176359545861075 0.09218115582384201 0.1605740445066093
0.7346281538496536 0.7092778042864575 0.1096685656719377 0.1974090363986473
0.734668000918713 0.72386004152492 0.13911959931981455 0.16816499265418153
0.7346419862932286 0.7139177351665682 0.11989337450143966 0.20582631786590186
0.7346591269438917 0.7126305588560474 0.13255951314489803 0.20795890352738752
0.734660528213008 0.6982742491321234 0.13360059068445213 0.1559172890541454
0.7346805855045111 0.7159986474597683 0.14842549003958 0.1791488218956886
0.7346733995548966 0.7059615514957025 0.14311560285549457 0.1588421034698044
0.7347021621809613 0.708684610184933 0.16437542763968027 0.21010179523787664
0.7347141910176876 0.7137444727786485 0.17326731213520627 0.17805985290555296
0.734720583400602 0.7032843650195832 0.17799154324583863 0.14377975351930397
0.7347210391198926 0.7236761749714361 0.17833288363830002 0.11851498399523709
0.7347325444756609 0.7173701047100648 0.18683850211680297 0.14607146757072534
0.7347299026856907 0.6864471071087083 0.18488153934562013 0.1592519965527332
0.7347443856397051 0.7034008111139464 0.195593422552516 0.11573348106624742
0.7347141543568889 0.6927025517094109 0.1732359762141177 0.11424162953241301
0.7347612159374033 0.7196967866929179 0.20803965439810695 0.13168012159105044
0.7347639198040815 0.7039895019582652 0.21003820429448095 0.11243970380591442
0.7347593484291273 0.6916829562065909 0.20665757163787893 0.13944604517161407
0.7301121938559219 0.7313360289254447 0.023628884700135955 0.12245693463685785
0.7284968796104239 0.7315897970956164 0.037210530906550646 0.096342890835185
0.7173704176276106 0.7330044533895328 0.010862610080416191 0.16371553103520906
0.734027947203888 0.7260274935767974 0.009474885391587024 0.14690460925567694
0.7119821254739116 0.7282310997747037 0.017822659991439272 0.1399448711751931
0.7140320067956676 0.7332049899530548 0.040495807678000324 0.11232953425225356
0.7074472279759515 0.7316723928569995 0.06654390103400105 0.14293431299671439
0.7208286487377421 0.734276327489124 0.027764649059426053 0.13180189792978161
0.7095127227180357 0.7278010629089587 0.032458965968756845 0.11953076397259857
0.6935538276778057 0.7347403935990726 0.20495639755955003 0.14016351429666177
0.7042298853772315 0.7348814419049675 0.18698853150992056 0.15605472309768242
0.6922750486795891 0.7341138909101951 0.18586215438039133 0.17170580083389098
0.7011982841659691 0.7349804331678189 0.2139975091846995 0.11587260799899059
0.7138474394055432 0.7347817923297444 0.20996150580388906 0.10388982196553152
0.7134510270119542 0.7346404873170229 0.1686787784898051 0.1332569078348071
0.7250834786549796 0.7341490891287158 0.20719210265514237 0.12349422457975447
0.7236807153382949 0.7336718972528876 0.05843699660796947 0.12625856168611738
0.7209544931727744 0.7337557015150238 0.10627341703875327 0.15915104036173228
0.7183340972269459 0.7340692005427775 0.0934984002772988 0.14542484160324187
0.7306985835405253 0.7288009040248334 0.09873991989981028 0.15000899893071293
0.7323143598636466 0.7266107062158039 0.05690699219697697 0.1370798666149599
0.7187491984274923 0.7339892753324813 0.13153153918799107 0.1973289634807896
0.706970722497293 0.7347519421222839 0.1594726644915409 0.13974537084040864
0.7159853557404281 0.7344134108989118 0.1207451484095026 0.1680641153327816
0.7221655302012555 0.733365723436735 0.15827219075430632 0.15963006970690682
0.7171049424950073 0.7343583420311586 0.18255406444844852 0.15329724773969064
0.7116263654913261 0.7328978198519344 0.053172374998507715 0.13536981820177835
0.7073788283489637 0.7338103467186885 0.0996025986029289 0.16538588601635618
0.6947199242260185 0.7338951328982888 0.17482390390635905 0.14056627789999857
0.7093507310493223 0.7342723594818856 0.11090415034188617 0.1657741720970597
0.6929790097204633 0.7325542805493748 0.1532899823728614 0.09795912006963393
0.7060866795343785 0.7343346778397315 0.13026391031632556 0.1583307525186656
0.7030949591388388 0.7310173501061628 0.08706853584390163 0.1590438678414242
0.7277472941231901 0.7325918307481849 0.17540412140950903 0.0664100114302677
0.7272270660826323 0.73176582880128 0.14774726560566362 0.2082611421017335
0.7059137726711401 0.7348035125584556 0.17566467405576341 0.13197145188341342
0.7007719059047098 0.7338025397406982 0.1395743216066798 0.13673873540461984
0.7218024412207313 0.733935158643042 0.07510976481605172 0.136076306388016
0.7339081033369367 0.7288202189023446 0.18813880727157908 0.0964701854967873
0.7344449891903633 0.7256866620719273 0.12269252482137208 0.15909326893550194
0.7320073503417437 0.7328262050016598 0.22167082421911807 0.11433828123170141
0.7329608510440321 0.7311290289999153 0.19903521213379505 0.12633117662664478
0.7346142830198356 0.7251264269941928 0.10926863758908215 0.1561004286127329
0.7335718974010406 0.7285400374309238 0.15793821356663754 0.09920460680444378
0.6786830034416883 0.6516845423329087 0.2239980250597 0.1876019114287756
0.6878939034819164 0.6430374438418821 0.2239980250597 0.25801988701486356
0.7180287577764941 0.563151168550492 0.22399802505969998 0.23336043501108975
0.6966115580665753 0.616018957587988 0.2239980250597 0.2319599582201249
0.7222941336974344 0.5787999061252933 0.2239980250597 0.1987512502335123
0.6901010119203744 0.5841669940604866 0.22399802505970004 0.23031867463674857
0.6929776601674797 0.6039144071411544 0.2239980250597 0.20161408888366464
0.704147114663384 0.5687181554112937 0.2239980250597 0.22013337494030305
0.6990919914254445 0.6561777599087436 0.22399802505969998 0.23371305063159342
0.6817128910235112 0.6687443626884132 0.2239980250597 0.19306776246470353
0.7235881827432648 0.6371478385738542 0.2239980250597 0.19232903063951784
0.7098267315738485 0.6441406341756478 0.2239980250597 0.21105737544369502
0.7316262164743947 0.6461624503770141 0.22399802505969998 0.17348917792930965
0.6906229048760661 0.6749668332544794 0.2239980250597 0.22629383373799106
0.6956286846659683 0.715901537750859 0.2239980250597 0.21749254020332398
0.6970231468043991 0.7000198330812426 0.2239980250597 0.19394723583088266
0.5700552677360576 0.6989062776383332 0.22399802505969998 0.2072531893114129
0.5610261798039029 0.6929646904068023 0.2239980250597 0.2332954414894903
0.6224631981948636 0.7175269316794195 0.2239980250597 0.2428083049524778
0.5844616628196382 0.7344985782917829 0.2239980250597 0.17643114544125515
0.5755236914675654 0.7092015075835185 0.2239980250597 0.21961358452185023
0.6192312052472371 0.7068960027501229 0.2239980250597 0.18905337982283896
0.5652819720210058 0.719820254114616 0.22399802505969998 0.22042997007898532
0.6388159375280729 0.7239827193229497 0.2239980250597 0.19069321681428125
0.5886988960289457 0.6872260788723776 0.2239980250597 0.21784923961858355
0.6169487697488037 0.6943847976132504 0.2239980250597 0.22926882441730623
0.6382494239924753 0.6755498149714106 0.2239980250597 0.16440615089254945
0.6670284758952486 0.7137923500132333 0.2239980250597 0.22652926688848912
0.578536729938749 0.6817739154537108 0.2239980250597 0.2458224763974793
0.6716506441368555 0.6825242426801891 0.2239980250597 0.19555557519206038
0.6525031404711819 0.7061931032634294 0.2239980250597 0.20526458310289153
0.5601132065057755 0.7211547884872758 0.2134570720013852 0.21943710862476334
0.5601132065057755 0.7096337681470329 0.21436914957518471 0.2517109848586434
0.5601132065057755 0.7018717052262027 0.20730714452875526 0.26868995941905083
0.5601132065057755 0.7152510091483615 0.20018942921997357 0.19076629556607247
0.5601132065057755 0.687553615622291 0.2137029413053392 0.296829944372389
0.5601132065057755 0.6881783321649295 0.20194782290568608 0.3002828085685685
0.5601132065057755 0.6789259603113855 0.19761110399091403 0.1964594440168348
0.6821096288275328 0.5602821111679077 0.202417537942038 0.22648890517150197
0.6907979656581745 0.5602821111679077 0.1914803317645068 0.21358563697834262
0.6943925508479405 0.5602821111679077 0.20286476045596047 0.30401643938332557
0.7138552743131018 0.5602821111679077 0.20909894744224775 0.25299040461731304
0.670721854802971 0.7350000143051147 0.21767777812485384 0.1399024298302333
0.6664942576842046 0.7301072177044852 0.20948057927795916 0.1647797874543029
0.5991520712034302 0.7293836600560766 0.20861126719716783 0.16341718781902936
0.580347449175087 0.7335838291705121 0.21365752406498728 0.16448437016896372
0.5956401150622825 0.7215153715534446 0.20113069479192913 0.13815419565225054
0.6520317073981556 0.7176068215746539 0.19797339465510966 0.1666692307594222
0.6628173076068762 0.7217690935805569 0.201335649722853 0.18501439226677738
0.6386789486011076 0.722154858569577 0.201647268061936 0.14308105176350688
0.6289996945155473 0.7018736662233631 0.18994584812847976 0.19093269017361783
0.5803251702682171 0.6995206618523795 0.18925614304270028 0.2084021232248419
0.6551183898359287 0.6986668510905446 0.18900587677375802 0.2156832800963636
0.6700203192517815 0.6994647771555371 0.18923976229980627 0.21621046269872612
0.6600696458300992 0.708595330822579 0.19286224573330485 0.1783054916124916
0.6053225385413856 0.7052787321863783 0.1911258652460439 0.1799088882768777
0.5922078104814334 0.7050242342647938 0.1909926247567473 0.162882001773308
0.5687884852167007 0.7079225902789223 0.1925100374376598 0.1718490005595084
0.6058087247931794 0.715631022452194 0.1965457296275282 0.16906975126415913
0.6888944105478775 0.6654722500107292 0.18698689341545105 0.19894719188512375
0.6820049599640845 0.631410965954654 0.18698689341545105 0.14064888745457935
0.6872701763181344 0.6535999634005077 0.18698689341545105 0.1934815149870177
0.6870811515261399 0.6044249368758536 0.18698689341545105 0.1771555752059289
0.6891928040280351 0.6402534795077575 0.18698689341545105 0.14363163055744874
0.6745441379742755 0.6060155931702269 0.18698689341545105 0.0854996265023143
0.6864496075025006 0.5732007101025562 0.18698689341545105 0.18203774176107607
0.5938835901141636 0.682606350182444 0.18698689341545105 0.13065302261511144
0.6250349032617625 0.6907417027554145 0.18698689341545105 0.13394535454728917
0.6625652960551116 0.6856356240550835 0.18698689341545105 0.1472590048027864
0.6475326071226631 0.6745281219482422 0.21848897914414428 0.27684445666863305
0.569567935987353 0.6745281219482422 0.1897243089101553 0.12314694662742011
0.5989614555179408 0.6745281219482422 0.20615123468161128 0.18787205703346563
0.5706381964863865 0.6745281219482422 0.20153636477034076 0.17899479481872016
0.5665793079951246 0.6745281219482422 0.2143771457081674 0.24646184149992265
0.5929616414501521 0.6745281219482422 0.19581277465673902 0.12113873765366753
0.6239002774486874 0.6745281219482422 0.21120951694456333 0.21608784516284063
0.581865437788385 0.6745281219482422 0.1968573669417647 0.16113747442160217
0.634140506847606 0.6745281219482422 0.19317268761932327 0.12949971931937904
0.6579286488480751 0.6745281219482422 0.19817596227517603 0.22896649295430524
0.6493256062932415 0.6745281219482423 0.18868446716757264 0.13108100981270332
0.7333415628825566 0.570611328595667 0.21350434324256456 0.12840843895347834
0.7287490284856514 0.6370385689145132 0.20798668249851776 0.12345541583894175
0.7226907989807908 0.6443025411796344 0.20217290649931138 0.13019144415136671
0.7186555360776304 0.6021629009831735 0.19891324852246928 0.1497348963672387
0.7174044588306419 0.6532723700448761 0.19790263681620401 0.1579860825599343
0.7171364806759644 0.5874491830827748 0.19768616588222096 0.18116743857573225
0.6972493076842753 0.649400073611228 0.18862401164779113 0.17740606984616591
0.7008515340780332 0.6609916534791362 0.1896798846816629 0.19307442671263875
0.7032619701867755 0.5646938650080507 0.19038642397400224 0.2081351199911443
0.7145979292695638 0.5637660653322533 0.19606494771450148 0.19139312500186442
0.7064684317106859 0.5827293729098623 0.19180880988148308 0.1703804962742225
0.711810967181612 0.6626567880497137 0.19460585449308015 0.2057006704855065
0.6744133532047272 0.6136011775643602 0.21292698348636285 0.2405994425988714
0.6744133532047273 0.572209404454432 0.20099419634723628 0.1805264424893408
0.6744133532047272 0.6522843796707916 0.21085603386381815 0.2656042307400287
0.6744133532047272 0.5961683782374454 0.19651864657468276 0.1192661730586212
0.6744133532047272 0.6251900554232859 0.20774240705092362 0.2000932239531117
0.6744133532047272 0.5870328159915439 0.20582494039169613 0.1766878254527414
0.6744133532047272 0.6352513365276526 0.2107364565232845 0.22764468309159433
0.6744133532047272 0.6023785411029031 0.21542808207169567 0.2497212147770705
0.6744133532047273 0.5752535833701574 0.21268403546788675 0.22076808445255042
0.6744133532047272 0.6433632797177639 0.19968458181088589 0.1554126206724016
0.6793555112303007 0.7308337788543631 0.21079213373531996 0.16371112157843723
0.7111850831412163 0.6819714509290238 0.1949741692294711 0.2356018426575656
0.6766868768398133 0.7170983150663598 0.19794677305094782 0.2215331027718523
0.6801807863306087 0.7062193542277384 0.1920101168042187 0.25124195859146314
0.6974636913958827 0.6852182916044876 0.1898804613948733 0.2706075290768411
0.6980074833149533 0.7269114239776095 0.09689516975101004 0.19375935560135416
0.6906927740482417 0.7281161682391539 0.14365727869236938 0.10654263794634848
0.6870181250390962 0.7320833965057602 0.16665578969516723 0.09015563794923415
0.6826112677236278 0.733682193863534 0.1972416766952585 0.15528714709898647
0.7023676298956957 0.7282254756890626 0.07519171966766532 0.14974161806276134
0.695456496817042 0.7292930357776581 0.11272250407668055 0.12322171976622603
0.008025069329966135 0.7324713112846721 0.005823369768809238 0.22871165935066354
0.01571083205376693 0.7182201413355696 0.0021006384423386554 0.1854564777696659
0.0018095809981232402 0.7122919996757484 0.22366811967910152 0.16485032182972859
0.0002288778553432295 0.7189695070140324 0.21537479540178525 0.1388335199661803
0.0002473063886581996 0.7196578737844009 0.20174886888531893 0.13804301128415897
0.00023842938134850553 0.7052080224089706 0.2083118589505279 0.12232399610818497
0.0002462418414265523 0.6859960302896692 0.202533553426653 0.14906071752349515
0.00025244265737220937 0.6988009196549332 0.19794910945440525 0.12652065284783962
0.00028326047212175014 0.71089504187936 0.17516162598925883 0.1811628986620207
0.00027370141857989243 0.6988156259378298 0.1822279395844293 0.1489295411777682
0.0002665448692063633 0.7099887288805746 0.18752131799501487 0.14171160018037743
0.0002641866233029024 0.6894522055061733 0.189263432400034 0.13558570811247692
0.00030258429925275577 0.7048150587432103 0.1608777223554691 0.1337717723432485
0.0003156015223720735 0.7013909362001325 0.15125795840367373 0.14218766254827794
0.00031877992594419577 0.7210749249611852 0.14890726825035655 0.1620942176918604
0.0002948574878201114 0.7230009044114658 0.16659130676099634 0.09877306656876436
0.00030610590432403106 0.7153232490570453 0.15827710824790378 0.14979118853564283
0.00033593745757424056 0.7071489344340511 0.13622391269249962 0.16866346695995715
0.000346510854251525 0.7178209665387271 0.1284052101233378 0.17206093446029821
0.0003623774708247765 0.7072509303315909 0.11667357685923456 0.19678892468028036
0.0003955469324262744 0.7075180155033428 0.09215993801691932 0.18718878629553
0.0003820186744943698 0.7135483917982053 0.10215887064815424 0.18010465964670277
0.00040170710515100743 0.7202901825076131 0.08760079128073513 0.16489067786674133
0.0004189621248074366 0.7159162110386424 0.07484229552906371 0.17641907096475717
0.0004414409808027242 0.7192896284227777 0.05823388031948665 0.14839075893234177
0.00048202764040262047 0.7224748482808633 0.028232310123824923 0.14718180573459272
0.0453293263251048 0.7349622414016687 0.21973280589852223 0.1312845896581028
0.02720693754642479 0.729583511573612 0.049181104221003184 0.15705698425855313
0.008241026069978112 0.732672468962735 0.02914066038353085 0.13614566396731564
0.005079476512091473 0.731723197289086 0.018288362867988843 0.15657753934332513
0.004557718707938947 0.7295751502916701 0.04715883223055049 0.14879645731048757
0.046327387330319963 0.7332269351875776 0.17866040428185243 0.12814958869651735
0.021844540250248002 0.7346496230977793 0.16288950901913443 0.1424416943717609
0.017986300873693392 0.733003864647443 0.014739662775142194 0.17192091662386025
0.02241914309492703 0.7346412243403075 0.15090930556217874 0.16501353329305393
0.021754376502784993 0.7273660512881377 0.004750702000945232 0.17386888095935155
0.02013711743106776 0.7345634749258314 0.17741507578163207 0.14149158254475858
0.024713194120817607 0.7347455580466936 0.1890461887026688 0.1483218758982938
0.011960118349127746 0.7335534647271285 0.1858816889647839 0.11175926695838413
0.031579526443347695 0.7348463981589576 0.18103917772401965 0.1345306867650017
0.044011173771058676 0.7347006957150223 0.20553853381168075 0.11933483589179318
0.026171313289540286 0.7262598206629312 0.03188658523172572 0.1362915591019274
0.0360981320960271 0.73217226640296 0.12128041764234734 0.17021014631983072
0.01428984360817635 0.7338671978746489 0.10061244671816702 0.17688884757239207
