x y z curv
1.2430197894573212 0.3812525425169328 0.1193662467624554 0.15393709262386188
1.2430197894573212 0.33876935411438386 0.1251021061590206 0.16108702003581643
1.2430197894573212 0.23977747838546934 0.10673988117897404 0.1385600009028101
1.2430197894573212 0.1495942388465041 0.10184212690625763 0.16556290295556006
1.2430197894573212 0.3079036352700907 0.11386680065501487 0.16527874104228307
1.2430197894573212 0.17041956992255677 0.10243540294617874 0.12929565289818437
1.2430197894573212 0.2282783539041581 0.11427365930964768 0.1532574996742061
1.2430197894573212 0.18162644653396307 0.10807849753527946 0.15257327322729466
1.2430197894573212 0.27227339946215223 0.11792220757831721 0.16742398180743642
1.2430197894573212 0.39683925176782003 0.11636411513187131 0.1290285005856983
1.2430197894573212 0.29300468384788547 0.11173931777521179 0.16879756187676184
1.2430197894573212 0.3608811936861749 0.1184217043295253 0.15660773019116872
1.2430197894573212 0.27918623914303686 0.1089491426168074 0.12749368834254082
1.2430197894573212 0.2032884950569737 0.11351100286786006 0.1425403562302078
1.2430197894573212 0.16349872724288872 0.11206713922688111 0.17440288450659522
1.2430197894573212 0.21581234394686089 0.12062845366981147 0.16519206553390614
1.2430197894573212 0.14987383826010342 0.11303727071644143 0.18742168196234424
1.243019789457321 0.13023991802245022 0.11105450448874855 0.14366766601922562
1.2430197894573212 0.1117521414879512 0.11318395398298674 0.12649514372301365
1.2430197894573212 0.1008483813111864 0.1048900656934022 0.12921684616023255
1.2430197894573214 0.09514724769368889 0.09507788910014246 0.11326708676276033
1.2430197894573212 0.08388398154127621 0.11084527461688959 0.15058027503063626
1.2430197894573212 0.0856801733482913 0.08677957657038124 0.1543187078715716
1.2430197894573212 0.5805749332627345 0.3908532570113948 0.03590550120567346
1.2430197894573212 0.5945371526189344 0.3705125393619014 0.05444283018525309
1.2430197894573212 0.5500372608131201 0.36502221605595936 -8.132811585746482e-13
1.2430197894573212 0.5689616255513565 0.36693826115938477 0.0077783443115283565
1.2430197894573212 0.5577356871292398 0.3724021217530455 -7.80642247742084e-13
1.2430197894573212 0.5343977371777721 0.3742595493512138 0.0410619138378991
1.2430197894573212 0.5816453095750389 0.37481714309660713 0.04250527996464263
1.2430197894573212 0.5902348182479531 0.4029796603739545 0.06411560829450212
1.2430197894573212 0.5657957712515976 0.38825779782839925 1.3003443093368371e-05
1.2430197894573212 0.5483732786449126 0.39550277546165 0.0009278847166926598
1.2430197894573212 0.5237794531323866 0.37801078951204425 0.04220422506968334
1.2430197894573212 0.5379506349073226 0.40435365594901873 0.017635065863806795
1.2430197894573212 0.5272627294372236 0.4021304382906348 0.06960326558750193
1.243019789457321 0.5486438604128057 0.4142753756326519 -5.453647055963455e-13
1.2430197894573212 0.5150168705701498 0.36850962972632584 0.07386790697955337
1.2430197894573212 0.5624834147115301 0.4045121409617378 -5.447955950155265e-13
1.2430197894573212 0.5289503722967541 0.38780345830759494 0.039692851537558305
1.243019789457321 0.5765460200479473 0.4024710517058077 0.035300332820016475
1.2430197894573212 0.5149949173742312 0.40532926680639825 0.06569091360945059
1.2430197894573212 0.5490098240124941 0.3838635017445127 -5.964904507048219e-13
1.2430197894573212 0.5294939903279844 0.41913212076141754 0.05408475361026579
1.2430197894573212 0.5662550507998957 0.4257276743122927 0.0051513840062816785
1.2430197894573212 0.5422511038254741 0.4241980760384803 0.005599169712823178
1.2430197894573212 0.5937981953279639 0.44817184120040326 0.08917539266373592
1.2430197894573212 0.5893992877159101 0.4157963854111729 0.058773413928314595
1.243019789457321 0.5805363655481253 0.450959748579359 0.03166476931951224
1.2430197894573212 0.5708036754706436 0.44421695273553347 0.01379861432524525
1.2430197894573212 0.5576485317635399 0.43733890025417654 -7.535393210520215e-13
1.2430197894573212 0.5871651478244886 0.43369536614661586 0.04455333007802442
1.2430197894573212 0.5771284247964296 0.4211003039424668 0.0228937075482709
1.2430197894573212 0.5236820773499382 0.4493024135478419 0.06294541094066898
1.2430197894573214 0.5181562516504574 0.4596855452715096 0.055456698963886296
1.2430197894573212 0.5258599049667948 0.43599864624453777 0.055001656058589005
1.2430197894573212 0.5866181076520594 0.46339420397470216 0.055826919789615216
1.2430197894573212 0.5665289100072218 0.46239061336486875 4.6377514156060955e-05
1.2430197894573212 0.5520313821718862 0.4540706781286412 -5.166561691057763e-13
1.2430197894573212 0.5364184612050982 0.44258455314192824 0.032262567590624014
1.2430197894573212 0.5413806519975108 0.4610355353065547 0.0066688243127695605
1.2430197894573214 0.5808480590577558 0.490250778140437 0.04766265859235433
1.2430197894573212 0.5694138732749474 0.4815394336981756 0.009042884619192752
1.2430197894573212 0.5947744510901815 0.48894752964920823 0.08752642079136158
1.2430197894573212 0.5873148510691123 0.47526710439534725 0.057905831074490495
1.2430197894573212 0.5441224148467465 0.49670731221399367 0.0019668730223446535
1.2430197894573212 0.5589099690646714 0.4853551736788658 -7.944069747927429e-13
1.2430197894573212 0.5149353408553515 0.4798674395504182 0.0790107838378243
1.2430197894573212 0.5297736709441243 0.47357381668147175 0.039978594591122116
1.2430197894573212 0.5313863242228 0.4840934318000391 0.055628281861442544
1.2430197894573212 0.5172130080784789 0.49148549483708004 0.06555398689940084
1.2430197894573212 0.5434887826123916 0.4842306783661504 0.01257853750505089
1.2430197894573212 0.5592068703009765 0.5030578711725631 -8.93304571367019e-13
1.2430197894573212 0.5424192523019721 0.507503394659914 0.005079447000902766
1.2430197894573212 0.5282868415362687 0.4980486168788475 0.062445232190601316
1.2430197894573212 0.5802613991204995 0.5172907748317663 0.039260181673354065
1.2430197894573214 0.5620602788040244 0.5143859331011847 4.503195469896338e-06
1.2430197894573212 0.5827832090207348 0.5019027006980494 0.04672286697235136
1.2430197894573212 0.5977234556594895 0.522041235490139 0.05907860032148954
1.2430197894573212 0.5722883261138553 0.5079935556323963 0.02433318189256458
1.2430197894573212 0.5181927264142894 0.5043299163740514 0.08299802028733427
1.2430197894573212 0.5280282517656936 0.510984171600417 0.055140586020107005
1.2430197894573212 0.5556619202242322 0.5238127505875991 -8.775961042115211e-13
1.2430197894573212 0.5391980940780463 0.5191689340173042 0.0049359021791366454
1.2430197894573212 0.5708889228583467 0.5229852004506832 0.004194093440209722
1.2430197894573212 0.5853121086357274 0.542378134120959 0.05101243873989977
1.2430197894573212 0.5818318358385594 0.5554430952167754 0.10543612399143718
1.2430197894573212 0.5971483063083359 0.5585848272886215 0.16288310801830777
1.2430197894573212 0.5761858073629896 0.5339547882796882 0.04062255708065935
1.2430197894573212 0.547923078037159 0.5349736436472019 0.00782539885908185
1.2430197894573212 0.56933877458286 0.5449361641463433 0.02415236725501175
1.2430197894573212 0.5551378298768666 0.5434979929256027 0.010979514945707763
1.2430197894573212 0.5647839157517611 0.5332747606554386 4.294699357816606e-05
1.2430197894573212 0.5182485247664389 0.5292064142266304 0.07100287604476559
1.2430197894573212 0.5361664109663551 0.5309013570525423 0.017669215109771763
1.2430197894573212 0.5946590851297745 0.5334155440257138 0.06200243776456332
1.2430197894573212 0.5684521835811435 0.5571504867413661 0.08474883687501354
1.2430197894573212 0.5545937567406622 0.5552568920109131 0.09721707994352148
1.2430197894573212 0.565395900268818 0.5710516701110542 0.18872792384421866
1.2430197894573212 0.5283765389632874 0.5543210661235639 0.08723243338318956
1.2430197894573212 0.5414676921496346 0.5591160581708842 0.12326918755212848
1.2430197894573214 0.5196528603567534 0.5654265892522163 0.18080765466644255
1.2430197894573212 0.5768054562306834 0.5704924627644581 0.17427630766873808
1.2430197894573212 0.5297997998463282 0.539698142131158 0.036091865262113776
1.2534506271367571 0.08319907015698944 0.08341435808688402 0.2060583355568152
1.2460179987773103 0.09868069609248986 0.08341435808688402 0.1995575333751988
1.2683013340818907 0.09560313631264586 0.08341435808688402 0.23280588461240392
1.2643976723720312 0.6820797947693336 0.08341435808688402 0.22807278340612014
1.2531940419897887 0.6717181023875987 0.08341435808688402 0.2220760703375855
1.274961958255464 0.672534973135647 0.08341435808688402 0.23955048820136657
1.2439823510313766 0.6654329298690441 0.08341435808688404 0.14229428754878287
1.276402970803697 0.10403403639793396 0.08871918820332252 0.22719364035294534
1.2578797421288017 0.10403403639793395 0.0851137640052052 0.2548648207860318
1.2649154320091394 0.10403403639793396 0.09362753201415683 0.22747833681484608
1.2513206422950514 0.10403403639793396 0.09772446316534183 0.21864967824707696
1.2558054654534292 0.3218842619081098 0.10618316248776866 0.18656610272505994
1.2680268319228203 0.47695615122756674 0.1112018585927314 0.1697252042306909
1.2802150901820506 0.49646938069341345 0.1118333783939363 0.17119141655310535
1.253195017927448 0.21430820095587144 0.10270160589838563 0.17854999665065327
1.2588721856557625 0.39212389875115994 0.10845637521113996 0.16281883700247055
1.2472486720664544 0.2522152528062192 0.1039284173747071 0.1767031347455999
1.2458686738450075 0.5033482853209328 0.11205600502221849 0.111157431618162
1.2695740107329425 0.42693148127109104 0.10958287647182996 0.17472417736995965
1.2600531029561255 0.46782462375037026 0.11090632881242572 0.15803776993766233
1.2573742692354912 0.5143091535360356 0.11241073899018367 0.16238523319232306
1.2569630620272045 0.3482604898238148 0.10703679413490402 0.19149545465935533
1.254036977509382 0.30126016307636005 0.10551569087231656 0.166976793571761
1.2703732510601735 0.3848546946832234 0.108221117058924 0.15821995229881308
1.2710706372798817 0.45258619342214745 0.1104131572178213 0.16737418411151686
1.2492872627481946 0.3400297638775882 0.10677041760187392 0.18534057879356577
1.2573628447263556 0.4907798853750008 0.11164924542103556 0.16606942454262727
1.2689150400291855 0.48982932287652725 0.11161848172601938 0.17401930265915924
1.2516076444109063 0.4269012509284754 0.1095818981068703 0.14951993651599407
1.2584237619477403 0.3610558027587578 0.10745089747413716 0.15962019424104157
1.246319751440959 0.38898768183713145 0.1083548757086845 0.17784214682092095
1.2471195731803315 0.2047968911166878 0.10239378496544614 0.18938917635936597
1.2518996466750205 0.2879708771917943 0.1050856007534736 0.16532031595004718
1.2588262749977404 0.4404464612263538 0.11002027088004793 0.14693334659453125
1.2493624413101294 0.4049335875791698 0.10887094380709278 0.1689745279451897
1.2496850542121605 0.19050289790143027 0.10193117882587693 0.1674227627920076
1.255875867462592 0.26226973344854415 0.10425381731055947 0.1678955597871783
1.2731580353743732 0.4650844361518769 0.1108176462737156 0.15366743444280956
1.2463036352928256 0.3640267292708006 0.10754704757187282 0.19171233312336844
1.2579946645793108 0.3721062462159641 0.10780853042605497 0.16745306705872906
1.2683831250196957 0.5046628011995082 0.11209854758585572 0.1889584048459771
1.2561427324608117 0.2774684806186487 0.10474570461236296 0.16396716521783622
1.24469635596758 0.4710588122706939 0.1110109990360291 0.15413848655096404
1.27600076049125 0.43749014737946934 0.10992459370184676 0.16804407802575955
1.2613198227454383 0.40427218591261077 0.10884953841903473 0.16143906974841002
1.2447912440427658 0.37592609227705914 0.1079321546795061 0.15242067667039716
1.2556770750235284 0.12996916571345002 0.09997208483866932 0.22087480165297443
1.2697205665877078 0.21300843302323424 0.102659540632466 0.1669188639237732
1.2763126659583912 0.12644587537153607 0.09985805821789867 0.19030243383928935
1.2705619561901953 0.16269075049774545 0.10103107554824176 0.16773313433351222
1.2562210975481163 0.15415390647280866 0.1007547919094427 0.1791315967589436
1.272418650359664 0.2695769516768796 0.10449030574067791 0.1864659856532142
1.2836009932088555 0.21883492787553604 0.10284810741364833 0.12855087064564272
1.2736017074462394 0.17425559062255613 0.1014053562663243 0.16766930926464974
1.2554500036326877 0.22535953188224256 0.10305926757206639 0.1752685650817961
1.2836840467715975 0.3116735946947573 0.10585270778061567 0.13735646797250284
1.2604814828178819 0.17256460072372415 0.10135062962014721 0.15526714134836145
1.2579137837244518 0.2472845909247933 0.10376884303994018 0.15414033600556293
1.2670438758044076 0.14592568710499937 0.10048849649849986 0.17875558056241983
1.2478218457927994 0.13818712759266233 0.10023804827959296 0.17215120843323997
1.2786464101989223 0.3448340939946249 0.10692590337657583 0.1784370347457235
1.2580845138680876 0.19922428227110106 0.10221343486827145 0.1690531923304824
1.2815207444691348 0.18968367984489792 0.10190466591958891 0.1432773524820793
1.2685796210881695 0.11797085680756851 0.09958377547817626 0.22559617187484454
1.2555771209236808 0.11398539947629685 0.09945479143553174 0.23504648157569716
1.2652593376574865 0.2939456173735275 0.10527896529820072 0.1743473418282353
1.2614356939685356 0.23678153398943466 0.10342892552708202 0.1679112704960454
1.270108442352057 0.36157521656820774 0.10746770761344603 0.17991457605654232
1.2669593813740498 0.33648997372773937 0.10665585698669476 0.16695253855764736
1.269350516936723 0.19379039933415876 0.10203757445120852 0.1607386578355024
1.2767080664545196 0.25763151248057375 0.10410370743824111 0.16330040078237523
1.2744507197662238 0.40805736382276586 0.1089720406837434 0.18364386100676655
1.272655030987253 0.24700601404241493 0.10375982726847663 0.16687485621442188
1.2805232836262113 0.32791756091405355 0.10637842221120458 0.1743971559001395
1.2747486798155263 0.28339627299414316 0.10493754975358413 0.17513230857638015
1.272009552471015 0.3042238064667538 0.10561160526147595 0.1784571731669588
1.2824013395045277 0.4264199743602018 0.10956632222881012 0.18452412847708483
1.280685357131839 0.15161050507599844 0.10067247809525272 0.16022765335415023
1.2676937252592735 0.31497334045307734 0.10595949967731162 0.1693651285954894
1.283870302387501 0.1396225920528833 0.10028450518372264 0.13285289436134992
1.2475374467128226 0.5857946984012521 0.11246853787451982 0.10112335410518289
1.255056233170598 0.5387708419569244 0.11246853787451982 0.12894024789698755
1.2648493887091428 0.5643088122646234 0.11246853787451982 0.13562654856028006
1.2456472433933545 0.5572941508826441 0.11246853787451984 0.07586244747269202
1.2638071517544835 0.5784439430229165 0.11246853787451982 0.16140593396911462
1.2525340425065778 0.5692352756410717 0.11246853787451982 0.12185770536546309
1.2563466775886185 0.5544614868500383 0.11246853787451982 0.10822116606423911
1.2691592747485076 0.5539305117912766 0.11246853787451984 0.1307396580525397
1.27582721919442 0.5386254789261979 0.11246853787451982 0.11184515748704049
1.2647159447244598 0.527281232465872 0.11246853787451982 0.13170734858878808
1.2831179124030598 0.5726187279750582 0.11246853787451982 0.08426634752134032
1.2668279959507807 0.6312476253343187 0.10600706548363813 0.20105047706666296
1.2468436574303676 0.6244256074137661 0.10705712359350186 0.21527545997900682
1.2500344575209563 0.6131049198600238 0.10879962557949459 0.17365766993261927
1.2612112828471616 0.6221493173864707 0.10740749452940376 0.20918617930189645
1.2625835782232064 0.6443433079566918 0.10399135284524169 0.23044609883411987
1.2434661550455088 0.645185734676416 0.10386168490544527 0.11493906297036577
1.2564638255376555 0.5930360711330072 0.11188866134674832 0.18685927559785617
1.2623186574377283 0.6073742930071634 0.10968169467862732 0.2014391793719215
1.271912626191571 0.5911594813148906 0.11217750965825221 0.1592820612932134
1.2819224495450756 0.5959799597938379 0.11143553234608587 0.14214298136005918
1.2799467803350282 0.619620570985588 0.1077967240355351 0.18586690487484409
1.2824097240180317 0.6078085611251625 0.10961485129526616 0.16874005917356427
1.2726242057077055 0.6501032942349758 0.10155839947502782 0.2571257442646005
1.2824784695687863 0.6506580710411073 0.09295717934027406 0.15174398029863473
1.2430284665136606 0.6506580710411072 0.08684232825425411 0.15322152589119048
1.2708147683106812 0.6506580710411073 0.08832142070918515 0.22217195981439858
1.2558191548399535 0.6506580710411072 0.09205436296868513 0.20194688967845664
1.2451080845942508 0.074904602061272 0.09250292657411277 0.13514467023038676
1.2447487112712592 0.07710633345398177 0.12075710402849742 0.10403183168977269
1.2441508755292832 0.4313590011984712 0.13247526519999192 0.160973746785498
1.244889605655082 0.4523601834868952 0.13463367263784137 0.16640568316114132
1.2445013139800438 0.11718542529540064 0.1223486978659106 0.1330340315603129
1.2439074771341128 0.163175877352141 0.12333340328353039 0.17044598037836134
1.2484076146981387 0.13976989702667722 0.12602272105495785 0.12950359910077705
1.2469748045596423 0.15168019261604282 0.1257763380876448 0.160968268383362
1.2438052749870172 0.19194240955021014 0.12399728561346733 0.15147859694975063
1.2434080727256307 0.25821958458618877 0.12503361051570708 0.18481965521766797
1.2451752990447924 0.20295198562952796 0.12671766808193877 0.1428503317227136
1.2476832276088323 0.22531511912312613 0.1285217172728555 0.13619961175444523
1.2481083711731267 0.2373609414876687 0.1290842899680362 0.1476415388109466
1.2483903975809227 0.2715437693621424 0.13031234670739564 0.17636355902844536
1.2450174735614978 0.3047687337665765 0.13004261237586046 0.1585812855667424
1.2479168858317047 0.3176069879811446 0.13160879971045453 0.17065316273192738
1.243840065414875 0.2930869572371128 0.12713997531960614 0.16755838705160575
1.2444476935198567 0.4199233685625068 0.13286883029209778 0.13840816758419522
1.2476830515515005 0.3842234403918161 0.13368798841340013 0.1584189707419801
1.245107121592736 0.3973129489162004 0.13294124215061878 0.16984351457436278
1.2457390805822706 0.35274863861352745 0.13191969235952555 0.14322052971431443
1.2473831087876175 0.09833299891340513 0.12440434600703537 0.1426818223157926
1.2486378969826464 0.466875228345286 0.1367384566303609 0.17150994605022038
1.2451791339601779 0.4873743821182219 0.136004592345431 0.17174781583194576
1.2443582833161941 0.5107798319937359 0.5176409234681227 0.0774029432472024
1.248733406850489 0.5082653784756017 0.5335222455912249 0.0826418765374071
1.2455710393026824 0.509560784197969 0.4228270652576397 0.0794654865852524
1.2476743985424785 0.5087566990536239 0.3953954567907182 0.11214865650013559
1.2471323338115416 0.508976370948941 0.33108228353279023 0.07572954521171749
1.2488943847817786 0.5081927205691106 0.34291695285536217 0.09381636928543578
1.2459300957181638 0.5093253929224779 0.31068546764218025 0.07332692535335658
1.2444239181651495 0.5109606937368814 0.26954091724163537 0.06979813659969863
1.2488995728863388 0.508184812054261 0.24726379582318617 0.11376099118057777
1.2478732809582116 0.5086469023133864 0.19489945116837426 0.09686099765138537
1.2445003381651596 0.5105458016564715 0.21188739559201664 0.07591969004513777
1.2445633416799071 0.5104448572462584 0.22482061925402086 0.0742369148589537
1.248745207975872 0.5082396628454726 0.29055246073199226 0.09350222692619511
1.248705177375939 0.5082641159543515 0.4455202643335595 0.07593838455090389
1.2442407663090254 0.5110476886434578 0.5574558837749175 0.1568919497376876
1.243304311090637 0.5133718688851775 0.18640191395584563 0.06638817540305902
1.2462657501426084 0.5093551620130579 0.16483685488388025 0.14642339551302783
1.283331541833798 0.5124119019849084 0.20105605979079205 0.06380477460012088
1.2789115950297294 0.5084936886195325 0.2791284308083102 0.0674112784139599
1.2786327502054675 0.5083676876087097 0.26547509105814526 0.0841488699684498
1.2832245993451132 0.5123816690436689 0.2408744519451248 0.062208784265738684
1.2834907480234028 0.5128151782413517 0.3102940790501153 0.06912389840697014
1.2825089668447813 0.5101754726452528 0.3743567463839083 0.05330429769946295
1.2799366035092783 0.5090164941537583 0.356293840210128 0.09447111711708059
1.2825345909248373 0.5107370255509317 0.4122071574245641 0.0667273352155657
1.282453400598336 0.5105453295086733 0.4624478110989579 0.07199448894678026
1.2812887413600147 0.50949097851041 0.5104294646011591 0.08635181963405648
1.2822028281260323 0.5099086052265029 0.47484340992290436 0.0906613475956807
1.2781780794674213 0.5081961578227687 0.4266592292343692 0.07078103995366376
1.2834373777688504 0.5125709072449576 0.5496438446985326 0.09140336840194409
1.2833892794837523 0.510701769804216 0.1467965960994986 0.09236974028627215
1.2831151182069944 0.40519175354948433 0.13104060230987968 0.12926836904016245
1.28299401651415 0.1144356754929241 0.12171203642588053 0.18261692597074136
1.2809744885798273 0.12823804018837298 0.12478417736464814 0.1568423583236189
1.2800007499750414 0.1519664550518227 0.1258655922774462 0.14975488026500725
1.2823752996230038 0.48912804873872584 0.13567861972446152 0.15898805737955607
1.283276441586397 0.379588237236691 0.1298129819099131 0.18354461273346087
1.2830331977939866 0.1807887421945669 0.1239382080098043 0.14610529062934785
1.2808502214592665 0.28111168637035233 0.12962873146799475 0.1618751701592109
1.2794625596445175 0.4196702898529456 0.13476465647101918 0.16451096968717246
1.2819408729691755 0.3913377599333851 0.13284721152410148 0.1550514389806308
1.2831528760989204 0.3242201920938703 0.12833735056715823 0.14992243676950145
1.2807877061532356 0.3078522268996067 0.1305533327532179 0.1761305988405334
1.2810081269937648 0.23565239956514766 0.1282348507980534 0.15563028180484387
1.2783284058225024 0.22140191995370456 0.1288147107864561 0.17787668771020426
1.2795999130062765 0.47524550565968593 0.13644161774043734 0.17096264792649343
1.2826428980080604 0.09659398531214888 0.12207703626459722 0.14908773658177296
1.283290142631204 0.07896655029265373 0.11995047140023657 0.06551119960208643
1.281092839992349 0.07455721911747101 0.08695724292209489 0.13612384096355976
1.2825407272577523 0.6804478004017064 0.09401755366773587 0.11409030608932373
1.279753662852096 0.6708711894408517 0.1255247652694646 0.12488580948192658
1.2828740794691984 0.6150364172686579 0.1332809499984275 0.12837739519739866
1.283028099094246 0.6473530992574712 0.12685719235010956 0.12777959737470837
1.2835169008784486 0.6022312050739571 0.1452173381900729 0.10652167331143766
1.2833461340927648 0.600327141830895 0.5319483179927885 0.06838579234516771
1.2833049580060427 0.600344884459906 0.5205971013519247 0.0704294229744055
1.2807988412750604 0.6033585251020717 0.5588993322455609 0.13378246777775316
1.2787277860033675 0.6042527625787947 0.5436669024665726 0.09602772396958216
1.279783870442718 0.6038865426310127 0.4496705336072921 0.08711183019608063
1.2796188822315524 0.6039573977920267 0.48064515859142953 0.1017383554925039
1.282645071206231 0.6018240639666325 0.4939544496119548 0.07360224260892002
1.278535300566853 0.604340997545284 0.3377056182682723 0.08057661479926861
1.2837507502436687 0.5992702171005955 0.3468502093975541 0.07624845292611651
1.2817185834944695 0.6030397626179514 0.3217903519808245 0.07233183682539557
1.28063131494174 0.6035100281368802 0.2358669500718209 0.08230347418472461
1.2816728036125955 0.6030439571700439 0.21123760130600094 0.07278919799875641
1.2813697408480427 0.6030924667136128 0.19665838262269536 0.08768319237160159
1.2787768009851281 0.6042870835796922 0.2971542673370304 0.08752466350854604
1.2837902135636234 0.5991875240420272 0.17119753059379594 0.06619464807825479
1.2832776386930251 0.6002943120991733 0.2512285244599855 0.07498622311031453
1.2438880872741978 0.6008505758423097 0.181183927186785 0.06599311794303739
1.2485349907530292 0.6043528531734585 0.15796185141871602 0.11722201314656966
1.245158311767879 0.6030733154717637 0.27201170063002433 0.08031743551894642
1.2468276977611596 0.603562318633214 0.35282588492237077 0.07982041370364303
1.2487174023805694 0.6044309702430544 0.31183465915799286 0.09074422308125829
1.2435653263956523 0.5999896935454276 0.3823333772193518 0.05668364476652575
1.243873567887705 0.6004445671145564 0.4301305930349543 0.04748963865841937
1.2440243152478245 0.6012714014451912 0.5453990168061261 0.07814403260525449
1.2439509453042057 0.6007334081814328 0.4697066419742864 0.05477932465806056
1.2433472400763492 0.599360799086319 0.5109889932309157 0.06624682972845226
1.2431531855496403 0.6638583983093225 0.12166005191062176 0.1286297416195818
1.243772153492507 0.646861133134791 0.12636147726199518 0.14033335749433032
1.2433233312034984 0.6776093599072669 0.08453378835746668 0.14847737534275576
1.246481818709578 0.6818244890852915 0.11553048496827831 0.07132205272892185
1.2530887614487731 0.6045702695846558 0.5564389291868752 0.1453154193384967
1.254014435607442 0.6045702695846557 0.5685324841064285 0.15758469824048751
1.2549815631837924 0.6045702695846558 0.5439513858159134 0.10224697849475375
1.2630263723020803 0.6045702695846558 0.5608577575371207 0.1595535200549971
1.2516389357077649 0.6045702695846558 0.5296947407313125 0.10461308837710653
1.2670776172833216 0.6045702695846558 0.5454746982185317 0.13699341116969735
1.2699202196146953 0.6045702695846558 0.5328774261377314 0.13728482823013044
1.2509132426576486 0.6045702695846557 0.5032647144842147 0.08173675853125931
1.264115427404434 0.6045702695846558 0.5126182982386478 0.11860040041916395
1.270867666853649 0.6045702695846558 0.4925292785076949 0.13947901651326128
1.2778120042515408 0.6045702695846558 0.5060579470805009 0.11803166444111227
1.2627479251941325 0.6045702695846558 0.5002242919286167 0.13874863186065614
1.2520431202946523 0.6045702695846558 0.4501470207967435 0.12037737662954685
1.2626404898921235 0.6045702695846558 0.45300534603439185 0.12981695218500533
1.2599819485009731 0.6045702695846558 0.46441587955929653 0.10546839614561308
1.2576033177527024 0.6045702695846558 0.4860965030718334 0.133642719542079
1.2754165265708381 0.6045702695846558 0.4608025736558676 0.1301473148673423
1.2729633002001874 0.6045702695846558 0.4360634305376445 0.10442120183079674
1.259308441984049 0.6045702695846558 0.4389877929319663 0.14371764656061667
1.249394050701575 0.6045702695846558 0.4123768913915403 0.08247374284038349
1.2543538498096671 0.6045702695846558 0.4259131541714124 0.14771356685211995
1.260850899802823 0.6045702695846558 0.4130393732514337 0.13743644994610776
1.272982358849234 0.6045702695846558 0.41300032635040385 0.09675521645116543
1.2662354908574123 0.6045702695846558 0.4007763670379215 0.11580087342563049
1.252271370530599 0.6045702695846559 0.3994608029057428 0.07228291309707233
1.257855660957113 0.6045702695846558 0.3795430914456261 0.09129706160223848
1.2669876627780559 0.6045702695846558 0.38881043543355187 0.15933545869154064
1.2700318004250863 0.6045702695846558 0.36668157403828816 0.13258525686214823
1.2765252655807302 0.6045702695846558 0.378788427321765 0.0839246015446449
1.2577396019320526 0.6045702695846558 0.361675658949976 0.13931995453105422
1.2669428112232226 0.6045702695846558 0.3416536380972571 0.15119998033192425
1.2555209522699473 0.6045702695846558 0.3374709764203589 0.10238912358346938
1.2680685780551455 0.6045702695846558 0.3285539136499351 0.1441438063540838
1.2555293955328843 0.6045702695846558 0.3224577031022099 0.11834681191749079
1.26709811705685 0.6045702695846558 0.3167616003439966 0.13511165536087677
1.2701185460067337 0.6045702695846558 0.2888190045356333 0.11338530527648089
1.2672552598322906 0.6045702695846558 0.30129745398364066 0.1267085188567357
1.2500866794673366 0.6045702695846559 0.2824471525889356 0.11215181494087191
1.2537252888534303 0.6045702695846558 0.3008907421875411 0.10323860897400051
1.270191629475055 0.6045702695846558 0.25418912487439005 0.13158336243923163
1.2689092211900403 0.6045702695846558 0.26752301682638474 0.14335015728460399
1.2754893765218216 0.6045702695846558 0.2770734560997755 0.1279526741151237
1.2593368024845368 0.6045702695846558 0.27663551294280214 0.11341682342453427
1.2506260767864936 0.6045702695846558 0.24040291880481057 0.09915046368670014
1.25447695729869 0.6045702695846558 0.26320887670874044 0.11210608962018614
1.2504024406227967 0.6045702695846558 0.25212083835720994 0.09444377074072574
1.2699858050080635 0.6045702695846558 0.24217297647043295 0.11461803634941815
1.2609145305128147 0.6045702695846558 0.23220589325685742 0.10614865424932933
1.2495785436459055 0.6045702695846558 0.2269866147230876 0.09436832422951709
1.254316822621102 0.6045702695846558 0.20756190833349064 0.0971156450268444
1.2705442055001346 0.6045702695846558 0.2263415915820596 0.13190004479853795
1.2647992628104014 0.6045702695846558 0.21406688716610983 0.11518552568783677
1.2656809673614773 0.6045702695846558 0.19710716824346605 0.11987864631680185
1.257412241512151 0.6045702695846558 0.16748874766884034 0.1362568836359232
1.262374468451522 0.6045702695846558 0.17749637754097386 0.0948884074931971
1.2543503868428332 0.6045702695846558 0.1946124717842405 0.08322178695715744
1.2717518823717204 0.6045702695846558 0.16709970280682007 0.1473067428507102
1.277122764389917 0.6045702695846558 0.17907850655133614 0.11079091060077491
1.2756720540697182 0.6045702695846558 0.15527631293222674 0.14409828913184786
1.260432756699007 0.6045702695846557 0.1551524772334671 0.18176811610495272
1.251097794264276 0.606210141116163 0.14496844216922963 0.18970182655431012
1.2651132750983984 0.6067517788653731 0.14403001021608253 0.1945175019800185
1.2584478270010973 0.6131702098864247 0.13740859532851946 0.2725555493396311
1.2699413708132428 0.6139141297655977 0.1369320978733789 0.2576157231695555
1.254969389446463 0.6463145823697521 0.13071636054711977 0.1791772543617742
1.2578062138569113 0.632500720738622 0.1332994878027779 0.18862860475461884
1.2503968265657786 0.6221823953091474 0.13522896620363004 0.18010487499798114
1.2683544837569998 0.6269202801527909 0.13434300398679383 0.1965887456923804
1.2724272005454034 0.6499356257394424 0.13003924244126816 0.16523706239511968
1.2738503006533297 0.6372567902118174 0.13241012514560974 0.19370653991448916
1.2603509952146963 0.6686866599219393 0.12653288710327695 0.20257958810981844
1.2618846193625866 0.6572004556992272 0.12868075335415063 0.18576232987154043
1.2533308095009648 0.6771070037074401 0.1252853006795536 0.105011138219107
1.2762256707543385 0.6826234090084544 0.1192883039230499 0.10459593780379046
1.2646200045831628 0.6809838774838367 0.12258294915258408 0.14934799361198653
1.2759230237150223 0.6828765273094177 0.10528735401958834 0.15690493283575116
1.2531719417298477 0.6828765273094177 0.09068285879449263 0.19728832761655735
1.2631224990000403 0.6828765273094176 0.10193017973482275 0.18930479638974707
1.2584463951230487 0.5081369429826736 0.5616410954133556 0.1669491976063981
1.2675243188468381 0.5081369429826736 0.5557269800292106 0.12613273154206495
1.2676434269831733 0.5081369429826736 0.5704824520432833 0.19316094903770187
1.2494198636542022 0.5081369429826736 0.5472714248652654 0.11836133087072587
1.263655479109819 0.5081369429826736 0.5410898058751477 0.1318537387234552
1.2775372582998292 0.5081369429826736 0.5290171016236682 0.09606524578517352
1.2706509509311243 0.5081369429826736 0.517619080525767 0.10579717399381453
1.2734939701926191 0.5081369429826736 0.4933474046661883 0.1314909522432712
1.2695075777934655 0.5081369429826736 0.5057595274952227 0.11926240376476163
1.253767743202963 0.5081369429826736 0.5234279400156358 0.08367932436404246
1.2499166755327935 0.5081369429826736 0.5013999048524711 0.10465209385963743
1.2534595410994325 0.5081369429826736 0.47382674761062127 0.11261354449397606
1.257958757132336 0.5081369429826736 0.483760707657264 0.1336482605086479
1.2508975571100367 0.5081369429826736 0.4621920765294345 0.11292252497431621
1.2682788061178678 0.5081369429826736 0.47275925702430466 0.12742251411507832
1.2674509994493472 0.5081369429826735 0.4507261266464107 0.14907188808816207
1.2523267218663192 0.5081369429826736 0.43222294111423487 0.13575481755317423
1.26061674618576 0.5081369429826736 0.4412007816162087 0.14992250928694023
1.2715830645708663 0.5081369429826736 0.4366591914270971 0.10390900510152361
1.266672606554741 0.5081369429826736 0.4250892874263704 0.12955786481455617
1.2633912294556855 0.5081369429826736 0.40873273622315576 0.14923446175463181
1.2510444940454863 0.5081369429826736 0.41012401751262884 0.11836607308064606
1.2767325003484644 0.5081369429826736 0.39572147419420073 0.11460056084270046
1.2663797601735265 0.5081369429826736 0.3866700361096652 0.13892690321211007
1.2508781437123673 0.5081369429826736 0.3571887788997676 0.10571047930666545
1.2688977801068293 0.5081369429826736 0.3682337902860546 0.14027166977606476
1.2515729525646666 0.5081369429826736 0.37074025576125547 0.07797549340019418
1.2779980474733765 0.5081369429826736 0.3432149868727791 0.09868061101033995
1.2652259712507754 0.5081369429826736 0.34495447055718353 0.10008946677546374
1.2663658400992621 0.5081369429826736 0.3163962968692027 0.11488489427662962
1.262003650384857 0.5081369429826736 0.32830209400940197 0.14677976611145016
1.2724740168709676 0.5081369429826736 0.33110774870354853 0.09787471012087508
1.2720355405334551 0.5081369429826736 0.3024128316034946 0.10079988973087575
1.2581605449631639 0.5081369429826736 0.30942684847936414 0.10634784429745711
1.2603500632354148 0.5081369429826736 0.2945897476970932 0.0997941952787332
1.2769538031913494 0.5081369429826736 0.2910402656816565 0.11013635574503984
1.2551275437651819 0.5081369429826736 0.2570167600302068 0.11868995684322817
1.2587725816309083 0.5081369429826736 0.27891190439824737 0.10425418681744819
1.2667252358369088 0.5081369429826736 0.2607080561989083 0.10608337037415025
1.2723793570321758 0.5081369429826736 0.24786334852278497 0.08113118600968781
1.2615977837684826 0.5081369429826736 0.21317281838903082 0.1356393222000292
1.2708754125462405 0.5081369429826738 0.20550579433132612 0.12914717143877857
1.2573688252194595 0.5081369429826736 0.22424486744782904 0.12363836282220247
1.2722502297484484 0.5081369429826736 0.22965165902339024 0.12523445747745673
1.275105991707806 0.5081369429826736 0.21631561862369436 0.10377972626202467
1.2565164112536098 0.5081369429826736 0.235336493571717 0.1277240005317218
1.2653057290294139 0.5081369429826736 0.1852962781239267 0.0934920890690098
1.2730937421179642 0.5081369429826736 0.1948126166086747 0.13772941902502092
1.2713000804698305 0.5081369429826736 0.16441225022984285 0.14640630491658754
1.2576525986092315 0.5081369429826736 0.16711865752012825 0.14528180852110903
1.2598709737089777 0.5081369429826736 0.1552434574996123 0.19718736056093042
1.252740486738682 0.5081369429826736 0.18168150369469227 0.12670437541515875
1.266576502528712 0.0732843279838562 0.09722401861365826 0.1737237280691232
1.2706327294190942 0.07328432798385619 0.1076223516590153 0.19394723691553528
1.2574633382050608 0.0732843279838562 0.11350510805959592 0.19925990909389135
1.2648112980636004 0.0732843279838562 0.08370374696721969 0.16191009535021703
1.254630699080967 0.0732843279838562 0.10109674285421077 0.1819949786744873
1.255918709610547 0.08043274554465127 0.12458688486367465 0.17251131959374136
1.2720788674259922 0.0820848471205369 0.12458688486367464 0.15534250688224044
1.2731286932660217 0.10361065063467592 0.12512244383659005 0.16769435678332004
1.259497538246796 0.0937792210706537 0.1248042647838783 0.1802603971022891
1.268025397233347 0.13008824769778804 0.12597935105236086 0.15723229652603923
1.2620234146888971 0.11177254464583616 0.12538659117866857 0.1644479276349151
1.2565158015348163 0.12907055065476253 0.12594641552532054 0.15486343299802355
1.2608557239936478 0.13998338527584633 0.12629959345702368 0.16911030801586657
1.2668281320543073 0.15286148417844314 0.1267163753707682 0.18762253563003553
1.2754892190095628 0.16296679532762304 0.12704341974073804 0.14311424459907746
1.2653984156502016 0.16958100695885264 0.12725748003840684 0.15965785884374878
1.2508317057393283 0.17579319685353725 0.1274585297050992 0.1474328889199691
1.2744207424512983 0.20202442594572406 0.12830747647622343 0.16835483935773332
1.2739527978368748 0.19081066059807827 0.12794455419047288 0.16745644620301528
1.2615645991285054 0.19763788949152106 0.1281655085319946 0.16963301455433896
1.2705144919235405 0.21276896843268978 0.12865521190477144 0.1710082887473697
1.2601875480652616 0.21725123971076105 0.12880027369602468 0.18274143056049313
1.2675466290368764 0.22734578891161644 0.12912697377813775 0.15714939531377026
1.2700104340323572 0.2462542879849422 0.1297389215681814 0.1618031508435561
1.259074891652059 0.23926520647164912 0.12951272998428306 0.16358150687791073
1.2506804216086376 0.28312697576088935 0.13093225742164516 0.18235778642281794
1.2490936866928515 0.24930581238888752 0.12983768115280583 0.18159697193513086
1.2607344137409264 0.2724491098246965 0.13058668212190103 0.18279683319493403
1.255467022819076 0.2594593954091131 0.13016628782175738 0.17745498813484767
1.2758047734957474 0.2951987953173134 0.1313229443269295 0.17717194999746458
1.267933398013831 0.2820795184763989 0.13089835696389973 0.16210860179157252
1.2769809058540078 0.2648192082467653 0.13033974975630144 0.16181691849566882
1.2600225250186892 0.32443263224396934 0.13226905881554024 0.18229499984454325
1.270463950787474 0.3125734770832824 0.1318852528151247 0.15816757955961888
1.2511645568995486 0.3325042557889116 0.13253028640170383 0.18303254952656597
1.257253260757297 0.3021442477699575 0.13154772548845825 0.16344647416586702
1.2724785721775944 0.3688360927964235 0.13370611664971538 0.16147914752081977
1.2681448116647032 0.3444754362346033 0.1329177168741455 0.17157186283543263
1.2749160220811815 0.3326233812444904 0.1325341407762775 0.17386927782533837
1.2778493248807852 0.3504431115984789 0.13311085231079406 0.15616625691620362
1.2550929491402862 0.3425923519129584 0.13285677386691994 0.1848518562774466
1.2687072626067488 0.3589293786238609 0.1333854992895086 0.16499850277315042
1.2639927821579469 0.37839761707708713 0.13401556273733065 0.1647034286120543
1.2493940929479372 0.36911299381991125 0.1337150788630352 0.15597958414755297
1.264136932390208 0.40687864631903176 0.1349373129491378 0.1549907491338562
1.259183652546393 0.3902316873441175 0.13439855659928346 0.15436628907661606
1.2733117261950158 0.3986218262989917 0.13467009182781503 0.1595407471145987
1.2506678815040821 0.4087092462264127 0.1349965581808545 0.15846896327193918
1.2648275039660883 0.43486708831928483 0.1358431212565137 0.15015344868560765
1.2541274052311553 0.4424153786775641 0.13608741178125203 0.16646204858751298
1.2593056298689476 0.41674946528680545 0.13525676886352622 0.1549298681391195
1.2546162837348185 0.4286456934972021 0.1356417744130224 0.15146120380457334
1.274632066317474 0.44402422823823184 0.13613947862258513 0.14916301030659077
1.2639313247164004 0.4492431290291098 0.1363083817821089 0.15949476379300204
1.2558284752367546 0.4582036797051118 0.13659837735037775 0.17720265424724257
1.274433951968184 0.45704104524605693 0.1365607479634103 0.14437763991185282
1.2671531979273243 0.4717733976660037 0.13703753966835508 0.16657087661225703
1.2572435675613336 0.4793193946326859 0.1372817581654651 0.19548716486000325
1.2566864312589754 0.4924908493363264 0.1377080349535186 0.2472998647084053
1.2682011352012212 0.48892633402573127 0.13759267300954786 0.25771111968482757
1.275557304500206 0.49994025128250086 0.1389982434243768 0.1983839658326025
1.2499002268037596 0.5040131771620073 0.14214051286251134 0.2085497947124562
1.2698656831507402 0.5073352811954516 0.14775738727121832 0.22260593494329356
0.2570197880268097 0.6616814630270919 0.09694180409366475 0.1412397162347348
0.2570197880268097 0.6627836101028279 0.11074943536008217 0.16336073183220728
0.2570197880268097 0.647687387656047 0.12109319932577349 0.1885853449163417
0.2570197880268097 0.6234093559943858 0.12727076484143376 0.1480906664409731
0.2570197880268097 0.6366159060044322 0.11915808402396408 0.20985410189282733
0.2570197880268097 0.6249153673059564 0.11055172233229142 0.18332051559474882
0.2570197880268097 0.6036878423240266 0.11466181571665643 0.16219913325662405
0.2570197880268097 0.6382972667580223 0.10804321729817659 0.1564912169102653
0.2570197880268097 0.607304254101606 0.13282089701181468 0.1621192153399656
0.2570197880268097 0.5245376425435267 0.13762567324479916 0.07526273905489791
0.2570197880268097 0.555528993979491 0.11982324401734548 0.08731642542764996
0.2570197880268097 0.5437541790241129 0.11271693548079965 0.08022070287945038
0.2570197880268097 0.5380347307795975 0.1299036221403348 0.08233809242198244
0.2570197880268097 0.5234369699084822 0.1269524307648517 0.0881235372313969
0.2570197880268097 0.5249358262578556 0.11365736414780758 0.09095855995725095
0.2570197880268097 0.595931199242075 0.1253484648507141 0.13952060428296692
0.2570197880268097 0.5801182242644902 0.13594297465894234 0.10165742973300713
0.2570197880268097 0.5479480105872812 0.1401320328121116 0.036417177635258834
0.2570197880268097 0.5914880209332785 0.13947493836115657 0.10136150945529142
0.2570197880268097 0.5606317599542047 0.13943914535869886 0.03158307268349809
0.2570197880268097 0.5897108963670556 0.11495464996879302 0.10238733997676477
0.2570197880268097 0.5784650195879059 0.12256527175513729 0.06574664982512185
0.2570197880268097 0.5365191463550836 0.14828246038886833 0.028950962158783834
0.2570197880268097 0.584764546347884 0.14815248192189798 0.05853119635855874
0.2570197880268097 0.5137659890804547 0.14772472247391977 0.08192480654648623
0.2570197880268097 0.5249210506280848 0.14968477521735135 0.034828987365489825
0.2570197880268097 0.5121984579566372 0.1309140734676142 0.10431073363621826
0.2570197880268097 0.47560036749479234 0.13033801759124752 0.15730443054192028
0.2570197880268097 0.5005972383591208 0.11905748470777909 0.14184408178532462
0.2570197880268097 0.4632794729656221 0.1295811082857588 0.10358867257628523
0.2570197880268097 0.49113584588203474 0.1273686732447929 0.14690319236819127
0.2570197880268097 0.4266511215659545 0.12157292384203439 0.17010527031376013
0.25701978802680975 0.4874051055092021 0.1154854118017021 0.13097224334067292
0.2570197880268097 0.41546801104721726 0.1282477230014771 0.14664889716582993
0.2570197880268097 0.4461445590516509 0.12314885933332907 0.17639442723224133
0.2570197880268097 0.37629691991488906 0.1243436404535894 0.17903273357894248
0.2570197880268097 0.4751108600863619 0.11561989151770986 0.13178090722172772
0.2570197880268097 0.2044033140969703 0.11117872560195843 0.18078165990749848
0.2570197880268097 0.3772875206485726 0.11283403297814282 0.16826656374754817
0.25701978802680964 0.21998915213732956 0.10323765520519004 0.1082525142848691
0.2570197880268097 0.15892281016192825 0.10135723492652796 0.15060943103419902
0.2570197880268097 0.3210733179793394 0.11510311975231481 0.1605932532591914
0.2570197880268097 0.23247578029517163 0.10335221922637762 0.1615883639095902
0.2570197880268097 0.43586907626734406 0.11294775887542152 0.1383947152648482
0.2570197880268097 0.2771461570742585 0.10626730338707258 0.14864056233930925
0.2570197880268097 0.3298320000121622 0.10742188229986636 0.12507112351269545
0.2570197880268097 0.24697864813480352 0.11392703437535354 0.2045284700789926
0.2570197880268097 0.41525232898742903 0.11150531285461786 0.1515171264818796
0.2570197880268097 0.16734917493653337 0.11254653450296244 0.16046384264960384
0.2570197880268097 0.2583517569713528 0.10513111568403197 0.12114329080970415
0.2570197880268097 0.19304040205330789 0.1060967882069873 0.1696773580173013
0.2570197880268097 0.182275080431958 0.11124386047527948 0.19705587929918
0.2570197880268097 0.1425968124737929 0.10846181435382696 0.17840666281804168
0.2570197880268097 0.12797868691068431 0.11090198974661372 0.15029108201743957
0.2570197880268097 0.46270223910888864 0.11348212005800117 0.12355939775542084
0.2570197880268097 0.3009865051957902 0.11799679418804249 0.16586614104510294
0.2570197880268097 0.27027718948267065 0.11877936470254902 0.18048342793217267
0.2570197880268097 0.2880735185111715 0.11725853272438988 0.18888787429698697
0.2570197880268097 0.3372336143576492 0.11735230434858991 0.1630664467489466
0.2570197880268097 0.23396107458490614 0.11834965427671752 0.17025623664000195
0.25701978802680964 0.391401584458953 0.11759269647912356 0.20331909693151667
0.2570197880268097 0.34694861184361747 0.12178679882906183 0.1846248066447402
0.2570197880268097 0.40483809899906964 0.11851325935434895 0.17323991635938674
0.2570197880268097 0.3630334158372617 0.12019988393814011 0.13848365700782198
0.2570197880268097 0.08787548066311227 0.09371725821093793 0.15166953703311853
0.2570197880268097 0.08674641418915745 0.11604380574104159 0.15789487840446653
0.2570197880268097 0.10657893383671557 0.11084124926248545 0.1402755671031641
0.25701978802680975 0.562218224502166 0.1738006496268989 -2.375847172211262e-27
0.2570197880268097 0.5951028652618312 0.1547962863556206 0.0916537152927039
0.2570197880268097 0.5853695906145298 0.16411710985446515 0.08154880402622632
0.2570197880268097 0.5485068873618103 0.15446309077615594 -2.0463555759005888e-27
0.2570197880268097 0.5807047755515341 0.17927616039449587 0.054228345644681555
0.2570197880268097 0.5981127329803666 0.17731118879156363 0.08987020304264602
0.2570197880268097 0.5532004468288141 0.1660093988776485 -2.5323977503741505e-27
0.2570197880268097 0.5750074661965081 0.15678679368490528 0.03431394541569252
0.2570197880268097 0.5201924225790215 0.1760230117264469 0.051459329239725356
0.2570197880268097 0.5415381864670179 0.17756749228754332 0.004785461826313598
0.2570197880268097 0.5515682892893866 0.18286478926741312 -2.4942115597884433e-27
0.2570197880268097 0.5151324405846821 0.18910132923337214 0.07873410683017822
0.2570197880268097 0.5306898223668275 0.1816861491937207 0.05442932165377701
0.2570197880268097 0.5687357371682651 0.1874472954898336 0.00036193578503127525
0.2570197880268097 0.5217549938335184 0.16134806042106484 0.06936912811896746
0.2570197880268097 0.5399051389796283 0.16593398725776776 0.017635531501920796
0.2570197880268097 0.5937185524778128 0.20846930762407734 0.08171355780648977
0.2570197880268097 0.5285204501161224 0.19886253202035076 0.05519300303724009
0.2570197880268097 0.5533920924536615 0.19793107979997884 -1.6217351159339588e-28
0.2570197880268097 0.5622539422290525 0.21226396673059217 4.590284794574597e-09
0.2570197880268097 0.5399789889130978 0.19896266665076404 0.011380425185052133
0.2570197880268097 0.5851693087515543 0.19743381010475894 0.05478150784510205
0.2570197880268097 0.5758629426043546 0.20609670283635056 0.03934163724053985
0.2570197880268097 0.5778383922896224 0.22145494033564034 0.04806899606147018
0.2570197880268097 0.5418844031561113 0.22344232322564023 0.008675842590375694
0.2570197880268097 0.5224620991288166 0.22130845357876172 0.07419448563338726
0.2570197880268097 0.5311087134382521 0.21324341380215886 0.05360417580485325
0.2570197880268097 0.5484934966097225 0.21015768463485568 5.2608031083931045e-05
0.2570197880268097 0.5556590667120719 0.22238147646242 -2.586188603639771e-27
0.2570197880268097 0.5886213309177659 0.24867750953070608 0.06377672746464969
0.2570197880268097 0.5923335522771483 0.23076146003720407 0.06354856326645379
0.2570197880268097 0.5613236806653921 0.23983521705947006 -5.664032946022076e-28
0.2570197880268097 0.5675097477285702 0.22710933982298515 0.002052715151372632
0.2570197880268097 0.5811990693366553 0.2358987931925775 0.04839548951092183
0.2570197880268097 0.5163391056756228 0.2489167839963805 0.07461621120904477
0.2570197880268097 0.5365631920824189 0.23581981877893693 0.021018612638086173
0.2570197880268097 0.5956027822822055 0.25708780655850644 0.06706190726541936
0.2570197880268097 0.5339483235911043 0.2544695560841351 0.050600412129745385
