x y z curv
0.6657225172966719 0.8969672578021368 0.32322457929218174 -1.9961026762100335e-13
0.6657225172966719 1.004197339320331 0.45296713670695543 -2.1864945110239353e-13
0.6657225172966719 0.9263779861955657 0.30553005896402585 -2.5240811618896063e-13
0.6657225172966719 0.7288773154520645 0.31683934831283594 -1.990012852328294e-13
0.6657225172966719 0.8439103501506808 0.37576247807913676 -2.0482392178375848e-13
0.6657225172966719 0.9456577829588145 0.41830960803786005 -1.267793620558013e-13
0.6657225172966719 0.8126922736161581 0.3217345007415059 -2.2057613804445725e-13
0.6657225172966719 0.7294286174350433 0.1993830002936046 -2.01173551812152e-13
0.6657225172966719 0.7594346457060498 0.26712421359009525 -2.0148353447725726e-13
0.6657225172966719 0.7635482144985227 0.4605441695900385 -1.2942992758397624e-13
0.6657225172966719 0.9802961360229442 0.5288740593671011 -1.3640589173485247e-13
0.6657225172966719 1.037155628255945 0.424033634384207 -1.9850409570636005e-13
0.6657225172966719 0.6804518728026403 0.6251810246054827 0.25140603522930866
0.6657225172966719 0.7166228918413489 0.5519221555095235 -1.9846521963855897e-13
0.6657225172966719 0.8571603412632556 0.2974528715488264 -2.0719993299518481e-13
0.6657225172966719 0.71101171313035 0.06007315695859775 -2.0073230951286061e-13
0.6657225172966719 1.017854950695139 0.4325408910150081 -2.1759110806555347e-13
0.6657225172966719 0.8112137775137214 0.19111305187329447 -1.9930907432286218e-13
0.6657225172966719 0.901561077421188 0.22483714035022856 -1.9049785836822787e-13
0.6657225172966719 0.7939474957499718 0.5818318651785307 -2.0978064382692387e-13
0.6657225172966719 0.9881109270545615 0.39189798205896775 -1.8102761688563873e-13
0.6657225172966719 0.7530132764352766 0.16361176518689838 -2.1097566901257088e-13
0.6657225172966719 0.9561657331575527 0.5159842452093173 -6.661348261915227e-14
0.6657225172966718 0.9674261864893379 0.5152761350035835 -1.3254055976264905e-13
0.6657225172966719 0.919537892475888 0.3310916484120386 -1.9824394738333018e-13
0.6657225172966719 0.8240150045453981 0.25540069679477456 -1.9129666195298186e-13
0.6657225172966719 0.7733762662274013 0.17460959788153468 -2.36501869000125e-13
0.6657225172966719 0.8021198093995605 0.1462644930467207 -1.8725078743815796e-13
0.6657225172966719 0.8335612166954695 0.38912900092656955 -1.968317392082256e-13
0.6657225172966719 0.6755524257919482 0.6895566731043172 0.24936130959383418
0.6657225172966719 0.7242785798817125 0.6555972744091727 -7.469795317623113e-14
0.6657225172966718 0.9981821251464408 0.48809392155881465 -1.3256561786181396e-13
0.6657225172966719 0.8013495087613554 0.5194145726195035 -1.3495706316631585e-13
0.6657225172966719 0.9583394496305804 0.5401993251847503 -6.108121094302012e-14
0.6657225172966719 0.8148535087136496 0.5125889774485952 -7.763701108470481e-27
0.6657225172966719 1.0817025485074199 0.41236570970919684 -1.317298420962789e-13
0.6657225172966719 0.8581444001703254 0.3454902450305477 -2.0043362257789002e-13
0.6657225172966719 1.0908835552742138 0.4013804399348609 -2.1989840795789402e-13
0.6657225172966719 0.7527355275446183 0.5993067441336619 -6.482430593577574e-14
0.6657225172966719 0.7727942133765755 0.28700916433651147 -1.975549849984207e-13
0.6657225172966719 1.0026629028155718 0.3557375076652416 -2.002393592974922e-13
0.665722517296672 1.026790857514475 0.39322870773416485 -2.006519029860862e-13
0.6657225172966719 0.7439397997866509 0.5486647706968415 -1.448207726545658e-13
0.6657225172966719 0.720687018906977 0.49045798973108223 -7.337294499988611e-14
0.6657225172966719 0.7349056852300005 0.438762735586406 -6.598807644349819e-14
0.6657225172966719 0.6826501345311347 0.46366364316939584 0.203141654121529
0.6657225172966719 0.8368979625606827 0.1613140030906145 -1.9603777295382708e-13
0.6657225172966719 0.7376112460324392 0.4745858518047812 -8.063305475520787e-26
0.6657225172966719 0.8087237997490302 0.26048107537669446 -1.8912921224962428e-13
0.6657225172966719 0.8240019465319445 0.2187216329324248 -1.8311483968100086e-13
0.6657225172966719 0.7003414412599381 0.261738536559461 0.0397775200346932
0.6657225172966719 1.0029142872293213 0.43815790981311753 -2.0613211594415743e-13
0.6657225172966719 0.7749391909278809 0.09637181003772385 -1.4295474503030582e-13
0.6657225172966719 0.7556490171398216 0.24481056704618348 -1.8603700459819874e-13
0.6657225172966719 0.6925186369820419 0.13565435911391235 0.12333035129676774
0.6657225172966719 0.9213296114349762 0.2955211755320309 -2.0395258783870396e-13
0.6657225172966719 0.6952620226807606 0.31065642317851955 0.09350086951249661
0.6657225172966719 0.6866441027976966 0.020420691303291806 0.1984822890524777
0.6657225172966719 0.9076786289933497 0.32005875407773654 -2.1232183229666456e-13
0.6657225172966719 0.92053986016059 0.45578241188141383 -2.1785593824222645e-13
0.6657225172966719 1.0172439899127574 0.4931990791357979 -2.1209203892415942e-13
0.665722517296672 0.9494277302519655 0.40363452938187594 -1.8941951281592447e-13
0.665722517296672 0.7269808985121501 0.46564237377842005 -7.035628236158636e-14
0.6657225172966719 1.0883231166819898 0.44527189840955383 -1.2527201016557835e-13
0.6657225172966719 0.8554071442053046 0.3823981548040083 -1.9780533184463267e-13
0.6657225172966719 0.7704248214718702 0.4388618311406624 -1.3155226494883602e-13
0.665722517296672 0.9439714745879798 0.5165765846163852 -1.318579781119069e-13
0.6657225172966719 0.9732705128757251 0.3614350101915626 -1.926130021089441e-13
0.6657225172966719 0.9813650646692735 0.3132610626308825 -1.8044793951497918e-13
0.6657225172966719 0.9880430033852013 0.3233017160505831 -2.0985248674129886e-13
0.6657225172966719 0.6774319065166068 0.03239206563289792 0.24455043040133648
0.6657225172966719 0.8808819600453173 0.3206376258929764 -1.9897569973118863e-13
0.6657225172966719 0.7290756695720122 0.14238133630478406 -6.962267963730024e-14
0.6657225172966719 0.79660724325585 0.345620407839644 -1.9601562676193525e-13
0.6657225172966719 1.01572486486759 0.3919940902003285 -1.8447761604550825e-13
0.6657225172966719 0.8268742090374236 0.5757347816950732 -6.75824826711724e-14
0.6657225172966719 0.6783827048193932 0.5233237007191147 0.22399156452056346
0.6657225172966719 0.7458046741165484 0.40678518836478544 -2.0971507810198934e-13
0.6657225172966719 0.8014585243234931 0.18106632703676695 -2.1026084730990327e-13
0.6657225172966719 0.9884828027301745 0.29970264020664145 -1.9512705508653148e-13
0.6657225172966719 0.7531667888378593 0.38646680981403364 -1.8736657378306786e-13
0.6657225172966719 0.9622215257281478 0.34078914633931895 -1.9255172481488167e-13
0.6657225172966719 0.7625534032495084 0.5285420127787938 -1.1752787094506854e-13
0.6657225172966719 0.7367112349434068 0.5774780324470142 -1.9708559415356615e-13
0.6657225172966719 0.7791829484531025 0.49450628952130576 -1.4113674442149865e-13
0.6657225172966719 0.7489626094935864 0.17548538960357835 -1.9875642524351897e-13
0.6657225172966719 0.8149192624453712 0.4214007181163206 -1.304077604827915e-13
0.6657225172966718 0.9864371490839823 0.492479835385566 -1.3708171698619927e-13
0.6657225172966719 0.8653857601735903 0.355739461204289 -2.020890954360948e-13
0.6657225172966719 0.9701797817261937 0.46337056706208046 -2.1164244953308547e-13
0.6657225172966719 1.1025780898121256 0.38233798649272027 -1.4126671631090654e-13
0.6657225172966719 0.9020620229865888 0.3635537433407234 -1.6649955558427258e-13
0.6657225172966719 0.6758842537036179 0.5611514557666968 0.25178952491749595
0.6657225172966719 0.8738297163981845 0.4086187598052188 -1.9845988873336545e-13
0.6657225172966719 0.6830245367574242 0.4205769570936444 0.19517376437295317
0.6657225172966719 1.026092677102503 0.32305918813546997 -2.0977731862174327e-13
0.6657225172966719 0.6737352990461907 0.2515697622917487 0.24579755993455518
0.6657225172966719 0.778733812774029 0.607420080113647 -1.2675323893532153e-13
0.6657225172966719 0.7315531610982269 0.34377208277023574 -2.0473046459959474e-13
0.6657225172966719 0.7491755894454319 0.29186184177543173 -2.1527524732199762e-13
0.6657225172966719 1.0394453369230456 0.39386895200988575 -7.6779824681051e-14
0.665722517296672 0.9499959675392804 0.4629717455248804 -1.9981597177014064e-13
0.6657225172966719 0.7831123628424234 0.4119738522131141 -1.8871938724478684e-13
0.6657225172966719 0.892490688165132 0.4555884911562578 -6.959635723978869e-14
0.6657225172966719 1.0326935716292875 0.48153193053609944 -2.0244197796769886e-13
0.6657225172966719 0.925893144064713 0.28559843856744316 -1.970641380007592e-13
0.6657225172966719 1.1213199130851637 0.4459876640047161 -2.0644035804744666e-13
0.6657225172966718 1.078190206467561 0.39946913390446037 -3.0284996608646675e-26
0.665722517296672 0.9096359242959877 0.513063717781948 -6.826678405724206e-14
0.6657225172966719 0.6978871669423364 0.5789435391139569 0.06759616566201536
0.6657225172966719 0.7583326653404423 0.42711114634010267 -1.876203142248051e-13
0.6657225172966719 0.901556280917646 0.20530379726630738 -7.249183273426255e-14
0.6657225172966719 0.7906617581782208 0.4869766311775102 -2.121125663997481e-13
0.6657225172966719 0.850203949784871 0.33820385614660997 -1.9151492159528532e-13
0.6657225172966719 0.9584799114535625 0.2955081547397123 -1.838609034381475e-13
0.6657225172966719 0.6924401420966947 0.6262500057733729 0.12675474340338314
0.6657225172966719 0.8345341964240596 0.4386436973093967 -1.3533600719714765e-13
0.6657225172966719 1.076995994188397 0.3607489148372914 -1.1951654254721659e-13
0.6657225172966719 0.7029183831942725 0.6720267453773366 0.07785987939175325
0.6657225172966719 0.8691105954147973 0.17748563657191851 -2.1372031315417844e-13
0.6657225172966719 0.6907462501943652 0.22751242215792994 0.11587272392707512
0.6657225172966719 0.8522322033987778 0.3970108576265588 -1.9688826612745287e-13
0.6657225172966719 0.8985103574036644 0.4784117091369843 -1.3462361678548197e-13
0.6657225172966719 0.7995964248735246 0.32708244387423235 -1.964058211548327e-13
0.6657225172966719 0.7187369126150915 0.21358317015960418 -2.153803582218866e-13
0.6657225172966718 0.7049518128010462 0.5602427551152462 0.010106554577708284
0.6657225172966719 0.7333580069192989 0.3797507348203948 -1.3323798008e-13
0.6657225172966719 0.8150740074748952 0.1447293423047521 -1.250410950741379e-13
0.6657225172966719 0.6920211439145363 0.34918942517118573 0.11994748302292609
0.6657225172966719 0.9951085301700263 0.4666614424653755 -2.0866893473239413e-13
0.6657225172966719 0.6823908860215421 0.6554989633793014 0.20401223013131245
0.6657225172966719 0.8955209114308684 0.43433724709869326 -7.155298236456413e-14
0.6657225172966719 1.0672717123172228 0.4062248061228952 -7.107614270703032e-14
0.6657225172966719 0.7946782567496309 0.5389562917504523 -2.0694648916746375e-13
0.6657225172966719 0.6759520008203439 0.12442601829250252 0.21814258362087643
0.6657225172966719 0.9259989984339891 0.31771621392301325 -2.00656387182329e-13
0.6657225172966719 0.7259249073227789 0.5423043013045896 -2.112649592939056e-13
0.6657225172966719 0.8126987227507094 0.3387985509539667 -2.1049654034904854e-13
0.6657225172966719 1.1145522936023984 0.3974526550998451 -1.2931089449097017e-13
0.6657225172966719 0.713589493926228 0.196339426544136 -1.8771292424857754e-13
0.6657225172966719 1.0438656532689963 0.44194696696857977 -2.1515506785374778e-13
0.6657225172966718 1.0484410115804403 0.4542673645900783 -6.996146920722937e-14
0.6657225172966719 0.8784958300556096 0.2555232914456614 -2.104937598691054e-13
0.6657225172966719 0.7968863375369095 0.16769459944915305 -2.0926757801865137e-13
0.6657225172966719 0.777432820155445 0.5291800054436311 -6.813549749140497e-14
0.6657225172966719 0.9470931610698944 0.3164030866919462 -2.1131255747109932e-13
0.6657225172966719 0.8414375508200491 0.31963011569561817 -2.0043482930492096e-13
0.6657225172966718 1.0093687850216004 0.46856103411629213 -2.1343753592181425e-13
0.6657225172966719 0.8106669117203875 0.2351160780425786 -1.7991886778747777e-13
0.6657225172966719 0.8773073350187369 0.41986229024450206 -7.297165516653741e-14
0.6657225172966719 0.8476542632518747 0.4836148470466872 -7.101958643124182e-14
0.6657225172966719 0.6969454787378164 0.05573939525515613 0.10127453863487614
0.6657225172966718 0.7027127372815848 0.5159469278327938 0.024884491576250164
0.6657225172966719 0.6903030920308275 0.16534563915624453 0.18282455918880683
0.6657225172966719 0.9173246763999299 0.357696250475255 -1.948578626478537e-13
0.6657225172966719 0.7201746777793527 0.5151953224966779 -6.681554718119807e-14
0.6657225172966719 0.7402482897327662 0.2092152122086136 -2.0537166595382372e-13
0.6657225172966719 0.7511188822202487 0.5641794337982049 -6.688352602738082e-14
0.6657225172966719 0.99276869107079 0.3491693575285399 -2.179904806682296e-13
0.6657225172966719 0.8584887363330929 0.26211076527026944 -2.111722703430473e-13
0.6657225172966719 1.0161973038695509 0.44532245619967276 -1.9795031964018832e-13
0.6657225172966719 0.7004670863232892 0.32023658856063353 0.05489736760069628
0.6657225172966719 0.8612659570011858 0.19034953867607118 -2.0345584259129707e-13
0.665722517296672 0.7560849401928195 0.5787127668491776 -1.4636513816458866e-13
0.6657225172966719 0.8158781577849623 0.17957022209146817 -2.1984423782278782e-13
0.6657225172966719 0.8691841008300883 0.4750471697093185 -7.07713367233949e-14
0.6657225172966719 0.7997217596828288 0.3903244924006581 -1.988109689973448e-13
0.6657225172966719 0.9697773040275174 0.3879068952339073 -1.2797647112348693e-13
0.6657225172966719 0.9887352627164009 0.443394804812216 -1.8356162802526886e-13
0.6657225172966719 0.7871119395633025 0.39980904629019365 -2.076373268009337e-13
0.6657225172966719 0.742010464677529 0.33649995483235984 -2.286346517581543e-13
0.6657225172966719 0.8661884330686158 0.46479980168502677 -7.108116635547485e-14
0.6657225172966719 0.6704411731103785 0.3793824937036428 0.21505945705462218
0.6657225172966719 0.8545303097465229 0.3666031988635881 -2.0087910609569375e-13
0.6657225172966719 0.7378508037107272 0.1269444802190862 -1.3597548190680158e-13
0.6657225172966719 0.6778993525084237 0.642311320222667 0.26647133790282046
0.6657225172966719 0.6985041104223777 0.06864481114043934 0.07619647876417548
0.6657225172966719 0.7820619104813178 0.11443197012376517 -1.236519804354683e-13
0.6657225172966719 1.1499688881909849 0.43768595395873533 0.00020998420989913835
0.6657225172966719 0.8945980184389177 0.21600280394495616 -1.9177708702529547e-13
0.6657225172966719 0.7270328428729257 0.29397272377062705 -2.0689276553251258e-13
0.6657225172966719 1.0132592107360754 0.32308695428167233 -2.0546366520599466e-13
0.6657225172966718 0.6728473308187297 0.17139716513704317 0.23597912982308666
0.6657225172966719 0.9301851976915824 0.38817954686249656 -1.9530500069836434e-13
0.6657225172966719 0.6905148415030867 0.04404065517060212 0.13124056243287094
0.6657225172966719 0.8318393309108096 0.47041082745152396 -1.3631647817242047e-13
0.6657225172966719 0.7494121689064355 0.2582678701386314 -1.871311586651809e-13
0.6657225172966719 0.850705186168708 0.5515912110603785 -4.587021813646484e-26
0.6657225172966719 0.9706878508363216 0.5438208485547333 -2.1120791402990058e-13
0.6657225172966719 0.901395055491125 0.4663333820966597 -1.3537363019682097e-13
0.6657225172966719 0.7638976997431146 0.25375343111967 -1.8958281875610028e-13
0.6657225172966719 0.9412947994615061 0.5294084256138906 -7.002530059245359e-26
0.6657225172966719 0.9761194904118642 0.4330219470617309 -1.2174225744434655e-13
0.6657225172966719 0.7359777250356712 0.2849185216254132 -2.0529165623592579e-13
0.6657225172966719 1.0033270493391897 0.5187094593688595 -2.2527727945917992e-13
0.6657225172966718 1.0324762260231382 0.4658352906716402 -2.1722547154967032e-13
0.6657225172966719 0.7077716719603193 0.6362888773167695 -6.466580911080759e-14
0.6657225172966719 0.8221698928444118 0.40513308703834117 -1.9759857352553745e-13
0.6657225172966719 0.9085644957513359 0.3404456789125639 -2.043713797599909e-13
0.6657225172966719 0.7950452313104618 0.19520500133157118 -1.9565558056690835e-13
0.6657225172966719 1.0372548618174517 0.4044389110716411 -1.9637916472195638e-13
0.6657225172966719 0.7886843049396348 0.246661341714575 -2.0180136270101412e-13
0.6657225172966719 0.9044721174733884 0.49682935167000797 -1.3594020643586688e-13
0.665722517296672 0.9226129201803671 0.5126436249919514 -1.5178539599661416e-13
0.6657225172966719 0.9130438284715761 0.216277929158958 -6.75587720379131e-14
0.6657225172966719 0.7653622555850386 0.586801424082262 -7.044811585513386e-14
0.6657225172966719 0.9035219142053736 0.2958247251095124 -1.9996723843515232e-13
0.6657225172966719 0.6886073242699852 0.6374102079607566 0.1543877405764006
0.6657225172966719 0.6742764939802782 0.4509660560030034 0.20756670775503955
0.6657225172966719 0.8920283038123847 0.3102211927468604 -1.9477942346398197e-13
0.6657225172966719 0.9366654662406976 0.37644046760236616 -2.160716360405898e-13
0.6657225172966719 0.7388082963765049 0.5379093363709881 -6.36069209376909e-14
0.6657225172966719 0.6923515483570977 0.4711165071894982 0.1419682435321409
0.6657225172966719 0.6977196263218605 0.1101120699105419 0.071140914300844
0.6657225172966719 0.703772737604102 0.4701440939086061 0.013176555546485471
0.6657225172966719 0.9073097396585734 0.28462851082629514 -1.9490728544977502e-13
0.6657225172966719 0.758289731764029 0.4096697346796666 -2.0268966919222917e-13
0.6657225172966719 0.7827495182032508 0.12977135578836943 -1.3858444185133662e-13
0.6657225172966719 0.721333337104737 0.05547484412421497 -1.8697947219684316e-13
0.6657225172966719 0.9638956595133001 0.503965197576402 -1.405737072837057e-13
0.6657225172966719 0.7002100718626665 0.5456254678784218 0.028475660526767574
0.6657225172966719 0.843069287303707 0.3508560549082794 -2.132833717508691e-13
0.6657225172966719 0.9129180492630427 0.4679289380054306 -1.40661658074069e-13
0.6657225172966719 1.0554651718802885 0.3943659420712153 -1.2454460515929948e-13
0.6657225172966719 0.8475051175613297 0.24123651896671705 -2.190693853044617e-13
0.6657225172966719 0.7201135270666454 0.41998264032755894 -1.2633409176319678e-13
0.6657225172966719 0.9345650371463057 0.5622941564136275 -1.9092427098206365e-13
0.6657225172966719 0.681280636928427 0.5371968679287615 0.2245174960267841
0.6657225172966719 0.8803889020163744 0.5736957738490008 -1.271625736475598e-13
0.6657225172966719 1.006579870924202 0.42626824677627695 -1.3740967124007106e-13
0.6657225172966719 0.849123501489963 0.5635294348725024 0.0
0.6657225172966719 0.7443884431714394 0.2733106522800902 -1.998929179198216e-13
0.6657225172966719 0.7948988060198632 0.4149970201238261 -1.309379888722633e-13
0.6657225172966719 0.7716187034940624 0.3863372973669201 -1.925956241301428e-13
0.6657225172966719 0.8150794724345654 0.5781935416997148 -6.390469372019179e-14
0.6657225172966719 0.7251179845908194 0.07619319227470273 -1.4326434740088406e-13
0.6657225172966719 0.8369884929960146 0.5512456356906681 -5.312249276399227e-26
0.6657225172966719 0.9170939014526145 0.4788317036011461 -1.2863115915860454e-13
0.6657225172966719 0.902214036688475 0.5761831653163458 -7.160587108398537e-14
0.6657225172966719 0.7562269224763705 0.33189109031904157 -2.0797730770312248e-13
0.6657225172966719 0.7023263238890354 0.4107172992444975 0.03553721229099231
0.6657225172966719 0.7332923757442154 0.6477092281818009 -6.614298997027167e-14
0.6657225172966719 0.7854723078773019 0.46309203020950596 -1.296790794128008e-13
0.6657225172966719 0.6798013363728772 0.3480404921565819 0.27799910971659286
0.6657225172966719 0.7073214641443083 0.44932247720632784 -1.3664733704145175e-13
0.6657225172966719 0.8413702462294979 0.6088890081140969 -2.0464956156528956e-13
0.6657225172966719 0.8025211203439725 0.4024358599452251 -2.0858995337852692e-13
0.6657225172966719 0.794065523337567 0.12518582602935477 -1.456339714155892e-13
0.6657225172966719 0.7917658452729534 0.6065691443992565 -1.2796763812835897e-13
0.6657225172966719 0.9282095056659159 0.48670952034955983 -1.3681199895758157e-13
0.6657225172966719 0.8015130697708083 0.5072053506307144 -1.283027437097543e-13
0.6657225172966719 0.9292696119614116 0.23558551687050971 -6.445466057898543e-14
0.665722517296672 0.8530819098360023 0.5239108370818698 -6.306919987378782e-14
0.6657225172966719 0.8650420020837852 0.25238830597682843 -1.9645445331127208e-13
0.6657225172966719 0.902138402775184 0.4020755699665184 -2.1787859488630006e-13
0.6657225172966719 0.9453249807582704 0.4422349843924966 -1.9990427817302616e-13
0.6657225172966719 0.929029079591036 0.4998134381443765 -1.5040993773804773e-13
0.6657225172966719 0.7393336720605563 0.45944620262470226 -1.282829805576051e-13
0.6657225172966719 0.8792688015300828 0.28965910390473415 -2.0336391016460926e-13
0.6657225172966719 0.8514558446757229 0.30757371050918025 -1.9840718769923163e-13
0.6657225172966719 1.0787794745299542 0.4918360865688661 -6.656969423419848e-14
0.6657225172966719 0.6798735954122246 0.4846567728885186 0.2321236220242701
0.665722517296672 0.9348984746514793 0.5106026124299432 -1.3977766958565101e-13
0.6657225172966719 1.0398296112538559 0.5022951972188863 -1.8610334736811029e-13
0.6657225172966719 0.8154387628242816 0.5986043382254604 -1.3158906821261204e-13
0.6657225172966719 0.7733055331276489 0.5407805224941089 -6.594681031386438e-14
0.6657225172966719 1.0211199280870493 0.37833457354919664 -6.469294055880315e-14
0.6657225172966719 0.8096257324277906 0.46558150774064694 -1.4184489630648082e-13
0.6657225172966719 0.9514455544968159 0.30481692091710877 -1.978153275801147e-13
0.6657225172966719 0.7702614604146496 0.4161732133764574 -2.052271982246764e-13
0.6657225172966719 0.9149366025266289 0.5259049515092731 -8.07321320028007e-14
0.6657225172966719 0.8251409481878806 0.15105067726861862 -1.2178819449604113e-13
0.6657225172966719 0.7032207374037684 0.24764383370747303 0.012271085910014612
0.6657225172966719 0.9896950061563955 0.5372698272225649 -2.338745141221528e-13
0.6657225172966719 0.6781358447352186 0.2060748964245868 0.2824507590896302
0.6657225172966719 0.8326418174486019 0.18872984352549707 -1.9868066832948604e-13
0.665722517296672 0.8505918215925536 0.5984823898589839 -1.2044923357901357e-13
0.665722517296672 0.7557942907001968 0.11880585314593606 -6.564387498617841e-14
0.6657225172966719 0.6877181945705122 0.19884607021908643 0.12890531535985267
0.6657225172966719 0.9622355733602295 0.3718717605032569 -2.0183658857897542e-13
0.6657225172966719 0.7538049161775169 0.4403212778423991 -1.8422978403557533e-13
0.6657225172966719 0.8058023308240656 0.2744235484984431 -2.1353837914288188e-13
0.6657225172966719 1.0255610069498902 0.41973773839030665 -2.171933632518658e-13
0.6657225172966719 0.805147022832751 0.443250366099132 -1.4578475081689225e-13
0.6657225172966719 0.6987138067469152 0.5301176765321449 0.05653230252983832
0.6657225172966719 1.0205431409812475 0.4669715693246135 -2.2404569147646062e-13
0.6657225172966719 0.7558247478207396 0.3557041382110364 -1.4338008698653151e-13
0.6657225172966718 1.1435394421550187 0.45788625527314997 -2.1442637278293516e-13
0.6657225172966719 0.9486198411402454 0.2537059516492216 -1.9010156065378963e-13
0.6657225172966719 0.9377331141274206 0.3091818323110447 -2.2445626858653843e-13
0.6657225172966719 0.8336466044335877 0.1997746435817892 -1.8980320333682517e-13
0.6657225172966719 0.7370765199476661 0.5664247883363139 -6.966442654290761e-14
0.665722517296672 0.8362718906316021 0.5155815632592733 -6.776878978625572e-14
0.6657225172966719 0.8907868197837105 0.24959905617824305 -1.8796869520875412e-13
0.6657225172966719 0.8050354986118854 0.5669515696606068 -1.5103660649592923e-13
0.6657225172966719 0.970086016598065 0.4492946103688812 -1.2754891031598628e-13
0.665722517296672 0.7162420571108138 0.4574793081942107 -1.3711258053025958e-13
0.6657225172966719 0.6792659419815177 0.08354678490779205 0.2240400687422782
0.6657225172966719 1.0075656573422973 0.3333848957095221 -2.150253799619673e-13
0.6657225172966719 1.110274139964845 0.46899480207353367 -1.9928846028160017e-13
0.6657225172966719 0.8849905937913285 0.20025314016891954 -2.293838007978956e-13
0.6657225172966718 0.7901599715863005 0.5493070893858014 -2.0867196092396474e-13
0.6657225172966719 0.9809842322650701 0.40611139888566833 -1.2324489175326682e-13
0.6657225172966719 1.000068375326916 0.41166534157474444 -1.9508009938591742e-13
0.6657225172966719 0.707495420996503 0.4873466991442245 -1.387209784524805e-13
0.6657225172966719 0.9598048063361099 0.39871178015913755 -1.280471464712392e-13
0.6657225172966719 0.714204676672966 0.04512754638351793 -2.04738882289577e-13
0.6657225172966719 0.6844774773769015 0.24090689153001604 0.1815682875394814
0.6657225172966718 0.7271298892506468 0.5830674578943894 -7.074048813967839e-14
0.6657225172966719 0.7193520374547437 0.3351707226936649 -2.1310182182756163e-13
0.6657225172966719 1.038984927123085 0.37395880040913204 -2.1119083008902417e-13
0.6657225172966719 0.9344759051437509 0.3527438980690775 -1.9068772056545731e-13
0.6657225172966719 0.9612458360627881 0.46966839409795025 -1.94764382236406e-13
0.6657225172966719 0.7930601527597098 0.43784958576322663 -1.334169997681769e-13
0.6657225172966719 0.7299378147899838 0.508702857099239 -1.2538146848141304e-13
0.6657225172966719 0.7120139658482536 0.07856932327596128 -1.8755342590337188e-13
0.6657225172966719 0.7491653826380421 0.21871990157520504 -2.2584561467352122e-13
0.6657225172966719 1.1016612500260392 0.40100857565528153 -2.0055284802701507e-13
0.6657225172966719 0.7208757001750092 0.6390034350987539 -6.780766117474029e-14
0.6657225172966719 0.8882549887743262 0.42157623286573354 -2.064399092986152e-13
0.6657225172966719 0.9008053618701645 0.44453942025997745 -1.3984018199345681e-13
0.6657225172966719 0.8022737728417783 0.13394999111434164 -1.4612805991315404e-13
0.6657225172966719 0.9843793843711834 0.4593145417491399 -1.910770334970524e-13
0.6657225172966719 0.6822450711363288 0.3149485471115917 0.16729405837497166
0.665722517296672 0.8804084670087617 0.44632635381737973 -1.838502839328947e-13
0.6657225172966719 0.9188502690493212 0.24027949945358668 -6.544339977716326e-14
0.6657225172966719 0.8328457827017957 0.3619472086745241 -2.195363970846174e-13
0.665722517296672 1.0810445218697347 0.3770112957609879 -1.3231115836596825e-13
0.6657225172966719 0.7401264574499122 0.23869179699427368 -1.8507994114079346e-13
0.6657225172966719 0.790441159626032 0.5205475212138945 -2.1412827533554824e-13
0.665722517296672 0.7174851025315265 0.4776984895772786 -1.3010764686730634e-13
0.6657225172966719 0.6837097658021202 0.512878288276429 0.2241457215061813
0.6657225172966719 0.9288546610033717 0.4365793717041956 -2.1223399788943257e-13
0.665722517296672 0.7680596799773275 0.6405262886827601 -6.568167933731374e-14
0.6657225172966719 0.8060303962128795 0.31088138122896936 -1.9731821398346602e-13
0.6657225172966719 0.7463434811390975 0.5891221936182769 -6.56081369388468e-14
0.6657225172966719 1.0538142822142786 0.46498614615700984 -1.893426617740973e-13
0.6657225172966719 0.8542810563957406 0.5375872403744459 -6.633758358908719e-14
0.6657225172966719 0.7607649403737051 0.14060800765231257 -1.2259954654997166e-13
0.6657225172966719 0.8330676100825262 0.37397980921949714 -1.9347975034918814e-13
0.6657225172966719 0.8163499002058434 0.3490842409173759 -1.8320848769393109e-13
0.6657225172966719 0.8214519338803322 0.4735172852991131 -1.2274704713632644e-13
0.6657225172966719 0.7768849794898314 0.21737076570734126 -1.9679780842831416e-13
0.6657225172966719 0.696833515013343 0.45759649916821116 0.11603376044123281
0.6657225172966719 0.7590949985279869 0.2073988934482931 -2.1080629182910975e-13
0.6657225172966719 1.1175762464372934 0.4589692889547944 -1.9502262973945629e-13
0.6657225172966719 1.0679714392085193 0.426441652638982 -6.7111404789391e-14
0.6657225172966719 1.0459232122076474 0.3375383226394411 -1.9142633369853254e-13
0.6657225172966719 0.868738397903369 0.36804418629986646 -2.104152305286432e-13
0.6657225172966719 0.8810010499038738 0.21129051525162468 -2.1064889174006492e-13
0.6657225172966719 0.8131903039421027 0.4360736973988779 -1.3025864738574744e-13
0.665722517296672 1.1340143496657367 0.4130468055978355 -2.2779336044890884e-13
0.6657225172966719 0.7939492504881112 0.47274912934415997 -1.3917749415520926e-13
0.6657225172966719 0.874968855440164 0.35010668252299115 -2.1510816602524968e-13
0.6657225172966719 0.8360445379210206 0.27867908123058527 -2.0064766079162247e-13
0.6657225172966719 0.7373167549388575 0.5949606400087489 -7.454703287213846e-14
0.6657225172966719 0.8439055668825501 0.22392321309428304 -1.8705073943043118e-13
0.6657225172966719 0.8323027698774671 0.4898922004730117 -8.146425661047779e-27
0.6657225172966719 0.8551973864083658 0.47268998047578104 -7.206807299949232e-14
0.6657225172966719 0.7300584872151062 0.21348481720888723 -2.1218551784474315e-13
0.6657225172966719 0.7129281585463421 0.29925934512372127 -2.0300844003684646e-13
0.6657225172966719 0.7956830682415005 0.4273270086355444 -1.4179037259928865e-13
0.6657225172966719 0.7957596113524226 0.620480277757544 -1.2989525712672844e-13
0.6657225172966719 1.1448359221422257 0.4277837885455315 1.3819248584993133e-05
0.6657225172966719 0.686319729511367 0.6690785953932592 0.18761505788903948
0.6657225172966719 0.8789336777689911 0.23114131177909203 -2.0454436956029245e-13
0.6657225172966719 0.7437610912217967 0.4189629983057568 -2.076489240262492e-13
0.6657225172966719 0.8367538877866068 0.23461711146842146 -1.9859568895732638e-13
0.665722517296672 0.8281528648436586 0.4581179732700219 -1.4020586414247916e-13
0.665722517296672 0.7515018196650414 0.5086173146111891 -2.0623366619096412e-13
0.6657225172966719 0.7391810527847367 0.1682276615782099 -1.9969591266588052e-13
0.6657225172966719 0.7027848487887204 0.22726442436450583 0.02285781404695002
0.6657225172966719 0.9499566901266213 0.3457616226838348 -2.133516755882581e-13
0.665722517296672 0.8389323289644217 0.5835643037968228 -1.2188233059950607e-13
0.6657225172966719 0.6907719222366657 0.18781899897228105 0.09955158823356697
0.6657225172966719 0.7725647410503598 0.27590308727900925 -1.9030468503137681e-13
0.6657225172966719 0.7347580207490463 0.4874399161812726 -6.54515493337229e-26
0.6657225172966719 0.8737926885313435 0.5854144230370869 -1.418400814942475e-13
0.6657225172966719 1.1118640778030737 0.4351584550168835 -1.1914753250644677e-13
0.6657225172966718 1.0181901791764956 0.48068390201372857 -2.0592554433230497e-13
0.6657225172966719 0.8866353618712449 0.5013700874105778 -6.593156626286066e-14
0.6657225172966719 0.8100660624463997 0.4772428084965045 -1.3390216630500335e-13
0.6657225172966719 0.7864386560910912 0.33367036213066864 -1.927988423280636e-13
0.6657225172966719 1.0552753854240193 0.38041707664464824 -7.17292885093208e-14
0.6657225172966719 0.6844821983775842 0.5893432180654379 0.18106973397307158
0.6657225172966719 0.7852793720633304 0.36954509095638916 -1.908824905874256e-13
0.6657225172966719 0.6873931208981963 0.26899276359487767 0.12661832054122957
0.6657225172966719 0.7926365372342647 0.11039041141291456 -8.128438375899778e-28
0.6657225172966719 0.9368521061300661 0.26916369555803804 -2.113158505093521e-13
0.6657225172966719 0.8158864135224688 0.30163802662289957 -2.2272842356838278e-13
0.6657225172966719 0.6866130897635231 0.6136294071573599 0.19691963419824676
0.6657225172966719 0.9516927630325414 0.4519641346712854 -6.91393328158734e-14
0.6657225172966719 0.7364458064581363 0.42729789736031365 -6.519285494888479e-14
0.6657225172966719 0.7415086708230597 0.6622141704339867 0.0007880544696040879
0.6657225172966719 0.8829666809381049 0.3873388908131984 -1.9272378564406523e-13
0.6657225172966719 0.9172721342210757 0.2574508538865309 -1.9661492452114805e-13
0.6657225172966719 0.9972808522982791 0.40086095913746256 -1.9538458789433927e-13
0.6657225172966719 0.8831802458412008 0.47258212576705727 -1.323104134888746e-13
0.6657225172966719 0.9196990507460415 0.38015437234960814 -2.0724115857695387e-13
0.6657225172966719 0.9193118752981123 0.4120409978920633 -1.8537341045071572e-13
0.6657225172966719 0.7501390463984947 0.5391036361940257 -7.14697423389196e-14
0.6657225172966719 0.6878187122264993 0.11766177331997503 0.17206940896099096
0.665722517296672 0.9665826317666122 0.4081849435147626 -7.263422108987234e-14
0.6657225172966719 0.7693911888122856 0.18464580697588756 -1.9192357663876432e-13
0.6657225172966719 0.9047083481782704 0.416860322029028 -1.291231261626991e-13
0.665722517296672 0.6987043555365156 0.6005175589301965 0.05505292153498057
0.6657225172966719 0.8593231702361832 0.27697979463014083 -2.0586167572917478e-13
0.6657225172966719 0.7824332143542105 0.357441099205536 -1.8621185461461098e-13
0.6657225172966719 0.8385219970789974 0.4122781244688488 -1.8008725307072682e-13
0.6657225172966719 0.8071760550953082 0.2209108587234136 -1.346507241829946e-13
0.6657225172966719 0.8440744309055124 0.5331287375343808 -7.302118970096781e-14
0.6657225172966719 0.7697511285267457 0.30136432546136077 -1.9687093872897583e-13
0.6657225172966719 0.7393433243836206 0.4992053581173881 -6.404905360611561e-14
0.6657225172966719 0.7700041123897792 0.4704395520123779 -1.3639009991187547e-13
0.6657225172966719 0.8124836023703264 0.16763155478062686 -2.010528295634434e-13
0.6657225172966719 0.6790504324167247 0.3895104490289382 0.22434538951131167
0.6657225172966719 0.8212578771338443 0.37110414102311295 -2.219637490779117e-13
0.6657225172966718 1.089194296988346 0.42224916296052795 -1.9315371727173887e-13
0.6657225172966719 0.8855432753203804 0.4060391786904074 -1.8904597840645084e-13
0.6657225172966719 0.8299963000343484 0.6098765154278785 -4.730830360744962e-26
0.6657225172966719 0.8735596660651932 0.19279851359791494 -2.16005658670549e-13
0.6657225172966719 0.70171304349013 0.12471278708247596 0.029766765584112995
0.6657225172966719 0.9077242572928196 0.4557032607270437 -1.3750226961769486e-13
0.6657225172966719 0.7147780840393152 0.5349492825196006 -1.960927575637588e-13
0.6657225172966719 0.7669121954273717 0.37401191846737325 -1.3085910789700745e-13
0.6657225172966719 0.6783248696941675 0.2955312639572848 0.22461337984221488
0.6657225172966719 0.6826717741049151 0.3291729248146167 0.18551618479691212
0.6657225172966719 0.7085372598801447 0.5061874797036713 -7.097752697276528e-14
0.6657225172966718 1.0584881560124042 0.44364051320242365 -1.2168139957387783e-13
0.6657225172966719 0.8175612283787483 0.13217379099370918 -1.3252220721314258e-13
0.6657225172966719 0.8238498671101812 0.3229172254681603 -2.0194540107812573e-13
0.6657225172966719 0.8819148210134271 0.5518815252637511 -1.9830344019130883e-13
0.6657225172966719 0.9000212589745095 0.5227415773729187 -6.75693346766546e-14
0.6657225172966719 0.8119116974810003 0.41098738004066276 -2.1720511502145835e-13
0.6657225172966719 0.7456523836471004 0.1889878368837447 -1.9985891875771814e-13
0.6657225172966719 0.7108810392549956 0.0936345454303851 -1.7391650713852123e-13
0.6657225172966719 0.7909405405734031 0.5005930688678654 -1.9748825488747856e-13
0.6657225172966719 0.7882356257283287 0.2811019399167456 -2.0003167202342297e-13
0.6657225172966719 0.9710055311012052 0.27463824312604934 -2.098947010169086e-13
0.6657225172966719 0.7513250784387844 0.47537532844085817 -3.096422140739254e-26
0.6657225172966719 0.8817270845509637 0.5231986717938348 -6.288089216660404e-14
0.6657225172966719 0.7154992806386062 0.361475497013071 -2.0245147898259432e-13
0.6657225172966719 0.6828000874148217 0.05461499560983106 0.22929628287797404
0.6657225172966719 0.6964740275797829 0.33831055186379216 0.08176266627313038
0.6657225172966719 0.6853417300840408 0.37682839582231453 0.1822686034288711
0.6657225172966719 0.7686845267591536 0.350585448233915 -1.77945523250799e-13
0.665722517296672 0.9836648708977495 0.5184112118772931 -1.9682011566098728e-13
0.6657225172966719 1.0189314299956378 0.3449348663799526 -1.951158390935749e-13
0.6657225172966719 0.9711000342607174 0.48894148384798297 -7.231423110836128e-14
0.6657225172966719 0.713563821467899 0.43876508958316573 -1.3190729000100193e-13
0.6657225172966719 0.6901476940502185 0.09803978737652026 0.22317324472763542
0.6657225172966719 0.8451974473231444 0.28602608506876465 -1.9938509857745e-13
0.6657225172966719 0.9285987391790087 0.4668055901448209 -1.984148050945352e-13
0.6657225172966718 0.9476257327368507 0.33388547379543726 -2.0531391263762714e-13
0.6657225172966719 0.8496483470440739 0.25331501507751586 -2.2432260259706365e-13
0.6657225172966719 0.9482183053577986 0.28089839592917326 -2.0417667516894676e-13
0.665722517296672 0.772077341545469 0.6190067871194541 -1.4610999960065498e-13
0.6657225172966719 1.0494139963215185 0.48229091069674934 -2.0212648615729582e-13
0.6657225172966719 0.7120434085230767 0.1289642406758267 -1.806739010869014e-13
0.6657225172966719 0.8558332069761383 0.17544779180122086 -1.325630680153864e-13
0.6657225172966719 0.7353139643330828 0.32541522278520096 -2.1344227790452148e-13
0.6657225172966719 0.7665665603654124 0.16116934204019906 -2.2361243188114563e-13
0.6657225172966719 0.8925215665045174 0.3551488146730903 -1.8498164877600383e-13
0.6657225172966719 0.7366678979753815 0.22524031771017627 -1.8827498305278906e-13
0.6657225172966719 0.7836424561678095 0.16439683426444074 -1.9815853073021152e-13
0.6657225172966719 0.7817002707324002 0.5922830090145927 -6.812428536774046e-14
0.6657225172966719 0.7861499353840988 0.44822106468577416 -1.2572640168198184e-13
0.6657225172966719 0.8702598123196692 0.30558062188877305 -2.1146804122426546e-13
0.6657225172966719 0.8542724776855614 0.49626665465482456 -1.2236133526251437e-13
0.6657225172966719 0.8304252529654156 0.17239580870008447 -2.0069181040933928e-13
0.6657225172966719 1.1620157861639113 0.44231007809861234 0.002596241234914057
0.6657225172966719 0.7164756341525496 0.24236782759036649 -1.9048110160913212e-13
0.6657225172966719 0.6771481150825269 0.185968911007552 0.24938647610571696
0.6657225172966719 0.8331388967764254 0.3395352835831899 -1.8407937593996773e-13
0.6657225172966719 0.9095650204793715 0.27228221154660637 -1.9971320691569884e-13
0.665722517296672 0.7250266614353507 0.6057010758695931 -6.371052336717858e-14
0.6657225172966719 0.9407753654607147 0.3666969724521043 -1.83887810792111e-13
0.6657225172966719 0.708643861438829 0.15463979389282306 -2.1524898192743266e-13
0.6657225172966718 1.097356539988866 0.4548665740576034 -1.340369560674066e-13
0.6657225172966719 0.7575598535635912 0.6264720254791166 -5.879829804066349e-14
0.6657225172966719 0.8677983318916376 0.44764364723404265 -6.731713867714354e-14
0.6657225172966719 0.8098988672574351 0.5315030580267932 -6.557861676686932e-14
0.6657225172966719 1.0689911079345784 0.38782433359125623 -6.982311661189433e-14
0.6657225172966719 0.8615653968831282 0.41565295641345934 -6.404583744798272e-14
0.6657225172966719 0.8990363936473184 0.5098396384794619 -7.103299797484635e-14
0.6657225172966719 0.7319626929006116 0.39305881724616454 -1.2845117296459659e-13
0.6657225172966719 1.1153002561284704 0.42132137862542257 -1.2352521962984698e-13
0.6657225172966719 0.7761646074701574 0.25412078177860825 -1.8666149912229477e-13
0.6657225172966719 0.8658443203990137 0.37956604883245376 -2.0500407654810057e-13
0.6657225172966719 0.7118747780415069 0.18152752201025707 -1.888486408504457e-13
0.6657225172966719 0.9989399927997136 0.2955296711673587 -2.0709451169876058e-13
0.6657225172966719 0.7395280124707813 0.6159034410994004 -3.590189285732744e-26
0.6657225172966719 0.7072434622838351 0.3301522454183134 -2.2501515201610124e-13
0.665722517296672 1.0518166184174609 0.4290769419715692 -1.6955786562178404e-13
0.6657225172966719 0.9214656463961387 0.2724618791808807 -1.851289952633723e-13
0.6657225172966719 0.8491375386031867 0.16538825702003918 -1.9606971316946447e-13
0.6657225172966719 0.7085874407398117 0.2685438007017149 -2.304673253701195e-13
0.6657225172966719 0.9607389858574765 0.3140297215149781 -2.1311541935141843e-13
0.6657225172966719 0.770514300212404 0.2397673490155725 -2.0913645974461277e-13
0.665722517296672 0.9450377222616223 0.5411205526144087 -5.874192259143137e-14
0.6657225172966719 1.0513645246400323 0.4089509552552562 -1.293434671187289e-13
0.6657225172966719 0.7455035243583953 0.651316026914605 -1.4771337183414686e-13
0.6657225172966719 0.8219665889677984 0.35905507835375844 -1.8578975026451899e-13
0.6657225172966719 0.6770594975120472 0.07071954614951691 0.2572605954945008
0.6657225172966719 0.7257825503620388 0.44727729026305085 -6.717845235382738e-14
0.6657225172966719 0.6962085644225591 0.39052765677615336 0.08573583108442169
0.6657225172966719 0.7441996341604808 0.3711436407808627 -1.6176218036891137e-13
0.6657225172966719 0.8518039982073 0.5759036853704872 -6.514762544160373e-14
0.6657225172966719 0.7789081066211005 0.3135217249842054 -2.0121665530716649e-13
0.6657225172966719 0.831375678003577 0.5640343925648007 -1.2894493979321098e-13
0.6657225172966719 0.7942442857811423 0.30384671969307264 -2.000559010324035e-13
0.6657225172966719 0.7925935500089365 0.1569141065816504 -1.962729287830394e-13
0.6657225172966719 0.681454711773233 0.5760470724355568 0.22208042967450456
0.6657225172966719 0.7297355503612211 0.26239906180689354 -2.2465162369923898e-13
0.6657225172966719 0.8796251341174757 0.37620836588690443 -2.0637742583517399e-13
0.6657225172966719 0.8286416331302029 0.3120180766131107 -2.0416720809837403e-13
0.6657225172966719 0.8912584342469051 0.5304893748732734 -6.174879016472153e-14
0.6657225172966719 0.8576240086645653 0.3188709457178456 -1.8657276121173295e-13
0.6657225172966719 0.8960312749276179 0.3796545586536937 -1.8748999638428832e-13
0.6657225172966719 1.12410071694736 0.43110495769967444 -1.3273196998740634e-13
0.6657225172966719 0.69101800530573 0.41095358434410173 0.1323615215132834
0.6657225172966719 1.07316963754659 0.4378210812867088 -1.9042772868648908e-13
0.6657225172966719 0.815321439636399 0.6227840787577344 -1.3935371168843462e-13
0.6657225172966719 0.7883629198559513 0.5703681162648123 -6.436802016618936e-14
0.6657225172966719 0.8404084432664967 0.2992621279811677 -2.17398547781756e-13
0.665722517296672 1.0152970992272192 0.4142590118512113 -2.03975770329438e-13
0.6657225172966718 0.9217524402476659 0.42286822237893784 -2.0554115803957972e-13
0.6657225172966719 0.7964347232347805 0.634751801480763 -6.703102924986005e-14
0.6657225172966719 1.0817471684769955 0.3888483829085638 -7.287939708377102e-14
0.6657225172966719 0.8916596341790701 0.26187710319766666 -1.9921158421994804e-13
0.6657225172966719 0.8890816634359561 0.2788541504871398 -1.9241946992202973e-13
0.6657225172966719 0.8034906145012783 0.3576617013892881 -2.159160332884079e-13
0.6657225172966719 0.8049433422113881 0.29863935070809816 -2.005766975680884e-13
0.6657225172966718 0.6939076950736989 0.6525508792368974 0.10893143640326525
0.6657225172966719 0.6864098004755539 0.4307422755910889 0.21276771426703314
0.6657225172966719 0.7397091586811884 0.5138677390236926 -6.713052661930118e-14
0.665722517296672 1.0694838852078432 0.4828579011511669 -1.9377543771887651e-13
0.6657225172966719 0.681050265194088 0.27996282740888395 0.20105323176436357
0.6657225172966719 0.75877269840778 0.3034243299072622 -1.9616208960815667e-13
0.6657225172966719 0.724130027112303 0.1312448905479961 -6.377987591229455e-14
0.6657225172966719 0.8348000039687181 0.5037715188750671 -1.1518888999962283e-13
0.6657225172966719 0.9074317270306071 0.37511792451089665 -1.9876684270258017e-13
0.6657225172966719 1.1049143262621761 0.41559617496217394 -1.345838990539286e-13
0.6657225172966719 0.8708508155172102 0.2161309456549501 -2.0014395223692087e-13
0.6657225172966719 0.9549843155311726 0.4251657547110168 -1.9992273166683403e-13
0.6657225172966719 0.9221889790606412 0.3980354306468412 -1.9779588735757797e-13
0.665722517296672 0.938825003430204 0.42994663371566344 -1.3025223430176748e-13
0.6657225172966718 0.9491058837922781 0.26493501151516435 -2.0239031526022127e-13
0.6657225172966719 0.7645087397991406 0.5535472933211901 -1.3917530642548064e-13
0.6657225172966719 0.8185973950272193 0.5657480912008168 -7.321546131483773e-14
0.6657225172966719 0.8849093796651546 0.34346113504218245 -1.964049176570694e-13
0.6657225172966719 0.7595268968346532 0.17280077791717213 -2.1835430956812046e-13
0.6657225172966719 0.7516705821533658 0.4602295880854871 -1.3079052208114616e-13
0.6657225172966719 0.751752377899675 0.6388002081586114 -1.3677305209073207e-13
0.6657225172966719 0.6782040610991387 0.4068837596145802 0.21970865109756377
0.6657225172966719 0.9796021225969246 0.479041855889486 -1.9197576648237658e-13
0.6657225172966719 0.9969025410439397 0.37635326183569856 -1.384336489988513e-13
0.6657225172966719 0.7356772387767203 0.15207843234243962 -1.2659357579065233e-13
0.6657225172966719 0.732888509127171 0.09747577200725036 -5.013096065377029e-26
0.6657225172966719 1.0136093889610327 0.5138199802456564 -1.224894139461529e-13
0.6657225172966718 0.9474970039162116 0.48100734210131935 -1.2318787009670624e-13
0.6657225172966719 0.9140882070513607 0.4427431089536795 -1.4432557298148435e-13
0.6657225172966719 1.0792332076283158 0.47690549350937206 -6.733096565574562e-14
0.6657225172966719 0.8532924690968477 0.19840193229617675 -2.1750388089399626e-13
0.6657225172966719 0.8012464736757899 0.4848853747494116 -1.2820133587911173e-13
0.6657225172966719 0.6933070765349831 0.29814513431727846 0.12507908101566423
0.6657225172966719 0.767896101127147 0.32257395465003846 -1.767749328473125e-13
0.6657225172966718 0.6681967104485416 0.6029930839424512 0.25025096968203486
0.6657225172966719 0.731984916139599 0.41316373326330097 -1.4677320711393953e-13
0.6657225172966719 1.016408568157921 0.311452077879882 -2.116052690982884e-13
0.6657225172966719 0.7510425208516553 0.31398286082292465 -2.1693874589220237e-13
0.6657225172966719 0.8645991150286405 0.20152395666626832 -2.178032968906301e-13
0.6657225172966719 0.7572976370204347 0.48913313741388553 -1.3229715282191787e-13
0.6657225172966719 0.6897573922275009 0.2533629522067268 0.13387415788217133
0.6657225172966719 0.9596745311641113 0.4873387409815886 -1.224911060655809e-13
0.6657225172966719 0.8652978986571869 0.5342670450450946 -6.641141640233673e-14
0.6657225172966719 0.9735176694874593 0.2858655343057727 -2.2630984295290423e-13
0.6657225172966719 0.7839434638931427 0.2696496765970677 -2.027391204934317e-13
0.6657225172966719 0.8490371272129725 0.4212819753412804 -1.774383537166618e-13
0.6657225172966719 0.9066034049731153 0.4272044445079896 -7.019995115622447e-14
0.6657225172966719 0.7199244496557051 0.28401862939735234 -2.2107037627050257e-13
0.6657225172966719 0.8058544512192458 0.2472831494118102 -1.3530298994127133e-13
0.6657225172966719 1.0256214036134728 0.4048904251977792 -7.091193053699055e-14
0.6657225172966719 0.9783409213372203 0.5078237159434855 -7.520430905387704e-14
0.6657225172966719 0.8437036007713816 0.46976867859911764 -1.385514966350128e-13
0.6657225172966719 0.8433359725143121 0.2090656814879422 -2.0070855006348082e-13
0.6657225172966719 0.7345554848382041 0.30670118369245675 -1.872591151618098e-13
0.6657225172966719 0.7800655754212222 0.62789868252679 -1.4598668126119803e-13
0.6657225172966719 0.889710567636284 0.2956416287110189 -2.0033246104425484e-13
0.6657225172966719 0.8777819532473753 0.2439581926009285 -2.196742240674203e-13
0.6657225172966719 0.7190772342626236 0.38898366611110524 -1.2283098444997277e-13
0.6657225172966719 0.8435332827380417 0.2649420462426816 -2.0474494629552544e-13
0.6657225172966719 0.8653182703463533 0.39864222205447997 -2.104116857909184e-13
0.6657225172966719 0.9306423471637574 0.25124822314964096 -1.925772793850081e-13
0.665722517296672 0.7383804426193218 0.6276541885139292 -3.6263963926908725e-26
0.6657225172966719 1.042055349144286 0.4731803616419096 -2.292908464351375e-13
0.6657225172966719 0.7077825743157341 0.28172193053598443 0.0005376950871764679
0.665722517296672 0.6757229169561239 0.4983224386270922 0.22340016030205023
