x y z curv
0.1563259478455572 0.39847390593573545 0.5984073558041451 0.2386418697607959
0.10658758991631875 0.4846232844596574 0.591414365587382 0.14837713099864303
0.09339602613171205 0.5074717474116677 0.5902644874122932 0.19646105848942327
0.09711302790622808 0.5010337059793302 0.5644301849655031 0.07689480351952582
0.19602704443411859 0.3297095740082702 0.566319414594185 0.07942352957883896
0.22205504818461913 0.2846277412607684 0.5812077803504448 0.10140052932783197
0.2628352549805631 0.21399433887592612 0.5749516829702522 0.0506812610367446
0.31327926483000545 0.12662273570016713 0.5861121370569284 0.11129072793610656
0.27516384030916574 0.19264059899156472 0.5933461769126339 0.166482340633762
0.26500665921637473 0.21023335576233654 0.587673163687532 0.12986002534602656
0.2895978173743744 0.16764021301603632 0.5770464436848134 0.06535039313592014
0.21184499136650556 0.30231208149019667 0.5779344716438521 0.07032608301965543
0.19066518436020352 0.3389965896927943 0.5746957509773312 0.07938866361842062
0.23632039393539622 0.259919433340325 0.5713012127412983 0.09146159849709692
0.24235911246585895 0.24946006421585554 0.5715386841990093 0.07168193965003611
0.29823915764234443 0.15267297002617064 0.6037448578174928 0.1580616204578339
0.3007428027151174 0.14833652880264092 0.5893606152894018 0.15612715721728102
0.16240962027350664 0.3879366707898047 0.5707280344224746 0.06253937499895046
0.24971721387386459 0.23671545651583203 0.5667239065517499 0.062061903725910986
0.27014093503504866 0.201340527639375 0.5839962059309625 0.08689741768886912
0.2350107473473607 0.26218780816484527 0.5921548093562511 0.14867971841854571
0.28579775421996156 0.17422211661492026 0.5861398901032068 0.11242020029828825
0.18505817567061073 0.34870821530884444 0.5821085894905401 0.07772418621875392
0.29426262099617356 0.15956053473207082 0.5699475779308592 0.07245807816399684
0.19801305855375306 0.32626969605090606 0.5847393768087965 0.1135762077418096
0.14922046078594392 0.41078096910011963 0.571989795037331 0.051807262543259965
0.24826712769276216 0.239227079893198 0.587676029894165 0.1546138683739808
0.13284292733530484 0.4391476940674207 0.5725486446383568 0.05379589983117783
0.25515611971925434 0.22729499361742195 0.5957922572630061 0.28992437607011945
0.2936817414370227 0.1605666478163898 0.5891042273286382 0.10957479156841768
0.22724496516623227 0.27563853979986086 0.5922817857575121 0.1692857668606699
0.30406680031697425 0.1425791950717693 0.600374438639929 0.18844756811212002
0.14257734257925744 0.4222871893537557 0.5726394805189664 0.05476567786443961
0.3075098873946282 0.13661559228233539 0.5764973095333478 0.06976499304276582
0.23027877171624064 0.2703838318020136 0.5670410464915101 0.08263014624612049
0.31091651371184165 0.13071514139343837 0.5984330936100086 0.173335066458154
0.17350766908219178 0.36871428304878806 0.5684704399451055 0.05527982702396497
0.15538891250754538 0.40009689545813204 0.5721830041477542 0.05986061645075834
0.28826060447160734 0.16995633410654393 0.5975080452386947 0.1680595202171429
0.2744425501148022 0.19388991047224588 0.5714136386008775 0.05459781157955722
0.27889139495826487 0.18618428382968338 0.6014390649877579 0.23177377959886192
0.2518034584610806 0.2331019742659901 0.5772979038763659 0.07077426851663735
0.2818130252096671 0.1811238709141819 0.5748306581333599 0.08353110136846824
0.3073620296493502 0.136871689453941 0.5889286533349596 0.12944451798490156
0.2302311655199733 0.2704662881670289 0.5804734895825046 0.09583248453493855
0.2990247348907834 0.15131231008221746 0.5761769726770714 0.06823703988242813
0.2083246781756085 0.3084094438546766 0.5644374176506426 0.07192504261631959
0.32117307585746935 0.11295026521222176 0.568762614773134 0.12719334121878192
0.322235830334758 0.11110952461660513 0.5817732222150891 0.07699381067076247
0.3213525548959197 0.11263939910043577 0.5967623561583499 0.14391340672231773
0.2549824278533867 0.30759587193654137 0.5663278175293165 0.08270948455148033
0.27401806356280284 0.2746251790964543 0.5660438798613007 0.06169949284538959
0.3119797785065964 0.2088735508240329 0.5666447474794326 0.06475920653081217
0.3219621295609965 0.1915836091871618 0.5764176898259772 0.0654778164784796
0.23890505336645634 0.3354427053166015 0.5681313499246772 0.05876768843240154
0.22999956581387213 0.35086746439319116 0.5733224522489236 0.0645807466525466
0.33910473401762387 0.1618917431183557 0.5681338081534538 0.05694707717690823
0.2978792250451938 0.23329642926886265 0.5885962157309769 0.14832314558243465
0.3347087904907363 0.169505741724963 0.5802315568933466 0.07909376636424036
0.1967628041716662 0.4084352323328924 0.5677019449236655 0.06189355009424294
0.30468690582514246 0.2215051786179573 0.5822794924102057 0.10419261585532306
0.3116708527498218 0.20940862600578622 0.6017518500069652 0.2668101510771864
0.342224023114138 0.15648897515985116 0.6000804955449532 0.26980411106589874
0.21584173825394418 0.3753895445005763 0.5741499295011212 0.06767301188146072
0.3484828945298878 0.14564829034509535 0.5988597989953395 0.23014777677789786
0.1721516012605592 0.45106309220550883 0.5715401051561477 0.06607339564222393
0.2587972820654368 0.300988349688519 0.5785328503476623 0.09165048546560817
0.3193339097495123 0.19613582007433547 0.5954901926678612 0.22891887588760554
0.25167108825693885 0.31333128116533293 0.5812712735648544 0.10188378665656463
0.18992422907502854 0.42027999351749407 0.5757677979690115 0.06785037003293552
0.30066892344069673 0.2284645292304987 0.5670551401541141 0.07364703288361216
0.33057825885957665 0.17666003337858294 0.6004650389890962 0.26799818552228766
0.24418151236384972 0.3263036089637375 0.5729328944934652 0.08375937746458594
0.23613543786335753 0.3402398207600664 0.5871715422412411 0.1304894875035648
0.28373587474299694 0.2577934340267767 0.5888897674331948 0.09841812645036957
0.35230911555631506 0.13902108019428264 0.5859160070915076 0.1430875584956106
0.2567906062170497 0.30446401470106516 0.5889104840603206 0.14618603596400073
0.32750381572836806 0.18198512583573967 0.5787810955613101 0.07827210670404108
0.28619251400577295 0.2535384094093525 0.5695939061099231 0.06453533339032541
0.2905909466476581 0.24592009952849703 0.5871712734297869 0.10833228815263535
0.33926492423920995 0.16161428547667117 0.5871573876984149 0.12722488867193554
0.331023519985008 0.17588881837823678 0.5888061791209147 0.1436617418111816
0.2717842206339114 0.27849430908957806 0.5794013458679053 0.06312814271490345
0.3041662598180758 0.22240696408178184 0.5946339155579999 0.218388333451757
0.31432402226584377 0.20481320095664163 0.584996983079837 0.12326098674967416
0.34821103640542617 0.146119162495337 0.5769233592355455 0.08430014967053104
0.34529122957042474 0.1511764169930997 0.5865419691201414 0.11118039795651383
0.20936531637341657 0.3866070378265317 0.5730441296884518 0.058839200807272216
0.2653648377451552 0.28961300796987854 0.583063484321392 0.11717541776005766
0.2729399631560488 0.276492504039234 0.5908481427268351 0.15009463906417606
0.3249008920143102 0.18649352259077567 0.5908793698297966 0.1642683757442342
0.2774044919193992 0.2687597123017169 0.5830992773268053 0.09170409341204483
0.22053961682244594 0.3672525789877576 0.5679226413773004 0.07120528528847052
0.295403360831437 0.2375847524828419 0.5730236764185517 0.07365112876725731
0.22391846998573747 0.36140023281454653 0.5797282152539149 0.06702099140392984
0.3543489338416776 0.13548801046989062 0.6065660908665912 0.27796366551294005
0.14234615156845692 0.5026876325485353 0.5913955368638038 0.16913163990046398
0.14008951741825537 0.5065962500495532 0.5781974126946849 0.06965602674217271
0.21704300549745972 0.373308877394675 0.5963393116260471 0.21442569640343057
0.27140718670783825 0.2791473446433733 0.6023332298598846 0.21154546149037054
0.1477622919172047 0.4933065948466736 0.5989953715398337 0.19200791086446023
0.23833848432014484 0.33642401276561207 0.6092482083059492 0.2812160159846783
0.12801138573052415 0.5275161631519604 0.6052447079212793 0.22479506995582757
0.13891253722221192 0.5086348165728584 0.6027897322362135 0.24484135068103843
0.1669028889860613 0.4601541291822406 0.5754525422200034 0.07428303396831056
0.2957825197505608 0.23692802945699348 0.6007167109564215 0.2098993184054207
0.20625458350713555 0.3919949852546588 0.5833081543629505 0.10100481156589186
0.19118707346319513 0.4180926598854109 0.6037835364782322 0.24681838468178782
0.2321573857737481 0.3471300011160069 0.5972302823414561 0.20358840823346433
0.25600119899301893 0.3058313007236845 0.6004975333107744 0.22107423476996255
0.1275473622970656 0.5283199059050966 0.5726281226826307 0.11024045231972605
0.3000534261293377 0.22953059575163848 0.6077752105255413 0.28884735635419717
0.19720170336481874 0.4076750321969639 0.585385200692853 0.09735119903423148
0.1641458983474927 0.4649293519929758 0.6023580085279058 0.26457731158052394
0.2627805121944283 0.29408918594085365 0.5999454917153718 0.25314715844620866
0.22578452316671166 0.35816812640318485 0.5939316955950302 0.16096137680218836
0.151743151437629 0.48641155527717417 0.5866059562884951 0.12149473740546624
0.18240195968930162 0.433308925047826 0.6024558931780071 0.24300949808712577
0.13294375800104102 0.5189730659908534 0.5812326550887394 0.08530349154409064
0.17040017234029797 0.4540966476879885 0.5848784279429481 0.08023343386180973
0.2887483110198448 0.24911163827479776 0.5991207983760771 0.2013708456686605
0.21283335490848715 0.3806002169614538 0.5850065690898101 0.09589316460545048
0.20254906594832575 0.398413112665627 0.601967785142953 0.21728027977572456
0.1533258721344173 0.4836701873623764 0.6027860344452882 0.24616743579374756
0.1709788656007058 0.4530943062622116 0.6011667844372653 0.21683136590493632
0.24173844378393355 0.33053512723687295 0.5908882495930252 0.149073721636852
0.13044510575645604 0.5233008464580847 0.5943763879207946 0.14145659171484568
0.22194556244431807 0.3648173911238329 0.605160945905729 0.21321626310372413
0.14806393430405768 0.492784155960103 0.5765091804800598 0.05936690696554494
0.28190194329166873 0.2609698939700761 0.6006745933504376 0.2185509770880378
0.1780383150029907 0.44086698608393565 0.5955415729294905 0.15392353513902954
0.15913155230284887 0.4736144587714668 0.597694047898742 0.20868370303343992
0.18417711371007778 0.43023429025039905 0.5786992644813834 0.06468398274793934
0.1602492305462643 0.47167860354645086 0.5759832148574013 0.06262969896176422
0.16492377930739496 0.4635820344561977 0.5897084300636246 0.17600759901438365
0.19577386553995382 0.4101481087059602 0.5973715098257346 0.15624023604085172
0.210315552180622 0.38496116746625386 0.5976952340257102 0.21125787577316335
0.17873435198245535 0.4396614257577962 0.5836673404458492 0.0799748292586605
0.24945383777349867 0.31717166745413994 0.5961633146508933 0.22043531977792716
0.19078565858694074 0.41878794514547213 0.5885484321144621 0.11473186529004496
0.3207311078573143 0.19371579572133107 0.6133854397801756 0.29505475556478566
0.13823036539766007 0.5098164044386572 0.5643831744924477 0.06523677353527225
0.1237395552383419 0.5350575691908208 0.5986389196949551 0.20651828871928668
0.25932059726661566 0.2900021362332486 0.5640000104904175 0.11543336193690545
0.2468959547436477 0.29888792823262433 0.5640000104904175 0.133883977312217
0.31681460615392165 0.1944778236078691 0.5640000104904175 0.08555123657002701
0.2885241177981353 0.24340800563755866 0.5640000104904175 0.09293352082206585
0.15171606303800148 0.4790926496121514 0.5640000104904176 0.09227542562752346
0.27614939386038556 0.24540876963117284 0.5640000104904175 0.13323858558263943
0.2292579691281641 0.3410336157731765 0.5640000104904175 0.081930777844576
0.219041141876609 0.3327889454427442 0.5640000104904175 0.15553158058337896
0.1884354157967325 0.40043146292278925 0.5640000104904175 0.11487828058627816
0.25964174635700554 0.27015105039692155 0.5640000104904175 0.10165345231102736
0.281457378992232 0.20362098571077858 0.5640000104904175 0.10526457619962232
0.2091909688539974 0.36442028818937633 0.5640000104904175 0.1157146574438522
0.31546790749027276 0.12658364039955117 0.5640000104904176 0.09296613097613336
0.2788668259434556 0.2170740008217561 0.5640000104904175 0.10902831197840065
0.2882222503712152 0.22698072103440492 0.5640000104904175 0.14138377584276626
0.31165240312073905 0.17041677557464807 0.5640000104904175 0.12314089653331071
0.2920319383548333 0.19858711207400792 0.5640000104904175 0.10125080920717898
0.33064954513542244 0.1521748185569748 0.5640000104904175 0.18073192671542512
0.30672041310840525 0.19873537954239875 0.5640000104904175 0.13855888741204142
0.31501470224185635 0.1817634274190682 0.5640000104904175 0.16173510517208195
0.23509281435388507 0.32291471346111356 0.5640000104904175 0.09464217385765934
0.2592345513754939 0.256915747556643 0.5640000104904175 0.15518093229988317
0.1966842305600494 0.38980615488491144 0.5640000104904175 0.13430617302803832
0.2624471506802515 0.23779787218047305 0.5640000104904175 0.11966761987291831
0.1795042145159605 0.42264227785863373 0.5640000104904175 0.11040360601862134
0.3380797969095995 0.1379824500811413 0.5640000104904175 0.2128553809106291
0.3148297162242118 0.14061307256842423 0.5640000104904175 0.17147299872391164
0.1800051803938512 0.4360778274592551 0.5640000104904174 0.053363962237181144
0.307375200238654 0.1538545514337266 0.5640000104904175 0.10724671691066086
0.33080093304999253 0.1731674930895262 0.5640000104904176 0.07578755142643814
0.2707985702216734 0.2636700716113681 0.5640000104904175 0.1125263561301976
0.29733381120191876 0.1879712681981978 0.5640000104904175 0.16367083887305975
0.24901460996432215 0.2784094825607676 0.5640000104904175 0.13856725732750266
0.23165539002159824 0.30621158838075596 0.5640000104904175 0.1456708160038647
0.24767798127588295 0.316972185852039 0.5640000104904175 0.0677943800798498
0.26950567079203525 0.22612415758362403 0.5640000104904175 0.12395857790166766
0.298569709459804 0.17712321584508545 0.5640000104904175 0.14903583259339648
0.3218169878790797 0.16203966400060776 0.5640000104904175 0.12381279275218136
0.2167465689625634 0.35496095438190295 0.5640000104904175 0.11703493920452128
0.32630243001718384 0.1417512920212562 0.5640000104904175 0.20413634796436533
0.1959344250764583 0.3785499589216048 0.5640000104904175 0.12723595990894163
0.24295240040543142 0.265506584855138 0.5640000104904175 0.12425070915101893
0.1140783969534793 0.50193083596313 0.5640000104904175 0.15914409182381775
0.23299843610443496 0.2923905725357263 0.5640000104904175 0.1360764452976711
0.2104999028714586 0.3416583929120376 0.5640000104904175 0.15866770301788738
0.18609269022628655 0.3539517259208329 0.5640000104904175 0.08784631411948206
0.1819805752446742 0.3833620535811121 0.5640000104904175 0.12336431431298174
0.16764947674972613 0.40635177810957807 0.5640000104904175 0.13592628802159748
0.22176999129782582 0.2991782968530437 0.5640000104904175 0.1391664328269652
0.161491009421653 0.42100114711033293 0.5640000104904175 0.0912648081641573
0.1048087398144155 0.5158417668947838 0.5640000104904175 0.18220282464122423
0.11808479696145764 0.48091534302632555 0.5640000104904175 0.11613233118839907
0.28394740382095296 0.18870726331723392 0.5640000104904175 0.08086291641020124
0.12692599620389586 0.511172867461275 0.5640000104904175 0.14648723973456737
0.21400980262539063 0.32185205797795136 0.5640000104904175 0.1276228310919663
0.13466082258394857 0.4959244536090894 0.5640000104904175 0.08944316554109998
0.14710094360217657 0.44932345451494343 0.5640000104904175 0.11002921354041803
0.09293507154920425 0.5114847499574138 0.5640000104904175 0.13008124157125134
0.20094484268772364 0.35008195007588405 0.5640000104904175 0.1577581945196278
0.1302715547182165 0.48354817734941313 0.5640000104904175 0.13914507979299004
0.12534761573283132 0.4715723743672565 0.5640000104904175 0.12830718978999586
0.16135053428976154 0.43219043176353317 0.5640000104904174 0.1247467175165931
0.171302821154537 0.38894993879370865 0.5640000104904175 0.13110439692802642
0.15525949839402114 0.45954393591743675 0.5640000104904175 0.1539879131504736
0.17901305089252373 0.40680673510775633 0.5640000104904175 0.1460712784275898
0.23431443613106656 0.2801217062177329 0.5640000104904175 0.12694721860395597
0.22289533687699686 0.28330777154120745 0.5640000104904175 0.07264998641231653
0.1629584694133862 0.44666232058520916 0.5640000104904175 0.13021049170317894
0.1259559644226645 0.4579848634094385 0.5640000104904175 0.0841726002846167
0.1390761817217892 0.45971074710330073 0.5640000104904176 0.1109663165801693
0.18827107468979237 0.3646765934343463 0.5640000104904175 0.13287716619406056
0.11569283772559892 0.5245169264515054 0.5640000104904175 0.23229096418120046
0.14286235134866107 0.4868658219494217 0.5640000104904175 0.10462331293001331
0.14692415844975693 0.43529168076192637 0.5640000104904175 0.12751771586599023
0.2884947650066394 0.170631142741681 0.5640000104904175 0.07078819361224635
0.6329022560687083 0.11527983196564591 0.5640000104904175 0.10966146000391624
0.7081113208812301 0.09875326591709072 0.5640000104904175 0.14549678525450513
0.6230626348753897 0.1090449865662814 0.5640000104904175 0.1025941950964734
0.6114767326342998 0.12195768977423757 0.5640000104904175 0.09725210689401592
0.3768569811463584 0.12737725802286493 0.5640000104904175 0.13182586733767426
0.7867245924394617 0.11681332186256693 0.5640000104904175 0.13484290534585525
0.4742935661204053 0.12243496551347294 0.5640000104904175 0.11262485858500366
0.6932492353959803 0.12269439550756903 0.5640000104904175 0.11393551082938366
0.7340341718730781 0.11365523713613286 0.5640000104904175 0.12536410052639038
0.7728336880979585 0.11219699372273398 0.5640000104904175 0.13706635256364771
0.8029188054024949 0.12644667607502055 0.5640000104904175 0.12282666170444839
0.667396899001574 0.10370967251362041 0.5640000104904175 0.13827397605265343
0.4888424319178885 0.12730536183846677 0.5640000104904175 0.08280119606243973
0.747315222343914 0.10099306601741315 0.5640000104904175 0.12702666872189233
0.5642051072158202 0.12308267308003741 0.5640000104904175 0.08865187189149004
0.5739253860220346 0.11721521520858522 0.5640000104904175 0.10566729332349684
0.55807217658348 0.11329750139108244 0.5640000104904175 0.12767678522144102
0.7216508324070754 0.11366052617139298 0.5640000104904175 0.11012311477077592
0.39312988253571374 0.1277145432291398 0.5640000104904175 0.07517586149332997
0.5462685538437148 0.11839814329779078 0.5640000104904175 0.0970014456668415
0.7767376291682667 0.12372595658561761 0.5640000104904175 0.11860146315369222
0.7040853952091577 0.11643546239376926 0.5640000104904175 0.13135349364024787
0.6756640203590456 0.12778211781682516 0.5640000104904175 0.05911042217374187
0.652168252946015 0.11537345187682072 0.5640000104904175 0.12704417107198523
0.6779479401747931 0.11245489230886663 0.5640000104904175 0.1416945891640648
0.6890744095334282 0.10859515418330142 0.5640000104904175 0.13547656637226582
0.757072467245268 0.09476529268892085 0.5640000104904175 0.08567706910519236
0.5345424730224426 0.12306441053572907 0.5640000104904175 0.08845854717338246
0.8185386552542818 0.12737322019899963 0.5640000104904175 0.08411109637317306
0.7552688877957048 0.11604756401590828 0.5640000104904175 0.12389397083530662
0.46031605770888767 0.12689350660371834 0.5640000104904175 0.10554840114533463
0.7985307661428993 0.10521732318424382 0.5640000104904175 0.17304290182913917
0.4344175429807914 0.12732257276713024 0.5640000104904175 0.08543427555636994
0.8171290190555669 0.10566235069686529 0.5640000104904175 0.1856468573294631
0.510902239189739 0.09657620379110489 0.5640000104904175 0.1392307138793512
0.39324132032190173 0.09290650442844837 0.5640000104904175 0.10165467470944961
0.4151158735162265 0.0887280143736463 0.5640000104904175 0.09571903836800116
0.6638419510899172 0.08818753601026741 0.5640000104904175 0.06637843667716718
0.5016518586214663 0.11466553143683805 0.5640000104904175 0.13120229078591567
0.558462575230741 0.10177623466861396 0.5640000104904175 0.1108998848930526
0.4197922838218192 0.10865137628623647 0.5640000104904175 0.11071893782826193
0.7198101768849011 0.09375198077113114 0.5640000104904175 0.07403695598105235
0.5401643805742452 0.09584882877133138 0.5640000104904175 0.09714317572320645
0.5915241334326663 0.10819489194797464 0.5640000104904175 0.14587780721081672
0.6259492560324265 0.09751125811396069 0.5640000104904175 0.08073824222768455
0.38432555445758665 0.11743902449339241 0.5640000104904175 0.16232571849018165
0.4416388738955749 0.08813602752029918 0.5640000104904175 0.06792765644336514
0.40390806314999284 0.12137175114903483 0.5640000104904175 0.11601224420360733
0.4421924080695752 0.10454806065100389 0.5640000104904175 0.12066665097962492
0.5512761939282169 0.08855837116178655 0.5640000104904175 0.10093267101371128
0.46629307166427403 0.11109760018164273 0.5640000104904175 0.13183748941417334
0.4451996931251723 0.11813475752368499 0.5640000104904176 0.13191384264485495
0.5809590679198894 0.10257492895509851 0.5640000104904175 0.12128042565651832
0.3893239387059922 0.10636139341080864 0.5640000104904175 0.15536452077872695
0.5157873308437064 0.1108230038312867 0.5640000104904175 0.14417259789121717
0.6153922068486486 0.09245883006527303 0.5640000104904175 0.09772985869103339
0.4825215272896817 0.10510613905779159 0.5640000104904175 0.15180237568151883
0.4328724828270256 0.11270240899710518 0.5640000104904175 0.1119715553815981
0.4547830428487506 0.10576851861453868 0.5640000104904175 0.14580118696917185
0.6519407213662712 0.0971080253243861 0.5640000104904175 0.09147433822727939
0.5708363633453086 0.09831637229072979 0.5640000104904175 0.17723072394288747
0.6063802847045275 0.10283103880367325 0.5640000104904176 0.10612052956817468
0.7340757167572681 0.09016303242423317 0.5640000104904175 0.08083000701065012
0.5307687265315427 0.11203013341378712 0.5640000104904175 0.14619758812870562
0.430077061212666 0.09502203490670544 0.5640000104904175 0.09436362346796491
0.6911642649554282 0.08823177545019761 0.5640000104904175 0.07587922924514681
0.4054849897591385 0.09858379886334288 0.5640000104904175 0.12582490457394638
0.374723096672824 0.11038733616146447 0.5640000104904175 0.21664663108553664
0.49608362684749446 0.10344958338792848 0.5640000104904175 0.14262643906108063
0.4672323346884336 0.09634724047549625 0.5640000104904175 0.09846694966196791
0.7781784209047031 0.09014459261954368 0.5640000104904175 0.07519570943714725
0.3812396841538459 0.09853702490158486 0.5640000104904175 0.15321875570184038
1.059771945820836 0.630588069092074 0.5640000104904175 0.12247532422565444
1.0459587015375797 0.6800052667515024 0.5640000104904175 0.06576519389795357
0.9743106703132025 0.7854731036690846 0.5640000104904175 0.13320938178268332
1.0441623303207546 0.6365921908315075 0.5640000104904175 0.1144572971326602
1.0737853584079242 0.5987169603632594 0.5640000104904175 0.10863570615454769
1.083606280374011 0.6085034429847512 0.5640000104904175 0.1058296807913503
1.0262545281993918 0.6883018576273293 0.5640000104904175 0.13790594911841983
1.0493192906368356 0.6247318662527739 0.5640000104904175 0.09764210418641955
1.067160075559393 0.6120387044706525 0.5640000104904175 0.1477400523353695
1.078706696877013 0.5587086683323285 0.5640000104904175 0.1640338525900474
1.0613570905125584 0.5935893153434968 0.5640000104904175 0.1071713705431006
0.9924407181687376 0.7368263205187118 0.5640000104904175 0.11222049871869662
0.9570365247556987 0.8168225193934379 0.5640000104904175 0.14175383837461122
1.019006503499646 0.6800162799243932 0.5640000104904175 0.1354025984962716
1.0369045104322074 0.6499691284085333 0.5640000104904175 0.10251185257178815
1.0054839187260671 0.7311213934941334 0.5640000104904175 0.10811162480297672
1.0325537617615204 0.6749221141074688 0.5640000104904175 0.12905973669435333
1.0188294327087464 0.7000702761474665 0.5640000104904175 0.1539295185142423
1.054998362213305 0.6117213825721217 0.5640000104904175 0.11600302169992614
0.9398543312315528 0.8444714657822343 0.5640000104904175 0.13567879317602938
1.0865279078385646 0.5970387091257094 0.5640000104904175 0.09889723122385194
1.049319816685872 0.6522396037300145 0.5640000104904175 0.1383001649476164
1.0834797088203005 0.5707861687467748 0.5640000104904175 0.2372798067299455
1.063047530465598 0.6462785263119472 0.5640000104904175 0.0882845069481239
1.025891873851854 0.7098832779953462 0.5640000104904175 0.08669991807944828
1.0058142507590628 0.7075364017290393 0.5640000104904175 0.12098290638996158
1.006765544691545 0.7184193443200297 0.5640000104904175 0.1201593472977579
1.0842763998247502 0.5848082771414441 0.5640000104904175 0.19351608520814967
0.9047063042366218 0.9225393452328245 0.5640000104904175 0.08841429880285041
1.0175367965135407 0.7264421335226904 0.5640000104904175 0.09017398920756241
1.0741841884623229 0.577287361814577 0.5640000104904175 0.13305918419382445
1.0234994788799203 0.6598001038687203 0.5640000104904175 0.11815834123313904
1.0937014791049253 0.5785316979301466 0.5640000104904175 0.17748681132009206
0.9628559964177352 0.8035373787860469 0.5640000104904175 0.10663251300938549
1.0426466197361357 0.6642078835837844 0.5640000104904175 0.1449062473102034
0.9777632307776413 0.7669464079114794 0.5640000104904175 0.14974165681619098
0.9776147215790831 0.7983081929477802 0.5640000104904175 0.07218478606811861
0.90711112251675 0.91110551645823 0.5640000104904175 0.10900168824306318
0.8821321242792379 0.9525522619015206 0.5640000104904175 0.1331795278408965
0.9616349162165199 0.7866505509724504 0.5640000104904175 0.13843710502985623
0.9030403735121928 0.8837917297037524 0.5640000104904175 0.10738800775623465
0.9268820231120976 0.8546182555545563 0.5640000104904175 0.09350382016089082
0.9636157395245832 0.7732394360190606 0.5640000104904175 0.15928679555105543
0.8852881361906962 0.9008824337676866 0.5640000104904175 0.10076044945727289
0.878613590067388 0.932107844919275 0.5640000104904175 0.1318761579921795
0.8702012762607156 0.959751597648996 0.5640000104904175 0.19808330211562916
0.8740982129675177 0.9189334581552562 0.5640000104904175 0.10803192020085838
1.0307214872927388 0.6405461539928798 0.5640000104904175 0.09974092226623923
0.9490409149979886 0.8057899192498126 0.5640000104904175 0.15633300353583604
0.9491799928217911 0.7911407961462283 0.5640000104904175 0.13910547600460801
0.8600258946270074 0.9235781591547887 0.5640000104904176 0.07995618759946593
0.939386228643863 0.8003075175555343 0.5640000104904175 0.11413915489306643
0.9946166758205786 0.7119846973320607 0.5640000104904175 0.10565009743498008
0.9319379942098687 0.8292032316394309 0.5640000104904175 0.11387443139208983
0.9422675073549619 0.8322170790074352 0.5640000104904175 0.14579599069334276
0.9507412500276555 0.765630347355657 0.5640000104904175 0.07282832844788557
0.9824621437984934 0.747109798508758 0.5640000104904175 0.12183926349382573
0.9403452434200121 0.8179182908582562 0.5640000104904175 0.12027456109088339
0.8683096717515241 0.9084663478714878 0.5640000104904175 0.08166547592025378
0.898964012829329 0.899218595339869 0.5640000104904175 0.10936485702730357
0.8715730053281424 0.9473686980004363 0.5640000104904175 0.16291353169811598
1.0013439279552314 0.6959664743744138 0.5640000104904175 0.08104545964193977
1.0052798108989283 0.6751561858923916 0.5640000104904175 0.08262490900406046
0.8882305052643368 0.9207727556022162 0.5640000104904175 0.11461089909735692
0.925356358001078 0.8686090019555468 0.5640000104904175 0.11670196353799327
0.9669290594567284 0.7495245936510091 0.5640000104904175 0.10551374252968301
0.9247425818087823 0.8171909420358208 0.5640000104904175 0.10012251308148061
0.986205345747241 0.7250981344150391 0.5640000104904175 0.08098024860478836
0.8918631062041885 0.8871376055019529 0.5640000104904175 0.09379053158014614
0.8941899964252584 0.9097906723074178 0.5640000104904175 0.1293074444271547
0.9188439853445804 0.8425756704883898 0.5640000104904175 0.1284100620803911
0.9512535766774933 0.7800215157947378 0.5640000104904175 0.11680200938524161
0.9058000367803289 0.848984305657988 0.5640000104904176 0.093548641609581
0.8901442842537757 0.9446132545503892 0.5640000104904175 0.09208368790897337
0.9023243138762234 0.870281896527388 0.5640000104904175 0.10648443417350706
0.9164714060451022 0.8770683630469245 0.5640000104904175 0.13712956667230586
0.9142126189892092 0.8644864898250672 0.5640000104904175 0.12448951565034667
0.5492177782674483 0.9892512890978713 0.5640000104904175 0.09795881334664065
0.8113087213634581 0.9704815863464817 0.5640000104904175 0.16974965014580348
0.7618953297011769 0.9979489169028248 0.5640000104904175 0.0783514173315585
0.5375045488997375 0.9850585367386406 0.5640000104904175 0.1324418521198681
0.7865357941144167 0.9975196832732234 0.5640000104904175 0.07992790244936059
0.6729203544294748 0.9833067612117786 0.5640000104904175 0.1526393371223511
0.768513080397383 0.9811223724595157 0.5640000104904175 0.13020630946195055
0.8100682394010308 0.9823223210252048 0.5640000104904176 0.15033887331282142
0.4856475784613187 0.997137199448349 0.5640000104904175 0.06935613651520828
0.7432195620478876 0.9973341493936879 0.5640000104904175 0.08221894795316065
0.5998898447639391 0.9965443183441963 0.5640000104904175 0.0869045786891523
0.7814701605398486 0.9852168342737336 0.5640000104904175 0.12795052576070923
0.6065308861080397 0.9867622220750856 0.5640000104904175 0.10946279544473807
0.7941818649435047 0.968580718674001 0.5640000104904175 0.1000158701497263
0.6572924733979959 0.9928388471366032 0.5640000104904175 0.10839086626903127
0.4071154011337547 0.9964125146539649 0.5640000104904175 0.0884557826407897
0.7280492848673762 0.9835059531818 0.5640000104904175 0.15310661441978346
0.6307868327362893 0.979149197672128 0.5640000104904175 0.1015649104432796
0.620321416254154 0.989202023042322 0.5640000104904175 0.10756035253880457
0.5411763960383044 0.9977594286056205 0.5640000104904175 0.12792392556998572
0.6691678674542505 0.9943919985183605 0.5640000104904175 0.09957139365440333
0.5746723567999628 0.9900078540916603 0.5640000104904175 0.12763969325740024
0.4690707519705004 0.9916458998960613 0.5640000104904175 0.1380889638393026
0.5845633901502426 0.9970337207750053 0.5640000104904174 0.10166168898420082
0.8009219115873623 0.9897303347806244 0.5640000104904175 0.13956580425746165
0.7038963121355823 0.9773261282483194 0.5640000104904175 0.11959792979366302
0.6408389198236528 0.9975541472642412 0.5640000104904175 0.09557142831751016
0.4960432100607225 0.9910794584066202 0.5640000104904175 0.10020826777091928
0.4524829396068775 0.9982376523866314 0.5640000104904175 0.08514221626782671
0.44137892558544695 0.9976528093854942 0.5640000104904175 0.08772967496499666
0.7579621644927661 0.9740996418449064 0.5640000104904175 0.11089428309253822
0.5917189066807964 0.9841039186909949 0.5640000104904175 0.14115473151724656
0.693698158231317 0.9843633690770495 0.5640000104904175 0.13934074053873743
0.7525335006927871 0.9861217551709718 0.5640000104904175 0.14126014275477705
0.7177937667845068 0.9724707867209114 0.5640000104904175 0.10971635814642168
0.643429107925596 0.9793722980880328 0.5640000104904175 0.09142525772617112
0.5296650450888569 0.9942330138647788 0.5640000104904175 0.12059878912065083
0.736267933777735 0.9692743649521047 0.5640000104904175 0.10542791890145319
0.714103862363487 0.9830379966089258 0.5640000104904175 0.14253904453873378
0.7405863863816862 0.9864449390729626 0.5640000104904175 0.15241369041376632
0.48565250417671546 0.9590187503484007 0.5640000104904175 0.08918580224161199
0.4947241062020917 0.9706508232076667 0.5640000104904175 0.12177984495921505
0.4039220153436597 0.960661524169111 0.5640000104904175 0.09086062111535681
0.5440751078379454 0.9678596981264493 0.5640000104904175 0.11071260102230099
0.482921247521359 0.9744417286959048 0.5640000104904175 0.11874267701336387
0.6258001380317276 0.966646048737831 0.5640000104904176 0.09047079210856597
0.5951694962047984 0.970810319666439 0.5640000104904175 0.1279043945674994
0.582712122094347 0.9741413283616195 0.5640000104904175 0.11038615112091782
0.48063578667534457 0.9852174472019183 0.5640000104904175 0.15390985237047414
0.6528035654494394 0.9684536140409812 0.5640000104904175 0.11915332163102474
0.6698986792425535 0.9707189668896974 0.5640000104904174 0.10829457658825746
0.4177028215124432 0.9651973707127993 0.5640000104904175 0.10633236155840227
0.377986390870901 0.9841998757234933 0.5640000104904175 0.19040461336856584
0.5202808494995423 0.9592937677985651 0.5640000104904175 0.07239344583964145
0.45447686713077085 0.9846895836753403 0.5640000104904176 0.15878900723080497
0.7068275897467902 0.9639198822697564 0.5640000104904175 0.10177218748931237
0.3957241559214616 0.9896364803390447 0.5640000104904175 0.11628430399064887
0.7416944675890479 0.9590835218639246 0.5640000104904175 0.055956284553812435
0.45437274706399944 0.972836603159384 0.5640000104904175 0.12026237597994073
0.5633430018602271 0.9681589849109387 0.5640000104904174 0.11332573469622924
0.3858487349551746 0.9701930049916683 0.5640000104904175 0.20187287658756892
0.42210444189065205 0.9914014562916265 0.5640000104904175 0.14512570867722507
0.43214421728779584 0.9711460579362258 0.5640000104904175 0.14790523275585626
0.6037916880587645 0.9603996846456333 0.5640000104904175 0.10619512414991253
0.5053317331603225 0.9792710129554464 0.5640000104904175 0.11418276052941126
0.6176605032318426 0.9745061502397083 0.5640000104904176 0.14858109536082276
0.5217727097459127 0.9804875857216482 0.5640000104904175 0.12642631694812667
0.44937163878094133 0.9595560055475473 0.5640000104904175 0.08526679302002002
0.525766636300556 0.9700680468957121 0.5640000104904175 0.11707207864772402
0.4117086453183374 0.9808104415866068 0.5640000104904175 0.15391404424593988
0.44322574040208274 0.9759862233492972 0.5640000104904175 0.12094548961019998
0.43479023722167004 0.9872222431456728 0.5640000104904175 0.14514588117897198
0.68734459125495 0.9697753340878167 0.5640000104904176 0.11701874754202136
0.19178944080923319 0.7251911846941206 0.5640000104904175 0.12180420523821199
0.2788925711002251 0.8963563525567643 0.5640000104904175 0.10412250531102392
0.20029304636505063 0.7610114151062186 0.5640000104904175 0.09762337264393885
0.1948446416022272 0.7493874329986842 0.5640000104904175 0.1228532087726942
0.1242006955001458 0.5676153269694169 0.5640000104904175 0.16511918922043825
0.1972757513911711 0.7373389353645856 0.5640000104904175 0.11764338375308243
0.17373341856803481 0.6636812153833553 0.5640000104904175 0.13704647661790662
0.11178364090009568 0.5739280227561551 0.5640000104904175 0.23077455782620027
0.11554447774540444 0.6007123999956032 0.5640000104904175 0.09684752756883781
0.1662935791131161 0.7019867156199127 0.5640000104904175 0.0766030391498592
0.2640807967246739 0.8528654665226005 0.5640000104904175 0.11788066467566656
0.17281493184133734 0.6915356204754488 0.5640000104904175 0.1272638425413394
0.1628531192038226 0.6617574471173402 0.5640000104904175 0.14185416233942333
0.28869230515613953 0.9137344320698304 0.5640000104904175 0.09875493390245338
0.21573894849993847 0.7686831059869957 0.5640000104904176 0.13889256699814487
0.2392547583948004 0.810885705400432 0.5640000104904175 0.11949543977396947
0.10197964403551094 0.591578430476944 0.5640000104904175 0.08147093179842053
0.1811910165126752 0.6846395471990859 0.5640000104904176 0.11108327019397751
0.1323703815788121 0.6408554526830484 0.5640000104904175 0.06327198626985647
0.20990270516638626 0.7374480925010342 0.5640000104904176 0.09470472116532481
0.12862260526803138 0.5874669361281035 0.5640000104904175 0.12279924503774292
0.19019536604375042 0.7073944107799907 0.5640000104904175 0.1402256841291716
0.14382228357769117 0.6379977985835752 0.5640000104904175 0.10471422339826428
0.21667862149533498 0.7542468422342651 0.5640000104904175 0.12618837858867582
0.12864347952124403 0.6155741135345913 0.5640000104904175 0.12705397321594994
0.17244795075660402 0.6757401702806629 0.5640000104904175 0.09781232140545303
0.21388810223391144 0.787462682470115 0.5640000104904175 0.08935029973414076
0.23521149493261273 0.8237813334503132 0.5640000104904175 0.09235728799136801
0.26284139151500613 0.8646353628754126 0.5640000104904175 0.09156879549440144
0.2264976812918063 0.7929530257244805 0.5640000104904175 0.11836704161729904
0.22517453663094475 0.7787654722636388 0.5640000104904175 0.09264839798403365
0.1313808573206503 0.6278500728569039 0.5640000104904175 0.10468614707259805
0.2990757524073164 0.9334660963711574 0.5640000104904176 0.08717348385243598
0.14637577834672078 0.6708421738781719 0.5640000104904175 0.08137927708185472
0.13381773533437033 0.6020452987589497 0.5640000104904175 0.0938234545641682
0.14907856491115543 0.6581030260331644 0.5640000104904175 0.12767040687195186
0.14295437961654928 0.6196982050683056 0.5640000104904175 0.1376921369466762
0.15602942857572968 0.6484103102421181 0.5640000104904175 0.1699862316980921
0.17270886652978132 0.7159889319546604 0.5640000104904175 0.07487784407456015
0.255659275600305 0.8275969134231149 0.5640000104904175 0.12985719627353948
0.2367902528337713 0.7733136199346444 0.5640000104904175 0.1102710607639726
0.3000672945636411 0.9096890197487066 0.5640000104904175 0.12353324362178804
0.22698602492169717 0.7641481697454273 0.5640000104904175 0.12201190488565664
0.2522593385233981 0.8069899763309103 0.5640000104904175 0.11105826465186312
0.3111908549182569 0.9034781859511343 0.5640000104904175 0.10757883319977099
0.32333246071832644 0.9259316094282449 0.5640000104904176 0.1065148395551
0.27881446965180573 0.8550392438500944 0.5640000104904175 0.13537156606177916
0.30892904251279624 0.9211831338873978 0.5640000104904176 0.1465202751884287
0.3030831685601627 0.8718928642316618 0.5640000104904175 0.09117307558070455
0.28832395254685717 0.8426637340536361 0.5640000104904175 0.09397454067760033
0.16626209151861548 0.6341280099814657 0.5640000104904175 0.12558779374779114
0.24470642681896695 0.7625608699010096 0.5640000104904175 0.08957380498969446
0.3090722238044555 0.8836264945511523 0.5640000104904175 0.0954670207990781
0.2974009108994503 0.8853100012449748 0.5640000104904175 0.11097691980156713
0.21088952308538253 0.7127419551808872 0.5640000104904175 0.1316161549952141
0.2914422847141627 0.8563941408995148 0.5640000104904175 0.12915978868846326
0.26989964273063255 0.8149699450372723 0.5640000104904175 0.08053833851166291
0.26680685404950566 0.8040918794776477 0.5640000104904175 0.09290090648791816
0.32786347181886655 0.9592685138037137 0.5640000104904175 0.2016674910706083
0.2863197581472025 0.8724938638665445 0.5640000104904175 0.13393962590923406
0.26111524998288854 0.841666317171386 0.5640000104904175 0.10597738262441996
0.3113575294937117 0.9328787007590802 0.5640000104904176 0.12003099434862359
0.26929577217526296 0.8340675457144158 0.5640000104904175 0.08976814458999154
0.2750588734362737 0.8668632048074913 0.5640000104904175 0.0913780358490087
0.1579630755735082 0.6227896779676783 0.5640000104904175 0.10354593641279922
0.3320570921984285 0.9468173165859296 0.5640000104904175 0.1782947276689285
0.31470580700552164 0.9458180464856615 0.5640000104904176 0.1491936146197113
0.3238327763447796 0.905717369636647 0.5640000104904175 0.0867276274138498
0.14240065793553436 0.587741722531233 0.5640000104904175 0.07503020486761171
0.2222235849369798 0.7392017472351147 0.5640000104904175 0.12113240704928728
0.2822131254588835 0.8847262271550389 0.5640000104904175 0.12896702328075907
0.3322602287076326 0.9352680268365843 0.5640000104904176 0.1436651650857987
0.2506369177638094 0.780925952299623 0.5640000104904175 0.08881819634574142
0.2797747503433595 0.82394991896578 0.5640000104904176 0.07264393100507946
0.20206975077491143 0.7025478091833592 0.5640000104904175 0.09680988313549592
0.24394841481194438 0.7997884602323042 0.5640000104904175 0.11760100989422853
0.2052545634539311 0.7254258821541656 0.5640000104904175 0.13269028684175638
1.082028086320587 0.5195833966150906 0.5640000104904174 0.22662557327180963
1.0072526068608931 0.38837149224032336 0.5640000104904175 0.13037725081403148
0.909327341269745 0.18203425948477614 0.5640000104904175 0.10855183179759499
1.0452577255882054 0.4413684003307483 0.5640000104904175 0.10425699437330914
1.052746897767631 0.48344072622264783 0.5640000104904175 0.12126117675936522
0.9705029163853387 0.3020102387850155 0.5640000104904175 0.12005740484468598
1.0574658852312224 0.44971416184575563 0.5640000104904175 0.11233483675920611
1.0266293304853602 0.38474790896157407 0.5640000104904175 0.10510347160116555
0.992532563103341 0.3463141506022084 0.5640000104904175 0.14811693309944207
0.9895209974702761 0.3146574709039294 0.5640000104904175 0.10087723746703176
1.0417465142702982 0.4050044653448526 0.5640000104904175 0.09178385913854031
1.0641158541488447 0.48959363335411643 0.5640000104904175 0.13872664753001318
1.0862645640669126 0.5003461100171257 0.5640000104904175 0.14558230841095238
1.076288878653076 0.4910220957933362 0.5640000104904175 0.15089679998694078
1.0617508638536595 0.47372410221651834 0.5640000104904175 0.16070393349519446
0.9513498454104046 0.26984291198216653 0.5640000104904175 0.10656701830444265
1.0687128988177557 0.4649725819744435 0.5640000104904175 0.11197804702836041
1.0454539352806407 0.4165282763178166 0.5640000104904175 0.1591094904822688
1.023138694308057 0.39929239506488556 0.5640000104904175 0.12509606722368302
1.0686047692523521 0.5008111131183877 0.5640000104904175 0.12897154339614378
1.0037892969691804 0.33565304560714937 0.5640000104904175 0.07193237009574278
0.9992211796869688 0.3569549888578545 0.5640000104904175 0.15342498707846078
1.0289985765672007 0.42898624930387724 0.5640000104904175 0.11687146461151297
0.9582699668454199 0.25821890222199184 0.5640000104904175 0.0758746087682505
1.0415230199754137 0.45846880944518814 0.5640000104904175 0.09520829314711224
0.8884301268133401 0.13434028720177904 0.5640000104904175 0.09518219530058213
1.0405725590379433 0.4288902349145932 0.5640000104904175 0.15696756504456072
1.0943359596457 0.5099681791633356 0.5640000104904175 0.18909283364346416
1.0332113333261033 0.4393602157658895 0.5640000104904175 0.11226556090372135
0.9831919448460105 0.3033282075582785 0.5640000104904175 0.10542202191535226
1.0104899774162435 0.3673324296886254 0.5640000104904175 0.11825835943932665
0.9615959483950692 0.28257744887102465 0.5640000104904175 0.09998238922356827
0.9204691253609181 0.1992100098863412 0.5640000104904175 0.10242669113591728
1.0543801009860005 0.46054312529335556 0.5640000104904175 0.1278939642466487
0.8740009339314587 0.16076636970185565 0.5640000104904175 0.14295903460477027
0.9321224229250258 0.23623830899698142 0.5640000104904175 0.1337271665932432
0.9049947461750354 0.2415552577000244 0.5640000104904175 0.06602414622953333
0.9186749966028372 0.2137550917777486 0.5640000104904175 0.14546391014483948
0.8934565004161379 0.19262909405492223 0.5640000104904175 0.1411657479148179
0.8619929960085042 0.14486114922781768 0.5640000104904175 0.18733409988362285
0.9471764998584369 0.2912416658685776 0.5640000104904175 0.13293178947273274
1.0189480926791439 0.4197582192735809 0.5640000104904175 0.10376746111280333
0.9278733583142728 0.224933127164068 0.5640000104904174 0.12504113947935058
0.9880652039148121 0.3815678651033644 0.5640000104904175 0.07289750554701241
0.9414415619191635 0.2623235180776999 0.5640000104904175 0.10147298938144682
0.9966408722085414 0.37102430688915927 0.5640000104904175 0.15278635712951985
0.9090366726739294 0.2193972594244455 0.5640000104904175 0.13357290828425863
0.8784828523459189 0.14123583132877335 0.5640000104904175 0.1939509268106552
0.903028890623305 0.2051126199821662 0.5640000104904175 0.16110471710854754
1.0282747797541179 0.45466589824039944 0.5640000104904175 0.07680441742490501
0.8846431222512215 0.16459376956829352 0.5640000104904175 0.17539049507098126
0.9732343160506317 0.32298580116287806 0.5640000104904175 0.17050536247244405
0.8504282772808416 0.13796844957843368 0.5640000104904175 0.1634447691505545
0.8834279865808983 0.17828286149115796 0.5640000104904175 0.12434456061052851
0.8769128436941782 0.1302736173043823 0.5640000104904175 0.19080027123323612
0.9643200885497305 0.3372465999088387 0.5640000104904175 0.09006226388545133
0.953464161309717 0.3025040217602959 0.5640000104904175 0.12635714404980838
0.9588489301737362 0.325146466333654 0.5640000104904175 0.10106662005451397
0.899758738120573 0.17261543649972375 0.5640000104904175 0.15163173267596533
1.0040561127258958 0.4047017591790873 0.5640000104904175 0.07117999827144436
1.05468944881526 0.49617047071557985 0.5640000104904175 0.08462305166379668
0.9755884117784139 0.3538061767846168 0.5640000104904175 0.10095036992345481
0.925691913298107 0.26716771137811507 0.5640000104904175 0.11480142305707466
0.9875621207399948 0.3635640282323514 0.5640000104904175 0.16085078287724183
0.9307747349630624 0.2807775379646521 0.5640000104904175 0.08264897894609262
0.9151711276369431 0.2478478310331666 0.5640000104904175 0.13698870764528515
0.9785762736017746 0.3391561211722713 0.5640000104904175 0.13960141962814201
0.9569883660038965 0.31369657389484856 0.5640000104904175 0.14245029676121782
0.9360209105219615 0.25172968940215573 0.5640000104904175 0.1813858417033572
0.36311304600673927 0.12779229879379272 0.6006057865039873 0.256533985639548
0.36900063865864585 0.12779229879379272 0.5911001293154816 0.18124438518538372
0.494699397332398 0.12779229879379272 0.6117132662542927 0.27004016721326385
0.5821642599911866 0.12779229879379272 0.6123522475509255 0.2184845299917529
0.6111043791752715 0.12779229879379272 0.6043305187693699 0.2795806923561245
0.7453754515621794 0.12779229879379272 0.6114093227398224 0.2842857862210457
0.4118996525681493 0.12779229879379272 0.5973370233403448 0.18127780199445065
0.7735095716842316 0.12779229879379272 0.6065811545031833 0.27782847240996467
0.37182088067016333 0.12779229879379272 0.5797740572198091 0.10905126098654097
0.4414157462034623 0.12779229879379272 0.5916976055386953 0.17580595668301824
0.4006087958486 0.12779229879379272 0.601477052391312 0.20430451988317105
0.512210418287803 0.12779229879379272 0.5865038186851924 0.12472703676662783
0.5592520968641949 0.12779229879379272 0.6057595761905847 0.2642795682124536
0.5634558006939253 0.12779229879379272 0.5905917806378951 0.15978832222081352
0.38644034481213085 0.12779229879379272 0.5736323783510683 0.07784282751965778
0.5467907754925212 0.12779229879379272 0.6000471196484662 0.21194614388419275
0.6651572534125412 0.12779229879379272 0.6038537246119792 0.25203616153947733
0.5055891416777694 0.12779229879379272 0.5969511912603127 0.23090086864532777
0.6513193227254467 0.12779229879379272 0.603149708368417 0.1959066518003965
0.5804813804431744 0.12779229879379272 0.5958954588208543 0.20403153378291672
0.41254849904309604 0.12779229879379272 0.5851369549154846 0.1031178891837555
0.3795577283970895 0.12779229879379272 0.5985085318720863 0.23668605975444298
0.530727766055612 0.12779229879379272 0.6052397263198455 0.21017837376844611
0.4258713084710604 0.12779229879379272 0.5744106636103536 0.08812650911312817
0.5203688381857274 0.12779229879379272 0.5987426834231876 0.20494715908323674
0.4781689080284808 0.12779229879379272 0.6017902149346777 0.2673194943173908
0.6345476885379818 0.12779229879379272 0.6038018929578127 0.24274086007872406
0.7188008646276073 0.12779229879379272 0.6046326724763272 0.2671043778901457
0.49190396707579276 0.12779229879379272 0.5908335356266716 0.11794580239509156
0.5018435611391268 0.12779229879379275 0.5807187215898139 0.08497357275153947
0.5912871228501991 0.12779229879379272 0.6032967622470559 0.21973627576084678
0.570103995230763 0.12779229879379272 0.6072001489956806 0.2859553836460481
0.4498432584862677 0.12779229879379272 0.5816683053785318 0.09495624922472705
0.7042092592701938 0.12779229879379272 0.6019893328023639 0.168284387687763
