x y z curv
0.4612963303706552 0.661637787507965 0.1766174944917345 0.0016719948664208175
0.46283946958074706 0.6645779932937446 0.3462280729736447 0.0012718404902625122
0.46260951291766794 0.6641398475277358 0.5925558180084539 0.002124646668919503
0.46502787337501184 0.6687476478883785 0.6434640734227067 0.0019005427386318667
0.46282012417743557 0.6645411337114251 0.28399959712937856 0.0021125797600923895
0.46551549017131255 0.6696767239667717 0.39025450765778413 0.0011865850045366475
0.4681920745496259 0.6747765288474834 0.5678827575833632 0.0018690120074039646
0.4603538757240964 0.6598420904078426 0.49623772081246914 0.0017752974078158595
0.46060961604767514 0.6603293628289734 0.5241046479756597 0.001647557636332099
0.46251688575520317 0.6639633612345885 0.3077581873224393 0.0017829197509747505
0.46255098686981255 0.6640283354727003 0.5634366604385335 0.0020954083116329716
0.46094949791693135 0.6609769535530852 0.24270167320456 0.0016282952576933526
0.46183447429252017 0.6626631349700097 0.3253572732053743 0.0022666248671778344
0.46091063677688027 0.6609029098452506 0.6806854971208182 0.04608915790618228
0.4674552601241758 0.673372646409278 0.47089738418135213 0.0020708028855496528
0.4621421598725975 0.6632493807972352 0.6532785454339431 0.0021604839311702515
0.467115269840467 0.6727248491187081 0.4420130134862856 0.0020289462555089736
0.47066652957788924 0.6794912084714417 0.029999967832590048 0.22808031227588807
0.46737801881285324 0.6732254754029509 0.09177541098287614 0.0020229395342067254
0.4704968534007918 0.6791679175626578 0.06936344517346897 0.0018911752693767632
0.4679179539935906 0.6742542358232473 0.1809776140476127 0.002134772228770515
0.46433540221844705 0.6674282544806404 0.15216990447950401 0.001816936117689749
0.46377989827911276 0.6663698302725246 0.2228574761681336 0.0024681969941113017
0.46688667982184057 0.6722893072758584 0.37679672413001375 0.001671798186473565
0.4692885166629894 0.6768656245197343 0.1669009783261876 0.0020440304319967392
0.46445122500808234 0.6676489363439382 0.07196686844735856 0.002499532044316255
0.4666167518240484 0.6717750025030536 0.10398183226592018 0.001964558952959612
0.468141915854666 0.6746809594496198 0.21364667645604757 0.002146949533445132
0.46625415062130127 0.6710841237104759 0.23710980185668923 0.002467625775396288
0.4656595514090086 0.6699512096915918 0.24870869854741448 0.0022481560646510834
0.4664787749771474 0.6715121096150312 0.039960114912195754 0.06455040070794629
0.4687904407513752 0.6759166202643125 0.3066000805155594 0.0019814066361119936
0.46915431166732685 0.6766099182930072 0.3469610837695477 0.0017019860464432422
0.47154263314813827 0.6811604841721318 0.6973537368122082 0.22289890366356044
0.47023563518887035 0.6786702078984748 0.3196842858288362 0.001811085652838972
0.46902861383157973 0.6763704211034427 0.42084743117643786 0.00210506045771363
0.4671332443072068 0.67275909659992 0.12014067963306588 0.0016323923210997007
0.4699163969402197 0.6780619503027981 0.3320606811146468 0.0019214465795050302
0.4612830873815728 0.6616125551032237 0.04691617907656279 0.042115949634190755
0.4670188754146206 0.6725411849056955 0.40834923874701334 0.0018955853068832527
0.46790435947358056 0.6742283336323582 0.19827076012477915 0.002331152988413742
0.4695619458832532 0.6773866003138579 0.4563407247742538 0.002038821922825936
0.469793718704807 0.6778282064803415 0.29187605632706365 0.0020460359795736655
0.4638031462467308 0.6664141255690547 0.1349902981906604 0.001995966314575231
0.4708660656884093 0.6798713927236378 0.528965640033978 0.0013786859910031332
0.47068032402972837 0.679517491600562 0.016761375432223828 0.15746022259277342
0.4688386559810687 0.6760084866989029 0.2627124227806212 0.0026548416515251856
0.4624901199574828 0.6639123632735467 0.059636327616740786 0.0030630500593922094
0.4625501835366275 0.6640268048493689 0.031107115101693544 0.2633922163272824
0.46929063685906053 0.6768696642153852 0.05812098738814122 0.0014709692002994035
0.47053920704250884 0.679248615675706 0.13638634665938662 0.0023329143877921133
0.47284407213034807 0.6829084782521381 0.6475006104282786 0.002270745621826678
0.47223463643587793 0.6820974663322624 0.682075716835548 0.03008514472598171
0.47283783175913774 0.682900173823169 0.6355591199903766 0.0021953722181083193
0.47352899788295505 0.6838199492319877 0.1562154611425682 0.001443704811598344
0.47425501953799554 0.6847861089460779 0.6110768555809815 0.0018791284253396007
0.4774969239058553 0.6891003017465454 0.3233624610263231 0.0012393298356691473
0.48191867729433163 0.6949845890263091 0.6587927741559676 0.0017760935049401867
0.4744424362011813 0.685035515321855 0.37694802433636077 0.001305386938596789
0.4748850986624409 0.6856245922922728 0.539376185966123 0.002164991614085449
0.4799608675936587 0.6923792165177718 0.5206129436794291 0.0021870862322616253
0.47270917653789873 0.6827289647539828 0.6222161077701365 0.0019515466796133456
0.4842031819477792 0.6980247137216112 0.6757636620590919 0.0015296671377578541
0.47508840073929204 0.6858951383222442 0.2548090747095021 0.0014335846163493315
0.4738963335298909 0.6843087843805742 0.5128633964845726 0.0017297688769824383
0.472071221924135 0.68188000103099 0.6599449059718346 0.0020321499299872487
0.47172718446536754 0.6814221701515785 0.2415112763453064 0.002434463032003619
0.4823279522517131 0.6955292352817791 0.5328607046990699 0.0018487204872353338
0.4824744193069924 0.6957241476060464 0.5760402482749161 0.0018281422358944306
0.47208901729998437 0.6819036823841884 0.7109556841771358 0.31182252340690486
0.4806662485029906 0.6933179083776542 0.5497683142394313 0.00237394656210183
0.4728896988564714 0.6829691964199229 0.5504185659541379 0.002314609836326491
0.4780986457879136 0.689901048442591 0.6693333814054327 0.00233120678154979
0.47590028532957995 0.6869755608939141 0.3609346744232605 0.0011783079271806063
0.4791364998744982 0.6912821819123717 0.3891832893223761 0.0013443036033694731
0.47202856150330097 0.6818232303001037 0.27716412848109206 0.002503267653493285
0.4780190183869358 0.6897950835771792 0.4930143752450554 0.0021041139669135444
0.4803829740899413 0.6929409384566872 0.705547986843766 0.22550297755137538
0.47489681674181894 0.685640186229648 0.4333710261956767 0.0023014249801393714
0.48146272165742393 0.6943778220452774 0.6071833648925415 0.0019866082980713024
0.4726653894049447 0.6826706946410157 0.1011875285273088 0.0017198223125916966
0.47836957139334524 0.6902615850790209 0.6897495419185722 0.09891223488246284
0.4766952624360697 0.6880334836825553 0.4648045128659178 0.002079284304625944
0.48021849018623486 0.6927220500526374 0.6230940664505163 0.00155735787495512
0.47661531619423114 0.6879270945168589 0.5955630128740268 0.0023398137310267735
0.4730051997585284 0.683122900262961 0.11462060577626895 0.003068636101465984
0.47426865714193 0.6848042573076685 0.5718905432977002 0.002022941929425985
0.4716610595470167 0.6813341738338866 0.48500052638211116 0.0021079910911931295
0.47940417058463447 0.6916383870682099 0.6431561489637909 0.001766727232703845
0.47334539700425304 0.6835756207450315 0.19274639685705294 0.0011775307493744863
0.4815071049389425 0.6944368854881989 0.5883538763266499 0.002107217946215522
0.47680205284984967 0.6881755959665745 0.2981283155372238 0.0021212190724062504
0.47606801267108745 0.6871987655313941 0.3378148881941397 0.0008438011123295898
0.47836142840648865 0.6902507487275173 0.5612662733397583 0.0014975179911981672
0.4749179980293076 0.6856683734145921 0.4502570183972899 0.0016750818223780703
0.4745227431024704 0.6851423844382929 0.22724389135730366 0.0019169290283430735
0.47425280441457796 0.6847831611510735 0.40719720904877743 0.0020005214301673617
0.484623352334736 0.6985838591659831 0.25603549679710497 0.0016535187397678647
0.4735318751748523 0.6838237782135306 0.07918315537593273 0.0018653071305044376
0.47671693996535125 0.6880623312456375 0.17849754700243423 0.0012534243940843163
0.48401170047036296 0.6977698980584837 0.08418364823236245 0.0020811481651397488
0.4859961646187694 0.7004107412081823 0.6899062352968054 0.11058017341061771
0.48211103020937085 0.6952405643627311 0.43314348774992173 0.002060582713171875
0.4860925503561828 0.7005390073774559 0.0965418869626696 0.0021811725017402248
0.4836372743223888 0.6972716271631693 0.48477067615461034 0.0018934434622171748
0.48230418270735287 0.6954976037511991 0.19127104378051732 0.0018029708278160996
0.48041481182548595 0.6929833068037712 0.41451117585354186 0.001535045887062338
0.4817609419911134 0.6947746813818176 0.3148501508936044 0.0026761443735794756
0.4767871956002805 0.6881558245508099 0.06245050877623211 0.0019247031057953283
0.484054949339332 0.6978274518719102 0.12443075035141496 0.0024811914889265392
0.48352569774639653 0.6971231456516174 0.36104274073041837 0.0013039914782593234
0.4852904991680023 0.6994716706922781 0.49618602756649755 0.0022944269901671414
0.48363985641777774 0.6972750633093577 0.23693402961938947 0.0021572183425018114
0.48317417468303603 0.6966553532379414 0.33092209523915245 0.0014727980189072464
0.4804082873053037 0.692974624241054 0.03970733698128287 0.07940785768686755
0.4818556335498132 0.6949006930078414 0.4457852394920723 0.002463386790213102
0.4824680279479812 0.6957156422487307 0.11191577550532338 0.0011847779850729467
0.48392293440677087 0.6976517718372811 0.46709131320976705 0.0017663054205085602
0.48228859155878234 0.6954768556928724 0.15548070365572614 0.001654130710858036
0.4851225757907692 0.699248205178529 0.6350456347609803 0.0023903572703460854
0.4775716822962122 0.6891997871331749 0.09280117185681627 0.002489875798922992
0.4774425044854169 0.6890278826233324 0.12964668923624284 0.002334459034246374
0.47752113415090225 0.689132519743447 0.14186299137009462 0.001882232602455003
0.47975121475497945 0.6921002191555441 0.2755153120784382 0.0018343281870034475
0.48232188028702716 0.695521154961276 0.17191304474191663 0.0016185814059832611
0.4834424536891342 0.6970123678889901 0.05497948787690639 0.0021923027995799467
0.48112236090308036 0.6939248839726716 0.3492630529981875 0.0020517003025574227
0.48613822727675005 0.7005997923419393 0.6149663109592733 0.0010778927825113476
0.47742591026880893 0.6890057997233773 0.21111187492054284 0.001347812145183209
0.4779152131281013 0.6896569438144046 0.2860553031526527 0.002260367606986077
0.47674859007796644 0.6881044499118549 0.021714652077765788 0.2271135825803102
0.4920561541995149 0.7063296306098084 0.4232467362618945 0.002361824226657303
0.48662907995299853 0.7011168575808283 0.4547551156698067 0.0020163223441814703
0.49288269720006184 0.7071235355510038 0.5996876630376492 0.0017795026743802063
0.49302957007427944 0.7072646087927973 0.4681011487461624 0.00230305938704556
0.4980845454776499 0.7121199762058673 0.5423048280871805 0.0024708704508227875
0.4999082490284662 0.7138716663893308 0.6496380143007785 0.0018974472133077114
0.4951338620227451 0.7092858076590377 0.6740014863052749 0.0015435927264366284
0.49764609555534944 0.7116988395444344 0.5647411213911281 0.0017066328265286244
0.49770023200660946 0.7117508382863337 0.4891030648966794 0.001859901037255773
0.49006535110835775 0.7044174392175024 0.1973544715340107 0.0022621898988372537
0.49551448041173385 0.7096513964058155 0.44984070372630386 0.0017897852678516743
0.4895833919290884 0.7039545113678647 0.5489764855123334 0.002267353182545609
0.4889240065226603 0.7033211633968952 0.22211100728948746 0.0012433882137342805
0.4980697807092758 0.7121057944602593 0.5768958315290621 0.00234599260495967
0.4880432928557364 0.7024752268497506 0.14543380351033083 0.0016385964520746383
0.48728711229641863 0.7017489059177714 0.37866745223703013 0.001859012011534357
0.4934233841814326 0.7076428721927347 0.5002208612434558 0.001177943880990947
0.48959394938938744 0.703964651941183 0.35456693611274376 0.0018977011147282119
0.49107644420787483 0.7053886068484472 0.584581267196147 0.001489854131732328
0.48835685748600455 0.7027764096184503 0.277178790690253 0.001782091368435873
0.49159055598252405 0.7058824176700869 0.3249047730904944 0.0023922982510201298
0.4874433532323493 0.7018989773005915 0.5160760252200645 0.0023342159122876315
0.4994334819857788 0.713415646677281 0.6847737812209245 0.06487473363238204
0.4882234041518537 0.7026482260135667 0.30298023778286876 0.001501473502213711
0.49293750161193434 0.7071761758774672 0.6316725602792957 0.002095454881673127
0.4912940276069152 0.7055975984381235 0.6636070316761258 0.001680442022239382
0.49550894960405867 0.7096460839955245 0.6107010384266948 0.0021523764041858147
0.4879540692565406 0.7023895264612336 0.34160688595678906 0.0019300697407690236
0.4889771225464356 0.7033721820053692 0.5687611165597329 0.0022274190623805482
0.4909614317970814 0.7052781359822402 0.39285701308582516 0.0014474167257048096
0.49113160282314555 0.7054415873917268 0.6521824060311745 0.0014631590132311416
0.48822293367353925 0.702647774113232 0.40976829244646773 0.0018306781108306904
0.4944105684221669 0.708591075064298 0.7039156020612115 0.25614487361247423
0.48951282667240353 0.7038867325518541 0.18227948181687825 0.0019384818299986784
0.4911702374349058 0.7054786964219373 0.533937873577328 0.001634899642139856
0.49945507139886836 0.71343638357992 0.05921308457043045 0.001587522794498468
0.49319928340467956 0.7074276205798455 0.2595821939220144 0.0021595943504311137
0.5029739231597694 0.7168162849262076 0.26182838320332635 0.0025169812500150527
0.4937165850781701 0.7079244953394176 0.1567512557761911 0.0017880518717892596
0.5028424610619342 0.716690013928834 0.6671251648848473 0.0025192084578140434
0.500651093509528 0.7145851778505184 0.3946120162610119 0.002070826342482498
0.49335397176869594 0.707576200697827 0.09203446661628603 0.001981320279255882
0.4944117775188251 0.7085922364168358 0.2397255390085102 0.0018300302010681201
0.49840209447958095 0.7124249860136304 0.3086273199378652 0.0018177811305452442
0.49905333061426427 0.7130505065066572 0.43000694049986143 0.0019490792173284103
0.5024343780875006 0.7162980451025224 0.04671134949418526 0.03483088668759533
0.49751765748589916 0.7115754731643348 0.14252042098743 0.002255306179824634
0.5037082461332562 0.717521611372259 0.15539860319094448 0.0019373402022218001
0.5020815889523937 0.7159591867038958 0.629759301761722 0.0021354691052031735
0.5021370715193701 0.7160124784068604 0.58862057693733 0.0022275559459839153
0.49848560962355903 0.7125052033591586 0.2200883013791947 0.002322188010675933
0.5023373923227071 0.716204889056383 0.5188329733790957 0.0015205733853201231
0.4910416704360993 0.7053552062035705 0.04998232369542746 0.012720327384665202
0.496886448278543 0.7109691887867325 0.03807739248256298 0.12756585995055034
0.49800866640753594 0.7120470934052666 0.12430652961136322 0.0016208602082012774
0.4872161110058494 0.7016807082857341 0.03558062921283937 0.14925900201326062
0.503647854517405 0.7174636044661461 0.16694823871542505 0.0020732751013578647
0.48786392053904293 0.7023029374849598 0.07409619419150251 0.0013244339111224226
0.5016089844391229 0.7155052441285322 0.37450972315937814 0.0011641194061689688
0.5036387138056325 0.7174548246975951 0.6144610729967102 0.002469976757106099
0.5032216158519647 0.7170541968704159 0.08771197902565925 0.0020924118167151666
0.4997795476174047 0.7137480470663036 0.07522267039264545 0.0023333439154771558
0.4898223697421251 0.7041840525611 0.0629367634312122 0.0019300587310888736
0.4951944093970211 0.7093439641730754 0.17168350765690765 0.001978166376078944
0.4980705732275579 0.7121065556840308 0.29429451404146323 0.001832936779752811
0.4928952270711989 0.7071355706497242 0.13317855539619816 0.0015316014964902136
0.5036288600181524 0.717445360010864 0.703601669847638 0.24247438554478914
0.49764144727728454 0.7116943748149269 0.27418258186003763 0.0022326593420579693
0.4939932531403617 0.708190238490711 0.025193292937528717 0.2907041596023454
0.49890695253003703 0.7129099085168686 0.10997269541207542 0.0021147573125527485
0.5032218791543365 0.7170544497756536 0.5055917301882176 0.0023913832554539466
0.5003151753690327 0.7142625242542748 0.40954772821596847 0.0016920860948699702
0.5059653684801196 0.7191308436024975 0.5354654248146663 0.0026163192813594255
0.5065400199610337 0.7195274967233766 0.30028211172362373 0.001818356317864186
0.5143425608133437 0.7249131996801197 0.5648573440071768 0.0020380476648307203
0.5078413418865865 0.7204257340379622 0.19213547129030678 0.0021525126717200555
0.5089549384614153 0.7211943939500598 0.21343362866259116 0.0020583939485836196
0.5048452509514132 0.71835768260271 0.24911493353276842 0.0018816622808127972
0.5187818111044831 0.7279773917005476 0.6176141862402534 0.0023432459090549163
0.5039291222319222 0.7177253248558282 0.028761520381505992 0.25657610816980203
0.5057279591149844 0.7189669718145799 0.4681258836654954 0.0012790024626348402
0.5159992671844863 0.7260567410688041 0.6774572171173844 0.007042950150481265
0.5060807383392869 0.7192104776349745 0.6017031804780474 0.002852490335651944
0.5132742106606465 0.7241757711058733 0.3755923974320788 0.002133365998553689
0.504696502597386 0.718255009067863 0.35264397209092574 0.0018885051516047704
0.5106696527813162 0.7223779753189322 0.4445252646140381 0.0029191242571114553
0.505683768083525 0.7189364689600231 0.13926063971894398 0.00211208725443381
0.5166263925009681 0.726489614248856 0.5901109871229241 0.0014353432238627334
0.5120329413197865 0.7233189850812022 0.48846715001110985 0.002648650783233021
0.5087647257761229 0.7210630996651621 0.22902884763950257 0.0019250862133739842
0.5127043941953803 0.7237824553540081 0.6619938886726718 0.002046905856017385
0.506090747847133 0.7192173866966535 0.3130137916015997 0.002132951929202781
0.5094453374401235 0.7215328917906487 0.684843263344273 0.06289425025532779
0.5113849403103464 0.7228717024564043 0.4038909108168922 0.001987065464655445
0.5171792256217171 0.7268712072490544 0.5391105658793911 0.002209799750037994
0.5119898487432577 0.7232892404350391 0.525965169180827 0.0021049538792882547
0.5065815288952352 0.7195561482605991 0.5721360545130764 0.002449284949153887
0.5119684586087786 0.7232744758970906 0.5008412526802282 0.0019106826953357867
0.5181430531231231 0.7275364890748557 0.5770040899103995 0.0027403118531375654
0.508345838844601 0.7207739630072015 0.3243845413475599 0.0028760390765694044
0.5040474669035947 0.7178070122523066 0.3366459968068215 0.0019464003207345136
0.5191773524679897 0.7282504140827786 0.7044257751518781 0.2838855748183644
0.512285208618136 0.7234931125558707 0.6451183838708876 0.002368739428235631
0.5081102220045365 0.7206113285095149 0.5520132376169117 0.002155137738035601
0.5093899633301597 0.7214946698173961 0.4315374124176841 0.002678484019391055
0.5238736360563919 0.7314920233080957 0.28313211732148363 0.0015610764865098524
0.521314260166838 0.72972541438458 0.41839326045607006 0.0020784696254286606
0.5152286586662909 0.7255248286247049 0.019563004651962528 0.20334396037608335
0.5109900907528651 0.7225991575932055 0.03914507945087818 0.11500637089224747
0.519776076574814 0.7286636833310187 0.4612446910091652 0.0020638088276278125
0.5151655062774249 0.7254812376953039 0.2729464354310336 0.0023903119401214494
0.5203285272648461 0.7290450123584573 0.03415733072660981 0.1874388839119224
0.517448583837043 0.7270571317272677 0.2557532616379847 0.0018483544309751388
0.5198311565423446 0.7287017022724895 0.4748649386323784 0.001709294988446203
0.509643120583668 0.721669411583514 0.0682155490047818 0.0018819008899346663
0.5174031146986864 0.727025746659567 0.3187262318720103 0.0018276463935670134
0.5208756336528574 0.7294226524820195 0.3318494882166029 0.00241968523781172
0.5205623971514854 0.7292064410217362 0.21981459937592052 0.0017157502217268466
0.5137770963348547 0.7245228878866441 0.15200207313917563 0.0023118393255216834
0.5125304978272729 0.7236624234052351 0.2883996220185945 0.0018689922728068289
0.518107980004945 0.7275122798589284 0.4377044954764404 0.0021629627469573797
0.521151274705469 0.7296129136879715 0.11155818350370393 0.0018885103077539054
0.5223589482629284 0.7304465102268815 0.3668532216539447 0.0012475060727398983
0.5234420458754538 0.7311941182336364 0.5142172746214674 0.0015690445351489648
0.5235349070850419 0.7312582156732413 0.3039793830486308 0.001721624877885078
0.5162850060907639 0.7262539723171276 0.052255482490815956 0.015747967009570398
0.5138551754244829 0.7245767819695883 0.16380851516927059 0.002586366167337095
0.5236110406837587 0.7313107668813001 0.6534486555428249 0.0017871077915561967
0.5149383250394504 0.7253244258710232 0.0939130577328354 0.0012593437634270568
0.5218092839103815 0.7300671044685827 0.4014373367041401 0.0012454872360293076
0.5165018488813605 0.726403648029254 0.35080773556582 0.002420674516821578
0.5159977827133657 0.7260557164127781 0.39237548821390694 0.001935201405574864
0.520887516805136 0.72943085482656 0.08294594424920196 0.002500249908180329
0.5116781600542458 0.7230740973520654 0.17734866152202958 0.0017790019246426581
0.5179284533236596 0.7273883615871097 0.2043344035562106 0.002548405709875192
0.5223316699784999 0.7304276813940842 0.6281221635377234 0.0022158430335265313
0.5123537723973564 0.7235404386968627 0.12394856244748102 0.001750464247848923
0.5229455863385196 0.7308514370934053 0.16694436871518611 0.0016831289099939139
0.5378103454664918 0.738137386101326 0.5894992254272401 0.001412048554760825
0.5320123587323357 0.735386206536372 0.4785235646006042 0.0021807985107305254
0.5327248489548151 0.7357242874306877 0.39618642028060425 0.002065109364216457
0.525742300462821 0.7324110261896253 0.34484296902942707 0.0010875200118364305
0.5337202654605554 0.7361966185474663 0.5660699567859939 0.001680886570607958
0.5325137716167601 0.7356241299647073 0.6423537497023077 0.002335236067128166
0.526423436698345 0.7327342294286194 0.10096524926104618 0.00211877313953357
0.527409821591345 0.7332022749908511 0.1421460338375165 0.001964002948218923
0.5346806660025658 0.7366523343789262 0.36348175727049653 0.0016740214107446893
0.5443112354793642 0.74122209749814 0.7037822211109002 0.2432361600709363
0.5252393350697897 0.7321723660866218 0.5527500253873956 0.0024210809679198224
0.5265015557389359 0.7327712973830596 0.5995897471869528 0.001585909149943326
0.5267882434280932 0.732907332415235 0.49937170608265946 0.002257120752878057
0.5250370384512828 0.7320763751248598 0.3841582224228075 0.002098236589660957
0.5404049812422116 0.7393685563767952 0.6005720680645716 0.0023922371788984383
0.529865151259851 0.7343673436808887 0.4651603035306403 0.0015272181946292286
0.5260752162394376 0.7325689967272403 0.5247920690099921 0.002340623341154959
0.5399196768347988 0.7391382765176518 0.5779390516340492 0.00256098075756689
0.5372471298091177 0.7378701368856453 0.5442582071043196 0.0016624105253915807
0.5276391050662149 0.7333110713782123 0.23365601451472115 0.0014443508565641222
0.5383937537714383 0.7384142168496851 0.6938199041457548 0.16100466914299424
0.5446211705057528 0.7413691635316029 0.6816633238747879 0.04033070869751373
0.5357748464492829 0.7371715295795027 0.531917784935159 0.002439329004365817
0.5254777654134659 0.7322855027182258 0.06356466680454065 0.002016013090930536
0.5331337800957469 0.7359183277157022 0.3355042301428714 0.0021155818845218274
0.536291556479945 0.7374167115956998 0.6631449799573846 0.002324886170178304
0.5373639285964205 0.7379255586124571 0.49128167131867156 0.0017336042002487264
0.5267422806867874 0.7328855228181408 0.19064207536584982 0.0015238669213065259
0.5355567050272455 0.7370680201632007 0.5043855118063763 0.0018899244531459386
0.5278571255624807 0.7334145234145086 0.43155375788469025 0.0020071046520564032
0.5366227733607689 0.7375738759970467 0.6150429762303702 0.0023256786091505476
0.5288247877291118 0.7338736849305106 0.5803751798144613 0.002000552633917078
0.5276257366375088 0.7333047279784153 0.6730334272457151 0.0021590159620429104
0.524208875006947 0.7316834065913038 0.6928616285042802 0.13029287373635695
0.5383940008353312 0.7384143340829877 0.0634412980767466 0.001757358684799103
0.5424356101700177 0.740332102011916 0.35434966618472064 0.0020828750660022576
0.5417732087265396 0.7400177885443883 0.29036149637734454 0.0019150437052291556
0.538908666295513 0.7386585459381992 0.45662008123708814 0.0016366133556618544
0.5393870052278102 0.7388855206375213 0.19907783853482475 0.0024499560314831695
0.5441726117173413 0.7411563196896038 0.47959014588322446 0.0024778758147962093
0.5347310083174311 0.736676222110006 0.2681242697157217 0.0019175846200979445
0.5458999183341056 0.7419759370644515 0.5165506957211073 0.0024745867709053456
0.5365031904135147 0.7375171331695984 0.24086302448728852 0.002702667315289583
0.5384566451537153 0.7384440591887013 0.025822317643121425 0.2519030160730332
0.5349129672599917 0.7367625627222542 0.3034222927645391 0.0020247137026255116
0.531644851634643 0.735211822208931 0.1543065980523732 0.0018814047756638285
0.5320135160999909 0.7353867557142829 0.25136603597382334 0.0021545762091169218
0.5426263753442783 0.740422621234052 0.2532953596673548 0.0016854671239893125
0.5342037333588886 0.7364260269720095 0.10858954528763765 0.0012300807967131648
0.5413203843469526 0.73980292065373 0.4323321037939729 0.0023510733078753454
0.5423257076483574 0.7402799526046145 0.3777243232131568 0.0022679893720334546
0.5387024239593794 0.7385606827097002 0.413082634417358 0.0022771056815776634
0.5420110399627698 0.7401306408959072 0.4446696804569533 0.002408364491898832
0.5418291391617891 0.7400443278721881 0.2097579272727923 0.0023241797635525896
0.5343991176767428 0.7365187380055527 0.09000292555352457 0.0023098441752434345
0.5455327554184456 0.7418017160534544 0.39972998312642716 0.00270836465847937
0.543116530736372 0.7406552029145923 0.046682107532121916 0.040256718715665545
0.5440294227634991 0.7410883756701017 0.14307662114745676 0.0021794391470822223
0.5303375383436029 0.7345914941922913 0.07799687748082325 0.0028207366631227597
0.5457019679351249 0.7418820084099856 0.33877716440937133 0.002415022199871975
0.5453714714845707 0.7417251858571333 0.18537211183342825 0.0025898897211337622
0.5312932335545435 0.7350449773158685 0.21217877443088864 0.0017890395306065301
0.5320616374941836 0.7354095896051505 0.041685521278649024 0.0868684533794182
0.5369529377009552 0.7377305409615327 0.12748573326709986 0.0022992931656620123
0.5345488530159008 0.7365897883242463 0.17755356646191953 0.0015827225515487706
0.5428254956698991 0.7405171050257428 0.3140965270482067 0.0018248642327908064
0.5422836772618291 0.740260008933505 0.3264946955936746 0.0024696755203692028
0.547623199333722 0.7425151562764676 0.23569878023470392 0.0014055011635181688
0.5477236986898122 0.7425442662700067 0.15765136207228742 0.002901303270505563
0.5568003260079684 0.7451733434389222 0.6972999289947781 0.13879935238291038
0.5512660797787224 0.7435703294670515 0.468967338173371 0.0023072273377738764
0.5465959303595215 0.7422176041889202 0.6442609596468686 0.0019986243203994353
0.5566858613312962 0.7451401883409394 0.33658847803361364 0.002654686034339458
0.5571199420407176 0.7452659213519581 0.5971998067524392 0.0017420387325592116
0.5543624924465991 0.7444672163354119 0.2946891903086091 0.0017304417530052084
0.5501265136731195 0.7432402501186665 0.6584152068011903 0.0011704800184321852
0.5656579177425297 0.7477389761772333 0.6910840463383555 0.1236851253444819
0.5524101040138916 0.7439017001284153 0.6324524670932076 0.002297835602211148
0.5537001973947786 0.7442753802338741 0.5758609139441596 0.0022860713772401087
0.5507273694962683 0.7434142901305649 0.45216029619879894 0.0025745057090363994
0.5493485695933885 0.7430149158676256 0.2824073845383395 0.0021116303143653365
0.5597711683656796 0.7460338584233241 0.5631561703570261 0.0021557390959889835
0.560160351547499 0.7461465867068574 0.653172499829132 0.002999974303575691
0.5510865451272111 0.7435183266209753 0.4221868791684789 0.002535684780431963
0.5505039138013442 0.7433495653990985 0.22119719303951568 0.0010238070034036607
0.5493207273826771 0.7430068512729313 0.6086058496970868 0.0016257170577108537
0.5584557859876547 0.7456528532705025 0.39511941656876554 0.002217196684701699
0.5484040276624143 0.7427413259604096 0.5389018284095072 0.0016503088057501485
0.5542212376635343 0.7444263013884674 0.6182493522886123 0.0026213750150434743
0.5645584975763794 0.7474205252420397 0.6071357068070115 0.0015612245780596446
0.5602647167613483 0.7461768164597539 0.5412121054105449 0.0021586594094017073
0.5476501538458456 0.7425229637461299 0.5544211089095167 0.002819319225544351
0.5658667405949638 0.7477994624541772 0.6187950826270672 0.0014945662988408168
0.5542771935224816 0.7444425092006943 0.497314295205207 0.0012961074077247714
0.5506381766335383 0.7433884551027719 0.3646028513322023 0.0018767375984317346
0.5558020163410884 0.7448841795170488 0.4383162312279651 0.0020629827448730544
0.5624178942470269 0.7468004919252977 0.6734728612222052 0.0024499338758323984
0.5598083368191691 0.7460446243971874 0.5275665489520994 0.0018886375318577465
0.566065357235745 0.7478569924658589 0.6385415189539626 0.002489666656054188
0.5493310878186972 0.7430098522098261 0.3053376738891894 0.0022391412606239357
0.5671761265965172 0.7481787307353696 0.6621619528358283 0.001893205009547573
0.5472207401283151 0.7423985825458002 0.6691435693490103 0.0021561937787593763
0.5478140142792587 0.7425704264995598 0.1229509528254395 0.0014793554024141945
0.5540769941870474 0.7443845207559149 0.3490742451075106 0.001735352795573668
0.5503263573299921 0.743298135539894 0.19525041511052277 0.002121187655644904
0.5592573247691369 0.7458850218102618 0.5127390639113156 0.00216851328283758
0.5601766114702654 0.7461512964509304 0.2723517558906393 0.0015139211111172442
0.5604323132350301 0.7462253613704461 0.10187437924824476 0.002417887184554111
0.5615748176909593 0.7465562918223839 0.41634648143538483 0.0022761492912886797
0.5672273732772497 0.7481935745174897 0.5517527383808687 0.0014384771033350665
0.5539420937805988 0.7443454463766065 0.11162149340403883 0.002032485036526224
0.5508055421971809 0.7434369331295555 0.08311891236047252 0.0011487979445265564
0.567844463546415 0.7483723168940306 0.4999142476849166 0.002099495290984511
0.5607115529218643 0.746306244132245 0.14448900118940974 0.002269208113819571
0.5647681997112735 0.7474812662062544 0.4492008892135114 0.0009328484066298228
0.5601358897530097 0.7461395012616643 0.3776264634767519 0.002538614850004223
0.56047031819668 0.7462363696418532 0.3592969733923264 0.0018789454920771006
0.5676737480398617 0.748322868544448 0.48234014277757603 0.002664646886040653
0.5543705831211891 0.7444695598278899 0.24770941756889325 0.0014071954487806355
0.5664264973712184 0.7479615979819467 0.34759928107666505 0.002337698459322501
0.565742512092737 0.7477634792296286 0.22412026270571467 0.0025638256619837964
0.5693948574325977 0.7488213939604466 0.2022735237870516 0.0014232707917425128
0.5661753160676233 0.7478888424299787 0.07650465085571971 0.0021492268126061726
0.5646740078403785 0.7474539831980854 0.32664859214017183 0.0022156396058547957
0.5554820476858585 0.7447914994656655 0.029814773969911876 0.22660935048619402
0.5625337324256571 0.746834044862975 0.11905788946478973 0.001940512881691607
0.5639586220159296 0.7472467691666951 0.25480553939181777 0.003018682477708826
0.5693186483719098 0.7487993197367844 0.09147908562640833 0.002483953685436916
0.558353263516761 0.7456231572746134 0.04572901317918405 0.0682341710424479
0.5519826331685189 0.7437778816878697 0.06639484349010957 0.0012545955963167107
0.5695217919447796 0.7488581609903385 0.4091639412973479 0.001989095529792707
0.5571925940746445 0.7452869652702526 0.18447112470124125 0.0023216425144973584
0.5626601152811097 0.7468706521035464 0.16673569820047948 0.0019859675787113145
0.5660897753569571 0.7478640652609332 0.24194550177354032 0.0025430687099906087
0.5600417578338944 0.7461122356187401 0.31361765708645545 0.0016486451434480885
0.5656002198817263 0.7477222637880147 0.46277700464071825 0.0017666017475880874
0.5676482221850374 0.7483154748904196 0.2992989825190877 0.0024230303673675553
0.5528565943278013 0.7440310276252151 0.017292940798474578 0.1799254406450643
0.5578618559982176 0.7454808193508065 0.20597134246751217 0.0020001569447810705
0.5612541456353582 0.7464634080285981 0.28569805542934085 0.0017965567693262103
0.5761823025094277 0.7496809707165464 0.61468738404014 0.002188817569024624
0.5880391932674176 0.7511206586256294 0.7052880059995946 0.22859902436981827
0.5775203307401479 0.7498434368389978 0.6367795943595472 0.0013928259566779596
0.5897093909587956 0.7513234574428855 0.6709708813261523 0.0019296235480311653
0.5882299066697851 0.7511438154367271 0.64413389351949 0.002069926067825779
0.5720343001206729 0.7491773117887697 0.21480427421409423 0.00163620110654075
0.5730677411789432 0.7493027943142234 0.6504340316823931 0.0016573592434001535
0.5752606948192672 0.749569067227215 0.7056269710662518 0.20555661101686892
0.5731604389595473 0.7493140498682009 0.2725129873735592 0.0017812065476296838
0.5800500124202497 0.7501505959587879 0.4823667736230006 0.0022526710015167415
0.5754228574874521 0.7495887573498159 0.25417320011800343 0.001916858033532261
0.5756840188960115 0.7496204681018077 0.5447922613513493 0.0014003845227355588
0.5776704360130753 0.7498616629280235 0.3684148980043529 0.00247942197571081
0.5794479724123549 0.7500774950305731 0.32723699450254196 0.0024584832661238526
0.575981841610377 0.7496566303444795 0.5083388561784329 0.0014491007447747478
0.5760150819634464 0.7496606664560862 0.31693479998923146 0.002304823107207051
0.5739041339528674 0.7494043508342623 0.4211012368201476 0.0024339306230697216
0.576645119947225 0.7497371669557553 0.6700665157842102 0.001812460982805956
0.5725191233942079 0.7492361800215295 0.1413579077828555 0.002290055693605769
0.5709787932837019 0.7490491499913676 0.06215070602252708 0.0019776200667951647
0.5762556173815105 0.7496898727581565 0.38304614088135486 0.0015029342657436153
0.5703628689092503 0.7489743631949886 0.1551916722227236 0.0016651267812278416
0.5784825491718162 0.7499602713675638 0.5309132686402513 0.0016344480758570085
0.5792672069123785 0.7500555461141154 0.49443618380794446 0.0017921124757448053
0.5850838923357035 0.7507618199464231 0.4707947916687273 0.002052851707201838
0.5791899549257303 0.7500461660200081 0.5998554085497232 0.0016335657566653743
0.5738435307993511 0.7493969922755007 0.6826623459888304 0.052826181142735296
0.590558477187576 0.751426555228156 0.6268487833909059 0.0024919966025242143
0.5838726480651657 0.7506147481915395 0.4514278740079136 0.0019981570210187856
0.5778236493026954 0.7498802663987882 0.4392870252348213 0.002632132557073152
0.5763760448802354 0.7497044953111828 0.2320837589666631 0.0018433483898109043
0.5715672211709296 0.7491205981080705 0.5197678526549254 0.002519747398522552
0.5713708197782265 0.749096750649561 0.3369969985264002 0.0015436907341934958
0.5874626197792406 0.7510506498942876 0.6832156851875703 0.057921960634488276
0.577139652737548 0.7497972141378881 0.5734404714964929 0.00187851765334802
0.586494158329715 0.7509330573257336 0.55765887260976 0.0024505601293961675
0.5860417841605167 0.7508781291295422 0.4175019810825067 0.0025202476457722384
0.5810300256452493 0.7502695911675294 0.29152136135528606 0.001944109521346115
0.5814013514444623 0.7503146783049898 0.18892221114183338 0.001867826701474157
0.5881494555908856 0.7511340469023002 0.37608624708551835 0.002371163184555514
0.5822204642444158 0.7504141366552721 0.038137311040260496 0.18816859503297564
0.5904968995459734 0.7514190783450597 0.5811014960767142 0.002031077556387429
0.5806444774934504 0.7502227771229504 0.08875110770546596 0.0014720077689292959
0.5910675722337324 0.7514883705891546 0.533433251437403 0.001936493288416164
0.5809121387301848 0.7502552770973637 0.15014070264196513 0.002322776814064547
0.582008930896448 0.7503884518438276 0.3419796205263187 0.002283638305904098
0.5755545259688915 0.7496047448059378 0.1790415460954854 0.001974775286815572
0.5926788635694276 0.7516840168763101 0.5681990717795777 0.0012309734906552916
0.575980682937783 0.7496564896560849 0.04879938816255934 0.04054781550668216
0.5910699933653448 0.7514886645679033 0.200371464512415 0.0023816812099258086
0.5901387118288934 0.7513755864603837 0.2233314086499604 0.0016718074601357097
0.5900145658050159 0.7513605123964335 0.592391679255675 0.0017722197117485533
0.5831218613488787 0.7505235861339816 0.39934246623531566 0.0023963609413703117
0.5768307202865527 0.7497597029282885 0.12414819202038402 0.0021952706910075117
0.576685780452677 0.7497421040374297 0.16786364346594496 0.001884294198359379
0.587265823227376 0.7510267544547451 0.10068164414932501 0.0022323452546886154
0.5850086557119049 0.750752684561792 0.1347421011724519 0.0017141356165655227
0.5792831629896014 0.7500574835336229 0.110423580047308 0.0017078534317291015
0.5892739481182656 0.7512705850832253 0.2120863247089279 0.0011334354348468453
0.5749222744884712 0.7495279755389823 0.026582605493736214 0.2728328642952492
0.5937160866549391 0.7518099586232413 0.2736657916650104 0.0016059952349986495
0.5933391062921505 0.7517641848971148 0.4340608107162934 0.002327532457695493
0.5876164798299459 0.751069331896105 0.17624313120220747 0.0016552449692132435
0.5917246507890069 0.7515681544102806 0.26123898737675594 0.0015767069278840057
0.59122575128634 0.7515075770130105 0.15468299565073615 0.0013099182244901478
0.5801578680405027 0.7501636920086356 0.304214230146323 0.002340602199734659
0.593529689419422 0.7517873258899441 0.47973624074291615 0.0017708353623757049
0.5872754933240776 0.7510279286176504 0.2494455929572568 0.0012318533007650112
0.5826355082440537 0.7504645321459799 0.35740595601377606 0.001992103773028947
0.588280976636092 0.7511500164564134 0.5216597416426785 0.0018004010470193477
0.5938594148599062 0.7518273618268243 0.6950959002550955 0.17317733641128877
0.6013606456863413 0.7515286436737424 0.24137997197851094 0.002518490359231917
0.6098250776829035 0.7511875412266076 0.5122236099087413 0.0021464764993264695
0.5945773752433461 0.7518019981231163 0.03572462314741472 0.13356121724039263
0.6070100695997344 0.7513009813424076 0.5592029378638279 0.001687381129624916
0.602277162063453 0.7514917095972209 0.258558506237649 0.002286652206601376
0.5946009846349268 0.7518010467041378 0.05354946945259789 0.002877993380109343
0.6066696937576523 0.7513146979193412 0.40092724132588237 0.002007403416438805
0.6120407125644972 0.7510982548479852 0.6533657188456046 0.0018512153440506983
0.5954483746821866 0.7517668983030501 0.34154297652871657 0.0027105306011954546
0.5968494940962785 0.7517104355349555 0.1332753845880246 0.0018905831881809725
0.5956233819332606 0.7517598458036464 0.1897247003332751 0.0026718277734158924
0.60288143840311 0.7514673582717822 0.4893973913563586 0.0021046647520769584
0.6034201772833638 0.7514456479963029 0.6362107064121508 0.002358078862334505
0.6064540897196344 0.751323386401334 0.4284177095605637 0.001431743143105704
0.6070986988775823 0.7512974097308012 0.5707347975817426 0.001310699385012453
0.5949429659059662 0.7517872654311033 0.5496243556675745 0.002759610761119395
0.6041626753707033 0.7514157265656991 0.5972180071646306 0.0013827558336327868
0.5984640899415062 0.7516453700238657 0.3695404080411334 0.002023911723471902
0.6054841367424005 0.7513624738834326 0.47517668765371723 0.0019090785902606806
0.6123483185231725 0.7510858588425237 0.6153953620315291 0.002524202821496826
0.6073182524502134 0.7512885620891718 0.5429719176473917 0.001827029506087921
0.598547748497033 0.7516419987240519 0.6178870885985717 0.0021839761700043997
0.594701669537553 0.7517969892710237 0.4551521740824964 0.0015404969735913255
0.6023499868104197 0.7514887748817654 0.33091094007799354 0.002151808011810034
0.6055824946885295 0.7513585102227718 0.4623886695795418 0.0012131344540858668
0.5948961754655471 0.7517891510075645 0.08692873624661036 0.0024245579974842947
0.6007399217010213 0.7515536578117819 0.3559287711131713 0.001661103698858848
0.5956027291429079 0.7517606780765423 0.40654906472707447 0.0026977007268150785
0.6007556904688404 0.7515530223568224 0.6783478291561036 0.01706927672801884
0.5988292807895147 0.7516306534437126 0.6588023096755056 0.002303863864851714
0.6046157466225093 0.7513974685523108 0.7016055883097185 0.24726906711384175
0.5955138193899487 0.7517642609908266 0.5019521296623038 0.002052246071123939
0.5990680767290611 0.7516210303668922 0.41880246924517994 0.002483773483444761
0.6021598471365994 0.7514964371924868 0.5293498871561142 0.0014137463123837376
0.5964159848592581 0.7517279052318783 0.6066143064357475 0.0020208297637008712
0.601905027390224 0.7515067060019122 0.38856551475814116 0.0016887149770686918
0.6000865596466523 0.7515799872093955 0.2923421663468407 0.0016965431281679992
0.5975566615924078 0.7516819378680639 0.3156594855013436 0.0025192396719470717
0.6140825866216397 0.7510159707398588 0.048387839667560835 0.015466736984500315
0.6037692641753065 0.7514315803786348 0.22755170608408234 0.002049305173414297
0.6108900682744699 0.7511446238876643 0.18138878194407998 0.0019765291670943014
0.6071493222501906 0.751295369693586 0.1417928650138712 0.0020594443350167055
0.5989965242562708 0.751623913811827 0.12245968795085602 0.00183892463848426
0.6149500691197506 0.7509810126466198 0.22620771926853858 0.0015633966366052508
0.604099964901239 0.7514182536926941 0.11078413342098611 0.0020748626571220883
0.6140800339131435 0.7510160736097402 0.3248471098387773 0.0026234436048581827
0.615388323504005 0.7509633517282027 0.03257099381222902 0.1775018375990503
0.5979545617657935 0.751665903156826 0.07371058531599663 0.001770187322913804
0.6161750938536865 0.7509316461995011 0.21079529719126283 0.0008660241000735581
0.59946239051007 0.7516051401812665 0.17156773694818578 0.0022666156930712766
0.6067186998508636 0.7513127230557798 0.06561340645193914 0.0018471222830897898
0.6054291068711519 0.7513646914951704 0.15589492214970863 0.0018304526382028272
0.6115991611319976 0.7511160486319297 0.4506855648727844 0.0024470533059805333
0.6167528403790294 0.7509083639811908 0.668935364447215 0.0017483198765637312
0.6149573308792 0.7509807200098639 0.07993284183756587 0.0018605340121411998
0.6117998890148384 0.7511079596341006 0.4386642075693423 0.001751160891922822
0.6039868713898002 0.7514228111719818 0.28058233128408366 0.0018655981582347792
0.614476802223002 0.7510000845107088 0.25715811120544924 0.0024341731843710245
0.6179515664176938 0.7508600573274898 0.48067983768793054 0.002931387559106478
0.6014226044698339 0.7515261468384344 0.21363072767520513 0.001921111677781819
0.6161028453739817 0.7509345576923502 0.36011033665726505 0.0024513033661068715
0.6165278921200097 0.7509174290196554 0.27850367692797134 0.0014577557544701546
0.6181594060017898 0.750851681739999 0.3476060767810136 0.001964007987418523
0.6114921396969645 0.7511203614166979 0.4166071536740183 0.0015451908367816176
0.6063372180893436 0.7513280961324901 0.30508686478839714 0.0025668508844709963
0.6097277432061172 0.751191463643166 0.021937453024136726 0.2153462120216553
0.6002839964206877 0.7515720308377445 0.09997244693119413 0.0016753462980748245
0.6162740467304726 0.7509276585641304 0.12189282751143893 0.003173484771442288
0.6175342051108673 0.7508768762898438 0.1362286475218891 0.0023523193715986605
0.6127353513367442 0.7510702620677034 0.1927896637450002 0.001983611444207556
0.6143932835536514 0.7510034501733436 0.3364954450554715 0.0021024659614500957
0.6242610320732499 0.749631676437259 0.2668013919575645 0.0018492818712800264
0.6218560162185431 0.7501226647864601 0.6057447857816095 0.0014526758522001007
0.6257965805420734 0.7493181914320146 0.6789297911950727 0.019195007077391475
0.6243160640785652 0.7496204415535512 0.4957129862812565 0.0017983575580275493
0.6305460126879348 0.7483485862444336 0.6895549705184292 0.1967742820410842
0.6284514393052794 0.7487761971998532 0.45090051358091143 0.001733954532119337
0.6290829022712243 0.7486472828899438 0.3617046258743616 0.0020188777747558767
0.6228204409666314 0.7499257757247659 0.4264355873619017 0.0021992848725953095
0.6231879165578633 0.7498507549162513 0.31423989701074795 0.0010836928712663672
0.6199414618157826 0.7505135245405972 0.5544444711609011 0.0021657728023462297
0.6201681270380742 0.7504672504243178 0.6945577449010348 0.16270836509466843
0.619248913861358 0.7506549094617068 0.30104167646052954 0.0020989960032411163
0.6252341780351297 0.7494330069239501 0.6486333464542324 0.0024836798330498547
0.6244423481955484 0.7495946604220021 0.38215813736440674 0.002082899761786007
0.6265109798055446 0.7491723455265269 0.7064093867736153 0.19483891849562662
0.6314445989466352 0.7481651382297728 0.48628156145836116 0.002172590227489102
0.6302586243956738 0.7484072570855929 0.5411034719440847 0.0017199386863569557
0.6208658116406928 0.7503248168471619 0.4004479683170844 0.0023648681353916987
0.6187758823560274 0.7507514797015529 0.46102545591144767 0.0019637115576788843
0.6371117258930369 0.7470081839840534 0.5671332250035037 0.002164788629576937
0.6395012482241879 0.74652035866579 0.6667193444766691 0.001832159581712547
0.6277917509375508 0.7489108737767348 0.6619186017375092 0.0025348420984256477
0.6205588100483408 0.7503874917791113 0.5297842278815891 0.0016528912014041725
0.6198335332903483 0.7505355583448363 0.11069175257606441 0.0019804019191060162
0.6231445733802475 0.7498596035045819 0.4118760875514231 0.0021872002811149484
0.6311511059980746 0.7482250553475889 0.5792312048483014 0.0018614659890441743
0.6232560436726058 0.7498368466422008 0.6336586191538875 0.0020097489883885576
0.6216820663243554 0.7501581769728864 0.1549881040813884 0.0015024337783323155
0.6217520215239929 0.7501438954919886 0.509202155377071 0.0020643724207264286
0.6306521606077855 0.7483269159540543 0.6245776277101184 0.0018039906568920493
0.6260041558822322 0.7492758145498 0.4374567605659686 0.0020623327269335668
0.631229632997242 0.7482090239182685 0.6131590690923346 0.0018822778216831854
0.6329933530529276 0.7478489572696854 0.5921378842619456 0.002209157480589579
0.6203953471330304 0.7504208630297777 0.5856117772121094 0.001512507393393484
0.6306284055376935 0.748331765594703 0.5241086946881262 0.0015359882100358456
0.6346367458571851 0.7475134556477431 0.40079574919960015 0.0020366395361648645
0.6396255671341025 0.7464949787348286 0.5088758241314002 0.001529585088758798
0.6376671932858381 0.7468947843082496 0.15615635526174487 0.0015825936885889523
0.6318229803584086 0.7480878909782125 0.07899640925116125 0.002292857250827234
0.6285410881972844 0.7487578952159362 0.12039173483150227 0.001971636168294936
0.6323308034195814 0.747984217979133 0.17046849302228784 0.0013451695385517334
0.6421332366186877 0.7459830334608843 0.2793579275765499 0.002061862067327162
0.6224048336810188 0.7500106227059946 0.0942729544738053 0.0022644100747504117
0.6287794203616666 0.7487092392722663 0.05047172930159154 0.016920690707812762
0.6279825075232942 0.7488719304737416 0.1923757284207986 0.001991356123161847
0.6422678803231008 0.745955545704398 0.7046743917943796 0.25361079670254233
0.634074028084357 0.7476283355017806 0.09704770518205219 0.002539683323215278
0.624148260826864 0.7496546988917647 0.1808844746769694 0.0026271519165049777
0.6246554550505473 0.7495511542709993 0.03994550203729466 0.1414297829338028
0.6402597684443877 0.7463655053869551 0.6502772826884216 0.0026475413648321313
0.6245820403050796 0.7495661420244535 0.06927392441702916 0.0018203020560475897
0.6349644299514691 0.7474465583455082 0.41840226842904943 0.00160938692889891
0.6353880688265596 0.7473600717007193 0.3146428434364932 0.0024212507646476796
0.6397206627911572 0.7464755647839467 0.052817364928059496 0.0018125529382910163
0.6368012051919867 0.7470715773484267 0.1831785148226351 0.002014928706057019
0.6300112139454233 0.7484577663777897 0.34303628846143785 0.0020755742439291483
0.6398824685642296 0.7464425318418743 0.5526149432463562 0.0023941580737382815
0.6381157487878597 0.7468032108888762 0.3776198111744231 0.0019249826952008105
