x y z curv
0.5008687269582259 0.5631759143784753 0.7247083849157943 0.2530259360483487
0.5834611095444471 0.3967284201315604 0.7273321653268657 0.24961317632422872
0.6702003320821559 0.2219238462441892 0.7091544891333763 0.12299164759758048
0.6381963674355655 0.28642107413116524 0.7237335587655732 0.26056710461184207
0.70734807848059 0.1470604131850401 0.7119207495256217 0.15658754450422477
0.6338211319684913 0.2952384366703132 0.7080510992136756 0.15230873108519064
0.6159343151398522 0.33128553626902635 0.7096281361604106 0.11573446133762838
0.6573450738693457 0.2478309026871437 0.7206280311192373 0.23278687389309596
0.5940682184699815 0.3753520335136277 0.7143707330046938 0.1680064550759492
0.2878055272900426 0.9925597702561907 0.7250538961893643 0.27773830765169755
0.6460442281091956 0.27060536929953655 0.7018753797024044 0.09448032992135733
0.4559846416506105 0.6536303037190208 0.7213372697700853 0.23661381057246758
0.5315902087025709 0.5012632597754872 0.706572984888949 0.11221192435425054
0.6708685026152131 0.2205772897280251 0.7237974610235757 0.2137395556258393
0.5599187144791239 0.4441731425683209 0.707100474204666 0.11382345124478592
0.36293600143119276 0.8411501756810211 0.7223950342957144 0.21786142521057575
0.61867064845489 0.32577103469574953 0.7233682469856582 0.21658676354487824
0.6372458511844029 0.2883366387788108 0.6952103637123361 0.06528552081559326
0.527061131495054 0.5103906578337163 0.7131772771064995 0.16914448523363815
0.6927261811624702 0.1765277574306914 0.6902611781980628 0.09755982755962656
0.437886003664515 0.6901042840999931 0.7183751580287477 0.19972706746941382
0.6423244758089142 0.2781017440282191 0.7165435491339971 0.21711451395510176
0.6514090906029841 0.259793622609239 0.6929477934269979 0.0656979392940678
0.3552309543035994 0.8566780699889915 0.7283532828889793 0.24811856183954492
0.7215972865823792 0.11834414530077496 0.6955995543610811 0.1962399111519461
0.7267117222108134 0.10803708103911222 0.7046701502212536 0.24264577306835977
0.49853285637585004 0.5678833679371088 0.7139506381074516 0.11450528233501013
0.6239003205101705 0.3152317357667491 0.7047742543327241 0.06775725882538795
0.7009542862398713 0.15994575035390096 0.7317526418515504 0.2575995882620179
0.5887438103603274 0.386082252941245 0.7103738083227894 0.14120009460738633
0.6889345679753235 0.18416895259170163 0.7096289994460483 0.11780680811594231
0.3954370132330807 0.7756512542851375 0.7256631235824079 0.24982305075852831
0.554075589987657 0.4559487252518948 0.7199776093057104 0.22869958086464534
0.48092104985118383 0.6033762423814549 0.7049459055504439 0.13348480975930913
0.4274015327696373 0.7112335196821646 0.7108198455185593 0.14628608169386256
0.31640320445374015 0.9349271949976854 0.6946509145610615 0.07133501069468372
0.2791312947578003 1.0100408529456213 0.69604922866352 0.08609427655221782
0.3787292593024306 0.8093222017644356 0.6925353015785076 0.09047701872785671
0.44762709553837327 0.6704731718489322 0.70652316854841 0.08534835680520349
0.224267034734537 1.120608175483509 0.6939302359300517 0.07658002117229985
0.20851767982270808 1.152347672262678 0.6850674627075585 0.06733030909069536
0.1933166978495145 1.1829820392624346 0.6854471287623125 0.1345071645799358
0.25109207099874203 1.0665479833756182 0.6957974674493832 0.06669946643802596
0.42566398144534046 0.7147351872088606 0.695620364964621 0.07792868135615527
0.3685679020880717 0.8298002700016875 0.7098506180976605 0.13838289103338403
0.35744072134440946 0.8522247514710487 0.6886491460932334 0.07784385696835085
0.273000007206176 1.0223971673843018 0.6956799562299316 0.09453968624699943
0.6824014314823896 0.19733510865563067 0.6882123632931744 0.08736785846152681
0.18731969692548084 1.1950677273797352 0.7177074786907179 0.24162399746155888
0.24470929266004163 1.079411124352343 0.7119959234478699 0.13176624990710367
0.3219303386547423 0.9237884239716427 0.6880306505992961 0.07981587938474961
0.2826902034173719 1.0028686245864147 0.7244348773232764 0.28043513122907865
0.4976873227106177 0.5695873623670117 0.6975726342049188 0.05133620263729706
0.2921742156895891 0.9837556019481636 0.7085782000755074 0.14719360920258828
0.25951494764178173 1.0495734553660738 0.6935583473302147 0.07818177420576616
0.2081903284469206 1.1530073797869314 0.7260683225815481 0.27854631578326444
0.265479525405841 1.0375531092762618 0.6840955148806604 0.076308224780809
0.38765283025676506 0.7913386301737633 0.6928425835186156 0.07799169521513404
0.19394736932183915 1.1817110541791327 0.7042613275125693 0.20285494453057362
0.3521523316786449 0.8628823833361771 0.6945486607540505 0.077159486209414
0.45704616619148347 0.651491025320974 0.69708239132128 0.07009005288899653
0.23604879682177396 1.0968645236378116 0.6981132143991634 0.11168359773821498
0.46403172147442656 0.637413114787816 0.6866328831264611 0.07216972124710058
0.6451752008585809 0.27235671008627393 0.6898980853684925 0.06669727237856343
0.2411671730303272 1.0865495179696154 0.6932111293258993 0.07885700363380643
0.3793309764039517 0.8081095680970494 0.7078548736643404 0.14810601284394434
0.5430405649195463 0.47818748643088693 0.6921275933919411 0.07959985113566763
0.3313772524298253 0.9047501655149659 0.6994473784212851 0.10202603425217392
0.4529760456349575 0.6596934932327014 0.7057346144934147 0.10583021618600703
0.3930669664676836 0.7804275827187742 0.6943645802189256 0.06434026361035639
0.30306009695367175 0.9618174085901448 0.6929942385251853 0.06419625299990217
0.5622453494312679 0.4394843014708092 0.6913273881514086 0.07246862527498847
0.40803702833513883 0.7502585863956808 0.695506129702746 0.05544243871355212
0.4715484419213356 0.6222647531088629 0.6903308501494086 0.07706545001037486
0.3485669495849417 0.8701079633076915 0.705494802917862 0.10871520814912734
0.21634782433894617 1.136567670602616 0.7131886816415568 0.16670106994313122
0.4223123255025355 0.7214897415126462 0.6846940504961532 0.06017338478856222
0.2743221012346527 1.0197327662457463 0.716979368074774 0.24946855748299449
0.23737931676851054 1.0941831418415102 0.7127726137540435 0.17701337618263221
0.3936985447309719 0.7791547701899019 0.7134341641963057 0.12725552683178612
0.21590217798515912 1.137465776657744 0.6954330173151293 0.06699800459802525
0.30360149323172175 0.9607263387958818 0.7087357836814125 0.13581517325584216
0.38295646007995704 0.8008031718603963 0.699900052884918 0.07444654192536042
0.20103352316171186 1.1674304085122797 0.7241951495914232 0.24578145123876272
0.36829841974146504 0.8303433547261126 0.6958442916194254 0.06968049245251338
0.2569903653416546 1.0546612175145698 0.7151421686716516 0.16804900256159924
0.2879730601464469 0.9922221431860019 0.6907352851982937 0.0875901887878088
0.269206228432572 1.0300427268271997 0.7095064946666594 0.1522354359015244
0.5793327794296397 0.40504819710755957 0.6880857208578465 0.062457998783223355
0.3336722372733292 0.9001251085233347 0.7106028760001125 0.14217223328322923
0.22815925527652242 1.1127642274584775 0.684173937435963 0.06573016407599346
0.2618331336278644 1.0449016413742815 0.719267683901832 0.21534224737814023
0.4017594355465622 0.7629097481232202 0.6960149170598482 0.0761192040194528
0.537582675835114 0.4891867085568861 0.6889799002665519 0.07941332533670992
0.3238755932991745 0.9198681742936546 0.7087242387824657 0.12794359392665933
0.4129061291241192 0.7404459426604624 0.7050416868261341 0.1088318761909038
0.5985279336042 0.3663644200570139 0.6852858475945249 0.08392316087417302
0.5673883323437301 0.42911970619060436 0.6907259887641068 0.08371307874954628
0.25486509200172175 1.058944256833024 0.7035248299471728 0.12775902946410933
0.4636083980643285 0.6382662336670701 0.703280685411296 0.09661554546118777
0.3609618107376339 0.8451287398514568 0.6976561202521477 0.0881388134915255
0.3423382782611889 0.8826605341606266 0.70292593576649 0.09561544684158699
0.5943900769371235 0.37470339578602607 0.6956979733715759 0.09794790335826332
0.2294353345845726 1.1101925592654265 0.7200281360749675 0.224852269175926
0.4334067484534943 0.6991312764523268 0.7018319549967532 0.10491194471000673
0.19817806285631887 1.1731849853615193 0.7125473863843594 0.20314982459609707
0.20263628365963918 1.1642003834130592 0.6869013349053525 0.06897223034172437
0.3974111729714404 0.7716727524983646 0.6884584838937045 0.06262852685224277
0.23000538937041615 1.1090437343046249 0.6997445440309236 0.08794466625228968
0.5567022978886077 0.45065515053542027 0.6941779459356189 0.06220777893721451
0.45030644677925735 0.6650735056050512 0.6922214026257785 0.05909894783991858
0.2647412564402379 1.0390409343705025 0.7047280919405234 0.09482491398045333
0.43938553198609215 0.6870823016378911 0.7049600976559858 0.10154992598043916
0.3077078110957774 0.9524509228597949 0.7013661818257586 0.0947679750226014
0.47548688424944835 0.6143276548411624 0.7001399614531951 0.10643603611838912
0.4841233250064211 0.596922733488889 0.6931609366918364 0.06067151459444624
0.21203486330668003 1.1452595321778145 0.7033619280263239 0.07586058127990984
0.40339059749743517 0.7596224858971876 0.7075329489034289 0.11979846065749675
0.19779109464904515 1.173964838011813 0.6920455556072658 0.15055500825982002
0.5062746349851394 0.5522814490896248 0.6917632498996077 0.059397904440709505
0.5724472652588538 0.41892449591916636 0.6846473694993968 0.05568239868806645
0.22114229509355535 1.1269054279313657 0.7216648712969767 0.2521612372997648
0.4909327382767939 0.583199799960945 0.7044080750011412 0.0634036488840821
0.32961564454390546 0.9083003139581453 0.7204241768982311 0.25283561506784696
0.3187024151272516 0.9302936217386475 0.7134448115447772 0.12688581075328995
0.22100951856276393 1.1271730109717506 0.709281948910594 0.12132094694004235
0.550272134972514 0.4636137851148975 0.6902877321451916 0.05051189761739039
0.5372950042196805 0.4897664499090004 0.7014149585330685 0.10435051092209593
0.6278885383263508 0.3071943255210632 0.6877072105307633 0.06397147058034863
0.5277776324498036 0.5089467015654843 0.6925564745904175 0.0633658876025548
0.665293523953454 0.23181248115456032 0.6888891530379371 0.0658104428298591
0.2507974250859114 1.0671417799503757 0.7122155176922459 0.153945346853627
0.4883678018062031 0.588368887412644 0.6850792706917539 0.05432296154362296
0.5205633326416412 0.5234855983524981 0.7005682882388538 0.07211351526260036
0.33067347765925564 0.9061684748481931 0.6843117685049545 0.07261746211251945
0.29790868577451646 0.972198989260866 0.707114536936561 0.1219816674289649
0.5112563594224817 0.5422418361899894 0.6978560108108682 0.06494461607526208
0.21560527936263246 1.1380641130928666 0.7273772755975779 0.27071544143253207
0.3967756137391772 0.7729535878289748 0.7046128241734373 0.12112718349475222
0.3459764703263416 0.8753285268510966 0.6929620967161084 0.0835077941350534
0.2765304022007576 1.0152824022915707 0.7069187940906709 0.12755680435713543
0.20398902874760805 1.1614742115410686 0.7134627765327868 0.17754203381051512
0.28286838461532676 1.002509538033965 0.7054599407036268 0.10365616218335034
0.18813303815727092 1.1934286099967508 0.705977776215458 0.2651265904900659
0.2459576246255342 1.076895375064839 0.697605203457555 0.08113717174814472
0.35511193549019066 0.8569179272571779 0.7169511982139104 0.1793762418976402
0.31249061390980803 0.9428121944571916 0.7080656582157988 0.12010673519139695
0.28705374287256386 0.9940748328876944 0.7132798537708164 0.18851607016891903
0.43653849069832584 0.692819911736153 0.6925170432390096 0.06758920170730064
0.41786566766087097 0.7304510407552949 0.7011380703305434 0.07050620319378889
0.1926554863322571 1.1843145713527856 0.715976525836272 0.2508149135763335
0.2709831404692627 1.0264617361021098 0.6850058680060194 0.08770219452986026
0.2972440752135376 0.9735383714055754 0.6949432608837489 0.06180198438217593
0.14171936373227206 1.1969754152391687 0.7242051315104565 0.2515709891297455
0.3797064004976181 0.7173628624407938 0.7085555595168249 0.1260273722034154
0.32076520351092613 0.8361463847325499 0.6931394550404356 0.06556216792162475
0.39325774448545153 0.690052993402581 0.6902669102061662 0.08215061016089577
0.34957011428473583 0.7780961764582692 0.7063442723301319 0.11585028622628234
0.5757037069114564 0.3223717254133446 0.6923176525280187 0.07201246317757214
0.2227437855124212 1.033687830871213 0.7232219653862694 0.2912780466477628
0.4054325217553149 0.6655173035766937 0.7091720390930205 0.14595482411144525
0.25396407643337315 0.9707699345244301 0.6966070277608962 0.08270542592233043
0.26282708840004293 0.9529084075562432 0.7110941243516684 0.15540725950086212
0.5429330442269356 0.38841406829927694 0.6899199402763814 0.056943304162101124
0.18634221945045143 1.1070474919373616 0.6948123184111987 0.10296969482507226
0.46851876900592077 0.5383803087462781 0.7005134848278537 0.07288525183449122
0.33577201391377187 0.8059033308221064 0.6948829404034547 0.06336009596266669
0.30220392100748916 0.8735527257423599 0.7083576820096033 0.14590558464231573
0.2066184105605049 1.0661851151645123 0.6986431726787016 0.08880071344197477
0.3150177305947426 0.8477292013729194 0.691401144108875 0.07336248723485018
0.23403586527928444 1.010931031259384 0.7007863916900281 0.07282914337822952
0.2219993430285686 1.035188097321445 0.6951666922877977 0.07879216662632926
0.18682061544594677 1.1060833859418888 0.7211928796900496 0.27350837125562144
0.234584609769385 1.009825152744785 0.7207217555522635 0.23079382043872465
0.14482118642837888 1.1907243564005598 0.6927945017217105 0.08772396872449931
0.21248695220044161 1.0543583101054819 0.723383067937007 0.24380579548244882
0.4602744029665159 0.5549950856305029 0.7054961955781733 0.09192485393792735
0.4159079458738577 0.6444063007821379 0.7091731328723656 0.09038189162334889
0.5363210761816359 0.4017390921171436 0.68831028606768 0.05002253429410666
0.22879113594384548 1.0215006744933177 0.721810136133184 0.26211040262688506
0.3266032379559054 0.8243810604757009 0.6974917599463717 0.06679589186829316
0.3134734949544358 0.8508412818528173 0.7034007204837835 0.0978601418012877
0.4994425852627077 0.47605989441004404 0.7028113476195179 0.10519909651213846
0.3281552064501859 0.8212533960633528 0.7083474582852181 0.11263453590005104
0.365195006978818 0.7466075083531261 0.6875623323506581 0.04773595028023246
0.1733365672960761 1.1332576344451033 0.710978798010178 0.15300704177418495
0.5035433005520058 0.46779576964025926 0.696185454406149 0.07123423064048359
0.16412947847647086 1.1518125755721504 0.6995230024256465 0.08786950084695616
0.19217294770810758 1.0952968917565264 0.6981102575900939 0.0742537148454582
0.3090137486662904 0.8598289577012245 0.7128512256177271 0.17852643927139852
0.1486636328354037 1.1829807179646668 0.7246011054603976 0.2921035141184242
0.46461052991342894 0.5462565384310827 0.6897002004628193 0.07878338536326572
0.45609741155729977 0.5634129287951255 0.6968270346996761 0.09445319145959888
0.528254474012038 0.41799562350125363 0.6960784997176996 0.06275238023612233
0.4279755181122447 0.6200866600339279 0.6932796270570929 0.06565412159753528
0.2975126941192758 0.8830069018049465 0.7011252889004846 0.09548447482393549
0.3720677279430127 0.7327569921506851 0.7050547315705212 0.08597724622345382
0.28217241044037183 0.9139220006066617 0.7089829640929814 0.13348292743265888
0.3630453933019572 0.7509396002881052 0.7067705003594597 0.10211578595376286
0.16813707987215482 1.1437361021705639 0.725819723477945 0.2412456731704242
0.24684098585937725 0.9851250177470099 0.696634483612987 0.06377747339349173
0.2298120202272775 1.0194432980361392 0.6901588334242196 0.052225357824902306
0.5706252845586851 0.3326062120811936 0.6962698866546183 0.07625193608152284
0.43391878576947635 0.6081092604842031 0.7062084017535666 0.10447771381723923
0.19976438740326208 1.079997949889779 0.7113372194869829 0.15161482121425093
0.15870911870054147 1.162736164830421 0.7190480846214432 0.259498822097876
0.40030181640465157 0.6758571555741102 0.7084263256821779 0.13774131370868817
0.3865604878710297 0.7035498983014143 0.701750811388702 0.07106427568224953
0.5492882556044706 0.3756064832666439 0.6891705362815856 0.07866744193571945
0.381666421895026 0.7134128536650322 0.6973690568506937 0.07894823073033433
0.47642885303100263 0.5224392065943294 0.6943738895607972 0.07685746242408062
0.2760504609743746 0.9262594955684198 0.7080126260518382 0.1473924703578672
0.4083443224077096 0.6596491849197046 0.6971366148525227 0.07460476471286659
0.1901291989346576 1.0994156353586397 0.7109297343559655 0.1384023681438682
0.1734616438719846 1.133005569047688 0.7259799679602226 0.21599163879813094
0.2157441466161258 1.0477941233352104 0.6913534283790561 0.10677074234304128
0.33359010758347274 0.8103005017733874 0.7097575734619858 0.14101073929742242
0.20128427747035973 1.0769349327660027 0.7241713103666989 0.24036893068638468
0.5596789788631922 0.3546661771492009 0.694588377588341 0.05202522383712376
0.6060060786349274 0.2613037011599403 0.6873909570069074 0.07933262058570927
0.1698568906320626 1.1402701871538867 0.7016369113113864 0.08472818457779369
0.4939236663054289 0.48718210886280333 0.6982283154918083 0.07794566609950787
0.16353326545850166 1.1530141168697692 0.7141101549624878 0.18046198619745857
0.18223490558168018 1.1153249147491273 0.705193894890543 0.09575491459546093
0.4466552184202311 0.5824416729727047 0.6990908776281016 0.08695401219304695
0.25160079325700824 0.9755326321656885 0.7186656556997991 0.21392161716137956
0.21340314598585752 1.0525119152153664 0.7023619759242172 0.07124348929370602
0.25513725225911993 0.9684056466583184 0.7106861702330615 0.15750195953264934
0.4007875787760677 0.674878204205229 0.6939116974727033 0.06592180741462535
0.26169605110398686 0.9551877741238954 0.6989460229642619 0.07508316193909638
0.1817025096182303 1.1163978462643591 0.7183740140708371 0.22008236451377064
0.1763455014847234 1.1271937636799352 0.6968690551545214 0.08122629903476168
0.26889819188914454 0.9406733819120221 0.7068449082727671 0.1381123331289567
0.5810992170276561 0.31149821539101324 0.6946042772103621 0.062321050916109
0.32052185100471875 0.836636810263819 0.7146802985956267 0.1466224499532807
0.15368186286806898 1.1728675361932677 0.6919699491587954 0.07593038558812233
0.3089671076961892 0.8599229527165102 0.6985538704154866 0.06987367090586116
0.20654131329246936 1.0663404884097893 0.7108192405274399 0.15733659149926277
0.470905751240667 0.5335698506628593 0.6873077094733869 0.08263520422399871
0.3916430371617063 0.6933070946626563 0.7062197791886881 0.1135881563498191
0.24985668881186474 0.9790475059692463 0.7068846802851817 0.1228194495553935
0.4133868930577095 0.6494869497797016 0.6977800617003549 0.06894129521335737
0.14360467854151476 1.1931759708754077 0.7114167172382141 0.20242961666644457
0.35550539454282076 0.7661348738229794 0.7047825583742334 0.11651103084856074
0.1501227901539312 1.1800400948566625 0.7061017431772814 0.126009278108124
0.2731980390376317 0.9320079489767393 0.6944284840421999 0.0793483969740053
0.2880723899465998 0.9020318391741213 0.6966025051691657 0.06510904183465001
0.5875989483742309 0.2983993809124632 0.6920646876352732 0.06992212997588178
0.44834860220267847 0.5790290159424065 0.6868032897072746 0.07391309663156632
0.19213132300250368 1.0953807775511617 0.7234042587628887 0.2633294381455902
0.4402743052061733 0.5953010546234527 0.68696736933118 0.08123908346226286
0.34187349766834946 0.7936070801752407 0.7010372828099924 0.09218773879708078
0.616447263707447 0.2402616999244716 0.6874553104961059 0.0791000018797199
0.5652834100350835 0.3433716309052679 0.6970914663818579 0.07206810756898124
0.2931077023839098 0.8918842314274001 0.7112634553729554 0.1260688095633425
0.3412572349409619 0.7948490274236609 0.7123185051954948 0.10663852238243182
0.22747224731616944 1.0241586157078688 0.7112294808482184 0.1727474123091784
0.2167341349602888 1.0457990111121922 0.7137174621014969 0.18809814301477149
0.30157213797994065 0.8748259508747458 0.6898769968983547 0.07838298799784567
0.28220921541470145 0.9138478279615132 0.6973664523371701 0.06439287289911111
0.3704048349253264 0.7361082014903894 0.6918139875582444 0.06721380663809827
0.24109797763679464 0.9966988367412681 0.7137395206825934 0.14256556937767384
0.35300717442896995 0.7711695083359216 0.6906453915937745 0.0833452616336281
0.1975405475812562 1.084479628928808 0.6902172623058305 0.0735065237231983
0.18212860542685316 1.1155391402392096 0.6867778437549497 0.08611055281645416
0.2402792532116409 0.9983488027409069 0.6991424654381203 0.07395127645159046
0.4190759651060899 0.6380218277423805 0.6975312673780337 0.067811594054326
0.266974366982887 0.9445504443118489 0.6964693711948917 0.06814962331912183
0.4802185478511252 0.5148018778300932 0.7017112322234765 0.09040533387285296
0.488082179685435 0.49895439024860067 0.696664004693583 0.0798183999959253
0.42702032846255444 0.6220116428447191 0.7085676738267164 0.13693465714364034
0.6826337261672508 0.10687687587732583 0.7018580471444579 0.09180498667532812
0.6770636750534291 0.11810213685810186 0.6947694813665976 0.07055342061473314
0.6311466643860915 0.21063816516751194 0.6950100873930094 0.06547576149714775
0.526618515435272 0.421292550471994 0.727724167845986 0.2274702587819212
0.6536767795672616 0.1652334792911481 0.7188585960850545 0.21417600716217086
0.6427306292950802 0.18729313244415208 0.6990296459496919 0.08489579036807027
0.5445206590296618 0.38521456577106794 0.7076052855610921 0.1300111594586912
0.5969121626137776 0.27963056635449973 0.6965317778005143 0.070117086439955
0.3807859076661803 0.7151873432696803 0.7233130269536877 0.2608395422843901
0.4750227939604416 0.5252728212815967 0.7069914192635729 0.12181594582040431
0.35795510164941713 0.761198006393552 0.7242683158224735 0.2562803104364741
0.6562477702342322 0.16005219031099088 0.731336562447007 0.23891666433882533
0.5728985428155418 0.3280249390343777 0.7224745310085998 0.2493472293833135
0.41027787470805166 0.6557525187944475 0.7136266943066356 0.206402593182797
0.5378916437862418 0.3985739450714666 0.7008765941031049 0.09987200470638075
0.599678265402212 0.2740560697190354 0.7156656691899452 0.1846557150037744
0.5524077793063454 0.36931974229951875 0.7053903598913982 0.10705588595912091
0.41714267220447365 0.6419179701330078 0.7215198708311461 0.24686606850704376
0.5698107280954419 0.3342477775462779 0.7114651759995395 0.1298496899585783
0.7003727337186512 0.07112765627813476 0.6992578139645502 0.07241560778097063
0.6661317824258175 0.14013305386795227 0.7204477402567849 0.20847933976952215
0.3531634014776399 0.7708546654761819 0.7189968903261629 0.2526155968468887
0.6176909856383066 0.23775523955934857 0.7210804204273491 0.21551693562878205
0.6962117326804491 0.07951327253423011 0.7264423207464833 0.26076221677639316
0.6552867780813676 0.16198886910888324 0.6954986957406729 0.060288130463709434
0.5426772550693901 0.38892955592762773 0.7208563329493992 0.23455184595031045
0.5174489613425559 0.43977184992842566 0.702549087706563 0.08568702601091199
0.3893627889079355 0.6979024520717773 0.726069188982762 0.2598966998247928
0.3859577330522692 0.7047646231005452 0.7139253436365056 0.15094299416586524
0.5317914436981637 0.4108676074878304 0.7215023539018197 0.21169460783734134
0.5052974443391719 0.4642606633359416 0.7077720410420425 0.17937761365694282
0.41223788558120344 0.6518025304389387 0.7259632736341022 0.27646226510083544
0.39985051608210964 0.6767666553567396 0.7206826963692462 0.25977342853716
0.25779845096579196 0.9630425631484689 0.7238884719473921 0.2448464355505139
0.4992551019820095 0.47643772650592253 0.7160592953332522 0.26244807758476574
0.5369191642620271 0.400533770430068 0.725321613204405 0.2496504690285649
0.47914941359601293 0.5169564912561547 0.7149244812108205 0.1710945752651272
0.6394690335131338 0.19386618720678817 0.7314417437435381 0.2846686528049324
0.3154833383053367 0.8467908673197689 0.7199954325786102 0.2063240399215204
0.6726466857197835 0.12700364457143348 0.7035472736178394 0.09560872513765341
0.5557646152866487 0.36255474830336026 0.7164686472175966 0.17110642647397753
0.2748445978337639 0.9286896576850264 0.7229295889750587 0.22211944605337636
0.4947242516039937 0.48556869736669206 0.7203681628154233 0.270068934018025
0.4723545000975419 0.5306502023694071 0.7248179262215554 0.24967923135539738
0.4471309801310386 0.5814828748113585 0.7231975748473808 0.2170148880322567
0.6480775208082585 0.17651760320060608 0.6944475637325519 0.05765527119169714
0.6224545986815976 0.22815518539419993 0.7066020657539152 0.10919879408754467
0.5486963079903131 0.3767994276049995 0.7139636922468899 0.15520120075243252
0.6591754166954455 0.15415213954993276 0.7030213674885821 0.09415252225395558
0.5615692137431033 0.35085680706392747 0.7183640544431031 0.20554751496805931
0.6785003070284815 0.11520690680797162 0.726475497451857 0.23522376266188158
0.5816703946034347 0.3103471260465863 0.7231750771597303 0.26817008322385016
0.53254029575293 0.4093584556139436 0.7034846426040634 0.08281614929851908
0.6134627355291913 0.24627638327964207 0.7296164289207699 0.3026593091152384
0.6730445187835707 0.12620189472347115 0.7258414099934435 0.20430324419138696
0.34612790680235844 0.7850332177301733 0.7188091726939987 0.24224817838689722
0.6334634127746206 0.20596924768752634 0.7085362335084628 0.13586712987984675
0.5666462839953977 0.3406250450698871 0.7211062997144969 0.2057952247824585
0.6902883167049736 0.09145066575991556 0.7183059226295918 0.18542120517671604
0.46465383048011927 0.5461692748667484 0.7125537219952807 0.14877321394847906
0.3387422578061041 0.799917431655776 0.7240208899960775 0.2777893028543268
0.6116211081936027 0.2499877949064655 0.7130773193262264 0.13379452173094727
0.6443040054911869 0.18412232347242025 0.7283808892544766 0.2904239158807787
0.42199434048304824 0.632140458104155 0.7252714240966982 0.23104326840840925
0.37481061439620866 0.7272292838298482 0.7212861722124386 0.2546993668450143
0.3073891761539547 0.8631029397259186 0.7253135258466069 0.21294392550835584
0.6969861036219969 0.07795269236705317 0.7143070699500589 0.17057369483396004
0.666454918616294 0.13948184311363387 0.6899273487883583 0.054222754525547444
0.2670217416913203 0.9444549705715097 0.7221000312823659 0.2704834447145951
0.6067136474246373 0.2598777438812076 0.7255397364872381 0.24087740623534515
0.6711111848039255 0.13009812132207133 0.7153639906378603 0.17294686327111353
0.3021348657467927 0.873691891968329 0.719656666861034 0.2156738113319234
0.5859505695842242 0.3017213386106217 0.7164363166587492 0.19031447985648828
0.61666081737649 0.2398313266336482 0.709743314698827 0.12218584101639704
0.48668993783117587 0.5017601585636016 0.7170417435773608 0.2180539937264119
0.43786249835314 0.6001615407290068 0.7197958078844612 0.22186763047454708
0.6273738801406061 0.2182414137133158 0.7037049565125385 0.05836537716500168
0.4399996439075008 0.5958545763701885 0.7083683446187996 0.12224101763259158
0.33150103872880965 0.8145105778020102 0.7262187007917573 0.2487872670908657
0.6028528803742375 0.2676583051221321 0.7033474678541975 0.08521776416866542
0.6823985590827808 0.1073508043526807 0.7187973617346681 0.20768843931424755
0.4058001811245262 0.6647763631701519 0.7211478211796514 0.27788042233738436
0.5617682961003139 0.3504555994659571 0.7055762656885152 0.08067548118499811
0.7050721583199071 0.061656957804222055 0.7250618768101691 0.2659059179438532
0.32686831959129137 0.823846844182313 0.7215131334841944 0.22779856506828902
0.28669732792926944 0.9048029859092688 0.7211688188387488 0.20789459970596574
0.6227736643746024 0.22751217678580754 0.6931989821244273 0.0813248066977719
0.5370452818530078 0.4002796078932539 0.7125451520270624 0.14117792203291654
0.5593789369051777 0.3552708463000942 0.7296796258149196 0.25001382413591555
0.44843446433440615 0.5788559788085156 0.709620582560968 0.14242149809421936
0.6368380901303003 0.1991682997242956 0.6950223527140864 0.0616144938435957
0.5798450225582527 0.31402577833679446 0.7103579672163747 0.1377488260801587
0.6889619766140084 0.09412362473865037 0.7039237595244892 0.11113715700808637
0.6642115341397046 0.14400290933868443 0.7048856301740094 0.10230607073866645
0.524390318605598 0.42578301131189306 0.7093325575088001 0.17017621505158143
0.5187785850871296 0.4370922733322639 0.7186367518847575 0.2455510401996516
0.45366675887364094 0.5683113949939907 0.7136920105413395 0.13452457528736958
0.6778617931499682 0.11649369759723545 0.7099091009356353 0.16131891186101469
0.279716207190911 0.9188719583872954 0.7304882378354702 0.2358482459490948
0.43210112020680097 0.6117723804556844 0.7197102364315042 0.2104362672832339
0.5952790750704924 0.28292170842202463 0.7067853793864551 0.13067330249925224
0.6120568152998167 0.24910972026797978 0.6983967610435805 0.06481997987686507
0.6387417319240845 0.19533191069759936 0.7174030291179917 0.20652862578012743
0.2467072894762966 0.9853944543070192 0.7269854109500377 0.23691474546723754
0.7025921912803261 0.06665480777525146 0.7146445020663099 0.17213673445262834
0.5912960980465938 0.29094855607577974 0.7155279682150356 0.1872781730486498
0.5474599474375053 0.37929105020312254 0.7255885861421897 0.22386147976196466
0.46989528088065036 0.5356062396396162 0.712029009041824 0.12852981056061874
0.46715662627566545 0.5411254183017687 0.7239559766237339 0.21672256799369952
0.6474414311786704 0.17779950586819468 0.7184159622721404 0.22983438369373155
0.6291147524086381 0.21473305231871176 0.7251076487205548 0.25096789137859077
0.6234336497253903 0.2261821140832814 0.7208452555870907 0.18846434964668585
0.5107199014810659 0.45333284669033796 0.716672688407413 0.21692361314788006
0.5123129149515326 0.4501224655771201 0.7043286963404145 0.09239013274880271
0.29204620967012707 0.8940234453780073 0.722991292821046 0.22530057246721114
0.1873746406518999 1.1049668650388802 0.7332861241367241 0.28415218814332455
0.2920440132918516 0.8940278719273805 0.6854892467335837 0.08177272889122483
0.16383940234263222 1.1523971626974832 0.6843704996743828 0.060232817970660234
0.20996773589987597 1.0594352579941302 0.6844448393366651 0.0860747776047177
0.3483938864250551 0.7804666150535715 0.6847806676670698 0.0793461679442185
0.45339556770762474 0.5688579239013362 0.684707878397221 0.07449087365352883
0.3877876515272384 0.7010768093760942 0.6848516938831763 0.05887217652364459
0.3786485815240372 0.7194946729579327 0.6850597416478283 0.07592159270272722
0.41320259462312114 0.6498583643137191 0.6842873510681486 0.06386069850014664
0.49334666135995126 0.4883449403509233 0.684156667046362 0.06098679478583936
0.3371248317762908 0.8031770124074078 0.6841064822350418 0.07415456246152442
0.5212617199073865 0.4320880411231453 0.6864916699585821 0.05418334271757396
0.6822026151139367 0.1077456899194737 0.6861000286236105 0.08704951854508129
0.514881379669319 0.4449462680619127 0.6862054851549533 0.058736653673341195
0.6289798498190498 0.21500492201924784 0.6843733826478479 0.05588061086525165
0.4590161343467329 0.5575308600342832 0.6852906650946745 0.07433577216911746
0.7008053488701127 0.07025581267260932 0.6841977167424794 0.0970548613961169
0.6002461431991444 0.2729116333739718 0.6861761529018042 0.057262102925364294
0.7071345963572078 0.057500545468742996 0.710213402648121 0.14720886805834835
0.711046654171105 0.049616600941359945 0.7258517703355637 0.255016618763243
0.7110751753509369 0.04955912239967848 0.7015902382448267 0.08374530930500985
0.16666900497145737 1.2050376618451633 0.731503432813217 0.25604221308831804
0.7226416190970543 0.06290441207085978 0.6028839673954225 0.19129170939104637
0.7226630357543584 0.031184524129843485 0.686165921771378 0.20691916401558194
0.7227308731075809 0.03108106550829086 0.6461837366011761 0.18194109266034145
0.7168777105589911 0.03821133858139138 0.5270688654589006 0.15817612223861235
0.7167827656718115 0.03848696929172882 0.5556093750305533 0.19284108769793168
0.7152932286303763 0.05184519689114264 0.5173768786814746 0.2048237790375505
0.7157395401843696 0.05259181699815642 0.6704222025397002 0.23403710716072995
0.7155595818123404 0.052358974004623776 0.5855568785338985 0.1730290857549392
0.7162298505764437 0.054033943143868834 0.6391059287222449 0.21081728220843568
0.7159765922159051 0.05395519462120107 0.41152476522310405 0.16560621429140615
0.715708833004643 0.053159714466198306 0.4367177651832922 0.22771372663147085
0.7157103735906072 0.05313196604109389 0.4543371672681844 0.20260213352267167
0.7164103423453373 0.05502290374705749 0.49211483792211463 0.2127722903182185
0.7162294480668974 0.05449121897488677 0.5059858410151442 0.2325718146015967
0.7148990407364724 0.04516527224090471 0.6224623822061615 0.15390561749398565
0.7148975603140177 0.04625607237638831 0.611075252552782 0.20368254920140375
0.7344780111646382 0.027007814025686607 0.45471073523274297 0.21241558410287525
0.734363255893518 0.02702826293127756 0.5204184205252548 0.22497764046679458
0.7335444805153717 0.027174165252316744 0.6604739490409024 0.16955260527101407
0.7197926128118259 0.060090178467285815 0.5520786320511106 0.17542800610030576
0.720779063696566 0.061189797670163755 0.5901332506608052 0.11126134205284706
0.7182573432184322 0.058180865464254765 0.6121000894266198 0.20380826221136783
0.717892877539109 0.036392174516156235 0.6588909394780059 0.1917190330615198
0.7280252530526501 0.028143225505996485 0.6723727965134976 0.17714324066140735
0.7321303476774699 0.06653009398821674 0.6756193740517511 0.2191250115197485
0.7299220740499326 0.06620919017027271 0.5702806040321308 0.19946279545391707
0.7299211122630476 0.06623674638541682 0.525925841848964 0.18310500299982882
0.7325727641866979 0.06663260153369538 0.6355842043932258 0.21083407667808157
0.7294499260524105 0.0661431543920146 0.5436367271697033 0.20214464195754842
0.7304097409997619 0.06628598828105264 0.5840547857466905 0.2183789615323052
0.7320446569528887 0.06657096752722559 0.45854159889977675 0.16621817295604327
0.7305755146173009 0.06634852780125858 0.5093679074371802 0.20030980647688273
0.7339147686575122 0.06685411717517149 0.6514292249944059 0.19469818528783076
0.7324937750328087 0.0666389675434284 0.4423017527305052 0.22414492615731355
0.7314197858438426 0.06647635711753692 0.5553907506331237 0.2411886376409369
0.7296600084357923 0.06624882608368579 0.2896091617003931 0.22549559425555468
0.7316978782091939 0.06652490433785027 0.3920769004986284 0.19606914553199634
0.7307655650224167 0.06640329859444957 0.32601175182107917 0.20338190804895076
0.7275276110956872 0.06550983046583336 0.3050571040329335 0.18310719349191026
0.7282561917087786 0.06584708705111633 0.4207846609433655 0.15532422138831845
0.7249535287377721 0.06440382815090051 0.36838500568230065 0.21178426304717815
0.7272193239156997 0.0653259237999109 0.47425279777922147 0.18213743825745068
0.7215761691863157 0.061839266863275164 0.4630594683049568 0.18522593567475962
0.7236075008219938 0.06351504812986838 0.4357461913883439 0.21815452563226417
0.7214463280341686 0.061702132899255135 0.4492675999659997 0.19443311890209744
0.730533039218578 0.06638287127488014 0.256877736310072 0.1907553016783307
0.7346242323413343 0.06696214563772275 0.34291281295775594 0.17989156136046447
0.7340536179089661 0.0668813520154661 0.2753858843109743 0.16495709272432807
0.7329849841824818 0.06654040782648254 0.13879670920778733 0.2392903588385072
0.7291901670813092 0.065777464088589 0.16863525331667908 0.21922147839044678
0.729700854390805 0.06551258435102894 0.09665993568816555 0.2393747080317582
0.7290223289379301 0.0658114857489977 0.18427807516471487 0.1871027881876181
0.7306456525847898 0.06531952774544021 0.008368359889850133 0.17470197374553365
0.7308291773701401 0.06568767471172017 0.052501919811216005 0.237901063482606
0.7311147991369467 0.04657592187871693 0.0 0.24935644786583805
0.7344448158962076 0.05947999522411167 0.0 0.16992482264880665
0.7436814047269259 0.04699026744788098 0.0 0.24169999576216777
0.7438937622008779 0.030742802856562015 0.0017318519814473483 0.13254356152724353
0.7538750463850002 0.04928495039984626 0.004023295829928465 0.18127244391882383
0.719317002711374 0.03478025560759228 0.16106217427681713 0.19313992057713783
0.7190087601031777 0.03593307226367367 0.07368210387148764 0.1989720756032332
0.7213475037222203 0.06168115036575441 0.0696692566568841 0.20747105987946857
0.7211758019462104 0.06167561607703713 0.08769304871049886 0.18905952291282366
0.7240968541665851 0.06342444178343536 0.1242487524176295 0.24658967513432498
0.7185534274847566 0.03534038636597756 0.23875304683260856 0.2339015561152125
0.7195300856471806 0.03394473216111743 0.3161344108650186 0.16389247428573622
0.7198811172086096 0.033544855815381816 0.2180220564991236 0.20522238786704874
0.7193713665194278 0.03412891159771587 0.3563190150660342 0.2036135020902072
0.7273321249448642 0.06539708182790333 0.19578296625539363 0.20609992002257893
0.7261786443878122 0.06473529284709074 0.1505574422395012 0.23937300927770133
0.7219422084669097 0.062369743913680296 0.6688002634018556 0.23200324152119017
0.7218500547288806 0.06215528709626646 0.5327928368093202 0.2200014394694778
0.7278120805197819 0.06559311508938118 0.49643651222627866 0.1860534207292847
0.7251570240053277 0.06421871505691928 0.6442017213514895 0.21731256141594113
0.724953659765949 0.06413192432730172 0.6277098324240279 0.23183784167307459
0.725049868349617 0.029661264948100063 0.5937425057711989 0.16875300897102213
0.7244954836734379 0.029851553208986505 0.5050321255363898 0.17052000402671824
0.7243185190893245 0.029897081206445866 0.41135194600923575 0.16567173570678662
0.7223807817734145 0.03126853794110907 0.37998696874640564 0.17675231837629363
0.7310568822339778 0.027536664097312688 0.577840893389251 0.20728233240738755
0.7309007809005803 0.027476844907010984 0.4440056280458371 0.23152670516658788
0.7325921790477161 0.027258628563517892 0.42625722636045105 0.24178163777496967
0.7310708491125906 0.027517241081764607 0.547839096792915 0.20599045721284673
0.732584488703181 0.027322105356960027 0.5322050934832359 0.23872980911177813
0.7309041900610339 0.02736839265915081 0.22957042612793238 0.17996032338426343
0.7283716052173458 0.02815082090621455 0.39527110101848895 0.22738823740123199
0.72861039433543 0.028105311508005743 0.32595780267458696 0.2062794740221105
0.7278839831820272 0.028397857870410985 0.20657566268343489 0.2351620213395588
0.7266151626062849 0.02889833808571725 0.26051989096047307 0.11057457241638226
0.7254529357764802 0.02934599007217758 0.2940636001576337 0.16379881389976064
0.7245843718442863 0.06421136956412864 0.3367447100444143 0.1922854546886341
0.7232962661535629 0.06331358309531951 0.23989455607710902 0.16193015739419617
0.7244230542129435 0.0640554842750048 0.20812865476424075 0.18317913757338872
0.7205908044173368 0.06114845341756851 0.017454537241027336 0.1676252081044032
0.7201532501275072 0.06057699935049171 0.11413597399324543 0.2099272015730445
0.7204092945016762 0.060776969920820906 0.1773712675985104 0.21118811709287597
0.7194576006717794 0.05992876073681979 0.40209299220760203 0.18125418116961675
0.7205625077650522 0.060940131729173036 0.22174726033491127 0.20051878748619534
0.7193933036526896 0.0597669151096476 0.28765047506335994 0.2143931587028866
0.7170861359803707 0.05593089774032851 0.3614974407287849 0.20096242118943947
0.7177922885278833 0.057263719411943165 0.29881341216036567 0.20873799641230545
0.7178617002672019 0.0574308777753274 0.27246634835389416 0.14686843671232225
0.71635318456469 0.054706031654823635 0.3380307993634164 0.19085312921682543
0.7216601669900361 0.06191180344873522 0.31490816560857865 0.19504130114978574
0.7212724169073196 0.061439874976474435 0.3877388396667632 0.21340199139074298
0.7244902595957012 0.06413124460423168 0.3487745751789159 0.2103257548603274
0.7188215901152415 0.05873686132432798 0.1377200671748916 0.21946389890386334
0.719924013916218 0.06030436111652969 0.05626125751028829 0.19192092146765163
0.7178090086141031 0.055941525759673635 0.10050897468032016 0.22678235381939607
0.7169030045587326 0.05499317868133757 0.15139005633040534 0.2035079532625099
0.7260787596098611 0.06375820328357396 0.04255442415374111 0.20016514557042384
0.7258542974378808 0.06352416905580013 0.027532520518479202 0.19476437647174974
0.7342067222659358 0.027169364485340308 0.045894314413822385 0.2088670766570471
0.7329046967293231 0.02770868499847031 0.007427567574951142 0.1361521622016253
0.7223182561602528 0.03128921001107143 0.606398781875856 0.19226438586583514
0.7284756069443252 0.028024428145105442 0.47615320985037557 0.2010604759494024
0.7290604900643607 0.02780370820597526 0.4893407276312977 0.17295065147203384
0.7277834968162815 0.0282465462504762 0.5632913409380617 0.21474271881427462
0.7253999956585878 0.029515586019320347 0.6324566306375792 0.22222193170562685
0.7213654079511053 0.03208550101181458 0.3422584965918582 0.21283894096373798
0.7209657042778317 0.03250196381533133 0.2832785165709541 0.22849176885315484
0.7226895699916964 0.03111023072036203 0.3046452610184609 0.2177746258892499
0.7230069768098634 0.031372892951127884 0.1387829364271603 0.20019297336217062
0.7207741710671047 0.03281880219910158 0.19752555210249687 0.19489412870338743
0.7240840594220803 0.03108062246554576 0.04808406828409113 0.2455407751130108
0.7173172901268259 0.03706422896427934 0.3683589757103167 0.2020027605802066
0.7168257582511293 0.038169960053590836 0.43485077099445774 0.1810440411330245
0.7164152046172824 0.03917433715830525 0.44696746263199466 0.1662355232796495
0.7259146520253679 0.03031379533287094 0.03587934407971181 0.197826806839369
0.7252953969176067 0.030072308496889015 0.0888595085379749 0.19426120351836643
0.7218142231597805 0.032399709963366934 0.06149327889510485 0.20649279406657853
0.7275305090781796 0.02856429683782232 0.1739353668185356 0.2082846050890958
0.7287429018274165 0.028596326224486834 0.12167381321063689 0.21205177042724713
0.7287156479717534 0.028782995693074395 0.09961583483109142 0.19894736935387394
0.7272448480004704 0.02881980219232945 0.15363557989373983 0.20772090028816026
0.7169064878652865 0.037983933131336196 0.26972904193771535 0.1641278436984088
0.7155674301438608 0.04143185423551607 0.22859358536677798 0.19215861121861846
0.7152598250724398 0.04261575150686965 0.2838022339128916 0.15327695271831288
0.7167149863118667 0.04101562940559215 0.0526282347329278 0.25111381245163217
0.7183792564197813 0.03796979051893136 0.008842452652888834 0.1856673500637275
0.7156391684879528 0.04095482469335551 0.4056658456860687 0.1732171618966786
0.7152012370118046 0.04277603611151934 0.33031688644080487 0.19694696164875283
0.7151355682880414 0.042939392699638944 0.38138953992755537 0.22615980495179128
0.7158051819206424 0.041803079460307146 0.14276273828626806 0.15873121376053906
0.7157995415402773 0.040779891796654436 0.1825054346025543 0.17112081487464278
0.715078155992649 0.04448431598556443 0.16837853855737875 0.1873974375094847
0.7147484014373895 0.046241225542420994 0.0664706897826338 0.17680129139745482
0.7155664139309812 0.044115394634518794 0.08248290674581797 0.1901224463898187
0.7147537231832659 0.04693709465767404 0.1330327013812753 0.21764846923304923
0.714776468282702 0.047297606418019826 0.2409880231188863 0.24231643626531738
0.7148130623497789 0.04561094683785315 0.29610953569925297 0.24782917210233105
0.7150738527641887 0.04993646783669927 0.26219013707294925 0.17616614219877028
0.715231122794459 0.050452306915677154 0.3207728900060308 0.14903696185298781
0.7149501967307021 0.04859521226146246 0.3963302555089918 0.20066881542095955
0.71490442530119 0.049167063042449506 0.19367219511677375 0.20287673444794332
0.7167128661638342 0.051879638828532165 0.005747101314714599 0.1744441058910517
0.7149512914670643 0.047871378473342316 0.04174735062340076 0.2110043624505501
0.7153149489217365 0.04926364105415526 0.11425536367547867 0.2312595427255592
0.7147124016839284 0.04712936184822502 0.018444908857642363 0.19089026833821787
0.7166521880355101 0.05504267583044888 0.21149880299905754 0.18657867251543836
0.716461168596249 0.05470653963258869 0.23232485786176488 0.20306606873450503
0.7169642215018441 0.055739060066744284 0.24811151843818563 0.1874365080762824
0.7199802860411415 0.03366721568031648 0.5751324502574845 0.20073236555706872
0.7196025514562803 0.034198021699309425 0.6172472081414166 0.16315022309942298
0.7154483797153492 0.042095177029686584 0.6369366873826731 0.2058360862603244
0.7157631143013261 0.041362882963325846 0.6751089298762856 0.19701624896914904
0.7157513976708552 0.04091930570467989 0.5100018062026106 0.12978189828897008
0.7162806677642565 0.03980619973331685 0.5857721515837654 0.1624134959488557
0.7149704488649209 0.044801863164164984 0.4655332179667775 0.22457037072989997
0.7148700485830162 0.04469475712824129 0.3080280628581883 0.2155365258011259
0.7152317660027112 0.042493836954624005 0.48448805435764447 0.20542386627934167
0.716819671181188 0.05559068483702292 0.423936935701575 0.19272739513332274
0.717819395938706 0.05741634005434248 0.4808186296429189 0.19178003147197584
0.7156565243657247 0.052415137058396184 0.37525346741614163 0.20130200821325345
0.7149297905225263 0.04962173099423501 0.5971291424250605 0.23181091764692602
0.7149454016674013 0.04955078840590732 0.5502082248497873 0.19328509872948677
0.7149962744234666 0.050300396536089725 0.6508202543764336 0.15947291982316475
0.7151279914786034 0.050920088778939734 0.5698274811556115 0.21946213086125144
0.7149503871930917 0.04952783642091169 0.5351472031927113 0.23231135668960487
0.7184005601581845 0.03575153230370121 0.5436615375407278 0.23714311345286967
0.7180936756908503 0.035959029805752246 0.42258858202715965 0.20304909014486766
0.7185056521608348 0.035465607413064835 0.47428033228436844 0.18322683252292066
0.7214307360681698 0.03219345267310615 0.4537543893002811 0.19228582792467108
0.7187654820720517 0.03671679828486249 0.024212645702751525 0.20167203228218955
0.717426561897833 0.03695620081082351 0.2507273852022822 0.1913548748375997
0.7174198831550825 0.03811406425298711 0.1194428140960489 0.19438589177807677
0.7174178138025664 0.03828589617108681 0.1001640950965241 0.17546378051781808
0.7337343058606022 0.02706812969205607 0.2412418809323349 0.1759264188730109
0.7341343440813897 0.027027185392903184 0.3460642114647828 0.20131752128563
0.7422708634450794 0.06524966616311453 0.6004291710473513 0.19921684654182872
0.7417463638058387 0.06561137282238437 0.6664770766565142 0.22585276663896722
0.7523965470821017 0.056015586146264285 0.6344743362989029 0.18021053652920363
0.7526861226724983 0.05514082196040284 0.667691684613962 0.2171321393193452
0.7398575615099481 0.02829844925696108 0.13029101296306567 0.22639875117100722
0.7402056993973685 0.02907796747261447 0.03252942017106128 0.18597976452753356
0.7386248454798672 0.02817093833795742 0.07134350013200597 0.1663141640579127
0.7541435238219939 0.05131421574489038 0.6516472571831116 0.168212166669302
0.754463541364364 0.044441861217153183 0.6385569226630446 0.1910298497466436
0.7546000865525571 0.04742100984587021 0.4842267112024578 0.21277046264862912
0.7544449683699217 0.0488792084528695 0.615108636454953 0.2420808089019455
0.754396190202319 0.047265133129404335 0.6752859792519577 0.21243700171481894
0.7403490603594516 0.06607277483963032 0.5368058163996317 0.22242321794380537
0.7407894678521466 0.06596916833596232 0.5791620344516311 0.21848136712676766
0.7404187135761882 0.06608837544730406 0.4923315259178685 0.16523156145069223
0.7497449244951596 0.05980138576056629 0.6090470385468445 0.19111116666048034
0.750361193443382 0.05922390749114176 0.5193019125036156 0.17658777677642068
0.7490847643488773 0.06068553220701102 0.5451890273617539 0.2221344948237827
0.750217306232378 0.05930557153524174 0.5722898331580253 0.19666062724479655
0.739852831953005 0.06507691190361094 0.04216123573869111 0.22547547484750186
0.7398816652377908 0.06530393514010852 0.07826412896155806 0.19122867875870453
0.739419151018454 0.06513315578973244 0.023520000473176164 0.19151358733405405
0.7401075656972935 0.06509752054364717 0.061215307265710124 0.2100916412866623
