x y z curv
0.13509246034820027 0.2652423990040767 0.6140000224113464 0.16052296123105292
0.3687178202878999 0.5490105545360204 0.6140000224113464 0.1991233550379146
0.391216623509741 0.5791597060313943 0.6140000224113464 0.2811007256735592
0.27995546435896274 0.43718115406354885 0.6140000224113464 0.18693078808871794
0.23575722630262452 0.36216106013534544 0.6140000224113464 0.2739638995986813
0.18530683843904638 0.3347417975137587 0.6140000224113464 0.261813658987416
0.3029081186240812 0.46047718022175294 0.6140000224113464 0.1810822774046178
0.18452410075352133 0.3183448873978766 0.6140000224113464 0.22269231797111652
0.31444023680335226 0.49486935033667545 0.6140000224113464 0.15679956814627338
0.2751152159360284 0.4035581302334541 0.6140000224113464 0.18978559455180927
0.29151254525305603 0.4324131040645559 0.6140000224113464 0.18169385983339847
0.3428831224326397 0.49006674247055826 0.6140000224113464 0.17773039314789285
0.32474987451008797 0.4753914245882071 0.6140000224113464 0.16369360251111897
0.3246673016083953 0.5070328741789882 0.6140000224113464 0.16804209960751512
0.37936222202469494 0.557705819546095 0.6140000224113464 0.22512075102377788
0.19817947216719659 0.2795443806543487 0.6140000224113464 0.1943612338670833
0.16323954088701656 0.3126816146967009 0.6140000224113464 0.1870632707097256
0.3534291035323742 0.526632332082917 0.6140000224113464 0.1929336197883835
0.41515371509524296 0.614950169323961 0.6140000224113464 0.24063466796923758
0.2660941120140856 0.4102453035668965 0.6140000224113464 0.19888891189164168
0.24747273289310728 0.3344186774785039 0.6140000224113464 0.2667144762012165
0.3915812584118558 0.5665042300999958 0.6140000224113464 0.27220866770278646
0.1261737150240867 0.25382464185213804 0.6140000224113464 0.16994346630714144
0.17822424202053475 0.22569006109186462 0.6140000224113465 0.16249788075442576
0.17587149943135696 0.28091628917825395 0.6140000224113464 0.1825706469125245
0.26056761183135985 0.3997402393002474 0.6140000224113464 0.19234312321740668
0.19417745979126405 0.24256490665054337 0.6140000224113464 0.1753792943070375
0.44359565564439923 0.649147898191309 0.6140000224113464 0.16009332709181706
0.16255505493439085 0.24550073595558267 0.6140000224113464 0.171226622832148
0.2192180526799838 0.3815919670948304 0.6140000224113464 0.25628295931440653
0.234776775876875 0.3967000910618702 0.6140000224113464 0.187954647464539
0.1540984194867397 0.26837709493850564 0.6140000224113464 0.18857537187649426
0.26850893214452165 0.3810688994003026 0.6140000224113463 0.17737489518068703
0.2547600904635334 0.4123915027826931 0.6140000224113464 0.22129799511564205
0.25362757602390895 0.34611835126925156 0.6140000224113464 0.21333256346397272
0.22486138076337417 0.37259663146324395 0.6140000224113464 0.22201633700196385
0.36193223983224426 0.5085855602893387 0.6140000224113463 0.17662941436845553
0.18071551160881455 0.20643543201204584 0.6140000224113464 0.14385890043492475
0.18968135517712592 0.2868716010737414 0.6140000224113464 0.17102932381676375
0.2660436047776761 0.42294566854370136 0.6140000224113464 0.1929572697087824
0.3117540759854941 0.4700973723951482 0.6140000224113464 0.18310102635642772
0.25537456426861244 0.37645605735136484 0.6140000224113464 0.18732860585076538
0.13802798947085404 0.24033089456351547 0.6140000224113464 0.16293637747915568
0.2723918480652405 0.3915070981253597 0.6140000224113464 0.17618296570308153
0.2867758504884347 0.3820895365249394 0.6140000224113464 0.1859131324186641
0.14936791870056385 0.23961470097062634 0.6140000224113464 0.20917213803897328
0.2046857583273252 0.3437053073477785 0.6140000224113464 0.2627999144013437
0.13310436614775 0.28064564657637125 0.6140000224113465 0.1624237763194344
0.20034720796215263 0.25358166734149407 0.6140000224113463 0.18878299846685728
0.1951749801656325 0.29600880641213007 0.6140000224113464 0.2172249409576431
0.2955301144982152 0.4064959048799904 0.6140000224113464 0.1798089169657812
0.28216941031483267 0.41948001658757345 0.6140000224113464 0.17378906307768635
0.3374167536442489 0.47983174124987715 0.6140000224113464 0.1728197507348205
0.36557548588381883 0.5606243288200063 0.6140000224113464 0.24278743742579476
0.42005710000413543 0.6577021467280354 0.6140000224113465 0.1989444491436865
0.25044780000354405 0.46991544243612593 0.6140000224113464 0.17818264927610614
0.2102026436841434 0.3929778023296175 0.6140000224113464 0.2621772096364788
0.3252409299463106 0.5257503120201543 0.6140000224113464 0.16201383287842613
0.2775048617023323 0.4880984986259669 0.6140000224113464 0.16497698217702944
0.4371683123064413 0.6623910578041062 0.6140000224113463 0.1631843639202158
0.43684911792193054 0.6747349956997933 0.6140000224113464 0.15946524806411708
0.39272557671177183 0.6193085730597631 0.6140000224113464 0.2735106404813209
0.2706077299702087 0.4777744751138122 0.6140000224113464 0.18272553458604407
0.2250012386476552 0.40520279414201865 0.6140000224113464 0.22640623305186766
0.33508205020416226 0.5608982629399928 0.6140000224113464 0.24596327908805035
0.3026009687152196 0.5425707263835388 0.6140000224113464 0.17560663354032505
0.3882559536154178 0.6799474943960225 0.6140000224113464 0.16091913077345804
0.4236290195223181 0.680757241490259 0.6140000224113464 0.1605526535384402
0.266832249280905 0.4978687477919917 0.6140000224113464 0.1963918748623738
0.3639758371701497 0.6195728115960638 0.6140000224113464 0.2734877582218023
0.3795324207440765 0.6127923416022831 0.6140000224113464 0.2596832923416286
0.4104834568231022 0.638066980317158 0.6140000224113465 0.18258294756350518
0.3072460165298557 0.5130800565807164 0.6140000224113464 0.18414056550849853
0.3438960599676395 0.5411450616100765 0.6140000224113464 0.20748674990468993
0.3507868231277714 0.5658652553048568 0.6140000224113464 0.26704924133025815
0.2943725450448163 0.5271650895352887 0.6140000224113464 0.18681769561311948
0.23287416831292979 0.4205129923058838 0.6140000224113464 0.19044930136467034
0.4044196791482018 0.6185990679262546 0.6140000224113464 0.2562898537865819
0.41958144395319924 0.6693040748445038 0.6140000224113464 0.1730283709340724
0.37935043574824195 0.6240090070630184 0.6140000224113463 0.2342342381428585
0.17111585827572717 0.33962445684203657 0.6140000224113464 0.24302869089604232
0.24549511692819243 0.42242947258432073 0.6140000224113464 0.19171671104145604
0.28015221377021604 0.5293679216819961 0.6140000224113464 0.19094022272445169
0.32541667285539577 0.5652975871737335 0.6140000224113464 0.2840110861849355
0.4100424729052551 0.6753342705426406 0.6140000224113464 0.1698537063190932
0.2140270325081571 0.4121522955532938 0.6140000224113464 0.21933171139817315
0.3981828932987713 0.6463965783692384 0.6140000224113464 0.19247999788165018
0.4008249036127833 0.685317362604145 0.6140000224113465 0.17304923212145482
0.28699034368095927 0.517416862791567 0.6140000224113464 0.184965349268237
0.2546684402528729 0.48675522516810765 0.6140000224113464 0.18235422961043726
0.198732718945954 0.37301554930505065 0.6140000224113464 0.28895471591105215
0.33746071829135704 0.5312267340342329 0.6140000224113464 0.19165337743820146
0.31350767107969363 0.5338609248938353 0.6140000224113464 0.19430525148381897
0.38570236973641764 0.64776991359785 0.6140000224113465 0.1873479796964527
0.4317475303957356 0.647578368071613 0.6140000224113464 0.16705742521715802
0.2895678784670047 0.4799578766871262 0.6140000224113464 0.18001224559704743
0.40477793946363916 0.698264987230179 0.6140000224113464 0.17800484197857583
0.3204390076982382 0.5951910798442768 0.6140000224113464 0.3004350495407375
0.26696186649235654 0.5106828924697631 0.6140000224113464 0.18904744632832549
0.38586292013806434 0.6591260947180821 0.6140000224113464 0.19212092806901523
0.3508483650068201 0.6193837128987921 0.6140000224113464 0.23905061947772024
0.2593166350662934 0.4633388340066185 0.6140000224113464 0.18560260636745335
0.28856047921249295 0.5409986727369984 0.6140000224113464 0.17012146357004224
0.3534987459485398 0.6374904090443432 0.6140000224113464 0.2060326762295993
0.16031447026816592 0.3335734505187221 0.6140000224113464 0.19710801626508972
0.2527932679237206 0.43797397189742965 0.6140000224113464 0.1795283859039515
0.3119524940501258 0.5616942890161392 0.6140000224113464 0.25545108569496666
0.24427822739110638 0.4511683494668567 0.6140000224113464 0.1731397540085782
0.3707637463934421 0.645725672679206 0.6140000224113464 0.18147710908665537
0.3239994999098321 0.553885226616856 0.6140000224113464 0.21466911431653996
0.3637821076124932 0.6591605038514083 0.6140000224113463 0.1788338829184536
0.4472970300833972 0.669702145595478 0.6140000224113464 0.16429880078893952
0.2678332355381274 0.4565323415891346 0.6140000224113464 0.18318672294827126
0.3898527078000981 0.6946891870683038 0.6140000224113463 0.1803102218298473
0.42507165780077205 0.6976026328158657 0.6140000224113464 0.1423331534739597
0.37865608300209935 0.6735012096117365 0.6140000224113464 0.18724183344124337
0.3824811127261634 0.6373564107488551 0.6140000224113464 0.19702325313646152
0.2995702227680742 0.5011441059063673 0.6140000224113464 0.1750387904311999
0.3983115909109296 0.6724267661455521 0.6140000224113464 0.1780214578100328
0.23143038408532562 0.4516954303275446 0.6140000224113464 0.19462098711131484
0.1718653610489781 0.35768606732986824 0.6140000224113464 0.2870390097327856
0.41126748062904733 0.6484394278530349 0.6140000224113464 0.19122583103133647
0.37516198438605963 0.6007648732759951 0.6140000224113464 0.3017285753748167
0.23070327975528893 0.4378280386974879 0.6140000224113464 0.19365362597553054
0.400284601337659 0.7088849691135778 0.6140000224113464 0.12355346565253235
0.3367814777240848 0.5494819858380873 0.6140000224113464 0.23591432209902977
0.18736855934220126 0.35872511481929376 0.6140000224113464 0.2707168471244549
0.27582693904526245 0.5181865458716894 0.6140000224113464 0.1956331440547131
0.42458196329830067 0.6319002879518659 0.6140000224113463 0.23468728370274095
0.27941717149216816 0.47062770880341587 0.6140000224113464 0.18128178557448707
0.43533164811968345 0.6930779796111586 0.6140000224113465 0.14496135904139928
0.1509736525776722 0.3156646710212243 0.6140000224113464 0.17746107404935077
0.13913445298818614 0.3040778738166213 0.6140000224113464 0.18251505989497926
0.40699887060174045 0.6618220129692621 0.6140000224113464 0.20240465976947591
0.28255320828050284 0.503364827205213 0.6140000224113464 0.18970186922752993
0.23728643122278933 0.46560816966181073 0.6140000224113464 0.18904349186461986
0.11128217457045643 0.3189714024642071 0.6140000224113464 0.1915727870819644
0.20088743512312784 0.4746575218407794 0.6140000224113464 0.1658324542745356
0.1907298810721658 0.48066986154347 0.6140000224113464 0.18300951524908066
0.15151117866115857 0.39661142161229035 0.6140000224113464 0.2859165528103257
0.20480758727332254 0.4611620395931711 0.6140000224113464 0.18320582423719672
0.09652669656724668 0.329640790905542 0.6140000224113464 0.17721325239914176
0.07681312477670783 0.306867660234483 0.6140000224113464 0.1735732895638088
0.1105103974612941 0.3636230160219718 0.6140000224113464 0.19602590359158095
0.13686119663092228 0.4115628389327889 0.6140000224113464 0.26889745903118856
0.22550903833646802 0.521777444739282 0.6140000224113464 0.17044417958432315
0.09713543424691362 0.3418607070348644 0.6140000224113464 0.19181284782070826
0.24453121583622517 0.4811822680291863 0.6140000224113464 0.19041487841958646
0.31622459322928187 0.619477499706532 0.6140000224113464 0.2256352138680971
0.10244659763418927 0.28217368377736074 0.6140000224113464 0.13224981068300573
0.11424448805835384 0.2831519991791071 0.6140000224113464 0.17256840714156557
0.160388274796118 0.3641691597642652 0.6140000224113464 0.2621927520544267
0.1209406726291598 0.3866329897865671 0.6140000224113464 0.19736274167092951
0.14978468190952005 0.3478627409160158 0.6140000224113464 0.19682904886716004
0.22015104949023065 0.4474918223105162 0.6140000224113464 0.1932841917877883
0.1393542758027109 0.3607931052721005 0.6140000224113464 0.18837532761289608
0.11870719116513975 0.40457926356123375 0.6140000224113464 0.20832613450379997
0.11781988834193777 0.2953928136901515 0.6140000224113464 0.1536004888832139
0.2543338548069286 0.499574146690331 0.6140000224113463 0.17770712343081477
0.21494144092700354 0.4361569532030338 0.6140000224113464 0.19166210188741056
0.13141915713634808 0.3853180895106735 0.6140000224113464 0.17993837881453778
0.15150841973592805 0.3805967238903878 0.6140000224113464 0.26939806653334897
0.12294920058385381 0.36117626850839213 0.6140000224113464 0.1916932097439253
0.18384359709165565 0.4606315408908375 0.6140000224113464 0.22698914121874061
0.058236130760806526 0.3434934861544596 0.6140000224113464 0.1855588822513578
0.16190738964870058 0.35110771907283544 0.6140000224113464 0.2304935254184152
0.09957192568868362 0.30765554096746084 0.6140000224113464 0.16292749063648412
0.26289224700621094 0.5365486342907225 0.6140000224113464 0.1737042202113109
0.165162316060719 0.45491101234536924 0.6140000224113464 0.27110195904381673
0.33777869912370667 0.6498046233778898 0.6140000224113464 0.17662701140056503
0.29358539948555185 0.5590290104751926 0.6140000224113464 0.23966717241372965
0.09715066709881252 0.3602552383071409 0.6140000224113464 0.180358018242441
0.18738474403563646 0.4471523381686666 0.6140000224113464 0.2373986707228976
0.0655693200316482 0.3340299291101239 0.6140000224113463 0.16370724921356908
0.290155058706012 0.5698705497807794 0.6140000224113464 0.2626230462087139
0.11274604781381008 0.2702583957039501 0.6140000224113464 0.15426994493887153
0.2351491958033279 0.5118122042221684 0.6140000224113464 0.1788551194233352
0.16685330541940588 0.4433100243992638 0.6140000224113464 0.2733430144739373
0.11795217721819062 0.3502467272094714 0.6140000224113464 0.18708196273389877
0.2609659026889475 0.559861896293103 0.6140000224113464 0.23672758220435305
0.07614115961033713 0.33382990148323166 0.6140000224113464 0.17501387589531545
0.22451904055184765 0.4600226744640815 0.6140000224113464 0.18919562345955607
0.19870580537800642 0.4512082094770497 0.6140000224113464 0.2079268281902021
0.0813206919885629 0.32396574953579016 0.6140000224113464 0.16689567987687198
0.23659992392572182 0.4900693716633944 0.6140000224113464 0.1733685033926419
0.34097195615718445 0.6387171491696596 0.6140000224113464 0.21124318713926982
0.3308772219642658 0.6201910876318767 0.6140000224113464 0.2526798334288881
0.08385669492017275 0.3511290483991992 0.6140000224113464 0.1715469927440493
0.1911076220420537 0.42910295836380896 0.6140000224113464 0.2691049836486507
0.14197391188969916 0.3342684460974519 0.6140000224113464 0.188716945233539
0.2724866124506787 0.5633023535151244 0.6140000224113464 0.2310646885648132
0.19446765365365518 0.4182758709430995 0.6140000224113464 0.25295421516423805
0.24531880637804676 0.5357931421940559 0.6140000224113464 0.17032577202468654
0.26574792941971365 0.5482131299137315 0.6140000224113464 0.19000899998828374
0.06766322165239029 0.35365577730594494 0.6140000224113464 0.17152610588395462
0.24356301090326812 0.5007274491680735 0.6140000224113464 0.1798362266496426
0.3143951443527456 0.6058286087405339 0.6140000224113464 0.2920556886753272
0.13019645144180883 0.3299295151874567 0.6140000224113464 0.1697516447558494
0.13796522517554838 0.31733103770844223 0.6140000224113464 0.18988349615538339
0.12324625887960554 0.30576172580924454 0.6140000224113465 0.1886876940565588
0.1271269541549827 0.34279814052246815 0.6140000224113464 0.18013468552842593
0.26531788247239635 0.5252274640046194 0.6140000224113464 0.18151643313040916
0.10730484603253801 0.3346075787717645 0.6140000224113464 0.21533326783311557
0.12676701570832474 0.373535268425532 0.6140000224113464 0.2035828591180587
0.20740948983507435 0.4234040224151905 0.6140000224113463 0.1913140407841285
0.221978636005522 0.4910270404185789 0.6140000224113464 0.17461264581450547
0.14783210834774713 0.3704147934444521 0.6140000224113464 0.2444503449881926
0.21887572673115832 0.47214259022020316 0.6140000224113464 0.169523997634596
0.20436994274611422 0.4889445121801209 0.6140000224113464 0.17921199058118598
0.09190518435022063 0.3190369719296487 0.6140000224113464 0.18387248258397884
0.17108010819221475 0.46566593026981984 0.6140000224113464 0.24784891941257692
0.2486152724170582 0.5195351377513666 0.6140000224113464 0.17073593289657674
0.23848773137027793 0.5243180374693329 0.6140000224113464 0.16609388384452464
0.1317729875893426 0.3980218510372926 0.6140000224113464 0.21721079319056605
0.18206295068831171 0.47342466272865585 0.6140000224113464 0.20549541937005536
0.2219012652040008 0.5041073218942675 0.6140000224113464 0.18481480465106936
0.3540049580495998 0.6518671614010083 0.6140000224113464 0.16724555472378524
0.20430790083018444 0.43737279782513827 0.6140000224113464 0.2071457579513724
0.22685679934088407 0.4816597515532118 0.6140000224113464 0.18954573845781522
0.2543406130241732 0.5427796601796829 0.6140000224113464 0.18329388599582486
0.0830101364550512 0.3650765015068425 0.6140000224113464 0.17881957163914886
0.10232683652981492 0.3789793445844951 0.6140000224113464 0.18872048945614428
0.09105716448360052 0.2964024600943702 0.6140000224113464 0.1692388397202617
0.2767911518230145 0.5525795069065319 0.6140000224113464 0.2226998692992015
0.1803523455372772 0.511002663191842 0.6140000224113464 0.1846345015068951
0.05246718771872588 0.4096767003721798 0.6140000224113463 0.17593890041135918
0.30207877408905126 0.6227688703760779 0.6140000224113464 0.23897981895164722
0.16036233227750205 0.4875268429832751 0.6140000224113464 0.23596800411453675
0.2441100016566437 0.5673862676854231 0.6140000224113463 0.24315465364903327
0.12561414356830192 0.43247040661636915 0.6140000224113464 0.2654081782091157
0.04683400996870982 0.39995484477381915 0.6140000224113464 0.17302605355814574
0.11125470962854109 0.4366472893495927 0.6140000224113464 0.2097128216169638
0.08392850455866327 0.4310249386404549 0.6140000224113464 0.16575040496769505
0.2695987361893008 0.5988718077185797 0.6140000224113464 0.2690468673436233
0.0927449444987393 0.40803788225503235 0.6140000224113464 0.21480847167296913
0.2227047665064073 0.5332580605104607 0.6140000224113463 0.17439523284581568
0.17378295711607794 0.48318379919955146 0.6140000224113464 0.20216625906018854
0.2103308098187117 0.529029368856641 0.6140000224113464 0.1776872924389566
0.12188014210585987 0.4697198872851079 0.6140000224113465 0.27476901972808476
0.25672758319499106 0.5714240645539893 0.6140000224113464 0.2711412917819396
0.32702219513868397 0.6398434866466313 0.6140000224113464 0.20848959479315288
0.03204804187402608 0.3871814343625934 0.6140000224113464 0.16705158054220776
0.09480337213008572 0.420117416762823 0.6140000224113464 0.1950601989136563
0.15995260837880126 0.46685216786145145 0.6140000224113464 0.2684458238862939
0.24836231876193857 0.5563556154277771 0.6140000224113464 0.23533886244228064
0.04308541071838391 0.3561176820212323 0.6140000224113464 0.16199672916459615
0.2032859532319346 0.5193359340250655 0.6140000224113464 0.18599733262251905
0.07807816196047569 0.41273257395008334 0.6140000224113464 0.20418829162916635
0.19179678769501213 0.5209186614846175 0.6140000224113464 0.19153088898395063
0.37634379820940655 0.6929900616833655 0.6140000224113465 0.16673817498310697
0.31553774739554263 0.6413022162027153 0.6140000224113464 0.1974311166106415
0.07105626555481583 0.36348119610194374 0.6140000224113464 0.18242402154629142
0.2242542425620208 0.5495086391446022 0.6140000224113464 0.2026359094845241
0.17592657992571958 0.4970941157229413 0.6140000224113464 0.19543069348441455
0.06294611466827088 0.37349111622327485 0.6140000224113464 0.17191728548079868
0.06562998030883638 0.38807322016600576 0.6140000224113464 0.18147615325044258
0.08485992761754839 0.3782456734454534 0.6140000224113464 0.20500828129919715
0.16859136628753646 0.5067651157568336 0.6140000224113464 0.2097091516327711
0.23411969707476374 0.5587549365841357 0.6140000224113464 0.24060583188655105
0.12037967184574204 0.4426420423542883 0.6140000224113464 0.2822741802764365
0.14212631892243044 0.44962743233406394 0.6140000224113464 0.29874107122714966
0.3631018423812638 0.6832369361508219 0.6140000224113464 0.18841457188372324
0.14940327907467743 0.47149514729596703 0.6140000224113464 0.3072110039067917
0.055924085769776304 0.3540705432059285 0.6140000224113464 0.1791044362961412
0.050641600154010924 0.3714492659803673 0.6140000224113464 0.16243218439007598
0.02656898856307517 0.37740736335596936 0.6140000224113464 0.1267916110640484
0.03925594442270623 0.37248580421548527 0.6140000224113464 0.18227788305088752
0.09684057581952757 0.4327621407117707 0.6140000224113464 0.17050222783201946
0.13413264836338668 0.4684140769258843 0.6140000224113464 0.25947397116796755
0.20475619991335914 0.5434083363429425 0.6140000224113463 0.19962418577303986
0.05086110460740327 0.38861333424378075 0.6140000224113464 0.15503520947525595
0.20507328091300758 0.5076431870995568 0.6140000224113464 0.1739152733319885
0.08542936406880831 0.3968600089549701 0.6140000224113464 0.1778636072901413
0.07559753224951296 0.392302235996195 0.6140000224113464 0.20069658112540883
0.10725841993827588 0.4176038836884016 0.6140000224113464 0.1969893700209269
0.19486097445969205 0.4990240102474774 0.6140000224113464 0.1774784918883068
0.1029296508324603 0.3984500223758145 0.6140000224113464 0.18097026128486976
0.2348398963192133 0.5470455434941637 0.6140000224113464 0.20822614213362178
0.04487533042180804 0.3443402554003769 0.6140000224113464 0.16644825662746543
0.11835570745363962 0.4169843419826935 0.6140000224113464 0.20252790592156522
0.042213633638977406 0.5723875821302891 0.6140000224113464 0.25639516949614155
0.035833900599235795 0.5392033386381936 0.6140000224113463 0.18192328149236534
0.0442204065637287 0.6050644806554347 0.6140000224113463 0.19815261212611132
0.02721706979577828 0.45243589930784184 0.6140000224113464 0.16212670204995056
0.018866730811024825 0.41943426194586775 0.6140000224113464 0.15946117177279676
0.01405923853516889 0.46790005054409706 0.6140000224113464 0.18490016836405845
0.031758495332500726 0.5507373775069248 0.6140000224113464 0.17882809658715323
0.025185095644590733 0.4774218572727389 0.6140000224113464 0.18749916629010197
0.030540470961346836 0.46570586955769755 0.6140000224113464 0.17685408443015035
0.03417829727410604 0.5631057265979877 0.6140000224113464 0.174852274330568
0.029185664075868152 0.4882807220069446 0.6140000224113464 0.17496231946894997
0.018592740085942226 0.43644144634664483 0.6140000224113464 0.1838897209188322
0.027922156244668452 0.5007142292445684 0.6140000224113464 0.1725758920164822
0.30122180715726243 0.6845030904190884 0.6140000224113464 0.17420824951103123
0.08749399283170257 0.6294462511257454 0.6140000224113464 0.2495895564083271
0.057052910787450145 0.5443902847798089 0.6140000224113464 0.2457669077573573
0.16219749427232286 0.6618963593193621 0.6140000224113464 0.18023153518573987
0.19176514365061081 0.5391319563952703 0.6140000224113464 0.1811224327994126
0.07786490668782133 0.45417263415355646 0.6140000224113464 0.1889903660543974
0.32145535120336993 0.6709080540266963 0.6140000224113464 0.18720752146072753
0.09913191675815561 0.5654737221979323 0.6140000224113464 0.2559432619969686
0.048500555859721864 0.5069853965433626 0.6140000224113464 0.17483753585363065
0.030797796825843222 0.4392750119518928 0.6140000224113464 0.15956535021355994
0.028556320639282776 0.4148690717053973 0.6140000224113464 0.18458621364292221
0.13360522795663007 0.5956480595527854 0.6140000224113464 0.2599923584894123
0.2116713749184046 0.5521800991574676 0.6140000224113464 0.21447544693069936
0.10244104129994 0.6498045866528711 0.6140000224113465 0.14977928244238006
0.0550459923856956 0.6016110138880356 0.6140000224113465 0.28547273401534934
0.16673715431079292 0.6332894626580626 0.6140000224113463 0.1698594071801605
0.20448208456781036 0.6351149079148402 0.6140000224113464 0.2078670890415183
0.3483675982894248 0.700800240976435 0.6140000224113464 0.16071399839320716
0.04601103492185342 0.5453694353125951 0.6140000224113463 0.22776835534201792
0.08625723011335039 0.49667238442954986 0.6140000224113464 0.23932513714506726
0.12795011404287782 0.501754616037845 0.6140000224113464 0.2707721058612382
0.2592195009569811 0.647666906010125 0.6140000224113464 0.1898315339226238
0.2352139694778508 0.6458934444083808 0.6140000224113463 0.1939271676583245
0.16201322741447408 0.5313215968234118 0.6140000224113464 0.17247065041326948
0.16348571595324687 0.516867408653266 0.6140000224113464 0.2031756344718539
0.14133618025127254 0.5610316002107123 0.6140000224113464 0.23241596858715044
0.34264992330206895 0.674475228459542 0.6140000224113464 0.1658421013622917
0.05184581088604558 0.46145548384024293 0.6140000224113464 0.17833539321597033
0.19886102382317838 0.6503719195711711 0.6140000224113464 0.18504706699636894
0.1010637599061232 0.5537937482861691 0.6140000224113464 0.2751466245416979
0.16276336898977717 0.5586793575607717 0.6140000224113464 0.23340264517575798
0.1294398225323544 0.5610643966688498 0.6140000224113464 0.2887151122663038
0.27567590773808537 0.6726970065947788 0.6140000224113464 0.17596576571636668
0.08585093481296882 0.6406686702947973 0.6140000224113464 0.17562862871014415
0.15262885208738508 0.5122230065207596 0.6140000224113464 0.2284656551051612
0.27941385176503203 0.623055720233981 0.6140000224113464 0.2556007147833365
0.16623892988234418 0.6197008063335496 0.6140000224113464 0.2708419760007626
0.07084059416531059 0.5275161747226753 0.6140000224113464 0.248035517107894
0.036850663525864885 0.4069886667260968 0.6140000224113464 0.1837983557185497
0.07855785351083745 0.6187594180296385 0.6140000224113464 0.24779217657112929
0.3220548100383926 0.6930990207906942 0.6140000224113464 0.16907040251194905
0.19439646214439785 0.6171269957328601 0.6140000224113464 0.2561886192145057
0.21600386998361815 0.6738523278565122 0.6140000224113465 0.17357740825325488
0.0906605094320729 0.4754530114461934 0.6140000224113464 0.19275504744059035
0.2697385508079351 0.6633040304557452 0.6140000224113464 0.17674721681598887
0.21016474052662062 0.6470076667098555 0.6140000224113465 0.1949846870043325
0.03937594497120818 0.5166857273436519 0.6140000224113464 0.16997788998008778
0.047996409959140146 0.4230252620589821 0.6140000224113464 0.1858578336183843
0.0769753676052661 0.48830381209105145 0.6140000224113464 0.19187505940300972
0.07772999982375194 0.6031974144671957 0.6140000224113464 0.2387191351013707
0.24533093569605124 0.6278270754083614 0.6140000224113464 0.23083870359584044
0.04906867869728655 0.4350522865331483 0.6140000224113464 0.20486108019410787
0.08706875940501502 0.528203906923358 0.6140000224113464 0.31060245884338145
0.06348173450056635 0.5354444467634047 0.6140000224113464 0.22748501686933992
0.12612759809726518 0.6415339500712421 0.6140000224113464 0.16597255576186268
0.06495799605225605 0.5781159313574504 0.6140000224113464 0.2501648020345701
0.1789042754409014 0.5504763957780032 0.6140000224113464 0.21974076586000957
0.12659496541966667 0.5387095486609265 0.6140000224113464 0.25800312449738816
0.20842266378110985 0.6222657047112345 0.6140000224113464 0.24091580357163572
0.12884963516645104 0.6252272194616155 0.6140000224113464 0.24366774695386398
0.15803323215672516 0.5425862419630044 0.6140000224113464 0.2019186330501635
0.14074168367026593 0.5823662622376433 0.6140000224113464 0.27314416046700946
0.11695616760888526 0.5544653610020857 0.6140000224113464 0.26367459673443916
0.34149116395154133 0.6855455669677288 0.6140000224113463 0.1733451949846303
0.06492603778864431 0.4890363231204029 0.6140000224113464 0.1686364389840397
0.05435132570710242 0.5560236700420077 0.6140000224113464 0.2797298256772045
0.05764067470083753 0.4517485483712141 0.6140000224113464 0.1951549137009583
0.0707192704484488 0.43486673818889715 0.6140000224113464 0.21208134457844002
0.15526756096694283 0.6310971608086646 0.6140000224113464 0.20852443264856146
0.0980174377657376 0.6147556439632061 0.6140000224113463 0.25287636519108436
0.20487674863659341 0.561657090412091 0.6140000224113464 0.26686886038667645
0.1352014889399641 0.5300987821580183 0.6140000224113464 0.23412897094919366
0.297721519991208 0.6461181755984196 0.6140000224113464 0.19920977051899505
0.38762819236113694 0.7088383407383425 0.6140000224113463 0.18091019078722892
0.22572942262845486 0.6215550500924644 0.6140000224113464 0.2545252160882431
0.15187574977428825 0.562433016583957 0.6140000224113464 0.23821139635143992
0.08037471555022167 0.46583924533118787 0.6140000224113464 0.17915480788720145
0.25961085373535603 0.6593254624339187 0.6140000224113464 0.19375669362905054
0.18663668796449018 0.6422997051881252 0.6140000224113464 0.18960112021608094
0.26649770044199833 0.6153735610360052 0.6140000224113464 0.2763844177563051
0.053692406590780936 0.5741033695119588 0.6140000224113464 0.2589838725772864
0.3231806770852712 0.6545605544829161 0.6140000224113464 0.1725433039751634
0.0958068088627776 0.46072866145324776 0.6140000224113464 0.2542427956146001
0.2838572209620705 0.6452261322971785 0.6140000224113464 0.19405707494509583
0.0761489703555041 0.5024860187525556 0.6140000224113464 0.23788866457249322
0.11292208443612792 0.6150242638651421 0.6140000224113465 0.2904297842861252
0.060278481505073214 0.43824968133020187 0.6140000224113464 0.18875357594953493
0.06536467748141454 0.6415107604198165 0.6140000224113464 0.18513771256386508
0.2626880237736811 0.6847453283733337 0.6140000224113463 0.17516454738213563
0.2851816462660219 0.662320900409695 0.6140000224113464 0.16412460446027358
0.1489917139124329 0.6184555316467413 0.6140000224113464 0.2663202743613715
0.09914482835385932 0.5157163796947207 0.6140000224113464 0.2860588238028407
0.0906278241694379 0.5079569718345784 0.6140000224113464 0.2821033934506889
0.2511656982863076 0.6759409190373066 0.6140000224113465 0.1787648573742433
0.045434484154689994 0.5267938120268676 0.6140000224113464 0.19150547665735654
0.16959267342986317 0.5457984319079189 0.6140000224113464 0.18339536128777584
0.2379810907141673 0.6674324919559039 0.6140000224113464 0.1868830307786155
0.1700524443029388 0.5810106392519951 0.6140000224113464 0.2692969136995007
0.2844153791899694 0.6850744251199165 0.6140000224113463 0.16787340039177337
0.042422992098131704 0.47441656907309104 0.6140000224113464 0.19746718817882772
0.17382054860727716 0.5653810667120209 0.6140000224113464 0.25873349757569664
0.12309038566440299 0.6075584342497153 0.6140000224113464 0.2852631055787684
0.07613651961972723 0.5789443510408736 0.6140000224113464 0.24099702038188087
0.21285284781716565 0.597794357454533 0.6140000224113464 0.2712502171142338
0.1945566451856522 0.6605887216330815 0.6140000224113464 0.18788178907235573
0.22652520917492142 0.6571410857652125 0.6140000224113464 0.18542989627725634
0.18637652499191792 0.5604171554556505 0.6140000224113464 0.24688636417345888
0.10755189375601205 0.47013070933233025 0.6140000224113464 0.3038989185617303
0.2203897134633993 0.6399683414654814 0.6140000224113464 0.20330351558611762
0.10439018420130615 0.6269508544171262 0.6140000224113464 0.22488796163684943
0.059851732132313394 0.49921555193063966 0.6140000224113464 0.17981306178756679
0.09908699516607264 0.48674834695662017 0.6140000224113464 0.2510373590952469
0.2912549870092242 0.6260184237896008 0.6140000224113464 0.24789690362750844
0.15547302193705803 0.5014740069956072 0.6140000224113464 0.1967523337212048
0.05341855071525891 0.6176895512081356 0.6140000224113465 0.1989743529893216
0.1359166991987969 0.5718986102443872 0.6140000224113464 0.26598568662787964
0.35319695267270657 0.6764965167741286 0.6140000224113464 0.16319056737755494
0.04185450760121648 0.4558243760967387 0.6140000224113464 0.17877282715794574
0.15830508649593322 0.5723683167224745 0.6140000224113464 0.2756486640577943
0.27044286039898435 0.6427479066935683 0.6140000224113464 0.19305102296981608
0.06708313648231683 0.5141352053705748 0.6140000224113464 0.19873374153178924
0.1373795318817035 0.6167983927691489 0.6140000224113464 0.2383747568528426
0.3605730436460936 0.703023406548619 0.6140000224113464 0.15070412100604744
0.05322527874360106 0.4860020902574279 0.6140000224113464 0.1967599910554482
0.10957367250080878 0.5883160217724724 0.6140000224113464 0.26812837206366286
0.30909880166756765 0.6572850840391742 0.6140000224113464 0.1739522351842054
0.14720889386305056 0.5309606367794804 0.6140000224113464 0.1883985914627991
0.027413264526697914 0.39830969185345033 0.6140000224113464 0.16105247360804095
0.22673157559519344 0.6748017041179959 0.6140000224113465 0.18050534463656043
0.14869179123376272 0.6594033774967578 0.6140000224113465 0.18149144668895617
0.18189709684079042 0.6611464085527108 0.6140000224113465 0.19680231516465682
0.27695120254966327 0.6093722650524553 0.6140000224113464 0.30340958504382964
0.22870231535101665 0.5855729393671785 0.6140000224113464 0.2625467423087425
0.13647160388622737 0.5495796642079256 0.6140000224113464 0.19915583580343704
0.2339145035526829 0.60868372515596 0.6140000224113464 0.26939659507462527
0.20754327098553668 0.662037747996881 0.6140000224113465 0.18187628554977228
0.3042536534332116 0.6345591569907628 0.6140000224113464 0.24426215785227182
0.2599867257946282 0.6327763129654179 0.6140000224113464 0.2050977843339498
0.06337239209917325 0.6313284420568052 0.6140000224113464 0.20168213300986312
0.1952692031193767 0.6303713217200118 0.6140000224113464 0.22078294333043944
0.15536278645175802 0.6420629070228626 0.6140000224113464 0.189876635771798
0.11584341767827001 0.634656385973791 0.6140000224113464 0.16956380260774537
0.23594770875164564 0.6805942340280248 0.6140000224113464 0.18880511899811975
0.3315665612940031 0.6788805625404546 0.6140000224113463 0.17746096357213775
0.14160724386064158 0.5164034924816402 0.6140000224113464 0.22676221688497483
0.24812688051652085 0.6145761283249731 0.6140000224113464 0.2877009649683213
0.07987262545942159 0.5166894030972464 0.6140000224113464 0.27203559311502584
0.14062572703098294 0.651120874059518 0.6140000224113463 0.18972371770109892
0.24784578456090037 0.647591854913121 0.6140000224113465 0.18013247132858046
0.08783939133376284 0.4490553112779297 0.6140000224113464 0.16943830673650054
0.11514538750893226 0.6479699424503859 0.6140000224113464 0.1744491121665169
0.0529260118908705 0.5163459835616713 0.6140000224113464 0.1850444278457039
0.1838800839338518 0.5305011139022806 0.6140000224113464 0.1800234520808057
0.06517940668236968 0.42217972844334806 0.6140000224113464 0.1882954363574384
0.27808148999304316 0.6336748900772918 0.6140000224113464 0.21854075747369936
0.04675911746849497 0.4945564757013521 0.6140000224113464 0.17851768234394602
0.30878770915655923 0.6713331437063994 0.6140000224113464 0.1734492048068461
0.24819151093467795 0.6629863381873956 0.6140000224113464 0.18270939239680606
0.08197480844204261 0.5430175930235346 0.6140000224113464 0.28274302272560187
0.33453506116847215 0.6646325434488388 0.6140000224113464 0.20383784156493498
0.23120520453625829 0.6334611057779619 0.6140000224113464 0.2187480027346322
0.31566911418495686 0.6817932920280135 0.6140000224113464 0.18093587248987544
0.1400321915629537 0.6376425999598674 0.6140000224113465 0.1857628556964643
0.22184386566047115 0.5608028563946973 0.6140000224113464 0.2395016510632537
0.03232932343913483 0.4269686853659682 0.6140000224113464 0.15970296322078337
0.16762050952897903 0.6025488641306936 0.6140000224113464 0.28724753836418887
0.06755515667828209 0.47624963451239566 0.6140000224113464 0.18203823543838507
0.07654216996677092 0.6339887906827268 0.6140000224113464 0.2059919507710137
0.17577301288779365 0.6423742850019155 0.6140000224113464 0.18156114909857038
0.2930415079013669 0.674020505323947 0.6140000224113464 0.17852062395331245
0.16657794678873128 0.6507468024471023 0.6140000224113464 0.20293883300203552
0.011278900422906656 0.5015086697800529 0.6140000224113464 0.19047841897442777
0.016319896593390497 0.5322339427120237 0.6140000224113464 0.1636206340416875
0.0216895417406748 0.5212954911110782 0.6140000224113464 0.15901574015489878
0.022753605596803762 0.5449054975684375 0.6140000224113464 0.17912058504036882
0.019644628119411544 0.5094082414150994 0.6140000224113464 0.18496899397648467
0.0032334589725154 0.4649051758128617 0.6140000224113464 0.15018295124347433
0.03482777621707375 0.5939092578357321 0.6140000224113464 0.16349523878760683
0.003954695455713071 0.48978721194226804 0.6140000224113464 0.16450050605080088
0.01559063791060844 0.48797115600362484 0.6140000224113464 0.1634094949152359
0.020415911839756783 0.5611802626381397 0.6140000224113464 0.1561765639021051
0.0050260159701839896 0.5101447404926027 0.6140000224113464 0.17502494124903847
0.008972842172228292 0.5225347715743367 0.6140000224113464 0.13874882756650903
0.03126495782253777 0.5834585832625462 0.6140000224113464 0.20283034827997581
0.1421413990665173 0.6830511616073549 0.6140000224113465 0.18976853364256663
0.20191107492893778 0.6958931562831998 0.6140000224113464 0.186448939486125
0.28318836381085877 0.6996495684572162 0.6140000224113464 0.15831127690337318
0.24132969181251188 0.7139996390241391 0.6140000224113464 0.16104591401993454
0.19301395997675252 0.7046575942695601 0.6140000224113465 0.1593181336754667
0.1316449994498366 0.681411496492965 0.6140000224113464 0.18012514946111124
0.09285321189191509 0.6733749888108422 0.6140000224113464 0.19591568570687243
0.14644965337884977 0.6950995679720862 0.6140000224113465 0.17829372356195944
0.3720370424254787 0.7115066136692924 0.6140000224113464 0.16136990175044538
0.329244706415953 0.7048856365351518 0.6140000224113464 0.16804078960959784
0.27085449010671564 0.705971659736538 0.6140000224113464 0.17001006009929362
0.1614659572582079 0.7093876573878429 0.6140000224113463 0.1679812397764553
0.19084200114919397 0.6929536717748142 0.6140000224113464 0.19143072050579021
0.15315442221469716 0.6766414347391743 0.6140000224113464 0.2043520839966139
0.12004059636653264 0.685338501069433 0.6140000224113464 0.1721148185672378
0.22599625338915402 0.6885054822275909 0.6140000224113464 0.18559422069402903
0.226897990807848 0.7133967967394973 0.6140000224113464 0.17027944769101705
0.24153934829407975 0.6991445266013621 0.6140000224113464 0.18892355337144806
0.21399856720698243 0.7065140786391839 0.6140000224113464 0.17290857630950474
0.21455979234829908 0.6901206190941341 0.6140000224113464 0.18336970582344742
0.3171785494356783 0.7029765496838374 0.6140000224113464 0.18544081789721523
0.2574603783682277 0.7052803374237189 0.6140000224113464 0.18327267000449
0.28051458011612695 0.7142330901893491 0.6140000224113464 0.18315533141319257
0.12871334261205483 0.7031722001418411 0.6140000224113464 0.17449884149768538
0.1590656843479245 0.694433748490699 0.6140000224113464 0.1673079200412398
0.3494232574380395 0.7132841819213526 0.6140000224113463 0.14516158290741307
0.2483215206086575 0.6865447117719119 0.6140000224113464 0.1671802548393048
0.19988626149875935 0.674811890027667 0.6140000224113464 0.17085421518840607
0.16387368556708504 0.6738144135283026 0.6140000224113464 0.1833860730760774
0.1406012836055302 0.7074721238109376 0.6140000224113464 0.1558784662233302
0.3064762749659026 0.7123284561940962 0.6140000224113464 0.18883081807909682
0.06365420650297743 0.6539982638743975 0.6140000224113465 0.12197828516123155
0.1338061114799654 0.6932881121511898 0.6140000224113464 0.1656826931358307
0.17799480076324395 0.6775695699949674 0.6140000224113464 0.1775994120959835
0.07856271465206607 0.6495803707019839 0.6140000224113464 0.1862202303461463
0.2662926838772598 0.6953927037949679 0.6140000224113464 0.16697185109336363
0.17131541872554185 0.6997602764810968 0.6140000224113463 0.1607980057484684
0.3065434372292107 0.698210166122444 0.6140000224113464 0.20268707593581137
0.22747617890765956 0.7006283835010089 0.6140000224113464 0.17283189308260957
0.1223512647322566 0.674479631359711 0.6140000224113465 0.18364749317489548
0.1685076347750695 0.6858543683738098 0.6140000224113464 0.18194782122755723
0.08614056502704198 0.6605886707252768 0.6140000224113464 0.17207621465622158
0.17509153868248475 0.7101546625049431 0.6140000224113464 0.1664041953359923
0.18979066373509246 0.6793976408765672 0.6140000224113464 0.16008047734493303
0.13378884510534228 0.6659293626141947 0.6140000224113464 0.19450884106486513
0.11309207039188178 0.6636846036282172 0.6140000224113465 0.16075805235356821
0.10598475277976191 0.6842819891493372 0.6140000224113464 0.1713916093398404
0.07815238363175539 0.6702179089806098 0.6140000224113464 0.15373069964439304
0.08788439180465771 0.6833305944930773 0.6140000224113464 0.19638724258444312
0.1769964501091279 0.7306194444796059 0.6140000224113464 0.16834740737276335
0.20600882560943173 0.7402231670435704 0.6140000224113464 0.14155733803981635
0.26814912925634565 0.7160893870258287 0.6140000224113464 0.18612954749316257
0.25444878230471835 0.7340113464299594 0.6140000224113464 0.18228496104115924
0.22855716721629046 0.7290075948606665 0.6140000224113464 0.1945151726394563
0.1884383920363547 0.7168084892513229 0.6140000224113464 0.15365053254629954
0.3247561109234097 0.7177877429955092 0.6140000224113464 0.17390416259782135
0.2520325907548893 0.7199148579623476 0.6140000224113464 0.17473623522944973
0.2713442703703821 0.7316165078586576 0.6140000224113464 0.1584307243003056
0.16355574430841982 0.724578017995662 0.6140000224113464 0.14989044813084348
0.3339052846997592 0.7237250904749912 0.6140000224113464 0.15706755546539206
0.2969500196702233 0.735470446422114 0.6140000224113464 0.15431264185951735
0.24000833310072756 0.7248741342371262 0.6140000224113464 0.15597156012160832
0.22589722720532335 0.7416232007068728 0.6140000224113464 0.15178854895494373
0.21711312927657794 0.7328087885214192 0.6140000224113463 0.17986123572764667
0.32377659669243386 0.7288088223497659 0.6140000224113464 0.18125471658434658
0.3127733700880098 0.7240669694750193 0.6140000224113464 0.19519354948615122
0.361523625567315 0.7170445221783842 0.6140000224113464 0.14599339162246866
0.23856816041265205 0.7364973924245424 0.6140000224113464 0.15470474988086513
0.29686405169665975 0.7218239785417078 0.6140000224113464 0.17735863887569794
0.20409516497052052 0.7178806701765894 0.6140000224113464 0.15952041184972227
0.28544026927282806 0.74139941194983 0.6140000224113464 0.17947964140167422
0.266347345046469 0.742371166855488 0.6140000224113464 0.13632039664286497
0.7956451706155591 0.6392109669978805 0.6145541908599468 0.11317406699173906
0.7894577463288825 0.6379590355076707 0.6233001991062856 0.16511982773576495
0.8385314468152116 0.6478883547418873 0.6142823478617258 0.12022871767618018
0.8159893644832248 0.6433273061667825 0.6152400869404843 0.10020388451845684
0.8038357251951358 0.6408682015312442 0.6227641056460163 0.1783771371559583
0.7982701754746699 0.6397420969305976 0.6343692348121255 0.15668043235686344
0.8496992115360285 0.6501479826066435 0.6343787009073075 0.15713241235684164
0.8481112554345638 0.6498266837662239 0.6228041679456681 0.17931301493746074
0.8391683384293488 0.6480172201034087 0.6393669051243227 0.1160609087357604
0.8295352405819507 0.6460681088117525 0.626112577774241 0.1969816590673001
0.8150146060378827 0.6431300785747294 0.6290923370410931 0.1523323583043551
0.8284767425506001 0.6458539377841366 0.6396697730546587 0.14841169559932363
0.8586127446733576 0.6520647034334728 0.6270930318271253 0.18340952474903388
0.8726796331788707 0.6569259501609206 0.6258975260219469 0.16768145297882883
0.8659879305525892 0.6546134261453704 0.6159661395298929 0.13417930721884755
0.9117514475404432 0.6704284194259749 0.6148931038231058 0.14057187421396192
0.9011434433450124 0.6667624967409703 0.6203020762296018 0.16501702643300212
0.891486836925345 0.6634253588701853 0.6250256251748467 0.19404602623263198
0.8841625674389919 0.6608942318865938 0.6334615502480596 0.17011417513433338
0.9253180983315987 0.6751167935987766 0.6245638544492524 0.14305722778855942
0.9080588199733319 0.6691523181993768 0.6333104230701838 0.1647269627250107
0.9214282709088476 0.6737725438862853 0.6395946806627933 0.13222263336113355
0.727548582242374 0.6324969426674875 0.6182349625023311 0.15464659889601806
0.7434238446912033 0.6335549459775531 0.6168814088670453 0.14337990002455822
0.720284172643423 0.6320128077168914 0.6299288490479252 0.1693466958646716
0.7073104032489117 0.6311481737615368 0.6308166776966189 0.16567270035048043
0.7282672420588707 0.632544837589988 0.6369651176548836 0.12294587697432484
0.7591040196652992 0.634599947726562 0.6261304738751166 0.1714126266849186
0.7426613769032807 0.633504131482609 0.628486244174187 0.1512682795260358
0.5424974500903427 0.6517229333963552 0.6357052137760626 0.16886387527362245
0.5723340203810913 0.6456859557823782 0.6146340896081736 0.10497976808157537
0.5563737880945709 0.6489152667952955 0.6334077720652509 0.17632901984968788
0.5531749765389693 0.6495624978129466 0.622588809410285 0.19873917896672166
0.6037097829122834 0.6393375459558976 0.6298047278690938 0.18420197683392728
0.5849489756810335 0.64313351084635 0.6332396824791523 0.16033478299727308
0.5929764859452061 0.641509265858118 0.6263260315968369 0.1321960569912711
0.6117193638004779 0.6377169287050483 0.6178218952492196 0.12986195533536724
0.6110080790533503 0.6378608463890758 0.6397449621643462 0.181654369653763
0.540150350904917 0.6524854306062591 0.6145039053839279 0.14302123847608486
0.4684814840933528 0.6772528156687805 0.626160525544615 0.20063297886485934
0.49228367007113755 0.6690272369528294 0.6180982386604434 0.19679976465016416
0.4859591454593466 0.6712128712926253 0.6320009306390992 0.18117579773370002
0.5065601769527885 0.6640935501371125 0.6175149788736919 0.1417130774109127
0.48055113578929964 0.6730817756562462 0.6181795252665745 0.16243473172004044
0.5069793278523558 0.6639486996296226 0.6287037001841017 0.14390615193965123
0.5182845182551428 0.660041842770184 0.6299794465477143 0.1722695199168399
0.4978526216320022 0.6671027141601762 0.635724237645637 0.17625026268558447
0.5105375402519082 0.6627190497055395 0.6398094562023807 0.14984115194124698
0.473764512068368 0.6754271025805952 0.6387301215274951 0.1770312789290139
0.5362906562678919 0.6538192670062444 0.6262146138673996 0.18294853897022983
0.40192052984714416 0.7104406567015671 0.6269646668555402 0.18271075506340084
0.43017907434392433 0.6962343814859132 0.6295522117308571 0.16714336427295387
0.4179883426168717 0.7023629664176122 0.6237402549102828 0.18976925087088695
0.42203001351594094 0.7003311176389244 0.6357476767919897 0.1786848045302711
0.4451197388061268 0.6887233367723762 0.6351124884490734 0.1665691604935273
0.41172118205405667 0.7055136243641382 0.6335355577463777 0.1974718889615334
0.4573479970833798 0.682575886307808 0.6178746710668872 0.1790247474218923
0.44560383336956766 0.6884799703598058 0.619391570497642 0.17692597107764507
0.4532775152646389 0.6846222190544906 0.6281432461131476 0.18794503321937298
0.4636649673748788 0.6794001877681903 0.6363636312412566 0.16788901008262458
0.6216650127224785 0.63588029468442 0.621764160139059 0.13227834303473657
0.6491921884817433 0.6340457522215945 0.6302837431103774 0.16397831246489067
0.6603873333153902 0.633299654301691 0.626713921112598 0.1705872753458915
0.6377989957123099 0.6348050490018189 0.6333185922865908 0.18062480075885648
0.6981920090676789 0.6307801701538273 0.6151749842207193 0.10527085581707916
0.6583537766209266 0.633435180232109 0.6392989025885398 0.15613010642016883
0.6736302538882444 0.6324170828263171 0.6291317350638225 0.18709250738934236
0.6934453373083229 0.6310965110300504 0.6305327329467474 0.1846527706347251
0.37967461302020467 0.7208838734631136 0.6370880484814472 0.1525014217913016
0.3702793215510751 0.7251659959836979 0.6312204453819706 0.18883726176580823
0.3501153696679143 0.7343561858513104 0.6294482166784532 0.18039532209223086
0.3608305418413557 0.7294724970134927 0.6375867239300246 0.1821082235911582
