x y z curv
0.6057225186377764 1.1785931664021083 0.39031606573896954 0.01328520907032602
0.6057225186377764 0.8828451618847803 0.14834924110419553 -1.3620709903738222e-13
0.6057225186377764 0.9835164140910582 0.21542163244646523 -6.47495316968063e-14
0.6057225186377764 1.0382084508344593 0.15715624259598704 -6.380396803432602e-14
0.6057225186377764 1.0353671731322414 0.18214259875329875 -1.3515502703087096e-13
0.6057225186377764 1.16176740507824 0.4164349371223848 0.0019909505474081752
0.6057225186377764 1.1846663762989154 0.22587923862274606 0.0015254885202925883
0.6057225186377764 0.9520820025579655 0.21196902636794684 -2.0118607521212892e-13
0.6057225186377764 1.1693224342982407 0.2885937879789885 0.0003898478257037208
0.6057225186377764 0.9219692206919949 0.1469044367150251 -1.4579929170787534e-13
0.6057225186377764 1.0549248562326492 0.25556794345720707 -1.3343358575482013e-13
0.6057225186377763 1.1832190920541263 0.3560803846554573 0.011626669746694946
0.6057225186377764 1.0382817095622188 0.3147470016006828 -6.318392049342907e-14
0.6057225186377764 0.8952193919035407 0.17139466482030413 -1.889725178509561e-13
0.6057225186377764 1.000515498263209 0.17610550086952392 -1.4283704520546794e-13
0.6057225186377764 0.8482371424335238 0.07934969496578281 -2.0966279825412305e-13
0.6057225186377764 0.9803154475448058 0.15555937002642856 -1.3502412927456966e-13
0.6057225186377763 0.781403055710086 0.07092788157249293 -1.2646630595040484e-13
0.6057225186377764 1.174964522716445 0.32559266257322084 0.004651882846050837
0.6057225186377764 1.1519458401588887 0.33797521553282833 2.0766467438443246e-06
0.6057225186377764 0.8819469474110533 0.17029881990505114 -1.2594567679032973e-13
0.6057225186377764 1.1474596379330524 0.2977483125484842 -6.536288423268367e-14
0.6057225186377764 1.0782282119692763 0.178121551355074 -1.331501724782961e-13
0.6057225186377764 0.9876564639460699 0.14188225723888195 -1.3558368054898926e-13
0.6057225186377764 0.9491087890287604 0.14944107409459814 -1.3769687822216472e-13
0.6057225186377764 1.176751938669154 0.4297246818158363 0.024376267799362663
0.6057225186377764 1.0095869287153907 0.20733223869794745 -1.4137193730455986e-13
0.6057225186377764 1.1752983946441868 0.25092118175497435 0.0013243531697894344
0.6057225186377764 1.0049955295924562 0.2423373954894025 -1.3386394414027905e-13
0.6057225186377764 1.1548362078597856 0.23172607178699398 -2.03388783371657e-13
0.6057225186377765 1.060089904646359 0.3396737061772026 -1.2327599560591813e-13
0.6057225186377764 0.867206509673631 0.1338938532592925 -1.4214087103209105e-13
0.6057225186377763 1.1278336761085945 0.4010007133137159 -1.9401534819815522e-13
0.6057225186377764 1.0229928189788546 0.23162087172105458 -6.084855774922875e-14
0.6057225186377764 1.0969835091690812 0.3407588953949653 -1.2186823203472074e-13
0.6057225186377764 1.0775689463786184 0.3055905062375712 0.0
0.6057225186377763 1.171210456123418 0.21945069262013078 -1.3622073751199727e-13
0.6057225186377764 1.1703187680367888 0.3016210505536656 0.0004159166338409911
0.6057225186377764 0.9365692146398226 0.16139763289605877 -1.4910355808140193e-13
0.6057225186377764 1.1037886929272454 0.369587434049988 -1.8993978231200746e-13
0.6057225186377764 1.0657550654910526 0.21721392364343892 -1.320683599082932e-13
0.6057225186377764 1.086790082016047 0.26995707441378164 -1.234793228516446e-13
0.6057225186377763 0.7889152005277298 0.08756033477667399 -1.311302639911569e-13
0.6057225186377764 1.059460326839732 0.28267531658625006 -6.815314105467749e-14
0.6057225186377764 1.0276042097613403 0.26876037243218265 -1.3702327559771428e-13
0.6057225186377764 1.0070438395679981 0.16617577638875833 -1.2887622701891464e-13
0.6057225186377764 0.9943251854398545 0.24918160629738342 -1.3644472086876432e-13
0.6057225186377763 1.1206006678499296 0.3735177850984107 -1.4309271590934283e-13
0.6057225186377764 0.7715482858525099 0.08194679051874876 -1.3543918130911066e-13
0.6057225186377764 1.0399459444840042 0.23570335208462753 -1.2918098688846841e-13
0.6057225186377764 1.1195460184364057 0.2825726404859147 -1.3121076314986426e-13
0.6057225186377764 0.807819100251154 0.08971368887670307 -2.08033627281903e-13
0.6057225186377764 1.0263613473902784 0.1643515410591761 -1.22049138002352e-13
0.6057225186377764 0.9037861558959217 0.18707807757568717 -2.262251824816381e-13
0.6057225186377765 1.1319901448323009 0.2026423450626732 -1.316115932795617e-13
0.6057225186377764 1.1369275445088465 0.2838857858826357 -6.413502905534512e-14
0.6057225186377764 0.9122713641310038 0.14037546881084112 -1.469302389079308e-13
0.6057225186377764 0.8078521324537606 0.10688223747277524 -2.0883188249264503e-13
0.6057225186377764 1.1135919140768697 0.2409346600669429 -1.328955679308804e-13
0.6057225186377764 1.1006574155633708 0.18095576924105822 -1.2196117009176636e-13
0.6057225186377764 0.9850972104357919 0.2037930396357076 -1.384478711250513e-13
0.6057225186377764 0.9976869563611905 0.20304064488124557 -1.3642350020029316e-13
0.6057225186377764 0.9160411907995936 0.12357734502352163 -1.3531493191266421e-13
0.6057225186377764 1.0053567151255192 0.18765024765698093 -7.869949936274377e-14
0.6057225186377764 0.9143654153114797 0.16062421745079555 -1.2645043277033154e-13
0.6057225186377764 0.8228897519902602 0.10183746051326001 -2.09642185037992e-13
0.6057225186377765 1.040064400395244 0.28534485247990066 -1.4902005105593872e-13
0.6057225186377764 0.7606306238451707 0.06299342687055969 -1.4221141491689062e-13
0.6057225186377764 1.1026001830254828 0.23605802662588593 -1.2642095459353932e-13
0.6057225186377764 1.1894661409695408 0.2616862141459374 0.008099235774980389
0.6057225186377764 0.8484248576585379 0.12469273454257425 -1.936266176553454e-13
0.6057225186377764 1.1381369322292718 0.37101749240792453 -1.3547891695965458e-13
0.6057225186377764 1.1447104497475036 0.3867407470087285 -1.8326292192689805e-13
0.6057225186377763 0.9177289785071545 0.19849787711436534 -6.15273027463134e-14
0.6057225186377764 1.0892501493877234 0.28651193114982126 -6.135544092183447e-14
0.6057225186377764 1.108100266959323 0.25352517692916693 -1.3378650601244662e-13
0.6057225186377764 0.8660855984776519 0.11023543289290158 -1.2821182925736612e-13
0.6057225186377764 1.058740210230955 0.3086154152536259 -1.3414398901085895e-13
0.6057225186377764 0.7353588244720035 0.03043467972771454 0.013458208928378724
0.6057225186377764 1.0275302447652486 0.1951609452353858 -1.236120431058657e-13
0.6057225186377764 0.9754814779510365 0.18827156700068365 -1.284715758075306e-13
0.6057225186377764 1.0955713895638557 0.2998091419919372 -6.73404979675e-14
0.6057225186377764 1.1106983533108092 0.30434157242462756 -1.2798163117665874e-13
0.6057225186377764 1.1351882966994298 0.3155867562910939 -1.363160828260252e-13
0.6057225186377764 1.0308572984406392 0.20927899492954155 -1.2841728285567335e-13
0.6057225186377764 1.0606131124752065 0.26534998655975595 -1.4160036115988598e-13
0.6057225186377764 1.1610553290289123 0.312915776052793 2.084336493138232e-05
0.6057225186377764 1.191005364581491 0.249063502725882 0.008301777044464196
0.6057225186377765 0.6901885478409691 0.01435119239024233 0.18969089824595595
0.6057225186377764 0.9037011664668905 0.09955073277667718 -6.05138340227554e-14
0.6057225186377764 0.9604257218052861 0.2231723029551693 -6.53920198059518e-14
0.6057225186377764 1.0019618130328793 0.14496429738572764 -1.3966887275010443e-13
0.6057225186377764 1.1625816087577838 0.24158936617321203 -2.037842030766607e-13
0.6057225186377764 1.1752358396557723 0.31347059200193067 0.0034173716291715796
0.6057225186377764 0.9071630654576329 0.2018390250980491 -2.0611568823728573e-13
0.6057225186377764 1.1155630717221605 0.2638699110960774 -1.464933311026432e-13
0.6057225186377764 1.0455663026389357 0.20111040075427922 -1.3193056121595416e-13
0.6057225186377764 0.7834487277762678 0.048445261690663106 -1.3443781619308194e-13
0.6057225186377764 1.054132573546822 0.2091042723497597 -1.306798875148769e-13
0.6057225186377764 1.077514253701326 0.2401850804202868 -1.3158470898253917e-13
0.6057225186377764 1.051721328726117 0.24272859415263087 -1.4248652442416425e-13
0.6057225186377764 1.0516623930589186 0.16771796510377407 -1.2400677376135232e-13
0.6057225186377764 1.047368975388339 0.18894760632358187 -1.4078848317626944e-13
0.6057225186377764 1.1492746134510052 0.2760053792034399 -1.312937740381348e-13
0.6057225186377764 0.9969251945275681 0.21771670336199922 -2.898060268003345e-26
0.6057225186377764 1.1389319142458254 0.2512183913725621 -1.359714968303172e-13
0.6057225186377764 1.0382850823833343 0.2723609625689751 -1.4594513627794416e-13
0.6057225186377764 1.182450732422122 0.30236427212278133 0.010604404317386669
0.6057225186377764 0.9636439440972504 0.2111779400645754 -1.347617995822668e-13
0.6057225186377765 0.7752588686296634 0.05768869699087406 -1.3526653528048616e-13
0.6057225186377764 0.960527975593852 0.24543299903133517 -6.549910430680964e-14
0.6057225186377764 0.8477951743064172 0.0939241287282579 -2.059989958794018e-13
0.6057225186377764 1.0035224169120163 0.2300302165624939 -1.4651580242631374e-13
0.6057225186377764 1.123930106720522 0.29371891788754567 -1.3669970131307818e-13
0.6057225186377764 1.1721244934850235 0.3432137771471774 0.00332204044607403
0.6057225186377764 1.0988827022687804 0.1952164007418054 -1.4853968722860657e-13
0.6057225186377764 1.102525559396749 0.28419751988915387 -1.4253909475474694e-13
0.6057225186377764 1.0855441374241888 0.18734917027915568 -1.3259687899935248e-13
0.6057225186377764 0.9935142971506048 0.15334207401015904 -1.433573093032244e-13
0.6057225186377764 0.9772130000818192 0.2592112185001201 -1.3099435960377552e-13
0.6057225186377763 0.8321377524328041 0.10865760949123274 -1.328400211043703e-13
0.6057225186377764 0.9275727858399875 0.2081814910222626 -1.9331317553051964e-13
0.6057225186377764 1.0986613692628002 0.31277906468870725 -6.838478292009036e-14
0.6057225186377764 1.1292985475571526 0.2730439324826194 -1.432155660968525e-13
0.6057225186377764 1.1586451596985117 0.34672312042489556 1.9528561353363553e-05
0.6057225186377764 1.1275969315311465 0.2284137198769825 -1.3367702241388357e-13
0.6057225186377764 1.0630604616381514 0.20070416895842413 -1.3669632349765655e-13
0.6057225186377764 1.1189621739124194 0.31460934610302616 -1.3610361716273215e-13
0.6057225186377764 1.11083047021561 0.22156214346497477 -1.5081603941145816e-13
0.6057225186377764 1.169950410295053 0.37544204888485255 0.0016686381467595345
0.6057225186377764 0.9917466081607825 0.18354221272641774 -1.3162357050003484e-13
0.6057225186377764 0.7961238974435279 0.09714120645522155 -2.2368996088893568e-13
0.6057225186377764 0.8156449050924524 0.07719336616984125 -1.7989019325269064e-13
0.6057225186377764 1.074902628206925 0.2871892258952222 -1.286848202945898e-13
0.6057225186377764 0.7845244558625588 0.09926289359503572 -1.5213201951463821e-13
0.6057225186377764 1.1503130169874818 0.3723989286736132 -2.035726973693294e-13
0.6057225186377764 1.1096933269114126 0.35048122835084783 -1.2598717121597428e-13
0.6057225186377764 1.1632327534728566 0.42946387484434 0.0036163793443930825
0.6057225186377764 1.1045493753213473 0.2660817320120893 -1.3701723389772635e-13
0.6057225186377764 0.9470335851962621 0.16802254286840906 -1.345854303522431e-13
0.6057225186377764 1.1213441917435663 0.19842888877194217 -1.4165016608972455e-13
0.6057225186377764 1.14839196853544 0.2415530150394386 -2.2329536087052696e-13
0.6057225186377764 0.9873645534007633 0.27305058150683803 -1.244609825737364e-13
0.6057225186377764 0.829858383760268 0.09283657700461809 -2.0288331271734293e-13
0.6057225186377764 0.7074420040928486 0.022386669405234774 0.05726010261732476
0.6057225186377764 0.9922011417700746 0.23756914124133233 -6.55040329703551e-14
0.6057225186377764 0.9237968074549479 0.1674115086979576 -1.284251560695389e-13
0.6057225186377764 1.1195088051958244 0.21126769108860244 -1.4633734159577464e-13
0.6057225186377764 0.7553736099154691 0.04987986348941134 -1.3194776174450365e-13
0.6057225186377764 0.8550206490990504 0.13673426612201903 -1.981113968783619e-13
0.6057225186377764 0.9636190623663125 0.18147255893532888 -1.2878973485131825e-13
0.6057225186377764 0.9736458543567663 0.2463998832775272 -1.38174753772964e-13
0.6057225186377764 0.9648250206103033 0.19688970949765852 -1.2831183946804018e-13
0.6057225186377764 0.8779349641268119 0.09382691585495415 -1.5297894758128054e-13
0.6057225186377764 1.1935711175516261 0.23584239331823484 0.006241482945149353
0.6057225186377764 1.1547983392174188 0.39833077012304097 1.3186581930815253e-05
0.6057225186377764 1.151699022890193 0.2114000604471103 -2.0557599533064754e-13
0.6057225186377763 1.0270844050416164 0.299752631059781 -1.2994098249532169e-13
0.6057225186377764 1.0654902406354376 0.25051499236104735 -1.4191459670950428e-13
0.6057225186377764 0.9521614882409104 0.23722483384284127 -1.3830642791769442e-13
0.6057225186377764 0.9277359597602888 0.12902162608533835 -1.2474341474348993e-13
0.6057225186377764 1.055573532816704 0.22748291946263294 -1.3677666696518642e-13
0.6057225186377764 1.1572907497341864 0.28657453493331136 -6.349555480247545e-14
0.6057225186377764 1.1885663430635085 0.31323294254527045 0.021981653843456454
0.6057225186377764 1.1259885094397217 0.2535150532969662 -1.353456103497855e-13
0.6057225186377764 1.152049793704283 0.32018226158773005 -6.478388854251835e-14
0.6057225186377764 0.9648694120548886 0.23373413482030997 -6.798748777791919e-14
0.6057225186377764 0.9041480500162223 0.1546993796243791 -1.3663873040392157e-13
0.6057225186377764 1.1724492513530493 0.23528028007540097 9.200204617542811e-05
0.6057225186377763 0.9474835823439417 0.22369913626304266 -2.0875051447378647e-13
0.6057225186377764 1.1598111425006024 0.2552493557021391 -1.9472509935475595e-13
0.6057225186377764 1.1184287797319161 0.3599087522171235 -7.214960064603675e-14
0.6057225186377764 1.0573740505053113 0.17943595202455248 -6.942083927035792e-14
0.6057225186377765 1.07391780964183 0.3171793023432598 -1.2573055573271753e-13
0.6057225186377764 1.0214198779962136 0.28509378736681323 -1.2365385753059462e-13
0.6057225186377764 1.0895812247235823 0.36082267779190175 -1.2937300143382585e-13
0.6057225186377764 1.0052366901816487 0.2803744681440803 -1.24897868280101e-13
0.6057225186377764 1.0882787394947322 0.2287787945199292 -1.2697583842089214e-13
0.6057225186377764 1.0633258794551264 0.16905109311026914 -1.4174525262713965e-13
0.6057225186377764 1.1882644249837468 0.2914350840993834 0.01274241520711007
0.6057225186377764 1.1110507291159804 0.32749139898821594 -6.634974406904468e-14
0.6057225186377764 0.721043485824568 0.027409795603264175 0.032640825473687525
0.6057225186377764 0.8701773438904074 0.14808857357303407 -1.333707951201318e-13
0.6057225186377764 1.0066650700969697 0.25453587538684214 -1.401585037798418e-13
0.6057225186377764 0.9464131078686882 0.13840550373103438 -1.2664752555406682e-13
0.6057225186377764 0.8725023464267434 0.12111349948963876 -1.4174288824294588e-13
0.6057225186377764 0.9747769531264778 0.14393427890707247 -1.3027623181920605e-13
0.6057225186377764 1.1628251898437807 0.33255713085508243 0.0004020736059338928
0.6057225186377764 0.9391757018882056 0.1299039604659853 -1.436953727932148e-13
0.6057225186377764 0.9356169565469059 0.19512192968623493 -1.3483467811380233e-13
0.6057225186377764 1.1775330359515244 0.2703207977878041 0.002023892179204055
0.6057225186377764 1.0624544465519439 0.3252360592186698 -1.3453469078072252e-13
0.6057225186377764 0.8962006695538227 0.12170469107941131 -1.348008294370249e-13
0.6057225186377764 1.0164508161564692 0.18536786585011944 -1.253258167278949e-13
0.6057225186377764 1.1602967065884293 0.27053918305651004 -6.58223792675327e-14
0.6057225186377764 0.86840081776151 0.16797188101865287 -1.2313181680613792e-13
0.6057225186377764 0.9180792856296913 0.18686820233079418 -1.3938935652909988e-13
0.6057225186377764 1.1579099464601366 0.3840920333126893 9.353474625363716e-05
0.6057225186377764 1.0364985526762442 0.22251233744836124 -1.2716116387632035e-13
0.6057225186377764 1.0502471728326244 0.27554884467316787 -1.5169646942631795e-13
0.6057225186377764 0.8567173733802822 0.1012479892194457 -1.9631526126900685e-13
0.6057225186377764 1.123512928919381 0.3281781526869449 -1.229509590849169e-13
0.6057225186377764 0.8448017699605499 0.10651279027123292 -1.4453409437599034e-13
0.6057225186377764 0.9624871079931507 0.16359239353751376 -1.3573498859166217e-13
0.6057225186377764 0.8908968979172893 0.188107534585072 -2.056789449333944e-13
0.6057225186377764 0.9359394899840844 0.22601772214871596 -1.4493725109978556e-13
0.6057225186377764 0.8649970834941603 0.08982971162165519 -1.2830953037990454e-13
0.6057225186377764 0.7414572783005908 0.05218184041733631 -1.39059786642657e-13
0.6057225186377764 0.9143521937289475 0.21181434171124094 -2.077083474703427e-13
0.6057225186377765 0.723807784210221 0.0386890675238644 -1.4549525994569618e-13
0.6057225186377764 1.1356693951398782 0.2371198321299542 -2.1091906015659943e-13
0.6057225186377764 1.083454714418711 0.2163249524090152 -1.344584470808313e-13
0.6057225186377764 0.8861522790877481 0.11681275524151022 -1.4790833653090285e-13
0.6057225186377764 1.1516142119537622 0.4095485819317082 1.4774343869787226e-05
0.6057225186377764 0.7891299931258708 0.05834237415918687 -6.765837629328554e-14
0.6057225186377764 1.0670488654325614 0.23531098217176274 -1.329261114227936e-13
0.6057225186377764 0.7959988885522556 0.11041919683905198 -1.2648325976880751e-13
0.6057225186377764 1.0225273010724558 0.2580213354053854 -1.3333569721528476e-13
0.6057225186377764 1.0620585804874865 0.29557013510572694 -7.45987376083355e-14
0.6057225186377764 0.8971115030832457 0.14083530780805487 -1.3854819232068508e-13
0.6057225186377764 0.803998637828466 0.07254283652623554 -1.263370569848162e-13
0.6057225186377764 0.843083341753236 0.14211108946816117 -1.8612236856035736e-13
0.6057225186377764 0.9130232983644304 0.17192868820569526 -1.368613042163146e-13
0.6057225186377764 1.1943598774490876 0.2757462742100253 0.019669026731786353
0.6057225186377764 1.1696446661420927 0.35564946310091833 0.0011597211299700298
0.6057225186377764 0.926852288874258 0.08688638682253391 -1.250661773478233e-13
0.6057225186377764 1.0690014361549285 0.14360008797498153 -1.3712865432186274e-13
0.6057225186377764 0.741652744565178 0.01976702374440161 0.060382062953995
0.6057225186377763 0.816253669930767 0.04803492886122812 -1.5074217841165036e-13
0.6057225186377764 1.183954557756774 0.21142188688495397 0.0018014249623509624
0.6057225186377764 1.1955868039258633 0.14942357179789584 0.0067259906004463995
0.6057225186377764 1.1264293598975477 0.1617635451946433 -1.3598663459191487e-13
0.6057225186377764 1.1149544590259328 0.1442040951354551 -1.4086391230899936e-13
0.6057225186377764 1.179116598297937 0.15179252549462383 0.00017163789682022936
0.6057225186377763 0.9637566144145365 0.11628855273731586 -1.23325648823012e-13
0.6057225186377764 0.9436946246785592 0.09628426128429975 -1.2974818504308412e-13
0.6057225186377764 1.061912529424773 0.13182718392999512 -6.738477070028629e-14
0.6057225186377764 1.1295315268034658 0.10387409527482565 -1.7653395945168775e-13
0.6057225186377764 1.0995629455628815 0.1283983583698396 -1.2321417404281784e-13
0.6057225186377764 0.8904660126082542 0.0862408094782831 -6.10575419906256e-14
0.6057225186377763 1.1695889971412687 0.16987139924236244 -7.421447159031833e-14
0.6057225186377764 0.8228288431431983 0.06120442078957688 -1.471105474224522e-13
0.6057225186377764 1.0237282259655283 0.08791493916571365 -1.3304585936585987e-13
0.6057225186377764 1.019287135282003 0.1461119502744431 -6.251020158099097e-14
0.6057225186377764 0.9089775759823784 0.05632462446687935 -1.229514477187267e-13
0.6057225186377764 0.8522236876889742 0.05013789706926608 -1.426787667789853e-13
0.6057225186377764 0.973147899347512 0.06280509892457761 -6.650165380543474e-14
0.6057225186377765 0.8914685839435945 0.06992143205869067 -1.3604590828679097e-13
0.6057225186377764 1.0603626589863016 0.09162142103165943 -7.193657900075829e-14
0.6057225186377764 1.1585679405941034 0.16036773775015103 -1.9930034225527167e-13
0.6057225186377764 0.9146940567540267 0.06781307041001675 -1.345862994966727e-13
0.6057225186377764 1.0384641659848501 0.111412630516928 -6.98150684026693e-14
0.6057225186377764 1.021659174599787 0.10866942300274585 -6.400135260452096e-14
0.6057225186377764 0.9100902545253744 0.07995696536665334 -1.2046954193166572e-13
0.6057225186377764 1.0257191266819286 0.13269171857405637 -6.709290444166385e-14
0.6057225186377764 0.7227909878493418 0.015997032201241008 0.08303807327870745
0.6057225186377764 1.0223702130620613 0.07304435707599143 -6.395843765055666e-14
0.6057225186377764 0.8257323761548264 0.041374949740402456 -1.326609341527092e-13
0.6057225186377764 1.2086609676992028 0.1231607386968854 0.015216907695327022
0.6057225186377764 1.0091872073246784 0.08977920522128904 -6.443820865423833e-14
0.6057225186377764 0.9349074266462141 0.07366962064125782 -1.474834180530309e-13
0.6057225186377764 1.190954737784875 0.13729837901662095 0.00039609933385900556
0.6057225186377764 1.1430805674689664 0.10940016653193903 -7.157757120783501e-14
0.6057225186377764 1.1954698681161324 0.1623916102479698 0.007115123983739794
0.6057225186377764 1.1172152354904157 0.12885217881244657 -1.314419261655992e-13
0.6057225186377764 1.0319031967421612 0.12253449130666824 -7.525699438205104e-14
0.6057225186377764 1.0456034149010902 0.08375120760023261 -1.3208077098498004e-13
0.6057225186377764 0.9875578010767864 0.07069530925263856 -1.29611461025462e-13
0.6057225186377764 1.1987957726926117 0.173730661585038 0.010844912081166062
0.6057225186377764 1.1978035312352975 0.1105300747594876 0.0016780070097624944
0.6057225186377764 0.9603922809575115 0.0927149551019732 -2.0884461014330085e-13
0.6057225186377764 0.956632257815724 0.10730458159591227 -1.943640366325182e-13
0.6057225186377764 1.1033366568986653 0.11706258076584841 -1.3754363877319622e-13
0.6057225186377764 0.9737680838523737 0.08316966909284138 -7.057105471151564e-14
0.6057225186377763 1.1544276034716932 0.10664865119074264 -6.414695981642018e-14
0.6057225186377764 0.8589712902367571 0.062494606982867615 -1.3298794057039683e-13
0.6057225186377764 1.1952541723882903 0.1222145898973475 0.0016476929435031923
0.6057225186377764 1.1162387105907385 0.09366175672410508 -1.268352795072162e-13
0.6057225186377764 1.130501147272584 0.12912292206158876 -1.9137694236343443e-13
0.6057225186377764 1.0093839433370935 0.12449127653270609 -1.4072042910282217e-13
0.6057225186377764 1.0796490470288078 0.14985403760213717 -1.3056984292908037e-13
0.6057225186377764 0.8065678571794873 0.057024844584768516 -6.681668098583469e-14
0.6057225186377764 1.0452264275832879 0.13053432913163535 -1.2590714206305494e-13
0.6057225186377764 0.8653790521245021 0.07357898908382104 -1.489326023645712e-13
0.6057225186377764 0.9543618412890522 0.0809444952064865 -1.382735482876619e-13
0.6057225186377764 0.992606195029798 0.10358352556680736 -1.3228673209255842e-13
0.6057225186377764 0.837699797350512 0.04532755805826982 -1.4143873085885023e-13
0.6057225186377765 0.7896568730808743 0.03821720720752332 1.7815961128406004e-07
0.6057225186377764 1.199173670776906 0.19842483419674525 0.012441426433121187
0.6057225186377764 1.1718871324842948 0.10354381188422905 -6.611518041472808e-14
0.6057225186377763 0.7667689845226603 0.030104289773759216 0.0219838845257977
0.6057225186377764 1.0935480323319844 0.14030691142890223 -6.390887998092388e-14
0.6057225186377764 0.8874984680034714 0.04945129515833742 -1.4827053692110092e-13
0.6057225186377764 1.1508471955342756 0.17903335060308811 -1.8468921609741262e-13
0.6057225186377764 1.2002036479563238 0.22159821580085556 0.018498196776760345
0.6057225186377764 1.1540040964097908 0.19865965260043836 -1.2800396083320093e-13
0.6057225186377764 1.1815607106070118 0.11132661740649222 3.472452226494223e-05
0.6057225186377764 0.9248852207218773 0.1018559612965173 -1.2520140377666978e-13
0.6057225186377764 1.157506862169554 0.13041939492975077 -1.268012073697266e-13
0.6057225186377764 0.978203905829708 0.11483422139724664 -1.1898614621326056e-13
0.6057225186377764 1.1430302001591417 0.16464310780271238 -1.7612358129317655e-13
0.6057225186377764 1.161899681556046 0.14451092816706662 -1.7961146278298472e-13
0.6057225186377764 0.9426739982112853 0.08305453844565422 -1.5028731130186776e-13
0.6057225186377764 0.8805983570955409 0.07301334873337677 -1.2284997932803276e-13
0.6057225186377765 1.037030683346465 0.14193848441863693 -6.394809269978215e-14
0.6057225186377764 1.1055310178000444 0.15145962803582502 -1.288716738903301e-13
0.6057225186377764 1.1258670347106734 0.14966297939965978 -1.2654941510787196e-13
0.6057225186377764 1.101174906784768 0.09102224845010495 -1.299437156424787e-13
0.6057225186377764 1.0786282780991743 0.11965341118288425 -1.4868027807755158e-13
0.6057225186377764 1.0086329857615006 0.10438477576017027 -1.3551783736707903e-13
0.6057225186377764 1.188122438156049 0.1909339880719946 0.003952311443004684
0.6057225186377764 1.1458309115903926 0.15086208092265552 -1.8877003622763298e-13
0.6057225186377763 0.9851961230890635 0.12643713303670426 -1.5432978502013493e-13
0.6057225186377765 0.7777466562605604 0.03669265418705869 0.0066731490474824596
0.6057225186377764 1.0375432205596593 0.07615572096104761 -1.2996645021276555e-13
0.6057225186377764 1.1815758566034198 0.1636442266073436 0.00017839745135401222
0.6057225186377764 1.082084118235257 0.13040264615378147 -1.3583458025816575e-13
0.6057225186377764 1.1136340527004387 0.1822937736004361 -1.2809989988552356e-13
0.6057225186377764 0.8391909905789964 0.07078498206881817 -1.8159902715583394e-13
0.6057225186377764 1.1768743813529894 0.13725489378358685 -6.625458142855017e-14
0.6057225186377764 1.0127025715499556 0.13738141317265887 -1.406931785861397e-13
0.6057225186377764 1.1658224163130002 0.18049817763861015 -1.9101127131993446e-13
0.6057225186377763 0.9396098132447063 0.11045018830779597 -7.996179717727634e-14
0.6057225186377764 0.9464692262432728 0.0698668273283842 -6.568774145459699e-14
0.6057225186377764 1.040641840476797 0.09762075816718213 -6.911743580428013e-14
0.6057225186377764 1.0013222329125038 0.07560641481188882 -7.066320744998117e-14
0.6057225186377764 1.1308032201633131 0.18158520275976828 -1.255741873010502e-13
0.6057225186377764 0.8439980740063211 0.05950546680112126 -1.890602454777786e-13
0.6057225186377764 1.172500956531096 0.20687738332187586 0.00010094103970048922
0.6057225186377764 1.1632197502863906 0.11773356868676375 -1.1930183767320407e-13
0.6057225186377764 0.9809676903082232 0.09590470964972349 -7.448045357416475e-14
0.6057225186377764 0.8022843810448659 0.04453066452105387 -7.583626405893404e-14
0.6057225186377764 0.9336502591552742 0.0601756206314906 -1.46413969858714e-13
0.6057225186377764 0.9606208923241274 0.07105979487631063 -1.4364245904989443e-13
0.6057225186377764 1.1013348280525337 0.10564812749118208 -1.4864120902903105e-13
0.6057225186377764 1.089921945240973 0.10006626446550053 -6.936601455236987e-14
0.6057225186377764 1.2078532295652797 0.14773825508446803 0.013231594113947729
0.6057225186377763 0.6787662987499626 0.00266218815484263 0.20162263669552344
0.6057225186377764 1.077155622695488 0.09561423088096287 -6.149242201973747e-14
0.6057225186377764 1.1434573142438869 0.13754759967094515 -1.485205876632913e-13
0.6057225186377764 1.0490604428438353 0.11437038440376415 -1.428499838877506e-13
0.6057225186377763 0.9993152041618883 0.13268614362010872 -1.3705299607254395e-13
0.6057225186377764 1.0581408639170407 0.15685036203287583 -1.406890524461397e-13
0.6057225186377765 1.069299257048026 0.15953805242137722 -6.70920774009591e-14
0.6057225186377764 1.0917992596559327 0.16248838090635923 -6.443779578169069e-14
0.6057225186377764 0.9931062703630594 0.08338474402949173 -6.449047387438145e-14
0.6057225186377764 1.11206487253021 0.1670547179426486 -1.3171242441871098e-13
0.6057225186377764 1.0721241521779965 0.10901283171357298 -1.2946049156363476e-13
0.6057225186377764 1.0619364112194118 0.11881694681779471 -6.442628616484354e-14
0.6057225186377764 0.8691443685960756 0.05015376415956661 -1.410945767873845e-13
0.6057225186377763 1.1659622749775842 0.19462012697082806 -1.8298339045387258e-13
0.6057225186377764 1.1293204657144438 0.11462500213785515 -1.3567911744379983e-13
0.6057225186377764 0.9545094278599364 0.05900986344213065 -1.4571832837040032e-13
0.6057225186377764 0.8754611910221488 0.061478665442503716 -1.2835995856630332e-13
0.6057225186377764 0.7446603473814124 0.003276398803049242 0.07166825258345684
0.6057225186377764 0.8364821983626163 0.02277323444091979 0.0575665265898336
0.6057225186377764 1.0442510367194424 0.03157771867197243 0.02967002960157167
0.6057225186377764 0.9443296437360342 0.012433750044904832 0.0621113901759324
0.6057225186377764 1.1976343902161284 0.05699492906860333 0.00013412491026492437
0.6057225186377764 1.0149881299618795 0.047152054433544824 -1.3332675639583104e-13
0.6057225186377764 1.1678304219333717 0.009030073168493255 0.09406750243326568
0.6057225186377764 1.1964275514032001 0.028265915784339856 0.03259702651329177
0.6057225186377764 1.0596714351871253 0.06630986614741163 -1.9045687227857234e-13
0.6057225186377764 0.9185368554908973 0.01769479565608386 0.07452511682163948
0.6057225186377764 1.159166424998841 0.0790604829453465 -1.2960977293966814e-13
0.6057225186377764 1.1393534278563429 0.002236689619478788 0.062021682149846276
0.6057225186377764 1.1257638050934446 0.0673062128123604 -6.684493204496219e-14
0.6057225186377764 1.11614427373401 0.07566053014524156 -2.0029996273747732e-13
0.6057225186377764 1.0745493547606981 0.0712671651378658 -6.971295640839012e-14
0.6057225186377764 1.1467408565416384 0.09076199161209449 -8.114483314724398e-14
0.6057225186377764 0.9012233539269148 0.04433903302726693 -1.375688858061669e-13
0.6057225186377764 1.1306203871615619 0.02201057974475951 0.0516457209087366
0.6057225186377764 0.9611493527090892 0.009975642060520151 0.06895645180982372
0.6057225186377764 1.208031804372323 0.010590960049529164 0.0578152990462482
0.6057225186377764 1.1016903183424 0.039512119193710324 -1.4528817117759797e-13
0.6057225186377764 1.144777574723713 0.05269185839956973 -1.4228796173013825e-13
0.6057225186377764 1.0366957814165134 0.056030576819526785 -6.628638288639136e-14
0.6057225186377763 1.085866868345571 0.08434770114828449 -1.527535129540132e-13
0.6057225186377764 0.8445875337398797 0.03440418014769313 0.009033022564301761
0.6057225186377764 0.885903973729449 0.0013799410889521113 0.08354727233615995
0.6057225186377764 1.1084101140777884 0.02910130082494433 0.021480734522843006
0.6057225186377764 1.0628964246659085 0.020543781442452072 0.07550206490174494
0.6057225186377764 1.168322999435163 0.021087133594123467 0.06120826362698898
0.6057225186377764 1.0417595114171954 0.019763893504432934 0.056513736131054225
0.6057225186377764 0.9479126503816524 0.04831770530313048 -1.3670803469489484e-13
0.6057225186377764 0.8576944147209045 0.022506357194676495 0.06433049473809224
0.6057225186377764 1.0971586602698593 0.0641654026044647 -2.170625098259232e-13
0.6057225186377764 1.1667182936512928 0.044230863868820094 -1.275719290963044e-13
0.6057225186377764 0.7582988365683785 0.017921904913766842 0.06608734799149155
0.6057225186377765 0.9983249143037736 0.05951647883085725 -1.3078483954029449e-13
0.6057225186377764 1.1364808374852269 0.07204154366603535 -1.2945373605684494e-13
0.6057225186377764 0.8466043459157284 0.018585322601482344 0.05458892448999108
0.6057225186377764 1.1910234801600759 0.0701916030788709 0.00011535680632608226
0.6057225186377764 0.7219753445042087 0.0022854211303334213 0.08972538180298208
0.6057225186377764 1.2166216338498135 0.03239479459991283 0.024752406897784702
0.6057225186377765 0.6911414445639935 0.0019348499382558226 0.14210148760524408
0.6057225186377764 1.1373777150892217 0.08363978665275819 -1.3531084645877486e-13
0.6057225186377764 1.0530331253548864 0.05509213923884904 -1.2461722177077834e-13
0.6057225186377764 0.7671289952128666 0.002191503001599935 0.08205351914520108
0.6057225186377764 0.941280373003945 0.033941317272494304 0.006689285507731965
0.6057225186377764 1.0836765363853682 0.013588805490523314 0.08616259924937421
0.6057225186377764 1.0929367288414347 0.02060433027693495 0.05011750301271982
0.6057225186377764 1.080818922150767 0.024330829353875583 0.051256488962964024
0.6057225186377764 1.0214499044672942 0.024937205833778453 0.031199561614283892
0.6057225186377763 0.8599250768766928 0.03368491281277123 0.008739475021136008
0.6057225186377764 0.7786633970593947 0.010331562848916263 0.06000242012612304
0.6057225186377764 0.9846422353793489 0.020154158724441276 0.0620215210429189
0.6057225186377764 1.1944059489757923 0.002051970613879468 0.10252949842173222
0.6057225186377764 1.0254593603433302 0.007440564206308341 0.07477732553943169
0.6057225186377764 0.8082173695566012 0.02790452827571194 0.03561083445043142
0.6057225186377764 1.189794883423907 0.08880216925272846 0.0004383516156469529
0.6057225186377764 0.9841529407699178 0.04796223159922272 -1.4428464843287124e-13
0.6057225186377764 1.147014590953055 0.07747983292863246 -1.4239995287947034e-13
0.6057225186377764 0.825300051176194 0.026166187994406426 0.015058812639281894
0.6057225186377764 1.0897748882124596 0.0729136060544768 -1.5011025827200764e-13
0.6057225186377764 1.0768792337296582 0.05772280694721441 -1.3834981394218978e-13
0.6057225186377763 0.8963392969721105 0.03159867407965408 0.014340527920130209
0.6057225186377765 0.7087727712337731 0.00016070843490562854 0.06841540486768813
0.6057225186377764 1.103847055171593 0.07963972981599513 -1.4295519354365303e-13
0.6057225186377764 0.9087473061643709 0.027493158666794786 0.03457077139220062
0.6057225186377764 1.05631355543068 0.032285697363187205 0.004057579096717602
0.6057225186377764 0.9711268470608616 0.05044280754393248 -6.82363315883362e-14
0.6057225186377764 1.1866252634011454 0.018139425401295973 0.06790631447723634
0.6057225186377764 1.0097151521629675 0.027220775730557905 0.0290561231528954
0.6057225186377764 0.935999740542907 0.04818696807104791 -6.276757797950396e-14
0.6057225186377764 0.8128088786452061 0.004857232441748931 0.06472619040371486
0.6057225186377764 1.0142375209472507 0.011415745758149513 0.05313373117378072
0.6057225186377764 1.1126266551925856 0.01849331203422315 0.05972540311820667
0.6057225186377764 0.9517204780092781 0.0035522055015831224 0.05526526999883967
0.6057225186377764 1.1009308638505857 0.051169258526990016 -2.0019150347018888e-13
0.6057225186377763 0.9835907562125893 0.032403516615009786 0.01437168893922296
0.6057225186377764 0.9286101277059902 0.0282065541041091 0.03981464764735608
0.6057225186377764 0.8825355151541255 0.035988372536286346 0.004061199002263659
0.6057225186377764 1.0844902733333879 0.03523830574431346 0.010194711653372436
0.6057225186377764 1.0531847125274412 0.014758963278164497 0.0727640331168343
0.6057225186377764 1.155017102345028 0.0494132441746143 -1.3557561406661051e-13
0.6057225186377764 1.184976174799989 0.05117563470122611 5.933375608582601e-06
0.6057225186377764 0.7889578824911438 0.022084601246366072 0.04870988791350989
0.6057225186377763 0.8709324341755051 0.008827228310385545 0.08189571538831064
0.6057225186377764 1.1346738176547124 0.03312577417345516 0.018656475503859186
0.6057225186377764 1.141698028767795 0.019424448900682022 0.060006235896426195
0.6057225186377764 1.0699140797931208 0.009239565542699453 0.07723945853522228
0.6057225186377764 1.0282621888663712 0.035002716857276406 0.007768949891717949
0.6057225186377764 1.0390628726769562 0.04354920143589707 -7.551456126733151e-14
0.6057225186377764 0.770679306363784 0.0184377305588865 0.06989558809610191
0.6057225186377764 1.1180688345720058 0.008338914127770275 0.07790468075188245
0.6057225186377764 1.1797718747423347 0.08234755045238626 -6.849064199035725e-14
0.6057225186377764 1.1917569451869192 0.03891707302255092 2.2990408936125297e-05
0.6057225186377765 1.1878536103075008 0.10096845877275418 3.683525318260332e-05
0.6057225186377765 0.7328878148060003 0.010203973958541612 0.07429433405557873
0.6057225186377764 1.1101631572883184 0.058099458973332206 -1.9923916906673168e-13
0.6057225186377764 1.1788966570266701 0.030657282504773734 0.024203914964103016
0.6057225186377764 0.8743314442403722 0.022019396365440463 0.053230720151292474
0.6057225186377764 1.2011374983951 0.0828750526041956 0.0018634525485839205
0.6057225186377765 1.065849708500287 0.07777157054733515 -1.4866082120026191e-13
0.6057225186377764 1.1338227562879377 0.045722841684448956 -1.54690694595268e-13
0.6057225186377764 1.175350825112505 2.4327238711390152e-05 0.07071768097887822
0.6057225186377764 0.9576735416601987 0.04298532740700386 -6.614477348042072e-14
0.6057225186377764 1.1220458523869101 0.035043677373695244 0.006942227035932738
0.6057225186377765 1.1635440046884569 0.09259552466179569 -1.42591451702824e-13
0.6057225186377764 0.8156275794167338 0.0191244512386505 0.056995345182702516
0.6057225186377764 0.9694922688572807 0.03876006120062392 0.0036252931332965144
0.6057225186377764 0.9294347465418102 0.012163621282880772 0.07572044937461185
0.6057225186377764 0.8986341366279338 0.010716159895866852 0.09746227264958472
0.6057225186377764 1.0876891791092724 0.05237266134169203 -1.3613726050693785e-13
0.6057225186377765 1.2081207712604862 0.09925014057500604 0.007563662453969453
0.6057225186377764 0.9719345068244021 0.018315960286396777 0.05729046965283206
0.6057225186377764 1.0996031512235107 0.011661142976896832 0.07345596238488984
0.6057225186377764 0.9974111759766124 0.043931334541415366 -1.310119845725578e-13
0.6057225186377764 1.1128483747884732 0.0460842247330306 -2.8863060688984336e-28
0.6057225186377764 0.9164029052507044 0.007023294470848567 0.09761299679589425
0.6057225186377764 1.1465637973465843 0.038680841152902656 7.302581760155896e-05
0.6057225186377764 1.2089892959446997 0.042045942564248234 0.005606854244777828
0.6057225186377764 1.0669034712832524 0.03674710603374211 0.0037333627140950613
0.6057225186377764 1.150251944378919 0.0652395219913831 -8.204763782124526e-14
0.6057225186377764 0.9857858870348941 0.007433425377298071 0.06155636174534596
0.6057225186377764 1.2106317400587954 0.06576549942433446 0.01086169593198317
0.6057225186377764 0.9167176845178842 0.048534233620619434 -1.3060721713199266e-13
0.6057225186377764 0.9556350806385827 0.031189220362157696 0.007992707633075058
0.6057225186377764 0.8291226894191693 0.0056609068234337425 0.07357462233858991
0.6057225186377764 1.2150935165254815 0.0794911406379413 0.016179375723498892
0.6057225186377764 0.7952740392202943 0.010469743071179396 0.0921959088915721
0.6057225186377764 1.1715782641622416 0.07054554718666398 -1.2815367246004488e-13
0.6057225186377764 0.9955464864719694 0.030472605136387824 0.01516504160798921
0.6057225186377764 1.0142612263068806 0.059850088570736315 -1.328421855413658e-13
0.6057225186377764 0.7012120289491413 0.49818471366289874 0.042820503771208045
0.6057225186377764 0.7804119736241548 0.3253141490036584 -1.383314431233428e-13
0.6057225186377764 0.8082514524031132 0.5109132007471101 -6.384258066199858e-14
0.6057225186377764 0.8509261630149728 0.6048125183928952 -1.4571853725392954e-13
0.6057225186377764 0.7797105084527716 0.540169317524839 -2.0636527993471884e-13
0.6057225186377764 0.9951335267549688 0.5127412874871375 -1.326464248740159e-13
0.6057225186377764 0.7317244565406289 0.06323714341064426 -1.288490261587774e-13
0.6057225186377764 0.8774470084650399 0.423627238656176 -1.3085195404054708e-13
0.6057225186377764 0.8391738693176884 0.3369724212900701 -1.0114872895274615e-26
0.6057225186377764 0.7156969399673898 0.47421929977799265 -1.2848442839264514e-13
0.6057225186377764 0.6946558210521312 0.2770725622851083 0.11080865371439744
0.6057225186377764 0.7765513600480024 0.1417098049876831 -6.227737998243734e-14
0.6057225186377764 0.6851918972765497 0.23042928707181184 0.2415638322167811
0.6057225186377764 0.7243625624075576 0.21296314944330008 -7.92788337946167e-14
0.6057225186377765 1.047937220728689 0.4660255183210107 -6.349121139829884e-14
0.6057225186377764 0.9713799443834922 0.39557325249917014 -1.7097719067524245e-26
0.6057225186377764 0.6781357085581535 0.27125725865044537 0.23247392340256195
0.6057225186377764 0.8335014682570833 0.5191540888156261 -1.5693615416410686e-13
0.6057225186377764 0.8421530067880709 0.24280228307422733 -1.4131664547382108e-13
0.6057225186377764 0.7741596957053832 0.20993670968199055 -7.794579175149739e-14
0.6057225186377764 1.0356237213903359 0.44629836899785624 -1.2698118281549106e-13
0.6057225186377764 0.9591418848235103 0.5361563622958921 -6.867469555884096e-14
0.6057225186377764 0.6969365066599988 0.2341363813854574 0.0955163953008668
0.6057225186377764 0.7183861845048719 0.5511103828067099 -7.107828236943064e-14
0.6057225186377764 0.6819058565055929 0.4948692070881182 0.1996709945713557
0.6057225186377764 0.6784295340170587 0.6229823098050379 0.2519630312392356
0.6057225186377764 0.7638739962926739 0.6216531750976744 -1.3986870947406435e-13
0.6057225186377764 0.8149302244426413 0.5665481026706193 -6.878227585717546e-14
0.6057225186377764 0.914599915668623 0.48797269278843747 -6.775219924203596e-14
0.6057225186377764 0.7320197331674074 0.34086958562194075 -6.187319384535442e-14
0.6057225186377764 0.9499408806222222 0.5476330163240097 -1.3637603316050929e-13
0.6057225186377764 0.9104994381357626 0.2573312494125204 -1.4155316501925491e-13
0.6057225186377764 0.9522279379594613 0.417492994489741 -1.4914996676473036e-13
0.6057225186377764 0.939487718709575 0.43526418281507084 -1.8735703933096482e-13
0.6057225186377764 0.7530060858797218 0.3236336931589755 -1.3892791110940122e-13
0.6057225186377764 0.7109621491606914 0.5209847927574405 -1.4803494571334542e-13
0.6057225186377763 0.8507637442073157 0.5466986009626924 -1.4012057307680184e-13
0.6057225186377764 0.6735285989274811 0.5608317400181171 0.23853536200084682
0.6057225186377764 0.8690484528730688 0.4871101077811082 -1.2818584722894142e-13
0.6057225186377764 0.9994367546098903 0.3826480003028054 -7.746041400052466e-14
0.6057225186377764 0.7055908292849398 0.30853673832271505 0.008288801778627525
0.6057225186377764 0.7765995215339505 0.4722803726260063 -6.596972885852519e-14
0.6057225186377764 0.9238737813625926 0.2951010090895435 -6.171126416028864e-14
0.6057225186377764 0.8574059980453675 0.42978350074708915 -1.2690128206460625e-13
0.6057225186377764 0.7925263871203798 0.39669445734372877 -1.362344946370731e-13
0.6057225186377764 0.915298207838831 0.4599571894223884 -1.4964789970839382e-13
0.6057225186377764 0.7164002100229752 0.5361363220468403 -1.4013757558058462e-13
0.6057225186377764 0.8333504480509355 0.5015366311563947 -1.3373979106785816e-13
0.6057225186377764 0.7659082640117415 0.3787255995426513 -6.803729806314613e-14
0.6057225186377764 0.849392554827131 0.4134009701314957 -1.2966573026671808e-13
0.6057225186377764 0.7269703253875609 0.4815745807884499 -1.4372438472615844e-13
0.6057225186377764 0.730747730637172 0.27037008960322345 -1.511792434561719e-13
0.6057225186377763 1.027994706007291 0.4266088614774299 -1.2261496154877105e-13
0.6057225186377764 0.753218806387926 0.630058368505962 -1.3665880502771777e-13
0.6057225186377764 0.9157628591517535 0.35200329413305964 -1.359965147708965e-13
0.6057225186377764 0.6719384749987181 0.4155898288057267 0.25225309759636255
0.6057225186377764 0.8750239483149871 0.5939196148763093 -6.522472790612312e-14
0.6057225186377764 1.079798547233793 0.4880851449551396 -1.3172951928988102e-13
0.6057225186377764 1.0043946258248893 0.31840978509383416 -6.577225469854698e-14
0.6057225186377764 0.8079242190084648 0.2623995979295115 -5.772132335301356e-14
0.6057225186377764 0.6730884146809053 0.12843536728932373 0.22201861034818168
0.6057225186377764 0.8232950412163268 0.404383876789265 -1.4378749209964912e-13
0.6057225186377764 0.9431770288146631 0.49227105727688125 -8.054480726137418e-14
0.6057225186377764 0.8322918249140896 0.5884115582732856 -1.4767024468189083e-13
0.6057225186377764 0.8991486408372427 0.5678726521780082 -1.2833071018574095e-13
0.6057225186377764 0.6867884442199677 0.4686270820300345 0.17807526115380015
0.6057225186377764 0.8831346512603486 0.4888470388276544 -1.4414170302516422e-13
0.6057225186377765 1.0861752179465658 0.4154687721737649 -6.959681349923143e-14
0.6057225186377765 1.0340463466012808 0.5043044773336788 -1.869194977468134e-13
0.6057225186377764 0.80941907091269 0.17557652717816574 -1.2000984229028408e-13
0.6057225186377764 0.8385252949218316 0.2304148573538542 -1.5847676384508344e-13
0.6057225186377764 0.9927593274140876 0.4466524654559768 -1.371375702293045e-13
0.6057225186377765 1.0115331506679572 0.4608254073802264 -6.32912592894031e-14
0.6057225186377764 0.7559080151364868 0.4937459776203145 -6.835468206964045e-14
0.6057225186377764 0.7427873990984633 0.06932849561829264 -1.1864516960567843e-13
0.6057225186377764 1.051630628773754 0.5052958275719837 -1.2884861979367973e-13
0.6057225186377764 0.8193213890733185 0.4373832384472268 -1.3453240825502773e-13
0.6057225186377765 0.8911852642521024 0.5573103067735066 -7.526025330050284e-14
0.6057225186377765 1.0442664718496697 0.33743681596057734 -6.915974999009078e-14
0.6057225186377764 0.7210131163013163 0.09846331679244152 -6.417782147690525e-14
0.6057225186377764 0.7345079882872281 0.10045579494010005 -1.4097822969999759e-13
0.6057225186377764 0.9272711082230802 0.5226587527713102 -6.468229941811493e-14
0.6057225186377764 0.7233313239954087 0.1452554413017342 -1.3621970064485244e-13
0.6057225186377764 0.7250766810617773 0.22490861002783769 -1.2827628013929307e-13
0.6057225186377765 1.006366207912263 0.34275300693813054 -7.621110124903072e-14
0.6057225186377764 0.7343197309230236 0.3706709842495968 -6.588897557247002e-14
0.6057225186377764 0.9967916302758456 0.33518556520218634 -1.9842915386216707e-13
0.6057225186377764 0.7374518304414944 0.4971710874838007 -1.3555960828407957e-13
0.6057225186377764 0.7868501964905661 0.4863009318275585 -1.4441412368717111e-13
0.6057225186377764 0.8020631430527357 0.3700261025793225 -1.2566504386404059e-13
0.6057225186377764 0.8038547598705736 0.33717742306575693 -6.67517572714951e-14
0.6057225186377764 0.8043540767808623 0.5920790310920421 -6.258534436266248e-14
0.6057225186377764 0.8627112464075379 0.2467415518324811 -1.2813805885950965e-13
0.6057225186377764 0.7874939292754537 0.26862025797225464 -1.3416003685662724e-13
0.6057225186377764 0.9436358926404953 0.2486044810255367 -1.9908223597016805e-13
0.6057225186377764 0.6798291812997318 0.3417307749582965 0.20429154564861796
0.6057225186377764 1.1025857175078122 0.4720203378582489 -2.2000645415047774e-13
0.6057225186377764 0.6929136910572278 0.6824053427524505 0.24059524176560276
0.6057225186377764 0.7184954015679075 0.20104518720021958 -1.3128440378639693e-13
0.6057225186377764 0.8612898460258576 0.341673952154038 -6.622839143649896e-26
0.6057225186377764 1.0583126218486505 0.45258528531769726 -2.0750214542048587e-13
0.6057225186377764 0.9584412296362854 0.3910100280692607 -6.400150817395574e-14
0.6057225186377764 0.9416845528002316 0.47034822699379486 -1.299325945321851e-13
0.6057225186377764 0.9685398177865058 0.49103199555442667 -6.368337002149352e-14
0.6057225186377764 0.7309473791163636 0.23866562979608683 -1.3327986965208488e-13
0.6057225186377764 0.7877587995475641 0.23218139878000937 -1.316256007536262e-13
0.6057225186377764 0.8058736270307865 0.1461378543613174 -1.2079078736621947e-13
0.6057225186377764 1.1386971817100615 0.4517469441799458 3.160605102169282e-07
0.6057225186377764 0.7937549347951801 0.5324881907507285 -2.182733290311357e-13
0.6057225186377765 0.9697025380843379 0.4687061276681991 -2.238575735246936e-13
0.6057225186377764 0.7734877734306114 0.0952606726332216 -1.3359200462576047e-13
0.6057225186377764 0.9429890596366314 0.3251703225855002 -1.3120570585857446e-13
