x y z curv
0.8524547281758145 0.4993341459052376 0.5598646298785492 0.03241469473481688
0.8528659610226549 0.4663283480124097 0.5675900849846667 0.03378098121369681
0.8694419857506325 0.46583174516428527 0.6041474172525453 0.21706202048922146
0.8531796555241904 0.5594648175677481 0.5490321780128844 0.03235438709257024
0.8562847237674218 0.5539901822770588 0.5569923777578323 0.03326777339369558
0.8573984100495591 0.4750650192935403 0.5757525002998981 0.05926627240445324
0.852825697758398 0.48224298921479314 0.5642125798782862 0.03293752334329806
0.8358681216047186 0.492017571035689 0.5248986820289565 0.030231135689072645
0.8444257465485541 0.5598858268056474 0.5296931844307045 0.028528183005235148
0.8419765451027554 0.5507316423501492 0.526198615285021 0.030170518464056946
0.843255033820879 0.5351054789272981 0.5322396648227871 0.03034300629653013
0.835411469669405 0.4822376690265168 0.5259155299097226 0.03228953889885599
0.8458965094308928 0.5030954133692545 0.5446641921481886 0.029839338010175725
0.8450942657686841 0.47606844975174445 0.5484853171938487 0.03259602610147391
0.837597119047949 0.5212391163129951 0.5226621783298286 0.03009666464925712
0.8420471778021834 0.4906808077888721 0.5387641997935779 0.029515301874105962
0.8354672743737646 0.5023069148918751 0.5218907008538853 0.031406556229890775
0.8503892174077408 0.5806696481329975 0.5385130854601738 0.031699106316151464
0.8490068128710441 0.469554087384599 0.5584362406483003 0.031743084497248344
0.8487962480938627 0.48896627463545234 0.5539613890815863 0.03244291102936896
0.847723736824011 0.5286519072853844 0.5434011482707426 0.03305100482506338
0.8314854091993412 0.48849011918593166 0.5159890146366748 0.030618945832503856
0.8497037840494903 0.5121544291077851 0.5511651648720521 0.031636314035767714
0.8496939892440285 0.568897759557263 0.5394169143382984 0.030325294368176887
0.8427326558124753 0.5238168382590713 0.5334237644177213 0.03114662661469796
0.8386643907090285 0.4725155714680975 0.53507869202458 0.033582353959386434
0.8390465754440564 0.5352436574687404 0.5229556770031296 0.030108930015038345
0.8450422168383604 0.5148303527862285 0.5403602233186982 0.03008159978099756
0.8487372979121592 0.5574597406088748 0.5396767233436944 0.032869747464355836
0.8413713101988677 0.5013437991527487 0.535074162540917 0.02953894383958107
0.8284645904676868 0.47587521587658793 0.5119525192191356 0.03604518240608314
0.8500586861510738 0.5401003409681503 0.5461703140925934 0.03206980123140208
0.8499184895305625 0.7313803038226853 0.5606859521863059 0.03267946487600734
0.8504989926197285 0.7098739550439183 0.5575180765920154 0.03218993901084557
0.8459242852273121 0.6281000885174757 0.5305575820371061 0.029925088506718836
0.8363639310326183 0.6963270075925319 0.5236319545222743 0.028058122617068755
0.8475284142191322 0.7002857780288647 0.5490035183687673 0.031531444151568305
0.8376043965210254 0.7128631922618895 0.5297774487985373 0.03195370026235058
0.8432575839910347 0.6740311948477744 0.5341850822740795 0.02933169804449241
0.8429787489754282 0.6608466875865466 0.5308471146105495 0.028780676889341092
0.8292040063477417 0.7259128238689302 0.5139997991634888 0.0353035154683284
0.8426612125808363 0.7232215639074219 0.5430393121244066 0.035679040647738317
0.8507216364928707 0.6103841931139848 0.5374469249690497 0.028144196935471894
0.8461383323054843 0.649705729890365 0.5354933964241487 0.029178967770634903
0.8490635861754536 0.6758189824788254 0.547323372578265 0.0288991515973773
0.8464793595424901 0.6877555425601414 0.5441068622192813 0.02871225116991596
0.8344026799008477 0.728670764388121 0.5260029190090543 0.034414805021956665
0.8390268408081445 0.6777398799981796 0.5256470865555505 0.030267982070868702
0.8416215016703816 0.71254644834037 0.5385465886263141 0.031405374011267945
0.846055812067736 0.7160881317515724 0.5490306566768937 0.034736064010944284
0.8415853900879489 0.6961293263374921 0.5350743695611758 0.02938636192157488
0.8479896833732744 0.6390851528679964 0.5373700979160134 0.030188194082311198
0.8452203933605488 0.7323675289000999 0.5505577044712191 0.03405198657709264
0.829433064751095 0.5870809049151477 0.48821107108563283 0.032324783784669193
0.8249972285536529 0.5461685976150833 0.487499339252704 0.028987891627553303
0.8336786779797086 0.5772924354910363 0.5004914232606975 0.031144690612125166
0.8392467639822236 0.5743365832534758 0.5142552819618695 0.031482573745905004
0.8370566680561852 0.5474326903436251 0.5154926545479795 0.03150564345739246
0.8293596455960848 0.5737248799162457 0.4912038886200889 0.032117001500933585
0.8407025512705033 0.5968881982729264 0.5123265229176106 0.02991725052446987
0.8284549530986869 0.494321583486852 0.5078981089141554 0.03152180005987421
0.8311150500291836 0.598194139521294 0.4895236297382505 0.0325701893971315
0.8245235710844754 0.584779586765357 0.4772381753708238 0.03342419017102461
0.8318800084685778 0.5483220317927139 0.5031368436973466 0.031554069588843874
0.8346328733375514 0.5684055315880636 0.5048360685116486 0.030093371284011388
0.8271613740668031 0.5972004216883978 0.48048332487168777 0.032582613823343876
0.843041076094238 0.58607168869541 0.5203762410516484 0.030541846331537486
0.8300861986663121 0.5086842442750927 0.5083215876846248 0.032485999330017515
0.8276083839490189 0.537368213595922 0.49571090614433266 0.02964114011749195
0.8396315013489352 0.5629773380147861 0.5178497986497209 0.03099123177119051
0.8338878474286326 0.5233802766865717 0.5137580885350405 0.030252638951072983
0.8264740791110163 0.5650358875964266 0.48649309656160344 0.031065110778054034
0.8347758627559255 0.5367712134074384 0.5126681370039412 0.030519567876536285
0.8304856591714328 0.5287260229247916 0.5045093335770677 0.030783147708527005
0.8372288627345383 0.589091374944328 0.5060245034278981 0.030460406749577573
0.826102091280005 0.5148708765972942 0.49750831094330816 0.029761251255731067
0.8252700009590253 0.49809279817077023 0.4995321430549588 0.03107798360858137
0.8484885697585811 0.599451719006028 0.529985951237331 0.03151698689542631
0.8309121695685426 0.5599301408081687 0.49811532669610464 0.030717095930692377
0.8066256851058616 0.5861507767733127 0.42424303092582905 0.03275500179548058
0.7984112322974648 0.5839875210762798 0.4024311175706823 0.03172418903164457
0.8045673404661522 0.5961172380443319 0.41877748915651264 0.03083985469673558
0.8085966495818218 0.6024246127475831 0.4294765513292539 0.03113939798404372
0.8132425931407177 0.6118489426451978 0.44181296870521747 0.030944437708510946
0.8142935277854882 0.600562532555348 0.44460352529472325 0.030014943647743715
0.7974230991459162 0.5734610790224461 0.3998073183733827 0.03165208990903841
0.7995728267248801 0.6344655725823026 0.40551551011581943 0.03111058546588621
0.8074414552440974 0.6132761885997053 0.4264091530021194 0.030282901744620668
0.802617091195608 0.5824623914177257 0.4135989740317354 0.034163968360127986
0.801278522390205 0.6012082066261085 0.4100446597658471 0.03113859745712171
0.7980873587415565 0.6137733976361069 0.40157113308915016 0.030587270321955233
0.8048348033044108 0.6293778140525776 0.4194876857319745 0.03129737285739107
0.8103150354129485 0.6230797058680637 0.4340393972952 0.029570552913671912
0.7997210421264762 0.6237054238227292 0.40590906785763425 0.03391101882647263
0.802662348301226 0.6163661444732071 0.41371914564748025 0.03205110474789535
0.7974670318497015 0.6006546418569298 0.39992397329255625 0.029755598601031195
0.7396850042563522 0.48616759183573865 0.06772304618968822 0.12443773924495712
0.7406486207042979 0.48808886153690906 0.052956106078555686 0.11343732791408727
0.7393371658319507 0.48547406753244327 0.024989262045204734 0.07011238019373799
0.7369291152165623 0.48067286815888205 0.00777708113097194 0.13380254860137572
0.7382393619718974 0.48328525340557293 0.10509892540224158 0.07530820868626313
0.7372522077950985 0.4813170539063729 0.04335578372463021 0.0678201657934872
0.7357150382410141 0.47825222192313954 0.07726648279790936 0.1272463726792056
0.7343343141776867 0.47549930872366564 0.0587621876237145 0.12244458030902336
0.7343908059540377 0.47561194307321397 0.033141783617689206 0.06651150447469982
0.7348190054506506 0.47646569515702486 0.016463653552129927 0.10589434418310784
0.7362143083072337 0.4792476758243965 0.11379194383806092 0.07498017564860467
0.7350395890631157 0.4769054988473288 0.0962874526939431 0.09394244918557297
0.7220818826762302 0.46458938736909633 0.011335728443930078 0.1215696913767163
0.7174344417977745 0.46154830690915666 0.06841288659696974 0.12369543930063273
0.7176277855880444 0.4616748225632592 0.0947520830316497 0.0981018900865232
0.7232313844858492 0.46534157068531723 3.107035398447555e-05 0.13090696857515197
0.7232141808737249 0.46533031339984776 0.04695946378519163 0.11332865895954207
0.7180977671928694 0.4619823578095041 0.11819054564607989 0.06814440058669514
0.7239362637734796 0.4658028126213183 0.02135912219123519 0.10073775408469922
0.7221151852652777 0.4646111791154502 0.057863701227032126 0.10795123380333799
0.7199854406849008 0.4632175681374017 0.08020629416203214 0.11329883562197794
0.7242911856603714 0.46603505628599684 0.03360563072596902 0.06137794205298978
0.725906645977553 0.46709213530704863 0.09740743796793222 0.08960817960189334
0.7306778054579204 0.47021417986296765 0.0054677714196291905 0.12231286318717752
0.729725885677752 0.4695912821297855 0.116514568756197 0.08084487302915871
0.7297441439906492 0.46960322959379985 0.07865129848284197 0.138621317615168
0.729693398621698 0.46957002398094533 0.06843420791232972 0.13591273845318239
0.7392532593336166 0.4849416289809186 0.12259367924883204 0.06599108839954138
0.7233730527982383 0.4639592227116715 0.1347168633052406 0.07181740812140087
0.7323600343198096 0.471561926697829 0.1408285927553814 0.0715537877896766
0.7277317663645165 0.4672955904587265 0.1578633107410592 0.06157094717134397
0.7233367288981869 0.46369346432684216 0.14618720696303544 0.06775975352454258
0.7333271136707666 0.47286319418712364 0.1293171419331412 0.0714087639860612
0.7382434729227475 0.48063172775794594 0.13395350463380565 0.06927500348345703
0.7380875266354365 0.4801389641973831 0.1471614228517119 0.06637007460731457
0.7356328598096753 0.4762600303294947 0.15670905543563707 0.06174063344776816
0.7809536081680718 0.4692783432539479 0.39530854141490945 0.03714573279277702
0.7746660025167288 0.4778607337879892 0.3556176411191616 0.03773520088380599
0.7767996968812756 0.47282682802034665 0.3725685829672788 0.03579203057929139
0.7339667324373926 0.46685848557016857 0.18687074610892998 0.05805091762771798
0.7299110595466429 0.46681177963430875 0.17123909013897182 0.05915583998421689
0.7396186776296095 0.4663948819432019 0.2254339346989357 0.05486426443766011
0.739222597358873 0.46817923779727993 0.21381142343463033 0.05317336549750639
0.7414140707263266 0.476854342850199 0.19346300906184155 0.04720128736257675
0.7371446647453854 0.47335696857025794 0.1779961142890703 0.054838959075809046
0.7199213763972299 0.4564287107742057 0.20083424132004246 0.049342967477694726
0.7199949107086192 0.4617148469461375 0.16360962807310517 0.060370512256149776
0.7440514343008349 0.46609485371304604 0.24694360575905777 0.04935586916324273
0.747982564312518 0.45553582666816217 0.29827446131827046 0.04382723449689849
0.745418784605506 0.47041855650851716 0.23793780591951214 0.048588975374626836
0.7424234100338247 0.46118136884991434 0.2568786123489296 0.05386835143293328
0.7492592780358732 0.46446616154491066 0.27425172474769743 0.04350306140905637
0.7508239660438863 0.4615637314209424 0.29065001869454266 0.048024689186884434
0.7557191016999825 0.4600799463732291 0.3164445382890703 0.04155045438149308
0.7522836182733332 0.45213102081802475 0.3249636995122234 0.04098657431845601
0.7572654602549448 0.44857699063411477 0.35198062053540186 0.03897844419678692
0.7573323139721791 0.45393221682623874 0.3382381196630539 0.04036828748057659
0.7614447642834168 0.4447405553335241 0.3768772339799319 0.03333434742515698
0.7654879645675992 0.44575150829414184 0.387100612553067 0.04108933855104774
0.7698166361624085 0.4546152994126981 0.37560589898148 0.03370856828702341
0.7637623753241334 0.4541360629068923 0.3589106810410171 0.03908247999771409
0.7557404574878843 0.4417112901290088 0.36700417355104187 0.04479419423413915
0.7579927904350704 0.43855831182425253 0.38362778638496653 0.038188021379023246
0.7574912024059355 0.434601635106944 0.3937802951584938 0.03910583002089786
0.7503377844837125 0.44633535039513805 0.33627663796935553 0.03881759012672189
0.7422840656220413 0.4482398201985922 0.30745540285608275 0.04860000647995831
0.7482376900794445 0.4366024950486189 0.3597227597057384 0.04061294230808032
0.7469838792656542 0.4387433292402247 0.3496535562089044 0.04702658034378455
0.7443636029721246 0.44597608851249604 0.32026055080805094 0.04516093644572039
0.748341540042185 0.43346977313048973 0.37166625393844616 0.0391203900459875
0.7397040150436318 0.43845675365014936 0.33561689253968635 0.040774491216427566
0.7360009925893438 0.43974255632981074 0.32347050507156094 0.04270559603887168
0.7279140056208913 0.46164266979272084 0.1957575894220971 0.047914960877247344
0.7254790626343928 0.46229096316746177 0.1824945965411871 0.050662278409546686
0.7312458798856646 0.4617704818831083 0.20717740788739988 0.052000560604414846
0.7247044989851937 0.4561823389345628 0.22014214260857637 0.046033322793881074
0.7326675367105564 0.4530234317966394 0.2579099654686476 0.048644617448926133
0.7337427142307561 0.4498320453651483 0.27513525104741 0.04611905416280438
0.7309625587756748 0.45686990791566107 0.23601599170352927 0.04622891095150646
0.7346925983038883 0.45683397020019484 0.24650570907040154 0.0495870106704297
0.7245777170893338 0.44693742479296095 0.26704748389283317 0.04228119280142417
0.721181931742995 0.44732220149974133 0.2564854484806649 0.04246832628679856
0.7227538743175329 0.4507175114411538 0.2415311095448954 0.043263552731416716
0.7263102040525314 0.44532533276756875 0.28029809545822454 0.03970344343494451
0.7539945932116321 0.4758610725864854 0.2647309740687475 0.04188418291126364
0.7491552048474656 0.4791438116392718 0.23283811484479958 0.04926609105702145
0.7515689874118903 0.4797840959405417 0.24308231300017424 0.04238480541417722
0.7567936245914582 0.4679959479058078 0.29801264839465574 0.04815742774471296
0.7389645718516441 0.44903602235252615 0.29416196514014537 0.04501987630582364
0.7434605194637066 0.45422594979674924 0.28733269057023003 0.04470426218981584
0.7413620694446362 0.45582022878440376 0.27290711920666255 0.04366614912455669
0.7449909115334793 0.42759484248390606 0.38799922721071656 0.0394733906743318
0.7364091420331951 0.4278410085110982 0.37084773753468103 0.038297936729677885
0.73307448253636 0.43199865715227026 0.34862671479268503 0.03835110271025404
0.72847660196915 0.4221088062357601 0.3787057957165811 0.03570539295810289
0.7268671321705731 0.4276223935700458 0.35590426144434395 0.034950549969189615
0.7226565181807796 0.43536311431172786 0.3167236016209502 0.04000000644512317
0.7311571903854142 0.43471644029124024 0.3340848212549743 0.0423438894673392
0.7240759172080434 0.4387307845788945 0.30404015128823514 0.038028128084963815
0.7334923943059555 0.4415658583784091 0.31121644400003257 0.04300279188830745
0.7238956958780149 0.4411607803350644 0.29297912673404264 0.04117167430506205
0.7631995383064456 0.4644982997032674 0.33274215313404604 0.04052497724220106
0.7758049791578157 0.4619944619733677 0.38658432557984523 0.036246575481663254
0.765443691745114 0.45998783543031757 0.3488062745752608 0.03803663774422941
0.7705319935000209 0.46461158644082123 0.3615596393907406 0.04201530134368245
0.7634016599000715 0.476951541870427 0.3116960180028318 0.03915929326479002
0.763476424564472 0.4709037505287775 0.32268014612023005 0.03997376506227411
0.758654361859819 0.48151887375651464 0.28481974468025073 0.03859307462976635
0.7620399836638247 0.48133608099304304 0.29855365866355954 0.04165261401426593
0.7684365607476977 0.4695108107245977 0.34478954490014313 0.037808815847129744
0.7574291599977732 0.4841841863656202 0.27213797253275435 0.04352585053581439
0.7546444823382308 0.48514376828830785 0.2518520096085478 0.04255661059614578
0.7467218871389981 0.4852030562967121 0.20147846039891754 0.04442324294263157
0.7459358284339882 0.47874516659061206 0.21600678178984797 0.046426508261121865
0.7425088025108134 0.48433526279961303 0.17709905084991795 0.04543795680088005
0.7904173450000599 0.41425172344146893 0.49379476393272975 0.03369432827991236
0.7809549197745296 0.42242721612972317 0.4612263088901467 0.0330533597765913
0.7769210075682026 0.4240241253036303 0.4506820673024231 0.035955755256416144
0.7858281862440003 0.4164782228191566 0.4810743778501375 0.03708344347286343
0.761368066851022 0.4297883917004182 0.41072279807967116 0.03765941096492848
0.7642609035976402 0.4254017856797118 0.4240174788468911 0.03734896776877218
0.8398358488593215 0.4521027974982168 0.5522352412805716 0.03547388680286882
0.8295073111197249 0.44839386412045756 0.534028738119013 0.03471196747617745
0.8358691024033952 0.461631524817937 0.5359373613691782 0.033972183092561004
0.8331654329967255 0.4690238959098177 0.5240662896499837 0.031449465184769425
0.8436710467097177 0.46327049139057963 0.5506779259477763 0.033309547001467585
0.8279121891338302 0.4652344004552177 0.51642300753839 0.033263626085090765
0.826065836526015 0.4362118976652798 0.5372619023168232 0.035303057226784
0.8599548130226803 0.44008701476864015 0.599964526250686 0.1894290858468593
0.8647677138593929 0.45441815517944345 0.6003436007533942 0.17400894844486406
0.8600742691008861 0.46085703859462374 0.5860991516244484 0.10589694792523775
0.8693602728145455 0.454967792999902 0.6096261199226554 0.23383989167206462
0.855834350945758 0.46111430199362696 0.5770096596165696 0.050249482343438456
0.8558139862879282 0.44862510248021714 0.585455240797775 0.10474986383094143
0.7717912576932492 0.44155469172019046 0.4112395166126799 0.04042197929047923
0.7948318350600867 0.44053128782942286 0.46180787013633817 0.03654617662122933
0.7759898462449463 0.4488399838625687 0.4058959951715052 0.03493187741550366
0.7826438924689143 0.44137611206713445 0.4344670692555707 0.03421554870347982
0.7809496413844251 0.446743782556491 0.42043660924406256 0.033648802763237104
0.7650246350497921 0.441373768264171 0.3973265961129198 0.0417674573724259
0.7374919664156918 0.41965854509084705 0.4016640557675505 0.03754847924721992
0.7315928162497821 0.41336528345629614 0.41039683947021377 0.036581395430034705
0.7354934280539304 0.410071381993528 0.42401575595997965 0.034369557510405324
0.7888045231904259 0.43201972214631534 0.4626548004122026 0.03658114733834016
0.7796142014722396 0.4329805319328809 0.44161553673220555 0.037105525874589575
0.7871855142830313 0.4234005767709749 0.47258984073337595 0.03799672991498059
0.7968651316538253 0.436852359387492 0.47229853400188165 0.037094745066195096
0.7862507021131764 0.43666603630448314 0.45001076738353024 0.03834668965995795
0.7742838089779536 0.4314270809539878 0.4326890236189791 0.03733444362522807
0.7998992221651544 0.42178208597880407 0.5010701178906123 0.0343051455694943
0.7965035697556444 0.4250619844514064 0.4895397040049538 0.037433515438871544
0.7964606853096353 0.43104980876254373 0.48035922760022637 0.036900474220620524
0.8066484239902908 0.4295606523410309 0.5022643166284085 0.033839119289944646
0.8086775833212569 0.42527673347064887 0.5126855511990153 0.03421212220882201
0.8152912598935662 0.42173562795673214 0.5308173567819829 0.03600849385754812
0.8097310224259 0.41115539759621766 0.5350017627669735 0.033130669077401954
0.808225436950326 0.4039513865766516 0.5421088253677022 0.03381698434650189
0.7972334332281101 0.4137561588143561 0.5080682534493617 0.033694762859487803
0.8078408190480302 0.4180038205491525 0.5220392281659623 0.03538881154728541
0.8033332557871719 0.4092001507528486 0.5257398163493974 0.033132740661804536
0.8200394303018311 0.42150517914875507 0.5400111541130377 0.035565724581192476
0.7425898123367594 0.41678622967331097 0.4146091650838525 0.03866605248436206
0.7473145530443801 0.4027753188165588 0.4548325166112761 0.03257126678836661
0.7486904690739606 0.40840431173956443 0.44208560820056375 0.03689083995963434
0.756486700017162 0.39866057381650755 0.4747604832049241 0.03514138717453917
0.7818044249595167 0.4556055644372629 0.4121603781924926 0.035888103402206294
0.7865812080563461 0.449675579594489 0.4307515677410939 0.03507701756149763
0.7793502067175888 0.45976712610378434 0.40144302567654433 0.03929093792674168
0.8044440389578935 0.45681024678777793 0.4686123997588937 0.035374194025323366
0.8122286257963145 0.4614933312468166 0.48331443276166847 0.03352327110799034
0.7931953448017905 0.4660754419448552 0.4300309395235561 0.03720692423973714
0.8019033042857469 0.44778360753879604 0.4719223935639645 0.03428016653469411
0.7871813793581176 0.46180499732084723 0.41937856399307377 0.0353397225202854
0.7982628825630804 0.4608898679861396 0.448505827409436 0.034256273216378086
0.8206140432303487 0.46784807325157685 0.4977343548248562 0.037052519379150585
0.7971508804426306 0.45119126173513757 0.4561702523792506 0.032678084147886075
0.792148079086485 0.4576708131141908 0.436460446713586 0.03560020261618015
0.737938834571821 0.39376522073353704 0.4671136973851777 0.033878563513975425
0.755614775979762 0.3946215410753334 0.4834424225805807 0.034792959977852145
0.7327071323937533 0.3955842095626443 0.4573761407584255 0.033886719304022546
0.7458817365213161 0.3884099575699562 0.48803553460221805 0.035868200212800794
0.7408278280798083 0.39006946731402015 0.47886002509307046 0.03467912087631293
0.8584214588967389 0.428940833272284 0.6046346531169173 0.20819858789958928
0.8453271741764823 0.4334463974693076 0.5765487818564596 0.05169694222028211
0.838897005280119 0.43530473723299534 0.5630179676309683 0.034590007735057195
0.8326112450996618 0.43874394072691164 0.5485943257110153 0.03367070243141311
0.8273230743176018 0.4284384025078313 0.5461943046270553 0.03154863056254267
0.8487623439162544 0.453327462718985 0.5683823820039355 0.03280399026179902
0.8492203926350692 0.4451114426107319 0.5753081082040685 0.05276251028227209
0.841270748129241 0.4456454595233327 0.5598804949669088 0.03439816820580941
0.8313153440479224 0.42554099054668876 0.5558810882205507 0.036368280687645235
0.8473736314061407 0.45969353499380666 0.5610610331957311 0.03648059878257157
0.8535198070378662 0.4369384795748628 0.5894665778103135 0.1183344341184592
0.8394476407538114 0.40639949711774315 0.5926112184692353 0.18110622705716242
0.8440369205187854 0.4165232352900819 0.589950970492627 0.1573060535170534
0.8452416506676911 0.40078438501391417 0.6098657453708987 0.2576450214919671
0.8520806066360039 0.4242741243496904 0.5964855553913755 0.18799169769602717
0.836298040602085 0.4124427479115139 0.5798804394980666 0.11401008246261216
0.8515273963371419 0.4154052781527424 0.6053763308255262 0.21411413774313617
0.8352767794512985 0.41917091845081816 0.5704092313614824 0.031452884394476695
0.842923080264836 0.4245709306055227 0.5788260723204344 0.0668835690170568
0.8347368999228622 0.39592957363898623 0.5968698481503942 0.2196332573062665
0.8264122965741363 0.4003395172343484 0.5778825309191403 0.09784724370155166
0.8218347932647857 0.4023703692931164 0.5679452362121993 0.035935808789036384
0.8237568094010045 0.41691928852512183 0.5524438328334264 0.034226712317695286
0.8316127140323015 0.39956477625166537 0.5872145431299932 0.14822002709476675
0.8288207278923632 0.40969557251575917 0.5697947353746289 0.051644294836091766
0.815095231771477 0.4015547677159274 0.5581756599591968 0.03350652306274002
0.8209719635329685 0.3749410081865934 0.6058428300289773 0.2525553556969399
0.8178605736188028 0.37913950189117296 0.5945824695155828 0.19351658223304266
0.8135089644868151 0.38326546644410026 0.5814572938104536 0.11291203413466443
0.8242737289923762 0.39103581246202246 0.5869136684368539 0.15288468122747179
0.8083517639436891 0.38444765508015943 0.5727013654158897 0.08688885179834606
0.8110037424759614 0.3707614811158476 0.5972116047530185 0.22537525803142122
0.8000115873435354 0.3854080738854482 0.5600637313714741 0.03176662511409848
0.8022754836418539 0.37462239492444793 0.5796124469437435 0.09723268944046672
0.8203678957677581 0.44957289673330025 0.5132462421284116 0.03316930091478185
0.809746038339439 0.44496848041565296 0.49296677066097644 0.036062587407431665
0.8173591632334583 0.4302926925437141 0.5228924903184949 0.03465393779372206
0.8237452401576532 0.44589328428000896 0.5240981985270223 0.036441319616904444
0.8062791549671258 0.44654906186496174 0.48370777244387586 0.0346523398122213
0.8206759625421196 0.4587857501060351 0.506060924268671 0.03644348841753471
0.8176056781919583 0.4382449681050683 0.5166460882223165 0.03656649508405527
0.8158602856858996 0.4485453585063205 0.5038470208150809 0.03544754106844888
0.8139742342312759 0.45625857525223645 0.49294227552380343 0.03559730650718096
0.8115277335141939 0.43891912008066536 0.5022089926407438 0.03393950374896428
0.7925615865447253 0.4768960966628022 0.4172928031808393 0.034640895418715005
0.7861661548862491 0.4722160689365755 0.4058743997166611 0.03495946175368601
0.8167037691672394 0.4713282294420207 0.48410809587776515 0.03553245866385082
0.8050750535152631 0.4696574629440516 0.4563668485396953 0.03304945776233194
0.7997148036349735 0.3684836673246268 0.5863929032082222 0.1429635159175744
0.7841428166495701 0.3669893019951618 0.5700592377028749 0.03337386709560623
0.7933035690327508 0.37257862675297987 0.5711003732818437 0.05004743144706495
0.7998742828205336 0.35990223281174427 0.6021973263153468 0.23092691560265505
0.7904004663958693 0.36542337181673384 0.5805636525211878 0.10168058871776003
0.7851127846537644 0.3722831703286408 0.5616166180452322 0.035813457658138835
0.7897169443960382 0.35558076625172486 0.5976307114189976 0.1975804094970489
0.7820181748452815 0.35856788785371074 0.5835893773965845 0.08839952023183646
0.7703048703036774 0.35301979489263546 0.584236501058372 0.11803129714532758
0.7763136845255113 0.3712897384216024 0.5558798476900308 0.0328865743223826
0.7535051093009631 0.3526186198260877 0.5714352990356844 0.03314206937895069
0.7570184826430986 0.3623165455889711 0.5566440089356325 0.0384372527138738
0.7470115644253071 0.35484515448129955 0.5621599977889487 0.03401491018126614
0.7674844633425216 0.3630447023619081 0.5637500182495476 0.03407144527540406
0.7768520567920638 0.3503666896296076 0.594330071603613 0.1755810217013649
0.7608361964680017 0.3729342557060672 0.5378283020716996 0.03433787502150378
0.7381645662851906 0.3750719132149357 0.5110449402130831 0.035510399964563885
0.7400843612767237 0.3664621869445683 0.5312809670323747 0.03618842333979032
0.764160102911259 0.368662088229303 0.5501941971543665 0.033492634761384366
0.7784980034279497 0.37674701086552737 0.547015333755907 0.03688026710681639
0.7491513718478702 0.3694311230816851 0.5338408250631157 0.034209256017877956
0.750412661591372 0.37453268840790965 0.5242019921835471 0.03401447911469865
0.746576200534717 0.3606268889438584 0.550084809610575 0.036286812264130365
0.7491820221257948 0.34008681958493847 0.5926909805108349 0.15331571069863315
0.7590837150227348 0.35002174714992507 0.5806750446138803 0.07499334748031634
0.7675679414004435 0.3460188519115314 0.5950600315926745 0.17976311774055181
0.7465032857783975 0.3448195524168959 0.58130852213455 0.06197027926767856
0.7538658750638112 0.3363015814542164 0.6037390879962214 0.21074554258191383
0.778420813196038 0.34461031201928666 0.6061411893333212 0.23719234417980234
0.8006680847407444 0.40156384666708667 0.5326907213387739 0.035423710096561624
0.7989808848585496 0.39556313421901895 0.5408668194865666 0.03462857537480748
0.8100988635416968 0.39322484232577337 0.5615675937027523 0.03199526436620527
0.7879401791101295 0.38016934321971013 0.5518570179955968 0.03456412267830898
0.8030555231509133 0.39239145025061806 0.5525753568930704 0.03436726072350296
0.789605518385731 0.3933907004638497 0.5307903917092489 0.03462837970570827
0.790184118168695 0.38682674056492516 0.5433396371772343 0.034396354688117324
0.7783087781556106 0.40216199014354237 0.49831372391724815 0.03535120305747423
0.7715455757567252 0.4023587851888049 0.48787276530870466 0.03583271601508888
0.784224540430041 0.3984689564530153 0.5137202652395605 0.03374127399759945
0.7776406016877963 0.39065727012104706 0.5178169895805893 0.03497503311925105
0.7809699569532608 0.3827122556283966 0.5369413288815885 0.03526554277267035
0.7708040069876952 0.3788967920132135 0.5346467173130452 0.034741106842577855
0.7417814449222829 0.38100474848366095 0.50129726673554 0.03579754526043866
0.7538421411114065 0.3809825774237705 0.5131927247372988 0.03340951655429643
0.7744220942722402 0.3835597110175734 0.5274776711244791 0.0341563745507656
0.7643740313814803 0.395558200875117 0.49001950875140426 0.03295638973400724
0.7644927562541789 0.3917064294655573 0.4989931605100382 0.03373367747877017
0.7535340298061372 0.3861108506358265 0.5010977967306316 0.032154986599471296
0.7654163936078617 0.38400229971653355 0.5176156995318069 0.032794135767963084
0.7669807019557136 0.4217820807165614 0.43669577580253416 0.03411297663869031
0.7767214622140237 0.4097791892521234 0.4801743496245394 0.032640767990685875
0.7639384733806698 0.4100765925564245 0.4577680358663771 0.035564091862497836
0.7779051907048173 0.41484926866650274 0.47081933294727885 0.03598381378252719
0.7645730874546971 0.41522173103533006 0.44731086661732194 0.03307981360433295
0.7725328714441303 0.41618977353140924 0.4586771818926617 0.032285268876439066
0.7656515789914413 0.40354674956277403 0.47532265499165477 0.03472463154561819
0.7565855959703837 0.4087720759671534 0.449860938248608 0.03267244768454576
0.7482948077749723 0.4235177586489344 0.40483790501012007 0.03860218305644717
0.7570983609920805 0.4149009215109349 0.43584841437776817 0.03442496426892811
0.7503178980561327 0.4169966100694146 0.42279748079017154 0.035451758454531204
0.6563878316718484 0.4523920804838889 0.006945644936284218 0.09765888416307908
0.6736305444922499 0.4547710012272551 0.015986448381118994 0.061269933620156446
0.6464220701007637 0.4510171369253066 0.07893287612220803 0.08884724441902882
0.6791216389973833 0.455528589592735 0.04264791656059328 0.04964103151945146
0.6503831450012715 0.45156363348562134 0.017295808086490894 0.06398427182755911
0.643964251962488 0.45067803978824544 0.1009156873888134 0.06165889692410036
0.6673300762718646 0.45390174621509366 0.06014203726736767 0.09533831129487175
0.6780349697743496 0.4553786653909705 0.028792797317266042 0.03747657968647499
0.7041989440462285 0.4589884234245573 0.00400560260590702 0.10064978075887902
0.6392642946435874 0.45002960203513037 0.02704178305844358 0.049082909140030904
0.644014530933803 0.45068497661361984 0.06755754014943478 0.0917965601083277
0.643989660135894 0.4506815452709032 0.0078697241204805 0.08384843452917294
0.6590643682449436 0.4527613534886901 0.07949828871361647 0.07833672891529836
0.6558376483879871 0.45231617349406283 0.06724053292998224 0.10365771622214472
0.6622279765117217 0.45319782618345184 0.01605274420806969 0.08418898434477623
0.695788945100134 0.4578281233515386 0.030911337057799883 0.039652611971496554
0.6862623631673965 0.4565137719725402 0.018202624056435482 0.06295970076969733
0.6512953127287892 0.4516894822862726 0.03859538245772168 0.03256713784594881
0.647362204599649 0.4511468442100156 0.08977709114386379 0.06515042772553101
0.6681540908303953 0.4540154328110802 0.006042487905591256 0.08297481881368864
0.6397356622070723 0.4500946350775643 0.050091489445593156 0.07053558189993069
0.6673383319799937 0.4539028852281669 0.03780012711115433 0.028402387564514162
0.6790628942626742 0.4555204847736489 0.003421164568205752 0.08244485368848001
0.658178961337169 0.4526391967908918 0.025385163542453817 0.04655576873552766
0.6544322766746825 0.4521222789511482 0.05579046882292087 0.08762373527563556
0.6979455976610662 0.45812566965802026 0.012270759642558627 0.08166219091607305
0.6437059228942944 0.4506423989708554 0.11175523807942883 0.053239700259318665
0.670034157942261 0.4542748195269597 0.04888556973495474 0.06581439121964193
0.6935008105697987 0.4575124369073854 0.11837272108272276 0.05190222003915345
0.654636234443302 0.4521504183380065 0.11797138606729582 0.05130564646799103
0.7092824387883411 0.4596897765826575 0.08245777752509584 0.09825128442309168
0.672010742378309 0.4545475224226645 0.10628576967907163 0.05523945744198228
0.70856360574057 0.4595906015360062 0.11365101562235276 0.06719802176121954
0.6646070500135 0.4535260591803314 0.09398936552321181 0.05897804000325049
0.7018369634538408 0.45866254868053147 0.09155450223354034 0.07157240804260315
0.6917760908431625 0.4572744829626132 0.04512341393291472 0.0627495938113664
0.6712496746268245 0.45444252039195326 0.07789442631156801 0.08867916587756085
0.7022954346388032 0.45872580245176237 0.022526859604915083 0.06260976157329766
0.71346730531908 0.46026714894290555 0.10348268941942561 0.08288729381615827
0.6799984398408433 0.45564955893996206 0.09570427958129468 0.06273684401218263
0.703360888260459 0.4588727996063315 0.0397952481427119 0.04369164455734483
0.7113786994357936 0.4599789908141807 0.012771338436223686 0.09723650825857964
0.7156639014845542 0.4605702061379812 0.028544813650492593 0.0557142840389979
0.6979329318163849 0.45812392219281806 0.10430192706055214 0.06049430658900428
0.6672128217225309 0.45388556898807786 0.11661544286771763 0.054905148446529876
0.6951902222416732 0.45774551951521913 0.08108533954154601 0.09436501263180525
0.6967497109276828 0.4579606770732458 0.055659976392190155 0.0919936211977783
0.6839525170986838 0.45619509005838443 0.10750919782550623 0.0590386926798438
0.6929165812582763 0.45743183269837606 0.07143272217404956 0.088322104112682
0.7033779307794887 0.4588751509069917 0.06851009942936774 0.10979369344280167
0.7127914234386742 0.4601738997284629 0.044798451262923034 0.07670903809327233
0.6778218408707044 0.45534926069258147 0.0609764536148881 0.08934638550082329
0.6820295844703624 0.4559297893272723 0.07281065505736642 0.09270030571085366
0.6810427369179415 0.4557936371952124 0.08366615417093361 0.07917746416318162
0.6805936218209998 0.4557316742528725 0.11810910211904886 0.051472686859872815
0.6582219500376417 0.4526451278014207 0.10221242973876311 0.0606300259671419
0.6839356084446333 0.45619275722663793 0.05352374936536239 0.08117734280068228
0.707516275399195 0.4594461047911955 0.05573493395515027 0.12088432440714246
0.6895852717453108 0.4569722228106796 0.09579544406817295 0.07142965024708225
0.5934962220493084 0.44998255045440233 0.037781251412484104 0.02969750621944326
0.5657428828335634 0.4499853180018743 0.010533207860841646 0.08848980418553044
0.5883126646990271 0.44998306735584365 0.02501474688635342 0.04767074407476697
0.5963979694724305 0.4499822610937715 0.001971262928948933 0.0844679113562764
0.5642756960659938 0.4499854643089185 0.05389696181525522 0.09559842458023797
0.5894302773605771 0.44998295590813375 0.04747983163101517 0.06382603595651505
0.607363329141558 0.449981167634235 0.021997238392682687 0.05240015136567794
0.586838499271034 0.44998321435879596 0.06782281035453003 0.09093406676695684
0.5658050930181864 0.44998531179830936 0.09750200714693943 0.06849617502103825
0.6185207459293978 0.44998005502287025 0.02758174518887756 0.04379091238160403
0.6013777772129165 0.4499817645101274 0.013732090599574061 0.07620573713581104
0.5690047608256141 0.4499849927292244 0.03169409874578485 0.03373205354269884
0.604826786278637 0.44998142057687135 0.038694239498749235 0.029718293808295822
0.6047318979974063 0.44998143003907776 0.051205225570247884 0.09179003875113889
0.5792834941966235 0.44998396773967864 0.0037429602640589796 0.11079634236796088
0.5667274539953964 0.4499852198209884 0.0668121445530202 0.097185161724302
0.5813003306739438 0.4499837666218725 0.017158402400829137 0.07181294814245003
0.5692762094126873 0.44998496566052293 0.07932408926900417 0.0903552308863922
0.5918784607931158 0.4499827117766504 0.05885581280938206 0.07533817490720254
0.6255913578267628 0.4499793499454044 0.014783084278574806 0.08642969750631574
0.5792878248404272 0.44998396730782925 0.07962199861981858 0.0872874669062997
0.5761781797009434 0.4499842773999042 0.0570035764581053 0.07658948611992922
0.5901810788091076 0.44998288103863304 0.011049091707736937 0.07904611554023606
0.5813217297871427 0.44998376448796495 0.03860483425828169 0.03044954914729043
0.6083237694109949 0.4499810718596683 0.005419680437304429 0.08435588264719623
0.5719313383648912 0.44998470089254816 0.04255463901740612 0.05736941530774836
0.5746726138933563 0.44998442753408485 0.09041627283218878 0.07092050600310468
0.6288699293007407 0.4499790230080898 0.052800007170756814 0.08955388272525035
0.5938334231148992 0.44998251682890056 0.09997638443559345 0.06005726657929265
0.6337467583126173 0.449978536693427 0.09418075638010417 0.06504047825605723
0.5777020694423822 0.44998412543847105 0.11383498497375764 0.0529532690732817
0.6041105098258869 0.44998149200355886 0.06131874644364109 0.09516730661585819
0.6328428124107766 0.44997862683440704 0.11018976900407616 0.05102356371963145
0.6018194391881835 0.4499817204678421 0.09400511304095788 0.07080356584955527
0.5991346417188603 0.4499819881943449 0.08212582895006933 0.07728489007387394
0.6101155568418604 0.4499808931836274 0.08847724994917615 0.06641194871950552
0.5881195050870553 0.4499830866176121 0.11127654188034566 0.049821695400564754
0.6261011539747083 0.4499792991088175 0.10211668383114432 0.06012365939565143
0.5880014343113681 0.44998309839156386 0.09045366190694759 0.08038260208125658
0.632438996005025 0.44997866710275325 0.06568718092271458 0.10040788259109672
0.5977697172736303 0.44998212430384754 0.11072561623136014 0.05374223171173803
0.6171645694214308 0.4499801902600335 0.04650551663414487 0.057556488441751014
0.6228922228800126 0.4499796191016325 0.03708395909179647 0.029307675635860706
0.6130605732410019 0.4499805995082384 0.1110165891544477 0.04997888923008944
0.6288910872891087 0.44997902089822706 0.07796136118790116 0.08416889736819531
0.61317170928441 0.44998058842581423 0.1000701416167969 0.06152857830154362
0.6367974383248203 0.44997823248132157 0.03937824133739282 0.03525714444207966
0.6232631209513676 0.44997958211588407 0.09221401507617454 0.07450175836928895
0.6169735923996793 0.4499802093041553 0.07864104455170222 0.08268292855256741
0.6192601688001528 0.4499799812880349 0.06119154914933006 0.09873762907948684
0.6215088156350894 0.44997975705422955 0.11929933567441714 0.048511449613173566
0.5661196759669839 0.44998528042827357 0.11435555655869205 0.05416604441493904
0.5160999442814453 0.45619473335913924 0.0013165785345969766 0.08241648525128174
0.4866517707079198 0.46026358531563666 0.11416000803925402 0.0715112680358845
0.5250523195879879 0.4549577843276355 0.017700749799797175 0.0625003310579601
0.4952382808384261 0.45907718784834506 0.0776791635264156 0.09074991105081803
0.48894326334191146 0.4599469699485126 0.09969964265178814 0.0832213177999853
0.49107855132533884 0.45965193736636073 0.06341311654068554 0.1059878852158192
0.506788380565434 0.457481311426514 0.008508984847460146 0.08185543505963347
0.5108387510552183 0.45692167203662953 0.04752590326927633 0.06229908025501301
0.5542814603015377 0.45091919612514036 0.007189426724584411 0.09115742930737313
0.5025781104944527 0.4580630441296618 0.08899866782903529 0.08761812146804919
0.5398923255446038 0.4529073418062936 0.007165845662651188 0.08942567280160206
0.516963623307221 0.456075398892265 0.02942715332445068 0.043240304886000176
0.5369345938993024 0.4533160113681506 0.023865401927877058 0.047714213108667546
0.5224253482428346 0.4553207527633757 0.05628107188511208 0.08732055071964544
0.4895214723532232 0.4598670788523444 0.0870465539076328 0.09492035821730577
0.5124562954205114 0.45669817605175933 0.06233119318090571 0.11627046097649675
0.4989411378895549 0.4585655643644811 0.0030325376676278606 0.1171803103131233
0.5232752429299775 0.4552033228775472 0.04652022258994979 0.0753515627042448
0.503926824917828 0.4578766923579092 0.02742143895966856 0.03782137943341535
0.4988943325923668 0.4585720314489189 0.0564846890069724 0.10712966254564191
0.5027267013040204 0.4580425133485349 0.07154588727682107 0.10166446774524637
0.4911585736234157 0.45964088069137615 0.020521411207799416 0.07810449718633648
0.4897166893359862 0.45984010573632844 0.035006115029295216 0.04732242636445133
0.5273294792694793 0.45464314934349426 0.032925991699132566 0.029948897202186832
0.5125051434757408 0.4566914267195947 0.01807448749584169 0.06378494377747974
0.49613720804868733 0.45895298314243727 0.04562851396590141 0.06739406040587409
0.5358357202683937 0.45346784265615575 0.11837562257460905 0.04809968780556075
0.5510798592766433 0.4513615611010714 0.01757575463410004 0.0725375733613554
0.538757904120384 0.45306408473026155 0.09392542090670039 0.06893905274037243
0.4980686869646005 0.4586861108440135 0.11584379101533356 0.05686744018094439
0.5157773178709932 0.45623931062632034 0.12065878762042351 0.05179059946430152
0.5516923137145606 0.4512769383168514 0.050004348327213705 0.08638156244470356
0.5488427444571174 0.4516706630896077 0.03236413087147107 0.03702533481063369
0.5134745117010779 0.4565574891838632 0.09127114801830508 0.06456045233818451
0.5164738203250338 0.4561430749339521 0.10212526805290074 0.061092125173641175
0.5056023389344311 0.45764518671062093 0.09890958225946775 0.058838609856335676
0.5296802880223338 0.45431833827263035 0.11080598211149356 0.05481363777892975
0.5195474129325166 0.45571839687155186 0.08309995100212887 0.074389119554515
0.5601732426976213 0.45010512898886423 0.02078043392069941 0.059647653339012244
0.5386899769837171 0.45307347021769206 0.06963629173370328 0.10332222489120602
0.5552174030639119 0.45078987698314504 0.0939677925800588 0.06875476815552603
0.5391625320755591 0.45300817731573356 0.08176458271093265 0.08667749684042121
0.5410908824954429 0.452741737281374 0.04243299187408945 0.053251706353905706
0.5268382751834506 0.4547110189755951 0.07319750506425439 0.10024341309840765
0.5288123343599652 0.4544382633657251 0.08993621576245561 0.0826280257453296
0.5519237507195576 0.45124496068305225 0.08024267620370266 0.09157727684940294
0.5570289767020864 0.45053957198804506 0.06079285709731721 0.10514764024097704
0.5407260592246603 0.4527921448856145 0.10775735104731585 0.05569105403584977
0.5456365911152149 0.45211365705884177 0.05781330896278376 0.09247577943980256
0.5155924832447372 0.45626484921290866 0.07202176700726166 0.10951653934800588
0.5091245403279386 0.4571585244055592 0.11326368638940343 0.0533284733716464
0.5335094451730761 0.45378926391337904 0.0569226536040258 0.11729721552168648
0.5527695250809976 0.4511281001023202 0.11279615184730196 0.05096857916657441
0.7110186524468322 0.4597055277971076 0.1466917376229866 0.054268714304518274
0.6529516565915389 0.4536846454587662 0.14842372146696214 0.04276121411565754
0.6965841462012305 0.45825114585481663 0.14575955919704905 0.0459090700715848
0.6643398495009026 0.45496023536170827 0.1450319304264034 0.03926369770102629
0.7013435952436835 0.4584456898844472 0.1552461575890356 0.04701448215353371
0.6743198452216296 0.4558552986819207 0.14923514953507874 0.04003806584848535
0.6273950580530231 0.45069932237840965 0.15193397394346095 0.04060450943952702
0.6649160157620109 0.4530498469698714 0.1586847476130435 0.032049504475715945
0.6437829515790114 0.45065705456487415 0.1574339989548909 0.032031378089752205
0.6400589536962171 0.45248396992502005 0.14398531735139924 0.038925515220879156
0.6051437244787712 0.4487963368832093 0.14739024666603792 0.037625048304330604
0.6851345653047116 0.45721169169723935 0.1409841022790495 0.0400471698321133
0.6066446813995583 0.4491795640800908 0.1377533188778186 0.039848180924505594
0.6273652670116907 0.4512834592830461 0.13930355353682383 0.04331740175254256
0.6189749718533014 0.45024649072459383 0.1464915614685077 0.03796876605007091
0.5949560451568152 0.448928474565262 0.14109745658556141 0.04040571806510651
0.5551587469964611 0.4530163745181651 0.142428016925097 0.043813484893810976
0.5804292455789137 0.4504329764639995 0.1410621850381568 0.039469591510160836
0.5182987113123807 0.4568962545433215 0.1397043745183731 0.04428148962176708
0.5994908473728399 0.44957794698839604 0.12539119693064646 0.04421952223139213
0.5891889995337697 0.44991695895293166 0.1217532382641254 0.04805428115888241
0.6111169320653843 0.44961694523889395 0.12495895342499214 0.045582589802138085
0.6421827508267592 0.4506416071589964 0.12248715100769192 0.048108621440289843
0.6168183246911367 0.4501871589369334 0.13540391015748576 0.04093159018259227
0.689037382992771 0.4575101547799231 0.1297507148405047 0.04652109157858933
0.6426857586878096 0.45258417189216216 0.132212671963933 0.04486045510038968
0.6669411017628678 0.4548412307057641 0.12926900037683292 0.044530923769320344
0.48973723141615844 0.4598106833575735 0.123588845200761 0.05931255037994836
0.525047178564266 0.4549303381314939 0.12373945520781318 0.05058942083298664
0.5307612179996246 0.4556886740797887 0.13281920231579888 0.04696302179115032
0.4997531076092667 0.45889609042975493 0.13189147620960634 0.048607927139833626
0.5126599351750118 0.4575627908483073 0.13210783715130014 0.048222160642012235
0.5755226030106588 0.4491093407158327 0.15475559315552034 0.03635153790411338
0.5886082679943456 0.44898693300410575 0.15073033022894702 0.03513694901415009
0.560990954878357 0.45215858696607564 0.15143880536820745 0.04005914291183073
0.48648766289349943 0.45967092540656973 0.15655675373120584 0.05348218820155923
0.5203775596739484 0.4563542521146958 0.15099094213097608 0.03619896420276859
0.5362556929647275 0.4549196565116217 0.1445395204207761 0.03672062463651241
0.5056512883924956 0.45797822918665465 0.14752246447086054 0.03930028947581144
0.48620197414827016 0.4601988625923389 0.1404997622031288 0.05796920468320406
0.5467155750931758 0.4536791529057186 0.14980577355961566 0.039087641689932326
0.4956095670976165 0.459104205156041 0.14455826020504056 0.043453247344460884
0.5653582324209588 0.452009434064345 0.13409384375467198 0.04441272995310992
0.5783055003760709 0.44933854972829773 0.12811035593788905 0.047465791671272885
0.5411351507524271 0.4536944792662701 0.12819150092684606 0.04646235884671673
0.5601759021531105 0.45097450718303406 0.12562757364129506 0.047528699528426706
0.7132649962373034 0.460164150800565 0.1282341881443657 0.0625724878853428
0.7042718835217727 0.45926115125473377 0.13541977029620259 0.05005053608377046
0.6777472315010934 0.4565567960708647 0.13293197649854321 0.04587290382621588
0.6540947396968451 0.45408463913668706 0.13657422455229515 0.045371928764867696
0.6531086088034783 0.450344500672718 0.16572629852120427 0.030471722969261664
0.6843829759496327 0.4532317116058766 0.17721596677820167 0.03048847344569183
0.6980839534737536 0.455881772453012 0.17111386345226798 0.03453698539833667
0.6816081833335256 0.454992418116232 0.15998298412912282 0.03133633397727094
0.6922279326277965 0.45198768850507187 0.19592084969882145 0.032386953137778826
0.7011417884183004 0.45483014343497297 0.1829606381563202 0.036483444363343796
0.7074665098057924 0.45457779005103416 0.19200677123469706 0.03816657569613333
0.7100978629972678 0.45884910023502457 0.1605894074326351 0.04631755231645629
0.7133936505731382 0.45789908843010374 0.17188330022650966 0.04734535963294346
0.6921499824345433 0.45643479945623644 0.16008417390367569 0.035929824855926724
0.710681572153713 0.4524366195550884 0.21278678486685168 0.03950627197667188
0.6656205640774233 0.45100423163029385 0.1743051391536066 0.028885883309621566
0.6889280230307434 0.45022253834912757 0.21103858945716758 0.03161626682712867
0.6438555069921538 0.4471119276302763 0.19052343152777554 0.03199329865375932
0.6819781232698365 0.4503445046905479 0.20065056858661054 0.03151505528327827
