x y z curv
1.2954071961414886 -0.37451890519278264 0.3982768496052184 0.04804223873596689
1.296919432574751 -0.3737906498072975 0.1777785880409373 0.049214984412257815
1.286476855879172 -0.3788195345435886 0.04310142058901552 0.056857565855211234
1.2956177572835226 -0.3744175041933838 0.16088715299525536 0.07202290600143658
1.2939140228828974 -0.37523798022834787 0.029401050713878125 0.17251750430185847
1.296854473696447 -0.3738219323844921 0.724597524172491 0.12082072007908358
1.2896434589081875 -0.3772945774278558 0.019814658755625 0.24192039271303348
1.2910149958126027 -0.37663407942961796 0.13430154895814572 0.0603887981376812
1.2948991000999477 -0.3747635915860324 0.06450147964182963 0.05987485368669715
1.2960420602360838 -0.3742131704638932 0.5620370443368408 0.058903172885726454
1.2931269320678107 -0.37561702355275456 0.6502164006369867 0.061039307921412815
1.286533733326734 -0.37879214378207243 0.2730482522597045 0.07928197297896991
1.290030077643237 -0.37710839147853176 0.5145907213644008 0.05751252922307186
1.293674050166502 -0.37535354510910374 0.5502665871033544 0.06778039618517677
1.2872506113228486 -0.3784469132017722 0.528329466988247 0.06893493075389562
1.2865689551667452 -0.37877518182155423 0.15767655036428557 0.061240324957523296
1.2863283142193471 -0.3788910685057106 0.6310022015665616 0.05458100709103564
1.2874682191303262 -0.3783421187038793 0.41708369681363056 0.04782781368973847
1.2944002522922862 -0.37500382426028633 0.7007046743861549 0.05513446524198638
1.2857372760182892 -0.3791756977762932 0.6104981357461552 0.053889222351479034
1.287319137212523 -0.37841391284078185 0.5796570290241192 0.04362310163070091
1.2872899021398605 -0.3784279917233183 0.19157244052175432 0.06589842944982041
1.2885261096092289 -0.3778326650089619 0.25223372515858944 0.06547153175562555
1.2887396172144787 -0.37772984506629603 0.4289373738141653 0.06853800633718006
1.294299758040902 -0.3750522197877126 0.7871005025867709 0.25040572477386025
1.293617751307139 -0.3753806572369602 0.5944910462970654 0.06294283936706381
1.291014332191526 -0.37663439901299306 0.7555605738656024 0.2190377302519065
1.2882534892143598 -0.3779639521981801 0.7343106167048223 0.16658298750256814
1.2861493130144885 -0.37897727102575257 0.3455644092813182 0.05103304981718216
1.2894906766684153 -0.3773681535476167 0.7730328519791576 0.19958907841778983
1.2860146173744105 -0.37904213708976914 0.4765838155774109 0.05724138756875931
1.2923587609864344 -0.37598695560483414 0.6749426883571618 0.05146717747697379
1.2898781918700188 -0.37718153588233777 0.502674755802397 0.057023523477194776
1.2793053909509478 -0.37924783118069166 0.05899597788344384 0.054238770282091134
1.2736874856511016 -0.37924783118069166 0.049104366559258476 0.06076086808754201
1.2840152837019025 -0.3792478311806917 0.14395523317650152 0.05225954248596888
1.2784294709365658 -0.37924783118069166 0.07571467557928457 0.045062481523831625
1.2796565535925049 -0.37924783118069166 0.3263292537711442 0.08323648967207974
1.2845313852508897 -0.37924783118069166 0.21332041463526139 0.06210370798290933
1.2774285003000225 -0.37924783118069166 0.010083874626520764 0.22617250799946678
1.2792408811071834 -0.37924783118069166 0.20202662884633774 0.06507611028235734
1.2799009474859544 -0.37924783118069166 0.12047553193182729 0.06350717431986082
1.2819052426063413 -0.37924783118069166 0.22570463236870603 0.05450650032606794
1.2751488693806032 -0.37924783118069166 0.17687016852182166 0.05341028166492447
1.2823194851018171 -0.37924783118069166 0.16820642491703536 0.05398590941004461
1.2753609441290656 -0.37924783118069166 0.1533626201590451 0.0646230209610747
1.2806460505280728 -0.37924783118069166 0.02957403548420757 0.16861386781842885
1.2764457771554933 -0.37924783118069166 0.08667796290296523 0.0708249944785364
1.2834004613086645 -0.37924783118069166 0.2622516096544268 0.0675657076091967
1.2813015942979362 -0.37924783118069166 0.29534154418188957 0.07487475288288317
1.283843411541737 -0.37924783118069166 0.49070522068551403 0.05875699277732686
1.2767581323355621 -0.37924783118069166 0.09941152522611811 0.050671066200553866
1.2804845860100231 -0.37924783118069166 0.35564383685309714 0.07099207839363253
1.2850832842632522 -0.3792478311806916 0.5406466805855877 0.06587527965576764
1.2787582640751225 -0.37924783118069166 0.38080008824008454 0.05668223426261556
1.274727127736785 -0.37924783118069166 0.3108423620864644 0.06393472929848688
1.2757411653586312 -0.37924783118069166 0.2504897714159159 0.05879985766922001
1.2724148233305383 -0.37924783118069166 0.5282461139243689 0.049848145824140516
1.2767511918663748 -0.37924783118069166 0.45335260822398527 0.05565304639813398
1.2826831422028653 -0.3792478311806917 0.6898899063077872 0.05377453074395421
1.2745526698754492 -0.37924783118069166 0.6188794768052464 0.07690698452345021
1.2850113435772201 -0.37924783118069166 0.7923136555773661 0.26585791128945846
1.2727407921647664 -0.37924783118069166 0.2641845210203039 0.06460297399219052
1.2752531235174211 -0.37924783118069166 0.7843846602702057 0.22245616195387216
1.275578831764293 -0.37924783118069166 0.28476283875844716 0.07757690881282789
1.2766019201321261 -0.37924783118069166 0.4043601795338785 0.06835860235721393
1.2791525283614957 -0.37924783118069166 0.43789829931253826 0.0497670838265374
1.279228508032686 -0.37924783118069166 0.5072728803554074 0.08619457139465914
1.274272955260263 -0.37924783118069166 0.42796239870416664 0.044014782796168044
1.283434291549634 -0.3792478311806917 0.7450190433025375 0.1313353708499707
1.275641315967959 -0.37924783118069166 0.5793312702866501 0.06646611698199839
1.2756345060210115 -0.37924783118069166 0.3906350267659286 0.06379128161430597
1.272827829707125 -0.3792478311806917 0.7375853552518221 0.08433100028390017
1.2736881228124435 -0.37924783118069166 0.34727789071167026 0.06323242618358572
1.281362757297358 -0.37924783118069166 0.6529920208069647 0.05611222677832989
1.2788606343996176 -0.37924783118069166 0.642158111471153 0.053901180791152206
1.2770420792175203 -0.3792478311806916 0.768903269951636 0.12987674152434872
1.281140615485243 -0.3792478311806916 0.7194010324350328 0.08323851668020604
1.2757504970804772 -0.37924783118069166 0.5168812209600485 0.0676351281426991
1.2813895144720324 -0.37924783118069166 0.5665602613216145 0.04930763295946873
1.2816770323540991 -0.37924783118069166 0.6652546869459603 0.07527729003156132
1.2799397521544318 -0.3792478311806917 0.7562759229367567 0.1244050332569864
1.270210696031156 -0.3782723759417676 0.29983388523478727 0.058611377727964736
1.2655714599309162 -0.37603824650314044 0.1855248508026253 0.0659645647092639
1.271955829715183 -0.3791127846757879 0.33505551194338457 0.07197232672738878
1.268577486283557 -0.37748586671961876 0.03359963738922557 0.1262514255423242
1.267658632868257 -0.377043372002698 0.4921881666615595 0.060327445609931564
1.2716318606071106 -0.37895676999882155 0.6754984956567713 0.0679536250370655
1.2703476889798568 -0.37833834800547883 0.6524687509810241 0.06002128702297225
1.2624764168182472 -0.37454775824549885 0.09082362701549017 0.05772657211279657
1.2652137229572724 -0.37586597014409456 0.059593677073194164 0.06114890649020902
1.2717032389658727 -0.3789911438675243 0.02179662723741994 0.22204953494993387
1.2618344290916945 -0.37423859448488445 0.016658767512812086 0.24150703721653563
1.272084132446629 -0.37917457176814245 0.11145520482822593 0.06793194855831779
1.2673234760832763 -0.3768819696459948 0.27522981251265627 0.06074684059022367
1.2692354378670436 -0.377802718237864 0.47325783472619687 0.07287245496812704
1.26503049604193 -0.3757777330643965 0.17401705747697035 0.05596093922456922
1.2615781212576394 -0.3741151636300969 0.04700395685777277 0.06570946683160377
1.2649223367797708 -0.37572564651686385 0.07297499253655007 0.04576987028112194
1.2702939841611398 -0.37831248523111277 0.6315844278583139 0.06789265215093797
1.267361970673087 -0.3769005075894117 0.13778407490101036 0.046034347632043775
1.2720632791021234 -0.3791645293667972 0.36633519924362434 0.04893758466756474
1.2699293130240132 -0.37813686956826026 0.21265401274472492 0.05397601442122185
1.2676711696143195 -0.37704940935730497 0.2242901791044688 0.059682471813937835
1.2695842398163868 -0.3779706917331637 0.19819636191729423 0.052483075789152046
1.2708956412571049 -0.37860222686120243 0.7044791105503666 0.057806065790319446
1.2717024954156377 -0.37899078579403267 0.12722712108402626 0.05769984699377533
1.2663980608718681 -0.37643631494722807 0.10077178998951343 0.08407158934581713
1.2691052016048667 -0.37774000000990166 0.6915733740493073 0.07010813483797286
1.2611574496333529 -0.37391257966163605 0.25786936051803905 0.05376091910503197
1.2671075701736476 -0.37677799525489836 0.5491467433701656 0.07188678683418682
1.262352987993944 -0.3744883182937499 0.15267257887926838 0.05615120444980635
1.2618053860016791 -0.3742246081257102 0.5406608765475723 0.046955683317338
1.2632529792711182 -0.3749217295199512 0.6104991739605464 0.05450862312230153
1.2616132681318486 -0.37413208940508436 0.11456309483913825 0.05733235752932388
1.261885302223757 -0.3742630935962726 0.6694437148031835 0.07147140045986883
1.2634164800233805 -0.3750004670181026 0.3069441160493788 0.08254446601274788
1.2647954587317471 -0.3756645455131469 0.5225733201902895 0.04763843271678056
1.2612863647167172 -0.373974661645955 0.7635855344147011 0.0551765877350679
1.2612343423236263 -0.3739496090818344 0.6573153317438999 0.06460133961854679
1.260544803907983 -0.37361754620765264 0.21499547035336786 0.07324632169512858
1.2681990296624408 -0.37730361234406856 0.592611158347306 0.07096032124799154
1.2609010723137453 -0.37378911534450376 0.29087070299296136 0.06435876141749003
1.2648271873504793 -0.37567982514962683 0.40258460635744325 0.06207290430452302
1.2683569918512414 -0.37737968262127897 0.7502606594490355 0.051990458137818184
1.2611480683579572 -0.3739080618955469 0.33837296789335397 0.08156651572420197
1.2664161445561308 -0.3764450235558216 0.44472363398518416 0.059434869975253345
1.2657498795447957 -0.3761241685177099 0.5620042452785066 0.07504848073272632
1.2613648380219011 -0.374012452247138 0.6813641099394977 0.07614008812019438
1.2606521894872929 -0.37366926017064933 0.4623318138617048 0.05242990724972823
1.2669198638142902 -0.37668760099726695 0.7292051706957606 0.0683720397770058
1.2624400753607112 -0.3745302571917975 0.7839783091251762 0.24077474884844927
1.2629118042838483 -0.37475742896134334 0.4156765787295984 0.07204020459335976
1.2674798610349522 -0.3769572803688699 0.5036750356925608 0.06880457261289709
1.2630944991033561 -0.3748454097982155 0.37464956064411403 0.04991031662800537
1.2609000701487316 -0.37378863272919566 0.5729577493466064 0.06528586373759457
1.2641241719031682 -0.37534127210496365 0.31978639637228445 0.07284379178560997
1.2635609152423477 -0.37507002307597437 0.2371977604187973 0.06713525443271
1.2611777832201554 -0.37392237176186266 0.4348023262909245 0.06398383196618852
1.249089180334767 -0.3507767728837258 0.6490903045656634 0.051067714101572244
1.2501540931723434 -0.3554425075803426 0.6637522138817913 0.06941999655727252
1.2504899734236425 -0.35691410984401806 0.7785554907968036 0.16768791781653705
1.2493166810296192 -0.35177352853172034 0.46899882037595875 0.06384663323571052
1.249413537419188 -0.35219788834921323 0.6198406019748111 0.07084760367183077
1.249947595171857 -0.3545377716698957 0.576246017237108 0.05787499450505576
1.249376396212059 -0.35203516045951105 0.5329627496671465 0.048379699067091074
1.2504971224898687 -0.35694543226324776 0.6861733872626489 0.06267724517484433
1.2507638506984107 -0.35811405659873047 0.796982761282088 0.20384971954123834
1.250889757649534 -0.35866569651673436 0.7649096582217436 0.09890864428023075
1.250056237859624 -0.3550137711507571 0.7531749410034845 0.07700511775275129
1.2489337913046783 -0.3500959622449797 0.6367178771841788 0.06620898944752657
1.250107183931073 -0.35523698270838594 0.7301967154347465 0.05782284637597554
1.2495057780638517 -0.35260202506450117 0.5974233253941902 0.04608722237344968
1.2499400985852007 -0.35450492664893785 0.5653042710714332 0.05827257621784865
1.2510804096820582 -0.35950100601037643 0.3586585388106539 0.058924772444924986
1.2505667377693337 -0.3572504397843824 0.6071358377987199 0.04411904578325783
1.2509928535451618 -0.3591173936700941 0.6292231515676202 0.04625410131046562
1.2497856507963423 -0.3538282398987507 0.3817095535354565 0.06460438251974433
1.2514587578786596 -0.36115867436218474 0.45817561719595445 0.04531527188784754
1.2516993558836194 -0.36221281364952246 0.23300541225351584 0.06413536878122188
1.2515478253171497 -0.3615489082136683 0.19443132433307891 0.062249746455158655
1.2517128085904667 -0.36227175439930587 0.5406328812227073 0.0589248209161765
1.251685213873832 -0.3621508528360002 0.2629239911096765 0.06753548392125695
1.2512240639683574 -0.36013040286263776 0.47762454937903204 0.06666614220074625
1.2500150771340204 -0.3548334324236689 0.2747287877106266 0.07959013807027196
1.2515567284372582 -0.3615879157220141 0.4364070618480548 0.05885801565558874
1.2501982958104048 -0.35563617393012065 0.3319186494575031 0.054509188923435134
1.2509734563911434 -0.3590324083348389 0.4172504504253794 0.04101205596089486
1.2508586370959784 -0.35852934709791 0.4977735085147836 0.06645453867839111
1.2514720231775058 -0.36121679401564855 0.2990039239346478 0.047621361980974164
1.2505659076852904 -0.3572468029121562 0.5529902559373733 0.04259121385187562
1.2492793763278613 -0.35161008431807483 0.3965935909148479 0.06720976244644804
1.2505615080026793 -0.357227526450188 0.2881856430645679 0.04642639037389534
1.249935248960611 -0.35448367884262394 0.3483157434945763 0.06805903701049369
1.2508695229691025 -0.35857704170177324 0.5113822596480428 0.058284259714579505
1.2513714342037159 -0.36077608051446014 0.5873759971755201 0.04115860796180025
1.2509381055590403 -0.3588775246691729 0.21986933368365308 0.08461237461377293
1.2511202920287086 -0.35967574373724304 0.3213836592663787 0.048019224481049186
1.251532831838455 -0.3614832168337743 0.7110656062695968 0.058964465312153734
1.2506160489293916 -0.3574664882554815 0.36954800959104334 0.07898319858881997
1.250458290922077 -0.3567752983454494 0.00939510778289727 0.20342434762599204
1.2506868902649226 -0.35777686753299615 0.13343027111108643 0.06673208950630292
1.249879626483295 -0.35423997840708804 0.20391987847869802 0.0662381709369146
1.2493378682797753 -0.35186635686911166 0.22863777052871104 0.053004279654559894
1.2499787227784966 -0.3546741519906101 0.09145331401534217 0.0754094304165202
1.2493241639142927 -0.3518063135197677 0.3057153052377057 0.07112966285118018
1.2489546035324046 -0.35018714748530205 0.14811407307713723 0.06249960751724728
1.2500337373022892 -0.35491518878105827 0.05787197818420543 0.05781109209794991
1.2498805143526592 -0.3542438684558814 0.16211904478741365 0.0678217878380665
1.2498250654222798 -0.3540009283867667 0.2509780991880465 0.05783544508580382
1.2509117817821795 -0.35876219151258876 0.04078979035019381 0.07701499422802288
1.2500543803081028 -0.3550056326043161 0.17751304371598953 0.044382011628874
1.2491802156251604 -0.35117562854403633 0.08068926916341508 0.0729374219346143
1.2508619705649302 -0.35854395212585133 0.10238650690516704 0.06778739129370444
1.2493752701237268 -0.35203022669477685 0.03181037777619558 0.14808122418798614
1.2530097522275827 -0.36442967286765876 0.03173101304119423 0.11213955543054
1.2589156718627954 -0.3718354781537694 0.6371648262672931 0.05051625696939222
1.2559570525112242 -0.3681254786639666 0.36437932165718073 0.06594304823943258
1.2533772584793663 -0.3648905121459159 0.018338913525739638 0.2128422414170219
1.2576495928437477 -0.37024786178391683 0.19001106338967666 0.04229649603390971
1.2568093804877711 -0.3691942664944979 0.10337517144200577 0.061873707751611225
1.2600629888209876 -0.37327417128179013 0.7085287006080583 0.04192863194800053
1.2595378675108964 -0.3726156885366247 0.1273178810971735 0.05514797633372133
1.2561948570735793 -0.36842367680984883 0.0636439697574271 0.056068105216422706
1.257518255825528 -0.37008317000958313 0.42503377090710703 0.054834312599656876
1.2563641884264451 -0.36863601207778607 0.1771710029318876 0.04636465174195835
1.255847386118345 -0.3679879610541348 0.14352500032293472 0.06576699251089996
1.2552415711428584 -0.36722829143026875 0.2032091963290539 0.06174455159574767
1.2576310913178386 -0.3702246615531582 0.5129495246606485 0.04197372151103597
1.2563203126166824 -0.36858099343142037 0.40955325084041566 0.06628550366283119
1.2601625073932992 -0.3733989638990986 0.02788690433507279 0.1526180384848537
1.2561376139803022 -0.36835189608322727 0.34799086259074424 0.06868069710728852
1.2569162821855766 -0.3693283172787283 0.38295304689932386 0.07393533383115167
1.2583302721165457 -0.3711014084740168 0.22908227542150958 0.05420023553276714
1.2568476116880853 -0.3692422070089087 0.2770874047156445 0.057442909172145534
1.2558391122980141 -0.36797758598875496 0.3310755271955632 0.04986937822049792
1.2574256896503784 -0.36996709544176315 0.16167991539568358 0.06554899859390355
1.2575265037275496 -0.3700935125743597 0.49066618428869796 0.06049588054771091
1.2566345848614546 -0.3689750792292925 0.4441251455205582 0.07918355007498017
1.2598309260336842 -0.3729831731099435 0.6260454654305546 0.05974271149822796
1.2528139479126332 -0.36418414148215666 0.07721369185417741 0.06083306249026239
1.2549864086009328 -0.3669083270185383 0.08923486070820401 0.054765019028800925
1.255900637543454 -0.36805473637617153 0.5617139954210061 0.05316992582073125
1.2540805704234284 -0.36577243937060505 0.39404082909630256 0.04771730056799934
1.2566628860407172 -0.36901056786373587 0.550723309321422 0.05192156808875259
1.2560878094714483 -0.3682894430669785 0.5306983011524805 0.05633266037667002
1.2586589668641421 -0.37151357955822095 0.752383481450555 0.05725079517402695
1.2534670087559354 -0.36500305568082686 0.46749554887239164 0.06814535080556933
1.2577326808342635 -0.37035205105796404 0.7325093252319168 0.052356760276263174
1.2530408705577325 -0.36446869410535787 0.11893862674697875 0.04289618261443322
1.254061768162159 -0.3657488620288023 0.6809602100479518 0.052741292550761494
1.2545053703417446 -0.36630512279248045 0.6666249568992485 0.05452347683241751
1.2545215628517175 -0.3663254276024607 0.7879297324190343 0.2497064188140831
1.252407561352761 -0.36367454773229235 0.24396578026744045 0.062325645849345954
1.2529267598126728 -0.36432560344189413 0.6164780008916205 0.06983452277808982
1.2572298292811712 -0.36972149376629065 0.7737904903582045 0.16039819609077668
1.2542244908875153 -0.36595291032170985 0.7429737663440436 0.06326544715519906
1.254343423194886 -0.36610204704638905 0.6541980601663046 0.04125600076149131
1.255321148524186 -0.3673280785299405 0.7012392347518118 0.05513506698241523
1.2543465001808745 -0.36610590547327365 0.5779731532352204 0.05464384315070321
1.2570957926568358 -0.36955341678550724 0.6038268990579696 0.0521109403590689
1.2890533844471634 -0.33257798371503233 0.799000040054322 0.22230123878777935
1.2945527996873973 -0.3439465152264234 0.799000040054322 0.19920761788730876
1.288390927116382 -0.3642873727537362 0.799000040054322 0.2060728961742737
1.3690134998752945 -0.4356910420593289 0.0074643243082503155 0.025455436534373047
1.3817403263269663 -0.42061387033486447 0.007355567750091378 0.030198533938527564
1.3905677843373516 -0.40377355505724744 0.001114552313474573 0.0264665433572175
1.2981602974533275 -0.4733539115150414 0.0003435230876729679 0.02745666235223432
1.2625373996913372 -0.4739012890609681 0.0023638463024653967 0.023483725026582088
1.25048500925624 -0.47106781661676456 0.0076615031174689235 0.023623781676031127
1.1825443129313626 -0.4286835920836967 0.007573426311420592 0.03123837268556978
1.193005316987019 -0.43983806743135595 0.0006976480989508729 0.02744156784229512
1.1728994287540817 -0.4158474179485446 0.0018446607209782796 0.02520266285468439
1.2009276336526151 -0.4470761838772975 0.0059125816376902444 0.03127441690948667
1.2414463605946109 -0.46796423226506706 8.79749060623772e-05 0.027237802545252574
1.157828766139018 -0.37936984369563453 0.0024343970827795745 0.032390392922607196
2.3769999146461487 -0.36211941967331707 0.8158021986192465 0.17998700695708872
2.3769999146461487 -0.4069252200759996 0.816860534190397 0.15851285461104203
2.3769999146461487 -0.561122101570836 0.8247343523981373 0.15757600216360634
2.3769999146461487 -0.4607403295646741 0.8220324947073863 0.15531404742519608
2.3769999146461487 -0.49734313481656517 0.8224584166524971 0.1562940135948864
2.3769999146461487 -0.3736062399212586 0.8253892745063729 0.18916040532066097
2.3769999146461487 -0.535421758487551 0.823583003648265 0.1592778830476764
2.3769999146461487 -0.514317600868179 0.82384739938053 0.1582789088116331
2.3769999146461487 -0.3966862792784146 0.8247442194007307 0.15669357994973906
2.3769999146461487 -0.6533660151104865 0.8224838199173994 0.21671075030748052
2.3769999146461487 -0.44371865149846706 0.8188906598156036 0.15087281817330295
2.3769999146461487 -0.433466057462119 0.8293443687601054 0.15254235094792973
2.3769999146461487 -0.36083175999041517 0.8296194013892642 0.2063155427531317
2.3769999146461487 -0.6191292279504923 0.8261655376903696 0.16167830257459478
2.3769999146461487 -0.5814837419949029 0.8279205936604486 0.15329881444254245
2.3769999146461487 -0.48907919031414293 0.8312740681781043 0.15568075290308908
2.3769999146461487 -0.4774952445197021 0.8365734641936828 0.1664487667408574
2.3769999146461487 -0.6424899557271828 0.8292470657354345 0.16343709849468688
2.3769999146461487 -0.4652125874779169 0.8372431753111519 0.15020802109457873
2.3769999146461487 -0.6930472246648383 0.8276592964856446 0.21120368582547572
2.3769999146461487 -0.6894879750396131 0.8163249572213267 0.2455803675603925
2.3769999146461487 -0.35068784129368286 0.8336240275663034 0.20708257364583865
2.3769999146461487 -0.2918781476374885 0.8363084339485698 0.16178275074511467
2.3769999146461487 -0.17741339172887166 0.8360942383415363 0.14832749975666043
2.3769999146461487 -0.27451606988844396 0.8295198041684688 0.16121867782335195
2.3769999146461487 -0.24200183996439026 0.8315223782284875 0.14942623626729368
2.3769999146461487 -0.21833142194431504 0.831090050695596 0.14795227762544397
2.3769999146461487 -0.309384259248616 0.8282969801303657 0.17318186748168934
2.3769999146461487 -0.06412661461399359 0.82801295908102 0.16209971245132077
2.3769999146461487 -0.1844328244366871 0.8268120956407374 0.15402543087913323
2.3769999146461487 -0.13117825407062966 0.8315506067704184 0.1602901622402139
2.3769999146461487 -0.16652604169749366 0.8275010655533099 0.1502236846561479
2.3769999146461487 -0.26179113220064465 0.8263615652088725 0.15402062904728886
2.376999914646149 -0.017430134367263206 0.8318326188336875 0.18897900060800032
2.3769999146461487 -0.054568007894865565 0.8355768959342685 0.17440366784906475
2.3769999146461487 -0.08352238524962562 0.831201547925818 0.15969320118199906
2.3769999146461487 -0.29196429296772025 0.82419821602984 0.17067218396202177
2.3769999146461487 -0.11766039843933003 0.8204776463439376 0.14964703689813472
2.3769999146461487 -0.14396667567897345 0.820509497436368 0.1617366310884936
2.3769999146461487 -0.05187360836918882 0.822227207175092 0.20832224670752347
2.3769999146461487 -0.20555135150901468 0.8191925293809301 0.14509914105040375
2.3769999146461487 -0.22887835212541133 0.8175172918427152 0.15412995669289162
2.3769999146461487 -0.09397338534747093 0.8164885168052263 0.1510786568928212
2.3769999146461487 -0.02957581044203829 0.8237245184027027 0.27127965454074815
2.3769999146461487 -0.044754154660857734 0.8143458065044716 0.23866177901197222
2.3769999146461487 -0.31040147679823976 0.8132700615524499 0.17232685397519243
2.369999945163727 -0.10300634916810299 0.8246007463238495 0.15538171420464406
2.369999945163727 -0.2182097870077152 0.822458334675862 0.15554152522886433
2.369999945163727 -0.252916709771846 0.8212009296144541 0.14170975903231312
2.369999945163727 -0.15151631180026576 0.8252407507682954 0.156655704890314
2.369999945163727 -0.30150629481724933 0.8245211463354241 0.1713395082281612
2.369999945163727 -0.28428612742201337 0.8249813716286736 0.1620060406762672
2.369999945163727 -0.13525639078359908 0.8235103643566983 0.15641631963531852
2.369999945163727 -0.18799847554668772 0.818884917654811 0.15461953861179256
2.369999945163727 -0.07912243785378967 0.8215573344878063 0.15474409891708943
2.369999945163727 -0.3223483113812533 0.8192449925855522 0.1765760343549527
2.369999945163727 -0.037770902834393064 0.823791117668879 0.23406587422703784
2.369999945163727 -0.19881259015030733 0.8285932022465616 0.1423236809976417
2.369999945163727 -0.23466067012671837 0.8294077369292843 0.15139593047147132
2.369999945163727 -0.003044801811948769 0.8299521630868434 0.16692343942492802
2.369999945163727 -0.018034452299961333 0.8219484735555548 0.2919522629517058
2.369999945163727 -0.06660627517652642 0.8148855427047694 0.15537007166706795
2.369999945163727 -0.040044453754982536 0.83714638421414 0.16679611278871745
2.369999945163727 -0.2112626016671403 0.8362977259241198 0.13059035052540394
2.369999945163727 -0.11419819150375395 0.8351014331187299 0.1503922298829272
2.369999945163727 -0.33180486436792045 0.826337925798225 0.20096854503332726
2.369999945163727 -0.16003216568550155 0.8373444477514533 0.1398220387351665
2.369999945163727 -0.34466849738963 0.8269263245665621 0.1934990411011823
2.369999945163727 -0.6281183513742531 0.8367412386860489 0.1574676659445812
2.3699999451637273 -0.6954165109440882 0.8379731164480869 0.16224469120768512
2.369999945163727 -0.5876066885022381 0.8365914927432243 0.16348474396590548
2.369999945163727 -0.6495001930570352 0.8378768244126644 0.1743055004426147
2.369999945163727 -0.5260449998387783 0.8301308542085214 0.15467488709647836
2.369999945163727 -0.5519332501925454 0.8298534515276899 0.15312697476370168
2.3699999451637273 -0.3796523357826933 0.8305967484294449 0.18111526494576108
2.369999945163727 -0.48143339161644066 0.8282283108226949 0.16946179805941233
2.369999945163727 -0.4516583535966959 0.8319018860520071 0.15834976475201198
2.369999945163727 -0.5683638144506097 0.8290880172916189 0.16759587049911473
2.3699999451637264 -0.42207335726784906 0.835037695406847 0.1640791233322333
2.369999945163727 -0.4684186014830137 0.8235648625566139 0.15610643520134357
2.369999945163727 -0.4273137652085492 0.8234918130289223 0.16269594176949662
2.369999945163727 -0.4124247617364862 0.8221676976185293 0.16198924505374157
2.369999945163727 -0.5576012073028446 0.8177441862291193 0.16083471109968317
2.369999945163727 -0.5941423078746947 0.8241061612593719 0.15519189198109945
2.369999945163727 -0.5298280418384206 0.8160489659502342 0.151245967980167
2.369999945163727 -0.6340522638763986 0.8245859602946302 0.17133224790775137
2.369999945163727 -0.6633210556881267 0.8224241693874496 0.24042651183421448
2.369999945163727 -0.43248319486539527 0.8136464336362788 0.1502011532680186
2.369999945163727 -0.4578426477616365 0.813491543303898 0.1675381803962712
2.369999945163727 -0.38051002632612413 0.8184572212260216 0.1761347935427968
2.369999945163727 -0.26391350470078895 0.8144464364649209 0.1409118763967079
2.369999945163727 -0.3320423038346439 0.8144010857466484 0.1885273196017859
2.3276381562804893 -0.009468714089550722 0.8259999904632576 0.23058416851578142
2.3427256612041494 -0.004064080315290642 0.8259999904632576 0.15606044176290357
2.3066371795694525 -0.009999990463256695 0.8243932426130351 0.22751450948615953
2.281999945640564 -0.036575520659764556 0.8204852859349149 0.25371389746495265
2.281999945640564 -0.07565906160246522 0.8138606220596726 0.14566764205943594
2.281999945640564 -0.09151749046819715 0.8201501460576428 0.1575016500606539
2.281999945640564 -0.19380893331687482 0.8192129775099054 0.15052798357803707
2.281999945640564 -0.2296107555244103 0.8200455715744586 0.16034345893384214
2.281999945640564 -0.2556562850942966 0.824422851496029 0.15066823037178786
2.2819999456405644 -0.11019553713586659 0.8241184652031914 0.14351098294497422
2.281999945640564 -0.1834667522806518 0.8252334914593935 0.14995432873831982
2.2819999456405644 -0.05425511058899464 0.8251393301359987 0.18164286060241794
2.281999945640564 -0.08125218780535262 0.829630675266644 0.16055258047234858
2.281999945640564 -0.2684830431190638 0.8283333078544148 0.15298575096581485
2.281999945640564 -0.2861970419298828 0.8269518100263107 0.1519100934840511
2.281999945640564 -0.14910542986494216 0.8278931848526212 0.15563228096446183
2.281999945640564 -0.2844832707741031 0.8155414791675798 0.14928115879778775
2.281999945640564 -0.26611925620318766 0.8146394549946934 0.15503545295299317
2.281999945640564 -0.026180460564328795 0.8374952651168108 0.15162339069799552
2.281999945640564 -0.15926039493128366 0.8332951645575232 0.16044624471825283
2.281999945640564 -0.3310465036790136 0.8362737985367384 0.20838911549368444
2.281999945640564 -0.0939226264576121 0.8360675068870865 0.16894230672622457
2.2819999456405635 -0.1894012330187607 0.8353387636423344 0.16052825268954427
2.281999945640564 -0.07282051834191156 0.8373837917921152 0.15257111177494473
2.281999945640564 -0.4060660807268167 0.8323948728622566 0.1578417802644263
2.281999945640564 -0.4652371152302351 0.8288505908633705 0.16015000441991936
2.281999945640564 -0.6471631670859757 0.8264261081370319 0.1924438642652723
2.281999945640564 -0.6066989027081499 0.828188350067121 0.16514237362295628
2.281999945640564 -0.6198186420659247 0.830401312457822 0.16686094146117567
2.281999945640564 -0.441218096651656 0.8367050920914852 0.15524996292057994
2.281999945640564 -0.6481459564362385 0.8376052566171337 0.16644532013664765
2.281999945640564 -0.4791275308045594 0.835858380748104 0.15035047627020715
2.281999945640564 -0.5654248376699799 0.8310124862813765 0.15218823319561595
2.281999945640564 -0.6865907854901186 0.8322249000019117 0.17074832578036153
2.281999945640564 -0.5546021273565938 0.8378756409978465 0.16397649260315736
2.281999945640564 -0.5501175753918325 0.8256879300622767 0.15049666383092042
2.281999945640564 -0.6615331831863928 0.8258922623428945 0.21970723610609544
2.281999945640564 -0.5383398495203893 0.8256113616084899 0.1622383934827694
2.281999945640564 -0.4547610520911222 0.8235996487240341 0.1563709455985612
2.281999945640564 -0.3661534722172687 0.8214624564381924 0.18213059974959514
2.281999945640564 -0.4969455010577131 0.8246324309084392 0.14707284027926068
2.2819999456405635 -0.6847424106866787 0.8170627559143888 0.2767920658383347
2.281999945640564 -0.6312544127906293 0.8194490016153211 0.16876859595017654
2.281999945640564 -0.5999050423224774 0.8183548808518635 0.15866355893536635
2.281999945640564 -0.5076291851980903 0.8196437115730876 0.1488272634740596
2.281999945640564 -0.584043723522701 0.8225577669051345 0.1521084318419392
2.281999945640564 -0.48012327139373456 0.8216779183737829 0.14995800548818997
2.281999945640564 -0.5334243052564616 0.8131251302135611 0.14977326692444048
2.281999945640564 -0.48670391174668187 0.8134320771793117 0.14888719646729928
2.280519506342723 -0.3525124015217715 0.8259999904632576 0.21256554027030963
2.2941606518385536 -0.6899999976158141 0.8258297076989352 0.22758739308593767
2.316418547834462 -0.6899999976158141 0.8249811640000057 0.22641951303838367
2.29939127114468 -0.6899999976158141 0.8141710452519912 0.22048464506313545
2.355551329160778 -0.6899999976158141 0.8224998912526789 0.20863200202533108
2.342089409394047 -0.6899999976158141 0.8251894099658754 0.18626274536913603
2.3454268979402153 -0.6999999880790709 0.8358351933566821 0.10395472375192323
2.282240892005211 -0.6999999880790709 0.8354608056947028 0.13144391302538852
2.304382807419994 -0.6999999880790709 0.8349984551683096 0.13925808673606935
2.313734715580944 1.4167539067561574e-16 0.8283615048248285 0.13983567201822664
2.292707953411359 1.4038787282624498e-16 0.8329811254596 0.12500652766820444
2.353081831145016 1.440847066321768e-16 0.8275311447511471 0.12489417130780017
2.34679846901706 1.4369996166628257e-16 0.8358941027047053 0.13650000856149788
2.3677032505651416 -0.22173073442741853 0.8380000147819525 0.1380449082342777
2.3684948599180964 -0.18501860823862937 0.8380000147819526 0.13026195300261628
2.357682597624682 -0.04513137598703785 0.8380000147819526 0.16301436198788027
2.364568386974945 -0.02239535077828673 0.8380000147819526 0.17758883547595758
2.359218827038892 -0.2318370892717584 0.8380000147819525 0.13408837262480688
2.342156015389386 -0.07476498196144381 0.8380000147819526 0.17386293231678637
2.3455984273505006 -0.013081051211602598 0.8380000147819526 0.16216590121747754
2.357564407723678 -0.15254449100529857 0.8380000147819526 0.1519104313674943
2.333177195948622 -0.014235974959322592 0.8380000147819526 0.1667205489607397
2.367470249676688 -0.09674247422800414 0.8380000147819526 0.15578031395056707
2.364280060998028 -0.14419864177742037 0.8380000147819526 0.15509394270178478
2.3676191621579035 -0.2797120464284761 0.8380000147819526 0.15984467422641893
2.339165096253094 -0.08449991701133609 0.8380000147819526 0.1570676957349312
2.3347939372322126 -0.0020477666783039828 0.8380000147819526 0.11734554824137292
2.360859337120411 -0.24553637200560052 0.8380000147819527 0.147874267832648
2.365640795792743 -0.17257170515657 0.8380000147819526 0.1423056091694971
2.3666816131874366 -0.26695924287202377 0.8380000147819526 0.14880339831162953
2.355547822044787 -0.0326772631107877 0.8380000147819526 0.15157017413461807
2.3397901646429062 -0.0965198698921692 0.8380000147819526 0.1450203624963829
2.3648122363451596 -0.12560640301070586 0.8380000147819525 0.1565640415896874
2.3679420347000217 -0.330264220433993 0.8380000147819526 0.190593066248047
2.362632179153004 -0.19874463216525126 0.8380000147819527 0.13434696124525614
2.35530892957592 -0.21047511398438665 0.8380000147819526 0.1379128379846454
2.3637572926066253 -0.06672451687981866 0.8380000147819526 0.15689516907605858
2.348462707229648 -0.024099005348559032 0.8380000147819526 0.15319887963781006
2.362474966023841 -0.08670810699321059 0.8380000147819526 0.15700922516291002
2.3500566593443204 -0.13872414021433677 0.8380000147819526 0.15758817938101874
2.364945033187786 -0.29809231786176044 0.8380000147819526 0.15851223439902973
2.369407569074386 -0.011939767617041899 0.8380000147819525 0.16706731488936521
2.3444913128881884 -0.04824433671024493 0.8380000147819526 0.16197875462062683
2.354720358274748 -0.10746892883812398 0.8380000147819526 0.15652785019939777
2.354921779845563 -0.16803712400288 0.8380000147819526 0.1481195180525166
2.338525412970377 -0.03486451862920085 0.8380000147819527 0.1759642886430657
2.3580330711162487 -0.0028033983299234617 0.8380000147819526 0.1684239000798678
2.3412371729696417 -0.11333374984181369 0.8380000147819526 0.1591077053359204
2.348801589455134 -0.06184562353112539 0.8380000147819526 0.1546858494989782
2.3556188490261176 -0.07497453557542792 0.8380000147819526 0.17430641219962953
2.3340268931488426 -0.05976390333484568 0.8380000147819526 0.18395247994984967
2.345760543493258 -0.149674690710194 0.8380000147819526 0.14792287308268795
2.35414180753881 -0.6153133157445179 0.8380000147819526 0.1682485816730983
2.338179722939799 -0.6847790669517189 0.8380000147819526 0.15229656464946334
2.357540730369007 -0.5670407226224391 0.8380000147819526 0.14477536882372027
2.365431839840107 -0.4796081633599542 0.8380000147819526 0.16497629704548974
2.3474163564137434 -0.6566318642740613 0.8380000147819527 0.17281809485880645
2.352432312196993 -0.5180360551588543 0.8380000147819526 0.14049519132632818
2.346632849600981 -0.6068259698280796 0.8380000147819526 0.17238394619659017
2.3573526690841646 -0.45131369473776173 0.8380000147819526 0.14320145387893332
2.3689185944714795 -0.43201157828630327 0.8380000147819525 0.14775343126207
2.368327647878646 -0.5772464094654782 0.8380000147819526 0.16553490392854217
2.330393354211854 -0.6933676791597807 0.8380000147819525 0.15271576953170812
2.3578314697127016 -0.6781923455433873 0.8380000147819526 0.1547807816128106
2.3320198401364447 -0.6693747480392888 0.8380000147819526 0.18540647104780417
2.3699766052366127 -0.5107477109065057 0.8380000147819526 0.15984848077528233
2.335533991533062 -0.6247750785263096 0.8380000147819526 0.15833757626149894
2.3583760269800136 -0.6558059072105439 0.8380000147819526 0.1875895637664633
2.3671469068636624 -0.3991774003352159 0.8380000147819526 0.15433241013145121
2.3360006429425897 -0.6372220932951167 0.8380000147819526 0.17109121679724648
2.358545830078886 -0.5440761970329958 0.8380000147819526 0.16108740007077296
2.346611544954465 -0.5388928787248906 0.8380000147819526 0.15604379577840696
2.355211379919377 -0.583794665095973 0.8380000147819527 0.15424695618682807
2.3652283580890465 -0.46312625943703484 0.8380000147819526 0.15667462222033285
2.3510349811052147 -0.6314127352521403 0.8380000147819527 0.1492361539057231
2.369506132421254 -0.5996680223077964 0.8380000147819525 0.1667820528768883
2.3581999887334075 -0.5276238064295742 0.8380000147819526 0.14506204916537604
2.356852768097527 -0.692823032384852 0.8380000147819526 0.13987324971316975
2.3648644806026056 -0.6092863076158741 0.8380000147819526 0.16938958482690478
2.352786179666167 -0.5548938705386915 0.8380000147819526 0.15335519028975064
2.3611566760059954 -0.6361406414468698 0.8380000147819525 0.161767901881156
2.351274237494897 -0.668626622684429 0.8380000147819526 0.16831376427365588
2.3461396136042985 -0.5934490639678734 0.8380000147819526 0.17118642493905767
2.3568751800143577 -0.4883653950346463 0.8380000147819526 0.14738144732956585
2.348340296517539 -0.5754012256622792 0.8380000147819526 0.1415990371264534
2.34508418916826 -0.644299606386754 0.8380000147819526 0.1752503289596449
2.3693783741272414 -0.4932459161827481 0.8380000147819526 0.17062843127945262
2.3350234795598466 -0.6588266821594014 0.8380000147819526 0.1914529304000379
2.3281454855064125 -0.0934485374548952 0.8380000147819526 0.1696971901365506
2.3295458402110825 -0.06929521575432435 0.8380000147819526 0.17128224205934037
2.355140654122378 -0.2557910758826341 0.8380000147819526 0.1542250981329282
2.3255049682007565 -0.03410687041379792 0.8380000147819526 0.19367110981716792
2.327616470687137 -0.2968601840044016 0.8380000147819527 0.18203341265364095
2.344050248285728 -0.251216699105283 0.8380000147819526 0.1534388925855772
2.3269368059013074 -0.08234233672736949 0.8380000147819526 0.16667348359197878
2.3226484651094577 -0.13214508739504524 0.8380000147819526 0.18926188679108646
2.3039284913177696 -0.28214793432824486 0.8380000147819526 0.16379031306759378
2.347582588853716 -0.1878152914149996 0.8380000147819526 0.13664258462318665
2.2840167232941666 -0.34646555151724545 0.8380000147819526 0.23880816372664332
2.3270601952670846 -0.27668871325214517 0.8380000147819526 0.17163487137283998
2.3459311010258905 -0.3145742304254542 0.8380000147819526 0.15835391846337155
2.337782416391594 -0.1427106672381876 0.8380000147819526 0.17090069854942427
2.3577592585964653 -0.31122596697407673 0.8380000147819526 0.15109807814211873
2.322417310301905 -0.19591858316797436 0.8380000147819526 0.18217118281838635
2.313538177641198 -0.2405216619177948 0.8380000147819526 0.15458608816907765
2.305128108592994 -0.3418407978690316 0.8380000147819525 0.19661114338321575
2.3214606882048936 -0.14340139230371243 0.8380000147819526 0.17602221189745865
2.3350369916298677 -0.2856961931574163 0.8380000147819526 0.17668525976520028
2.3247412008232398 -0.21893567193966698 0.8380000147819526 0.16691020505011098
2.3193259833550397 -0.18316208209744314 0.8380000147819526 0.16982477559499481
2.34276163590452 -0.2672032284670382 0.8380000147819526 0.14809999489370596
2.330372580516503 -0.34889052129831327 0.8380000147819526 0.20734967160284434
2.328236410380425 -0.1568106975079033 0.8380000147819526 0.1680899533632735
2.312850172026647 -0.3250537372780182 0.8380000147819527 0.1866803499885289
2.319503951075116 -0.30531627411048395 0.8380000147819526 0.17131963635077047
2.3340734664175713 -0.199332753590969 0.8380000147819526 0.16606920007122764
2.311441784834787 -0.16858870477480384 0.8380000147819526 0.145331075065705
2.313722094142077 -0.12650391970917604 0.8380000147819526 0.16211329540678382
2.300213648560503 -0.32443518480450123 0.8380000147819525 0.15749733402852917
2.3562025697702143 -0.32948682086867376 0.8380000147819526 0.18866476958608833
2.3077279130687955 -0.2944932665719386 0.8380000147819526 0.16961809677364156
2.2893982813055733 -0.31547632186377306 0.8380000147819526 0.13987983967152012
2.3456675291164006 -0.20203770703307763 0.8380000147819526 0.13340288776617298
2.315519201766766 -0.2640683920028735 0.8380000147819526 0.17422887185490235
2.3105954715649344 -0.20634852793252276 0.8380000147819526 0.15496506159149853
2.323382949324559 -0.17327911926783182 0.8380000147819526 0.1720004656062212
2.3430849688585806 -0.294977942296404 0.8380000147819526 0.16903440199719796
2.2910734582685515 -0.3017383058192656 0.8380000147819526 0.1485990268310591
2.3223535212176554 -0.11940498830483254 0.8380000147819526 0.1624903736001893
2.3069007107265986 -0.308400646154439 0.8380000147819527 0.1543079522642144
2.317190537456862 -0.28983847813896413 0.8380000147819526 0.166183952050138
2.3260048470410752 -0.33150915912358664 0.8380000147819526 0.19721558225409758
2.3261747165567828 -0.31469361499022536 0.8380000147819526 0.16216813703749808
2.300940507022691 -0.23710503617470202 0.8380000147819526 0.15400965764968436
2.3471274935934408 -0.34069892296072385 0.8380000147819525 0.19278764154060035
2.3387166693037247 -0.24149148022370973 0.8380000147819527 0.16697970146710175
2.334182772532357 -0.22736611388541808 0.8380000147819526 0.1750387479828367
2.3142237239323293 -0.2510450554652644 0.8380000147819526 0.1776966884588292
2.3246894721911135 -0.1036351049291917 0.8380000147819526 0.16872544302899076
2.345489080626506 -0.21738302679806853 0.8380000147819526 0.14688248095266626
2.3044830091187776 -0.26759424554048683 0.8380000147819526 0.1565752334732725
2.3083171923756103 -0.18649635121907152 0.8380000147819526 0.14800084030986344
2.335798810154258 -0.33640978332943 0.8380000147819526 0.18175882433484666
2.3246234754964754 -0.049543193565975426 0.8380000147819526 0.18628813832769608
2.3342772897960726 -0.2566221334982732 0.8380000147819526 0.15789526285740818
2.3141796989650634 -0.2259784585042636 0.8380000147819526 0.16557499693460653
2.3307684941422435 -0.20992175725828452 0.8380000147819526 0.15705221783018353
2.359711477818603 -0.33977938704540595 0.8380000147819527 0.1991390286707884
2.296482515636331 -0.2525852420511468 0.8380000147819525 0.15217688538324664
2.315016190957735 -0.2789970480365641 0.8380000147819526 0.17141534542783432
2.340806865796111 -0.12464738797652788 0.8380000147819526 0.16565974474044634
2.292741736864053 -0.33407530730775725 0.8380000147819527 0.1882131001962757
2.3261528653249455 -0.24368549169451234 0.8380000147819526 0.17900695995346622
2.35334976843233 -0.3013381698730143 0.8380000147819527 0.14699126354097047
2.3382826436524504 -0.3074041005729871 0.8380000147819526 0.16242243781705967
2.3383879824360854 -0.15879252151119455 0.8380000147819526 0.18783492221743428
2.335252134396262 -0.18849584647737802 0.8380000147819526 0.17345879823570634
2.3464236562887644 -0.27792499353076433 0.8380000147819526 0.1472350449102225
2.312569130609987 -0.11295431829446197 0.8380000147819526 0.16016187463628526
2.3225819979900777 -0.2334030551268323 0.8380000147819526 0.1570983299599527
2.360069595283262 -0.288321680437358 0.8380000147819526 0.17780176676128515
2.3374289081824102 -0.17102465673938025 0.8380000147819526 0.16324850104967778
2.30843124152212 -0.15382520294602195 0.8380000147819526 0.15936923356065302
2.3201560357156703 -0.3854501570897925 0.8380000147819526 0.18677113666983983
2.3253418142419875 -0.42870864650220647 0.8380000147819526 0.15680782172100807
2.316546875065256 -0.4868815208721324 0.8380000147819526 0.15054566448035553
2.291901860825892 -0.3882424418517118 0.8380000147819525 0.15529125608093594
2.3606370636867986 -0.3735427282205092 0.8380000147819526 0.1690858658969898
2.3300167851318356 -0.4159139708607212 0.8380000147819526 0.18233450161962442
2.292625562818698 -0.5437190694145195 0.8380000147819526 0.15639689627818512
2.2900460138831713 -0.6005218498844842 0.8380000147819525 0.15457043122217942
2.3015025108852196 -0.3530557061776047 0.8380000147819526 0.20133353973501608
2.346812958583819 -0.3535268022661318 0.8380000147819526 0.18773802534120773
2.3298587746794324 -0.5066266394915698 0.8380000147819526 0.18081514840911347
2.322637137145411 -0.4413943554240243 0.8380000147819526 0.16531563222505327
2.2887488188687604 -0.6233424641083368 0.8380000147819526 0.17634710015254493
2.3205970241458687 -0.40189063932743746 0.8380000147819526 0.17619416299734464
2.3137609981934197 -0.4983145479782812 0.8380000147819526 0.14783296115418246
2.3186231433119926 -0.5130443087825007 0.8380000147819526 0.16066425433700146
2.315817710718686 -0.3536611985250469 0.8380000147819526 0.2202403196273106
2.295303123006014 -0.5560618057774932 0.8380000147819526 0.14560505091566908
2.3148297667296527 -0.4221370350943742 0.8380000147819526 0.17533311382081604
2.29689558299065 -0.5145656168279421 0.8380000147819526 0.14765241423350525
2.3465566531563624 -0.44042809075420936 0.8380000147819525 0.14029213733194734
2.365542302615972 -0.356045963599277 0.8380000147819527 0.1894164737534879
2.2856845281194653 -0.6116042042533584 0.8380000147819526 0.14702876022244513
2.3135179828804215 -0.5673821478506865 0.8380000147819525 0.1656705737181399
2.2991556837334532 -0.5817058737057641 0.8380000147819526 0.1462106368111729
2.3287872880443405 -0.48799627867166456 0.8380000147819526 0.15396787547147256
2.282980058819051 -0.49807058625301975 0.8380000147819526 0.1441034534458232
2.344998615701121 -0.38642826044738615 0.8380000147819526 0.16536262931077592
2.285896252477721 -0.5130535580704789 0.8380000147819527 0.14962638344030976
2.3011913113421323 -0.4602050186407219 0.8380000147819526 0.1551963102936085
2.285867700312438 -0.35919883761201477 0.8380000147819526 0.21020831986527141
2.3085516893166185 -0.5077393639649569 0.8380000147819526 0.14387230259690625
2.338896020666769 -0.462522619582793 0.8380000147819526 0.15733620267351064
2.291941985444179 -0.3731322046709593 0.8380000147819526 0.1750777663601723
2.3393427548553145 -0.44788727133871126 0.8380000147819526 0.15574291810232888
2.2836952305505616 -0.5296548360022519 0.8380000147819526 0.16022963667802007
2.3337089396889783 -0.43810872062186174 0.8380000147819526 0.15173747031821855
2.29432936820567 -0.6412979448543663 0.8380000147819526 0.15848570139471369
2.3461491308091507 -0.368817036591158 0.8380000147819526 0.18394794507077047
2.3079957410754006 -0.4332301852945196 0.8380000147819526 0.15656397810936198
2.3189164429212497 -0.45211445184809573 0.8380000147819526 0.15627926314338728
2.3015010798526694 -0.41006001777651074 0.8380000147819526 0.15995791580490085
2.3456093202381316 -0.4116067850216002 0.8380000147819526 0.1463221197938705
2.3134592503579405 -0.5456514015284273 0.8380000147819526 0.1506304672509273
2.3339381359981837 -0.39954830885685705 0.8380000147819526 0.17093060392733822
2.298062851001752 -0.5703312985194551 0.8380000147819526 0.1352579764860387
2.3202882830618696 -0.5256904136595565 0.8380000147819527 0.1675379542570744
2.286683138048661 -0.573560970573625 0.8380000147819526 0.13226775737943156
2.3278051137204256 -0.4758646717326654 0.8380000147819526 0.14998676216145063
2.3105097793882527 -0.5208040739162042 0.8380000147819527 0.15518659996792858
2.309966094333923 -0.3627007976059712 0.8380000147819526 0.1700319390874921
2.29488155374562 -0.5317841080751498 0.8380000147819526 0.15436129618047376
2.3018587493139044 -0.607209628236883 0.8380000147819527 0.1494385000815881
2.3211409306873088 -0.5367673867539139 0.8380000147819526 0.1685426337498588
