x y z curv
0.09299310919285127 0.09029905291160129 0.7630124862069463 0.07859444007176317
0.09270563670905789 0.09037593757638966 0.38157062996853575 0.06994296458255019
0.09287817794561651 0.09032979133324343 0.8449857917858675 0.08439951114243316
0.09322303163517984 0.09023756003523105 0.6352078794166447 0.11742297140953731
0.09457291520260283 0.08989000262985389 0.360673046687205 0.07357387745812738
0.09424521875452394 0.08996876702942831 0.5531608006569987 0.07343703307355288
0.09457049756785328 0.08987880729192219 0.7312760930928763 0.06837043829675821
0.0943228444175675 0.08995298319753564 0.4174626795232186 0.08144110559026785
0.09651702181464458 0.08973192035738739 0.5725848928318722 0.06641286890716558
0.09611491076137872 0.08970709742993993 0.5032064733504145 0.0776808170033513
0.09730759187347587 0.08979877778536306 0.9389376782823324 0.16792296669901258
0.09741632727132558 0.08979969622353726 0.8839028136828054 0.08137373068865406
0.09589531438415955 0.08969522408470032 0.48674990047330524 0.07867336060499787
0.09641764663381512 0.08972147106887926 0.31753548166583556 0.11888865765506186
0.09723149085355291 0.08977624847244972 0.6893591893083896 0.06673905146972434
0.097959913727423 0.08982527642247287 0.8643597488145707 0.08068625435420247
0.09871617273644825 0.08997072086631712 0.5161162468842214 0.08156542177912678
0.0990441622410215 0.0900650249132568 0.5840589882712246 0.09610581234096827
0.09838384622436108 0.08987516983630492 0.5321386404837138 0.0780381481929228
0.09861819151441947 0.08994254915462338 0.6730709492363278 0.07082968125028502
0.10017244217397372 0.09038942969534475 0.616064441657193 0.14106422521763853
0.10051992944242293 0.09056217253206932 0.951668325712103 0.17735690974594082
0.10027976418025894 0.09043775210363206 0.5953368864560822 0.1362560551795778
0.10081434381905194 0.09071469734997265 0.7023121262151177 0.06897394693143134
0.1019836755936843 0.0913204833786187 0.739096585135224 0.06874037347559044
0.10176215111769324 0.09120572002790012 0.7948631842312055 0.08682996614665765
0.10312813004651854 0.09223096557262758 0.8244285017767431 0.07166535409977522
0.10282501919532458 0.09198473991503256 0.9140956299136865 0.11875401472246104
0.10254606041072217 0.09175813367540081 0.8499354485828843 0.08479116015891439
0.10249383720715116 0.09171571126594125 0.5619318374873349 0.08003087014730924
0.10228840013654086 0.0915488288280273 0.8387513968355039 0.07396247718224078
0.10328549436617014 0.09235879713304711 0.9017140996700521 0.10068693251119491
0.10227690005145618 0.09153948697833361 0.6468565769132977 0.10302602161218063
0.10308628206127274 0.09219697125125775 0.3910279561472939 0.07874145742136429
0.10367961961894237 0.09267895640532783 0.4584385852724845 0.07651552068974583
0.10296608258946399 0.09209932976507505 0.4235352286767875 0.07504163792237875
0.10431982656081232 0.09346028353213323 0.7845473681013414 0.08090909428654554
0.10427464944895766 0.09340466907898436 0.439747188397851 0.06521748773566927
0.10451592920740886 0.09370169209066613 0.3397532645151732 0.07012249701403649
0.10427922741047271 0.09341030469436001 0.32372046213251315 0.10623350014457605
0.10454002467637818 0.0937313543748424 0.66072771427681 0.07185281726933682
0.10521390777682961 0.09468694481945997 0.4029173758099943 0.06676090267729337
0.10529005601568066 0.09483393149037875 0.7208499009412853 0.08036513027230179
0.10508877935847975 0.09444541317108462 0.4973812935298292 0.08029176622441729
0.10561967896177002 0.09547019281743162 0.5379779891444805 0.07637563532873734
0.10551715964749145 0.0952723028473148 0.5783172712894722 0.09910650950920394
0.10555876805141083 0.09535261830656418 0.5511068648924864 0.07444736490979206
0.10539296970039358 0.0950325827019652 0.5250056287318468 0.07274749806816841
0.10623236593524299 0.09709221213834789 0.6084038081481048 0.13531801267985313
0.10603278099878259 0.09634596429593272 0.8836549746940184 0.07781334863032496
0.1064884111201188 0.09804956478310657 0.7743748302074377 0.07926426179318162
0.10624838014974122 0.09715208926750007 0.8088216560940042 0.0720039126437931
0.10627223000912778 0.0972412638636633 0.6928171414235637 0.07419952460679483
0.10644991674764735 0.09794945758711107 0.36669429341104787 0.08839118712921346
0.10631445773610933 0.0974250476204253 0.3796734359263778 0.08067152712878646
0.10669487948140938 0.09885659070963847 0.6779539834015289 0.08399923288689488
0.10651629758953399 0.0982076660378723 0.3503855609079058 0.0848108989639906
0.10624645756756475 0.09717497395375282 0.2791265416299829 0.1951175236391279
0.10667549909339928 0.09925394678607882 0.8314916546936709 0.0728596722412179
0.10665448618819912 0.09983309782056578 0.7436975866528623 0.0839777797057895
0.10664422385793895 0.1000684828585837 0.7299471499336789 0.08305868843990921
0.10664788873251824 0.09995273383661049 0.7543043807961173 0.07502974321742155
0.10666579284584485 0.09999066513196986 0.4806193288423579 0.0831305332164143
0.10661727858853084 0.1007114498858856 0.5118279452604073 0.07135987926429234
0.10658757967637231 0.10115269178624474 0.4678621984026904 0.08621816790231517
0.10638801549994434 0.1023318747799172 0.909700629496139 0.10837012582812278
0.10609069840431465 0.10327124519233176 0.9357051920834673 0.13522762224894203
0.10635398468163335 0.10243939481257426 0.7017606409989676 0.0821736481151345
0.10569470033898695 0.10449393359932088 0.8175895071410092 0.07074053887916724
0.10632111168488806 0.10253625460427802 0.4147396491483161 0.07918773555031096
0.10598462486869839 0.10349055908820258 0.29118161130696846 0.14211218537652676
0.10594043794408313 0.10371628998868183 0.6258102258857534 0.13615749199970745
0.10565511181298393 0.10460358794855278 0.7938910813228882 0.07182039557152581
0.10556798715658577 0.10475863308219699 0.440274810357665 0.07294967362643202
0.10581697135775567 0.1040227427232753 0.4277503370843547 0.07284289351962454
0.10560351857184044 0.10461591882391419 0.3067644107867975 0.11825567203615064
0.10602105185692394 0.10339497116329673 0.3315392031755263 0.08534647772921869
0.1055717344390085 0.10478619989517482 0.8446526589064782 0.0832766042795594
0.10413986703511688 0.10667841981178715 0.858982915689178 0.09175933972986094
0.10462426063834529 0.1060313720215611 0.9495883031527457 0.1679070567610063
0.1052970152590332 0.10514764012615978 0.8695096320740203 0.08616065136929062
0.10470961671660875 0.10593064699129606 0.7821764049979405 0.07107330291943459
0.10487419546144018 0.10571431295964617 0.7645597677182103 0.07498277174508197
0.1051747226983603 0.10530734888316012 0.8969650396396579 0.08270997467950682
0.10447271637042699 0.10625274380935301 0.5418490553197843 0.07540685869514996
0.10376256088205231 0.10717213439093727 0.37293779172997954 0.08539591625067575
0.103768703554876 0.10716418188527858 0.5742802074129192 0.08006499405729
0.10391988156806656 0.10696846187220349 0.6534010259036895 0.09340503744512567
0.10373767129267067 0.10720435726949215 0.586302270623051 0.1213124815281044
0.10311679990485713 0.10772888594201915 0.4511559485396274 0.08124564492778039
0.10264824975913092 0.10810950057457919 0.5984682425262561 0.15198454845762469
0.1023680257164748 0.1083371333519946 0.351437293726668 0.08028341934060033
0.10220189897557831 0.10847208212753434 0.804099594036059 0.07191594930707434
0.10301736846440711 0.1078096565095176 0.3198483077648706 0.11242299455181981
0.1030709950432769 0.10776609434056272 0.3920883637635752 0.08700367525050016
0.1018841337550858 0.10868172865381329 0.405361065604668 0.07131654355940836
0.10144062088394606 0.10891149658957146 0.6641216481963736 0.06538493817001151
0.1007609202231636 0.10926362485444033 0.8338161246436129 0.08585319330435397
0.10108117006498986 0.10909771502437338 0.7475940523620869 0.07583993867671529
0.1003681950588163 0.10946708152098636 0.696004978342782 0.07826601885927173
0.09853362608595512 0.10999889268905463 0.8767963558766217 0.08519741855767694
0.09888717028900348 0.10990433560465535 0.7295066728057231 0.07182199225513115
0.10003550011427148 0.10959720931246933 0.5546414263677664 0.07526029462147282
0.09826537911479451 0.11006244899691114 0.5228998460522103 0.06646471284853757
0.09882166892026405 0.10991644492205924 0.46426457174561636 0.06973794252678142
0.09860799902599654 0.10997748644102676 0.6422994886993906 0.08956125810097045
0.09957524340407249 0.10971859009661701 0.3825991309499673 0.08026369930689999
0.08620893522803583 0.10139672855488943 0.6925336415067024 0.08053686729249898
0.08656972841888247 0.102748086491331 0.3495017194859134 0.0849583790505257
0.08658041795668332 0.10279097461260103 0.36204589440133306 0.08520309178793997
0.08674729920551186 0.10343550789173943 0.5477149898343867 0.05738965237954324
0.08648283204306186 0.10244594288804527 0.8751232581227302 0.09159701964887138
0.08677266031369207 0.1035304023386626 0.6523811384640517 0.10078522514378417
0.08682190325224645 0.10371465617275318 0.49025373250821397 0.06141035971319908
0.08682188900435853 0.103714602860988 0.9228685420723338 0.10958356871579157
0.0868026288314572 0.10364253647326827 0.5025847055870647 0.06488223963646925
0.08661278318993354 0.10293218513431449 0.895180576837094 0.08379554637243448
0.08720805838793902 0.10448523477128768 0.6686695189152074 0.08182705571997817
0.08690583428881937 0.1039018606201414 0.5869802201379113 0.0940399002808184
0.08684306670294023 0.10378070222397641 0.4419350040564619 0.07404873489234438
0.08710359607635071 0.10428359429150093 0.33722925696218276 0.08306600689107498
0.08719758399974148 0.10446501637261822 0.7948808474726917 0.08145620660940492
0.08705002455648447 0.10418018678687566 0.9053985283115298 0.10172056222610795
0.0876872794368701 0.10541026084778507 0.5166953470404069 0.062241943744022955
0.08826045054355783 0.10618878191339219 0.5347551210596925 0.0656827250083097
0.08787212979620748 0.10571074696147202 0.755024073801084 0.06606373825028515
0.08848126965028344 0.10646061712123753 0.38004906826183094 0.07908489081497425
0.08820116298183389 0.10611579707569924 0.6825467367911582 0.07591428805600303
0.0884985271011869 0.10648186158156882 0.8262303986741011 0.06628802117140813
0.0894787558651626 0.10752835073717663 0.7206725688323867 0.06330612624435222
0.0897867045424206 0.10776621731186367 0.2723926819572279 0.19269437686190866
0.08934705469564966 0.10742662175313535 0.8531622238143992 0.07664057769988855
0.08993555483112159 0.10788119266629527 0.6337654927302205 0.11236783487048199
0.09026654218514003 0.10813685483983054 0.3178925829213599 0.10807655345150598
0.09131824218050755 0.10891617941488871 0.9144463848858001 0.10086063274878881
0.09032950620319347 0.10817783618836993 0.7423860612853782 0.07261355242014206
0.09126406733415182 0.10890042157008203 0.4546238032293607 0.060326379699253155
0.09170623368597645 0.10915209954786366 0.39158850154424807 0.0866049374414851
0.09310995161374089 0.10963754633708617 0.4756729947065842 0.06432001869348337
0.0921771613598262 0.1093020308904196 0.2869144773629365 0.15564370556146281
0.09261531621042735 0.10947802162403791 0.5645941703839157 0.0593651205826756
0.09348642801341972 0.10975287093367499 0.34537440162287103 0.08808010019974193
0.09270896943098003 0.10952392585887337 0.7091199373549258 0.06305277831894905
0.09648603434762004 0.09802072105610307 0.27171790458028766 0.24089225681158863
0.09685363020903531 0.11025920025353571 0.3626242667029018 0.08045262709979893
0.09494413760255418 0.1101306863461558 0.4213019034633979 0.08188333093267107
0.0961452926640639 0.11021152726159052 0.5075118576905918 0.059208626722297174
0.10196447589539517 0.1078541673911235 0.27171782546793105 0.1809471202312566
0.09059382063350313 0.09776275898634987 0.9557254999235738 0.19783790529114462
0.09535949890246984 0.10928231650805315 0.9557254999235738 0.1843934566131735
0.09535326903466254 0.11014389733465964 0.9397325457649889 0.1354882466123508
0.09632398207538118 0.1102046304086812 0.7618941553019457 0.07448625666326812
0.09648050559240565 0.11023320434623253 0.4939944905825452 0.06395215950373329
0.09634970537324485 0.11019777143444252 0.8650478900830684 0.08086201539515649
0.09622770445345896 0.11020677814922054 0.6754489521381735 0.0734944959198009
0.09698905223383472 0.11022661534622608 0.8900313266668288 0.08653643505181689
0.09287526697346843 0.10957697745744822 0.7807714848177395 0.06801575124845327
0.09333513099101431 0.10972252914596081 0.8146916548387766 0.0640714942647105
0.05464121500513529 0.0002883706734856103 0.8440801507727587 0.12433818601344261
0.0410834074860784 0.03790111679918415 0.7737859481092464 0.10289511258306049
0.09709252468975428 0.03102534251706208 0.7920183544653608 0.08273562279224221
0.04978527382171191 0.01220345119638867 0.8134871983443153 0.11510233812062974
0.05280163006253131 0.08555392456791816 0.6291056131955044 0.1327113272140229
0.05668204728498575 0.08879394356458845 0.6145195467230222 0.15981288188940945
0.04443873971749216 0.09932281008597209 0.6191431119327889 0.153478568911407
0.04492289721929784 0.10126771575888958 0.6064889242647363 0.15581224199160054
0.0612674873242371 0.09630890628630188 0.6351417718145929 0.12056467392946603
0.059295719846249234 0.10910843676114215 0.6142842792635936 0.13740701092034893
0.04903713090526478 0.09599790041008513 0.6350839593311918 0.1334275474180672
0.05412545237742396 0.10696259233642245 0.6349749185867024 0.12460485125854164
0.06689853372087987 0.009163140833899523 0.8166442949795566 0.0928367486001538
0.06894993442983692 0.0024357935941498937 0.8408922720761073 0.12055361625195508
0.08497438292579038 0.02494819759984996 0.7972035480122242 0.09595571541186253
0.05758275091648102 0.054397572615793977 0.7461643923734529 0.08853028987802856
0.05250684544444084 0.04842202092037283 0.7534102269267623 0.09239787550224747
0.017945813187576022 0.01611623914491681 0.8106748716255403 0.09794352437090198
0.03309718601686879 0.020969239669469106 0.7970897377320341 0.1096261653457613
0.03202499499517941 0.014578864255779405 0.8081242562187296 0.10183810958318715
0.04843279814707349 0.1966956306925265 0.012771242446451073 0.10425295571926406
0.05801980022707744 0.1965013611034216 0.004198095034260171 0.10512218748135811
0.06437820959891191 0.20830886907118049 0.0028199509324743125 0.1329934953099026
0.045347851849087045 0.20326314985996063 0.002350531453062509 0.1858972164135288
0.06036819048561073 0.21653605633683487 0.009552086056805962 0.12759550968964337
0.046173021245568546 0.21375750234931135 0.008069406433678046 0.11232242511536181
0.02792083167357287 0.03651369363495932 0.7790305020715288 0.10553664026132174
0.07855014939787255 0.028445822891852917 0.7847867568901994 0.09889710828732305
0.05181647304367662 0.15456950379465673 0.2597213448016417 0.05546187219822065
0.05106520940483161 0.12996231316115986 0.4017708542680102 0.05470382928884189
0.051652732810276485 0.11748451962684225 0.47075115889162605 0.046768310807460654
0.05012461634888276 0.1334478339719159 0.3852321249443206 0.04393599579471702
0.04984220371623918 0.15077662684896057 0.28803646156999924 0.057885696460437716
0.05034157286195572 0.11109196713101666 0.5111698306233284 0.03952430280303289
0.05014138750983529 0.12180052815889975 0.45120147409581374 0.05371077628594332
0.05221397634265178 0.12648588959013926 0.4180533830905637 0.06019803109294801
0.052616336609168896 0.18758427337796146 0.07091921196905093 0.05683823703987357
0.053146869370504904 0.13472760923172736 0.36993735468067773 0.04948432935404895
0.053944565112095645 0.13706678705251718 0.3558238915908688 0.049721318265146766
0.05338549191644172 0.16190449252487188 0.215448407237253 0.05343513392041174
0.05397677484565298 0.1654134450050146 0.1949967056274683 0.061976804886410206
0.054693763716334616 0.17076507846270497 0.1640581489027873 0.04856834992006504
0.054581879257416976 0.14580840876171863 0.30569131205172784 0.0934126144777479
0.0548511970786281 0.1406027257770475 0.3350418464712261 0.055169676227452384
0.05646668663537109 0.14319618042382498 0.3211140330275395 0.06781304526371827
0.05598604669918465 0.15570234512136108 0.24994734221947734 0.04085219362330236
0.05494936416816792 0.19347444759336166 0.035254122520346196 0.05958157365890614
0.05656370223668583 0.18347972230023946 0.09287057384043786 0.062432599510955776
0.04889614784934499 0.15391839656172535 0.27566511811232264 0.053277310458239156
0.049430212361418105 0.19232601548016684 0.05438136561398569 0.0570693979389549
0.04855426255190427 0.17868534548239345 0.1376994289018236 0.053973043901744885
0.04767803161669324 0.17804758458885162 0.14933349193523368 0.05361023325517867
0.04710879584016577 0.1887435187235147 0.09599205346791875 0.05372550874029921
0.047486647273311755 0.1516650302344112 0.30123302405382474 0.07457180321573789
0.04765813234011898 0.18517792570907354 0.10919258191421365 0.05368071570472744
0.04711273626440559 0.19770596126276796 0.045168274263630466 0.05635035421185565
0.048124081098913286 0.1418820071944999 0.4027610991221679 0.050721028755715665
0.04808830716057594 0.13337269788765987 0.450772062148207 0.05006126188263838
0.046760082769919345 0.2023859388633401 0.03260842195937583 0.0691032393612757
0.04683526422055719 0.1849655686779573 0.12658113831674 0.052985595026384516
0.04690242889406293 0.19214139187691337 0.08251215021777981 0.06289228348516424
0.046762733337194815 0.13205655029907537 0.4322503236837845 0.06101934548759368
0.046834261561634345 0.14250248466227097 0.3774869789191646 0.04302375176561582
0.046838551677110145 0.1069707571919404 0.5774674510646243 0.08578333322074119
0.04683705055558361 0.16640120180875217 0.2431248230229386 0.058309759446233476
0.046826701721165265 0.20626001082937945 0.017074195981315106 0.0871010485298432
0.04740294247228936 0.20046413193270834 0.06254257239743692 0.05489679169181498
0.04709160609555829 0.17301520347491545 0.21311973837105527 0.0642053895039573
0.047028772225500906 0.1538693916519781 0.3206165796543724 0.04170321066184544
0.052284150938877824 0.14101121479208745 0.4264987345408689 0.05397235400246744
0.05279955112744826 0.20742154368688065 0.050969383593268525 0.049761636900802396
0.05199322064414497 0.18492655644132253 0.17652777826699675 0.04642970238360174
0.05189000001894224 0.1989039652537956 0.09693919136355031 0.05893892912630315
0.052362765280018556 0.1928661778809847 0.13243286898662257 0.05126822901527495
0.051849175820376486 0.11206008287679002 0.5895565468577508 0.13559773040216572
0.05159619460890279 0.12874701352914958 0.49419454422801007 0.05834919074778615
0.05096936429335646 0.16923183763231492 0.2627923554316917 0.05547231964002664
0.0513402153476941 0.15052738828197887 0.36995565875344255 0.046309065084879794
0.05037192224765354 0.16680230482530606 0.2746812302300692 0.055052715347484814
0.04991035151205467 0.13322245871771468 0.46307533056414124 0.051484758939767866
0.05022571183429705 0.20160174461436386 0.07643954196325904 0.06146565831971724
0.04963910812573382 0.18724248641720415 0.155126814812869 0.04603030026286988
0.056904849491260706 0.2034180709619649 0.015673672381468388 0.10480890764877655
0.05880958581492669 0.12996348054763962 0.4871725688932536 0.04551026933897278
0.05931102859254131 0.1937591946369246 0.12349012560864737 0.05722612822927044
0.059352993997963434 0.1166621238854478 0.5607136846985117 0.04500723747939869
0.060133923541906095 0.13393539169329816 0.4599725019318917 0.04976855744010871
0.05991406188207885 0.17069140100901217 0.25215353286373415 0.04679279181819039
0.059111691618677395 0.10971071016933281 0.6010017280408957 0.1354177695255467
0.059458415086335224 0.1448402139051255 0.4004407454337291 0.05357474595215068
0.05827788152515312 0.15264175198425164 0.35971783521738654 0.04629812028380084
0.058516362672264316 0.18979514456412633 0.14849634378300386 0.05478571663508565
0.05777150381771701 0.1874774238215559 0.16318555378309063 0.049658295100351545
0.057667360699595174 0.15798770260275946 0.33066171709985925 0.06727463625074824
0.05717494291603438 0.13272143728479718 0.47498780683222475 0.05834594899690912
0.05723918417724423 0.14796028912604825 0.388422676147888 0.04548897918772834
0.05617958124680576 0.2110308861133009 0.031678031611637625 0.06472263025272817
0.0562330215246716 0.17526013673431973 0.23450786214564595 0.05150424409010866
0.05664067214090371 0.19683952469863047 0.11178687379844877 0.05339755816988339
0.05710430615879916 0.20480190497345072 0.06624883573891761 0.051050886650119164
0.056183226885143406 0.177185845831853 0.22362696912903607 0.051703116841125225
0.05518786147877415 0.20150321282454503 0.08624065793956426 0.0623203675097004
0.054458455961176745 0.15574596600076723 0.3455626615944337 0.05852524123510446
0.05432846745385231 0.18330037577846103 0.18905879807414286 0.05791282719767176
0.062096407361268605 0.1681344809592508 0.20080847155208986 0.05450443672071543
0.06257936570908715 0.19322986123134714 0.0629592786207803 0.05471211804833575
0.06245414839878124 0.16191647710526613 0.23932750062248476 0.04653064099273235
0.06267161142383362 0.1180368690311024 0.49006457497736744 0.04928377688594573
0.06209132322021027 0.10934809027423734 0.5338298905375182 0.04668685904432973
0.061751700804923225 0.1765550336249549 0.14990695693150202 0.05003720485521008
0.0627205593447916 0.19931471828724326 0.02994005528529342 0.06617186751416675
0.06285322000808766 0.10649498029119439 0.5580832693326396 0.051641083133818176
0.06320743646875022 0.12161060673459667 0.4780863708206 0.04370453945735215
0.06336870052607278 0.14907202035896513 0.3271897666954037 0.08719864526489178
0.06333879794608352 0.1514830045487467 0.3123321346092074 0.08586040717525417
0.06352897460601398 0.10334164972018832 0.5925425357552428 0.11919889142964678
0.06348160608689953 0.16764505508556737 0.22661899419727216 0.05186251888271902
0.06346913150490961 0.18916915169721205 0.1042712054699225 0.05270819937792064
0.0634510420942644 0.1954166047117809 0.07611462102442099 0.06251213534649533
0.06351202851215092 0.14632227473437381 0.35027104973330636 0.03704852705634468
0.06351402027285769 0.1745146090460334 0.18956003765680793 0.044509629385349324
0.06350614732647714 0.19155260471531363 0.09323822608771867 0.0657002502066019
0.06329514928296798 0.10938254605058051 0.5714985693502272 0.05648879694856942
0.06330227549121406 0.11349889899292012 0.5478809515714265 0.054856622886272646
0.06335884002650248 0.12703256196988363 0.46849330784662185 0.040731499475064235
0.06312026920062783 0.17249685659583 0.216434784495881 0.05604826365685845
0.0631449356564367 0.16476788232940967 0.2600317996008355 0.04694407286526276
0.06325207860112428 0.14513297019103538 0.36999395802127166 0.04155600697508434
0.06314398538745784 0.15919271621298203 0.29181392281576035 0.08458570327201978
0.06316308049104141 0.20297095110621366 0.04204172060463715 0.05637325717640976
0.06231691407601459 0.2084197893194439 0.023346776242564253 0.09147257110774386
0.061869723759454626 0.18263313210895105 0.17317486505130342 0.04726667134534292
0.06171445801038011 0.12566051361383335 0.49819741724110395 0.034673483024236874
0.06092698556462435 0.18991193572950826 0.13859147016032758 0.05528625034717349
0.061786733290605966 0.13927836749728376 0.42025548206348984 0.05578274626856028
0.05869020474263768 0.1533645990089365 0.2675082447763968 0.05697975083067155
0.058816398977255574 0.16942870336489846 0.176811357018831 0.045962385653599516
0.058958372207446 0.18642653448214877 0.0808646461521801 0.06818190982738385
0.05944187971778775 0.1119940382411169 0.5043982488091768 0.04616513512905315
0.05979578768374308 0.14914594504976178 0.29472499735697727 0.07922661510860034
0.05966470817773953 0.12226133757160093 0.44684221554366116 0.04814233982610653
0.06005440338551222 0.0983576639953475 0.5836690340038655 0.09528704202050926
0.05996568823169716 0.18002542326414414 0.12049495191685307 0.056899646356994696
0.06065616438272256 0.13219968092174306 0.3946893525642719 0.05639933551376243
0.059787963668556494 0.19215063574245017 0.050965812235489176 0.05303609380070049
0.06061504125651371 0.17727865594684178 0.1391916284086137 0.047363491276940846
0.05696640753276562 0.0990695409331331 0.6077500849753158 0.13673684652626134
0.049097463178646064 0.14118906155873923 0.34662534181600446 0.04515242704569716
0.04923778990859637 0.16975961883656762 0.18356700658079578 0.052644342953711225
0.04916681431680989 0.10875779312292144 0.530433713738943 0.05242694836119816
0.04852629882389009 0.09784438186828617 0.5960145813445943 0.14167313368650528
0.048697060506353786 0.10389868077377257 0.5606694955074742 0.055456355967781604
0.05773337639991355 0.09898956528855371 0.5735365168365717 0.062286240686543974
0.05689352603874154 0.10421378188564338 0.542554448713152 0.04012318072317697
0.06151386499182078 0.13010990900298894 0.4116135824268449 0.05097907282007299
0.061525053625590104 0.11069989469410808 0.5218686269301155 0.04723482897683364
0.060664521058342816 0.12634509176639364 0.42794914064489104 0.049145817105476906
0.0625040281364757 0.13549079205717585 0.43482154508613646 0.057607143878221946
0.06047469492365252 0.17867629994293613 0.20487237328402097 0.06386899464597916
0.06140871032607077 0.12151683059454946 0.5235026282510832 0.0423790943576067
0.06021774476092351 0.11989567539735173 0.5393479446908195 0.03334830295169582
0.06088901681298233 0.11181773730993458 0.5813619107668933 0.08915763226020001
0.06107491770786219 0.13499774736937675 0.4489892491707297 0.04970683323228438
0.0561409297587189 0.16077540371752444 0.3166943259675913 0.06766389098728219
0.055474282198579826 0.16321202531196924 0.3032799597972693 0.06180472592815901
0.05621353877633913 0.1664464179890759 0.2845092890633925 0.05654226113450321
0.05297194710600562 0.1390287830597861 0.43872611969044495 0.04513338189863663
0.05225295195651693 0.1263852813503792 0.5093994448226428 0.05766788530283303
0.053658119724923854 0.1434742157955885 0.4144516153485847 0.05809336454073889
0.05377978821977317 0.1152551010930377 0.5744749110497452 0.06711270666484274
0.04817460986206275 0.11356003495518882 0.5637585132844029 0.05496749873011458
0.049914097221998854 0.12056999675819761 0.5349128397823588 0.05714394321597676
0.04771200342032101 0.12072240077839963 0.5181588004638662 0.0636992466438962
0.047342191679781265 0.12731081166116176 0.4757002465194259 0.05372793469808603
0.04766972895941106 0.16152383109421425 0.28675233845573656 0.06542399357289584
0.047673249078333105 0.14940538779253423 0.3553556707093835 0.045263929736704824
0.0475738584293626 0.17643288733620452 0.2010669766050192 0.05383675585093852
0.04697371948855904 0.1340820655393674 0.4101990317638974 0.0696389681976913
0.04683493866978165 0.11848863125311021 0.5026279414106692 0.055107835934811375
0.0472125184457121 0.11912666111181444 0.48949449626363334 0.06112650002385169
0.04704295349849562 0.16604161519649474 0.2261725841276469 0.057818163944630206
0.04976659106055969 0.11548250556539871 0.6168823924194041 0.13848727088839316
0.06913451273374119 0.11281825391507358 0.6239189782084432 0.13260842145153115
0.0458245277597154 0.08275745800623871 0.6129897824429612 0.1624089532213014
0.07527122757338528 0.10246371460531907 0.6296565859347002 0.12219952674494777
0.056878307240383674 0.08581851737014444 0.6037992057000866 0.1404179182747576
0.07304371946876209 0.08502682028877409 0.604719108694033 0.13010374952357476
0.060349856134161536 0.09324214137763401 0.59782991289067 0.14558446414901194
0.07522950517596755 0.10602113557279763 0.5981080458050692 0.11269886960034373
0.07424818627156735 0.11499436868619484 0.607084631842552 0.12568451180403253
0.05833758441495887 0.11217295266269098 0.6243734540511161 0.13090123978136306
0.06469746696429611 0.08546909530468 0.6235496694366054 0.14655844857834194
0.048501791173454545 0.11300475827113672 0.6044616446066563 0.15158424829765108
0.10887636569998467 0.11802650285079119 0.9283651407634212 0.10885613957202164
0.08375024378137126 0.12493610014013665 0.9282241556090243 0.09661809942091952
0.09696341932312476 0.1599753238260746 0.9213655473806618 0.2772629527669588
0.10191671190715997 0.1599753238260746 0.9336621875517845 0.24959139157603796
0.08457931319924067 0.1465106888864685 0.9162927941650658 0.15752958667215763
0.09031755776629105 0.15605137604414046 0.9111828872408976 0.19138270343036043
0.08270623050466344 0.15832730803432332 0.9209255136266213 0.22511085273004086
0.08248432497544837 0.11425563955730318 0.9227155820377249 0.0991254350834867
0.08268469597950655 0.13604004125127261 0.9210452644457645 0.13968739901373997
0.09807038882561764 0.14648774501395348 0.9098249464163766 0.14277048093258868
0.10755104283469341 0.15502880032100172 0.9152647329119517 0.18484446965852214
0.10719738188450478 0.14149304600055782 0.914809945178284 0.13653716128266646
0.08466919351373815 0.09343259129328363 0.9199565032905029 0.11240002647156735
0.11014345096457001 0.09748917287397961 0.9233829673787559 0.10867660924222403
0.11011714999012351 0.1593195914323653 0.9265366718108183 0.3120608538303675
0.09804689768104755 0.1469985677692105 0.9376276707986874 0.13913211223291977
0.11023343364733791 0.14423443922761653 0.9254789494594291 0.16819224164969326
0.08881998367469472 0.15270028928576437 0.935450547261426 0.1914466094131732
0.08403885849303959 0.14428908855724037 0.9302261175637734 0.14764320032226874
0.09487144169604184 0.12035598966374506 0.9287254899099936 0.10985994292095003
0.1058718297685914 0.13389639725088406 0.9309171753766378 0.13446496594114252
0.09148445699429872 0.13613124560682627 0.9339960708674722 0.12948291580390198
0.09244421352112533 0.11989149328060343 0.9187255252198587 0.10240058869259565
0.1041820086055063 0.12026174864407974 0.9187298893207947 0.10770324990531756
0.09188923257367915 0.1364555480585856 0.9128038357784334 0.13146448086120543
0.10079382949208349 0.1308486877235644 0.91836076430426 0.12291404979644732
0.0996511030351737 0.09023953346411974 0.9280277479633307 0.14177078527240664
0.1011977412818187 0.1090373237040702 0.9266025185910812 0.11085143644110355
0.061725585170820496 0.043062786047806216 0.7645972084462495 0.10782503801521662
0.07404877610413395 0.022851959496899627 0.7946749684395706 0.10481879973342723
0.14646619217366547 0.1014568048135143 0.6153867813462269 0.2722786518535172
0.14618965902604095 0.0849941891630237 0.6144079032833205 0.2154083741006529
0.14543550216784265 0.09596663203330633 0.5972854975981652 0.18622807312228803
0.13359647415474543 0.10496692958165735 0.629956978935688 0.21761345900381224
0.12267419520092751 0.11060692613407065 0.6269893289040591 0.18711817301030173
0.14525059478942823 0.11214206241378424 0.6255809606574365 0.21602539375253765
0.133707737307608 0.11359663783026303 0.6238934952355808 0.2318488355960834
0.1186853873678544 0.11673194639968508 0.6166452200906516 0.16027702280264294
0.1382220084643689 0.11680591489301884 0.6112369411847284 0.1865041087954118
0.12647108020132733 0.11377580413672075 0.6037719859499567 0.1923279310923937
0.14308702836471432 0.10938368357782159 0.5995542083922129 0.21717488982408298
0.12138560984734251 0.10686062181387188 0.5981602085660621 0.15675914208683997
0.13179212232583137 0.10173812247396283 0.5968097041309991 0.20439979565581098
0.12380122608353034 0.09529678168395826 0.597383230147043 0.1541761824316255
0.1342465251248809 0.08862123308859163 0.6010886210757 0.17815150228399418
0.12299401848684363 0.08392414383314314 0.6081857501181929 0.16661183713808192
0.13448007209035337 0.08301567758229808 0.6141503567294966 0.21858494361590192
0.1347686072851423 0.08841955298473447 0.6261410025397488 0.203679860496942
0.1452170986156305 0.0931702713366473 0.6292805046916151 0.23663213909364697
0.11781676474667083 0.10644677506397804 0.609465584399932 0.15203799282708816
0.12803300445307864 0.09824381453858992 0.6365354714425054 0.18148423801197375
0.10912686983025524 0.11842452641091164 0.3081823105948578 0.1197796077263516
0.08387096547919484 0.10154203551277848 0.29914358298218635 0.12734897326003614
0.08336738667852081 0.12907241852052065 0.299450116673479 0.16895707181486466
0.10118799426481981 0.08779036978929683 0.2995525841374065 0.12752214136984424
0.10879224451485507 0.11201240313312048 0.2990222962135266 0.125324216499934
0.10337595793146008 0.13766339336102232 0.2918978887595628 0.1199261983332004
0.0991511960123606 0.1599753238260746 0.2922708824632046 0.18590358919021555
0.0910038532706712 0.1599753238260746 0.3024091538924699 0.15468533390653444
0.10332859357452345 0.1599753238260746 0.30481042402756375 0.24405890920843387
0.08332298595502927 0.1493619690128436 0.2988645049736204 0.15135644297372708
0.08640328726150924 0.13793914657063963 0.29394254398664793 0.1205819867883855
0.09117841357754304 0.1519701949898037 0.2907836493223108 0.15608448375423012
0.08288601222423816 0.11677502724337643 0.30020364202739036 0.11317241656491266
0.1078250542077421 0.14934076852673667 0.2956200490132027 0.15871251324095756
0.08608387290062595 0.09134946806138022 0.2999364304364815 0.1494675191727462
0.10899385099431774 0.0943800102468396 0.30142461279964905 0.11752969877408692
0.10228925149180684 0.15330147150909385 0.3163764654542177 0.1554609170757212
0.10909303746924576 0.1440145619681243 0.3096484983440877 0.1488427856325842
0.09049985041385347 0.145504290304148 0.3163895137513414 0.13007271043239002
0.08618505970601398 0.15788721498273994 0.31318461742631765 0.15343067874298397
0.08566868706671722 0.13709527840843783 0.31269596524624965 0.12728960767743497
0.09517338808504287 0.1211591169133733 0.30872563415323384 0.09456439235940979
0.10221294641002188 0.13482495131525507 0.31193394492954385 0.12875837774350748
0.10764627553950687 0.12428855486402496 0.29873400239704995 0.0946740775277368
0.09768869793712923 0.11206927246794292 0.298725643689977 0.12672411887960486
0.09603501247901294 0.13117294297629756 0.29822295796294457 0.12465035538302836
0.08865926817909742 0.017756430931149696 0.8047182226910529 0.1027862002902342
0.09345974585787467 0.08684675783532417 0.624911263207969 0.1287581916713547
0.11478186432524475 0.08302095790375309 0.6165967185475942 0.15854512314170405
0.11757753198452783 0.09841768356808434 0.6277633967254052 0.1532531977799555
0.11760551954688206 0.09489181136879196 0.6166501185550173 0.16490626193985344
0.11181614482839766 0.09800730403432048 0.5967897098338105 0.1399947014573482
0.11217091379080738 0.11307548258413676 0.6032144682268876 0.1466237136036735
0.0852218356897808 0.11461833545525216 0.6059635112904532 0.12077485371490247
0.0910694089562197 0.08285676643266818 0.6106725797695198 0.12580242874391126
0.1089564443366054 0.08437709968981591 0.6063943107258173 0.13086851606885844
0.07563255597826443 0.09131547683826466 0.6251720763576197 0.1283394453026827
0.07560799091848154 0.09441246033952597 0.5990245586910746 0.11461494191571639
0.07562735739540437 0.09197281084703704 0.6121270011509804 0.1283064612622541
0.07554383593554756 0.1024949350026409 0.6165908556559586 0.12975459544754298
0.08683039462856541 0.10319019645762306 0.6236415758477892 0.12500295895894825
0.0867855174269534 0.10304173162396497 0.5988431580812241 0.11130883233992335
0.09168435504500427 0.11385097730304491 0.6229032351723677 0.1353288295437901
0.07939373274562583 0.11352997558914996 0.6232330346665721 0.122370177442183
0.10525903427333343 0.11533251129600534 0.6203276311269006 0.1367830753460168
0.10705867364122809 0.08565193174720469 0.6232941489479344 0.13007522493266224
0.09595164269884845 0.012592117961793142 0.8212174773029122 0.09677439529661887
0.04879200227458984 0.04359005511869471 0.7657439399245045 0.10442572272194543
0.044404007479503266 0.01738484408388986 0.8032495964072431 0.1118164258588155
0.06587577634588213 0.015280661833436265 0.8022753029875502 0.1164096562845992
0.051532642603558415 0.034887013635378786 0.7749489698029355 0.11332190540975391
0.0463047104234865 0.004023206382529745 0.8352185485563672 0.11085084684056218
0.07073091612307747 0.01652917841826653 0.8306961210653105 0.10412849576013056
0.06751302143708524 0.025557286140042868 0.8139059591305882 0.12348522905963141
0.04395535945416845 0.014501080837960534 0.834466217382821 0.11359678071949936
0.07193593541536751 0.041463925824501674 0.7843239654592893 0.1183679708422455
0.054657662875964345 0.024991878642112626 0.8149566838138402 0.10982322480104381
0.0497930166727434 0.019514286304458638 0.8251433003017263 0.10648348622545946
0.06845482568880569 0.048551977541603404 0.7711418975238633 0.10436908132702905
0.05917246291900556 0.03487425637818032 0.7965783058779179 0.12057339435337508
0.09509479643126083 0.022317866062536287 0.8199322020004999 0.11637153111092319
0.0877541788719932 0.04920019779045534 0.7699391501014672 0.09359308647700874
0.019623448675373363 0.048549464530228376 0.7711411526606918 0.10726193869829713
0.00876292025885881 0.04183309794719197 0.7814068479127996 0.11302410592150633
0.06565863653585771 0.03639167217598453 0.7752086336996282 0.10773684621206968
0.0765126467495608 0.04189508630641674 0.7711481366995644 0.1015181659703899
0.06469540171507739 0.029515479680442568 0.783328124945086 0.1100492274829687
0.05277851155160516 0.022056825913419602 0.7937306090508136 0.11892882239812196
0.049312723857315194 0.028685533551541575 0.7842614117996253 0.12078062384593093
0.04818063007606381 0.007960709592727995 0.8240946126840583 0.10409564627134749
0.04092268411774512 0.025210161762055528 0.7903645813944982 0.11206588225369864
0.035267424205836256 0.0059683756362184735 0.8370522181415392 0.10815798644392222
0.023792851131191665 0.03057289619740961 0.7879361755306539 0.11675087333001521
0.10907371996886117 0.028606379177213325 0.8023306838209956 0.11504090767218272
0.07883214755989637 0.04950572709423598 0.7633953337716618 0.09655794904064674
0.08753854145616981 0.03958975523018323 0.776679856718616 0.10849721197390441
0.10789307589092012 0.02307684350801332 0.8120521211084398 0.11684031604814105
0.08670766138171557 0.009021384605957932 0.8333992355330768 0.10874303245126693
0.07692619216493335 0.003071632468181621 0.8500726286830285 0.12398988714142394
0.04262365909972078 0.05184807477457692 0.7593113807907028 0.11751207270060837
0.03200459991853191 0.04859177016580062 0.7641908883145497 0.10692314309544411
0.0019855391511051134 0.032082930914511296 0.7959455409471259 0.11520285437157055
0.02689240146079963 0.005166949330768589 0.8450216134794837 0.13508828634833625
0.04184384750517254 0.0016430746767237925 0.8526537923389036 0.1259255694061719
0.008602856547288729 0.019539736529599012 0.8146876382919344 0.11552833359236792
0.0009625821812455503 0.02701157960422597 0.8063372892490588 0.11880420762752335
0.012266083584974646 0.026156008025232855 0.7996441414299779 0.11767875989368108
0.014364121695746891 0.011063876497970596 0.8334223048715252 0.11055061479552607
0.005767558316784529 0.016036784504072435 0.8257616771346334 0.12450714375806687
0.03594813204112174 0.026819149261267387 0.8115573976460777 0.11232413656211973
0.049321147789049606 0.04048656944207396 0.7861403660507269 0.10646729820999427
0.05957230004871853 0.04470104540087402 0.7783031335854382 0.11167937918260104
0.024196768548056066 0.028370734383710104 0.8086711901080129 0.11282483422686353
0.10218678840286671 0.03976058106774208 0.7874969429584263 0.09535920200627092
0.053081135472955975 0.0018317647124767875 0.8549366578430857 0.1332739953508536
0.0657155813749246 0.004749979150400517 0.8284051370981795 0.10281634660599119
0.04051092565940427 0.08052709227402519 0.7276180608292632 0.07527841897927676
0.03989555533286103 0.08667842776650138 0.7034412575539813 0.09904710740206811
0.03964349710652697 0.08880794892306065 0.6928008447556038 0.08880615922567585
0.04628722513348272 0.07678696597777908 0.7444843774954786 0.08128189403108801
0.04824396636102568 0.07222344293164162 0.7561433575343295 0.0899726256931552
0.04658459843134477 0.06697512065321161 0.7668751470181541 0.10263240030905432
0.06008759003478817 0.05856039544746326 0.7836663320139936 0.11703967043192151
0.07607624495738946 0.048912911519120784 0.7997412911616673 0.11369114598692118
0.07949477777279128 0.031274119744010814 0.8302139675540854 0.11135374314521117
0.06840029665242534 0.032614759886874775 0.8286310607851511 0.10928777523472387
0.07166945549376146 0.026386957361739335 0.8387868298523791 0.11393453859419456
0.09032126034823276 0.028738236791965237 0.8334817947261987 0.10587030278830066
0.08477133935081704 0.03723642158824096 0.8195331395787984 0.10934863744663594
0.09206904909907353 0.04585769902879075 0.8030442651003011 0.10820899117621825
0.08843893071271988 0.05171898959115079 0.7924955905498035 0.16156928421677408
0.07464490586505948 0.016759253192198027 0.8542182039029863 0.12810991864747195
0.05810756866514961 0.012657282025971758 0.8601058306048324 0.1306412316241939
0.062319575839843835 0.019353433473838468 0.8505213349698678 0.12597647400041923
0.05800168067716213 0.03354146953278301 0.8273797545724395 0.11236680638349117
0.0965472984356801 0.035443145931712355 0.8212190108078872 0.1115998134259291
0.10381746879209319 0.027493662920319746 0.8331688062600766 0.12027981626235963
0.06514398061814969 0.0390538241415059 0.8178867754803911 0.13195950861871472
0.05877616361811197 0.04793874826726026 0.8027421275922813 0.13121469301801955
0.10597619551992697 0.04743457339824421 0.7953412647870455 0.11738854178378148
0.0752288879574419 0.06032946740682572 0.7780300991168373 0.150308977234347
0.08419502596347575 0.01833768473151092 0.8510743605647393 0.13233346409481156
0.08443072307596466 0.02420384217341878 0.8415694433927827 0.10847160960149692
0.09075323345943778 0.05802372560958011 0.7776012902204039 0.09259178870408143
0.043943643385399 0.018991215709226197 0.8509919626941786 0.11712419843087099
0.03274381649965539 0.016328792723003676 0.8547530538214345 0.11871663062907815
0.054263287718290754 0.024140725105394695 0.8428910608757532 0.10299366209811799
0.04468954170806601 0.02658692620247491 0.8387348515270265 0.11175799125368131
0.03587745366287994 0.03198168750469926 0.8293517191482753 0.09867476209015091
0.024917718223134582 0.02909846330369783 0.833353430458341 0.11669603111451639
0.02238836181866416 0.034976101603016015 0.8231108360769093 0.11014364685394301
0.04144141446940871 0.040129517250784 0.8159017212109145 0.12330831847903609
0.015241065574632113 0.03954818256588098 0.814179111416294 0.12928580728213165
0.024641121498639014 0.04395907338844776 0.8075739880169581 0.11191888758745307
0.03146168098672045 0.04934324741400107 0.7986842164412581 0.10898126785389493
0.04203691966103771 0.051548271860578976 0.7959319572470025 0.10758617036702584
0.04751844380355044 0.03296577357825266 0.8282341774259347 0.11143163201913442
0.014501297346697388 0.02961222659930087 0.8313596427627877 0.11781321584908365
0.052576259706448886 0.04208509449281017 0.812935997135652 0.12791281014628597
0.04545307440608044 0.04662111088454681 0.8048152300061597 0.12049192865838265
0.05377039812684846 0.052506890894019276 0.7947669287990222 0.12316683534563716
0.008975692023486054 0.04572457117622842 0.8014406472929787 0.11735423806306498
0.049394121265888186 0.0617770223477976 0.7776413743136141 0.11326966627727604
0.01861829190479762 0.01579249299443439 0.846311652546911 0.13676174754996326
0.06871004122260006 0.0069168396898992585 0.855390003887263 0.13109026319734654
0.04877158714349817 0.008551482393670255 0.8473797792717538 0.13147798730575708
0.06496032691905995 0.011943427965730953 0.8410766486741594 0.12077897790072036
0.02338367857254342 0.017035671417139686 0.8316110694250881 0.12143519876072059
0.08429214645992239 0.018510529475125756 0.8288729047144474 0.11347530325021397
0.06306638940507982 0.020593565166031308 0.8250007506219748 0.10218737158504025
0.07627153908175026 0.022150788971732328 0.822107319154207 0.10397367802236397
0.06683382111000637 0.03165881328130434 0.8044367407157316 0.12365422131040997
0.08914633199024366 0.028987985653611714 0.8094013232362735 0.1151069579296212
0.03882178327442568 0.0342550084465596 0.7996106055513882 0.10090917277381913
0.04638697441820555 0.03098018835219217 0.8056970211236256 0.11118416550897418
0.03573979683265258 0.020501501059044202 0.8251706332922016 0.10699739895352206
0.07018193477465305 0.036868452655045035 0.7947550507160545 0.11107493849263883
0.07765819599782091 0.03023195744997096 0.8070889573804878 0.10264439859651737
0.017037980436575263 0.021659726033827334 0.8230173029954229 0.11885703822050389
0.031734049319293495 0.039683114180275356 0.7895224446037353 0.10520626683390534
0.02074616559760369 0.034082351848923186 0.7999306985402443 0.11258992885514388
0.01317783976109506 0.028244445524968458 0.8107797972973051 0.1274072820366993
0.037428430249152336 0.04800858477855703 0.7740503207724851 0.10689320278600936
0.014634021340906044 0.03802279872285008 0.7926075903597497 0.11908455520239712
0.00929263456835624 0.019514574990237163 0.836285284835795 0.14071811191616532
0.0005649160632910844 0.03567837249371233 0.8140099738443898 0.13359875182740436
0.002198878445758508 0.028880607749671362 0.8228502652640384 0.14034559010052253
0.10913578127924849 0.03957060040458234 0.8028743525722115 0.1309847112517033
0.10000249444115127 0.049361908167969384 0.782636385928975 0.10304660261021988
0.10970317425654033 0.03577333961208549 0.8146464592656286 0.12036965456062047
0.10724852669816941 0.022215334070352134 0.8232937211132981 0.11820040402378382
0.10055341803660614 0.016434364049749073 0.8352198987772416 0.12223732700212896
0.09253935174964908 0.013924140895628873 0.8446743440641303 0.13718816893307356
0.061961177996346706 0.06960027893498699 0.7617992876001293 0.12928959984409333
0.05995546401161327 0.07463029200727518 0.7515822846934328 0.1060303268877185
0.05891451448537356 0.08247331580050661 0.733447183659778 0.0721216733290306
0.06133160782978643 0.08927790606846911 0.7128677778012162 0.07658166232007269
0.06265158145148485 0.08544866027479957 0.7232561178983961 0.0709725019879279
0.05904622733688039 0.0649821962980332 0.7717315939699978 0.11058314759220761
0.059836474354892005 0.0936819883292003 0.6994198147743775 0.07708320918206547
0.056150594745421153 0.09835406875017583 0.6831005903705314 0.08913670870788529
0.058184079277092945 0.10415104200579949 0.655340773590986 0.10160555388100338
0.07084295162185053 0.08913880006200672 0.6787646512960956 0.07570289500768011
0.07020226221555131 0.09126132671358765 0.6901028846348886 0.07399285301714605
0.07055801891383098 0.08300777297279066 0.6977074995270149 0.07482431581733087
0.07026972177388169 0.08336155861955116 0.7082686689658823 0.0770600996751385
0.0698860749335001 0.07615657023255122 0.7282151154340563 0.06677571817320929
0.0703393603886241 0.06531876698035499 0.7424145467617012 0.083727393804012
0.07857814864105299 0.06123045444486105 0.7666071684474949 0.11425677057540984
0.07012578130833916 0.08709775590175936 0.6520252070790606 0.09165321313959242
0.07040760513909806 0.09431782697554138 0.66929825390437 0.08718682694983784
0.06632591460112956 0.07779663807545326 0.7397098550852275 0.08919732364079544
0.0634885714351768 0.10091589821435779 0.6645384228015992 0.08689631057477418
0.06638591888469875 0.10266841386587293 0.645474781933649 0.10286001078127896
0.0696004856142984 0.09882522062122295 0.6544584156511193 0.09288110664756495
0.03642981143987405 0.06356403029122433 0.7707027763992766 0.1155997898206458
0.051498249118442356 0.08810958042322944 0.7183525092046094 0.0671913157200332
0.0482940227939124 0.09351900445578133 0.6982979814576866 0.0854042143028106
0.05440538800134131 0.10117319214486062 0.670872499040915 0.09290176067866136
0.04036185378570725 0.0844776990164798 0.7171830707498188 0.09166077027572149
0.04308135692420424 0.09507548862781116 0.6838016854663003 0.10464029682346872
0.04692521009386682 0.1013775668053795 0.6629263514894123 0.12115894109328341
0.04875523005071944 0.10427093769109991 0.650584422839203 0.12558735482455652
0.04064961629375485 0.09912731623550035 0.6545496434292387 0.1420215295538734
0.03932292221556332 0.08821993448895174 0.665793826018406 0.11802653052123427
