x y z curv
43.546192902005735 276.3200221894979 2238.692064853086 0.05727625665915081
43.617413699648935 276.4068452076112 2238.692064853086 0.02748402370284633
43.57619839862319 276.32505748248906 2238.692064853086 0.14626789419280292
43.54413862682037 276.3322153780224 2238.692064853086 0.03516940933592471
43.537499061045956 276.3569516154567 2238.692064853086 0.02849385731754815
43.53521015753521 276.2912675909565 2238.692064853086 0.025111670574262484
43.561052667528116 276.32107317370594 2238.692064853086 0.1215828087874205
43.60355554774378 276.3775247592779 2238.692064853086 0.027220148948301517
43.58942727826525 276.3807108521413 2238.692064853086 0.026298248292370305
43.54158604905641 276.40303136870176 2238.692064853086 0.02802221895010127
43.51774366625029 276.4051425536802 2238.6920648530863 0.03723532603198937
43.53761639854578 276.41802656053244 2238.692064853086 0.03212300897598731
43.61651283870803 276.38799470055966 2238.692064853086 0.028487219869702513
43.56457448137451 276.39410064744527 2238.692064853086 0.024992703852011734
43.57588260311551 276.37009908440257 2238.692064853086 0.03468896184601602
43.54523739699199 276.30485976419817 2238.692064853086 0.036670378569551264
43.58199390159854 276.4024636405799 2238.692064853086 0.02701702965967316
43.60451633578361 276.4060897501384 2238.692064853086 0.02983718146167255
43.54551392426829 276.3795847073498 2238.692064853086 0.026743483709878474
43.5510843714724 276.35758640282836 2238.692064853086 0.031742242733526355
43.58717820200819 276.3559261102017 2238.692064853086 0.05875586738811946
43.619242025008006 276.41756929519306 2238.692064853086 0.03174730568446261
43.52437390660212 276.26631023180823 2238.692064853086 0.03306684722220416
43.51546246970404 276.42239580975905 2238.692064853086 0.04587629949417204
43.590257350679764 276.4165520779514 2238.692064853086 0.029600973375988895
43.5251237980518 276.3495842479066 2238.692064853086 0.029156930541088828
43.60170761687788 276.4274112715019 2238.692064853086 0.033253821194889004
43.51654689910994 276.39284775414865 2238.6920648530863 0.03258151026015623
43.57038398534327 276.3073320605605 2238.6920648530863 0.10427702292690824
43.57159919399582 276.42925767046495 2238.692064853086 0.03694289278215343
43.56308516285665 276.33508688960717 2238.692064853086 0.10036117108071116
43.60528153804836 276.41698128350157 2238.692064853086 0.03136708302602376
43.52580330085844 276.31109645080033 2238.692064853086 0.02949532495723619
43.55065656971586 276.3934102722939 2238.692064853086 0.027929131485545954
43.55187914063208 276.28913357851656 2238.692064853086 0.03484249212918608
43.5641674338531 276.36917205142623 2238.692064853086 0.031038041351839928
43.538833913020184 276.26053589605425 2238.692064853086 0.028587426234043502
43.57364664984438 276.34221917805064 2238.692064853086 0.06474247057574004
43.529709842761655 276.391502640768 2238.692064853086 0.027220292680063887
43.54455595591123 276.3442322152172 2238.692064853086 0.035550819352301886
43.528133319873 276.2558083348014 2238.692064853086 0.031022182970548283
43.52467529263636 276.2846021074006 2238.692064853086 0.032056417843328376
43.53482843290041 276.3200146205799 2238.692064853086 0.03642195213387125
43.55066998240876 276.41375721486594 2238.692064853086 0.028446702560359905
43.638920995977216 276.38119304939613 2238.692064853086 0.03049119844379111
43.60684602162092 276.32542756819464 2238.692064853086 0.08329325706106713
43.601844047063 276.2808817514447 2238.692064853086 0.032924003836362695
43.59344625863446 276.30863470427045 2238.692064853086 0.10399300074956568
43.648789921322326 276.27187981752644 2238.692064853086 0.0354150882705933
43.54252486144843 276.22409624781585 2238.692064853086 0.02852078942370823
43.59016558876969 276.2856944644593 2238.692064853086 0.06479773775805071
43.5975914205856 276.33459389491713 2238.692064853086 0.08648660392816397
43.613288648688496 276.2552190930366 2238.692064853086 0.02570147566095892
43.6142925805681 276.27802402683204 2238.692064853086 0.026421630607742847
43.61729348786875 276.35258450812887 2238.6920648530854 0.03296947971957336
43.63368450962202 276.22374860339767 2238.692064853086 0.040016963798287265
43.61218994031534 276.3400497515641 2238.692064853086 0.05912181727866304
43.648102185554045 276.2394537889263 2238.692064853086 0.044914726924459136
43.61251108754165 276.37026029528215 2238.692064853086 0.0264947907681846
43.60548582136361 276.35236036087974 2238.692064853086 0.037296785988869686
43.55141342235123 276.2343607555102 2238.692064853086 0.026684301318762756
43.6075915558812 276.2263808587194 2238.692064853086 0.033583861429105175
43.61133797281785 276.2970950509639 2238.692064853086 0.054684969053822724
43.54682897758759 276.2498671532394 2238.692064853086 0.025510480974930805
43.586708416550756 276.2417014717949 2238.692064853086 0.02682759326625075
43.63315171784474 276.29614304315794 2238.692064853086 0.03035267471910595
43.64922149878693 276.3467568839389 2238.6920648530854 0.0365435015307663
43.62703715853884 276.2540424990143 2238.692064853086 0.030363348524987555
43.63689300590155 276.2439891373247 2238.692064853086 0.03670277443257989
43.63880052033345 276.3955183650578 2238.692064853086 0.028517520445796935
43.5508276273286 276.27134751664005 2238.692064853086 0.028346761113106578
43.641594886632944 276.2804701340257 2238.692064853086 0.031825866231426726
43.57293554381131 276.25935370047955 2238.692064853086 0.027691517865340114
43.57507349047373 276.2864184843347 2238.692064853086 0.07161460439435076
43.595419592150975 276.22894855835773 2238.692064853086 0.02782579414311069
43.5234391646096 276.217520231981 2238.692064853086 0.044825560759293594
43.58609113785726 276.2987011722201 2238.692064853086 0.09132268792776896
43.647505164170184 276.3361617035767 2238.6920648530854 0.04237996974766579
43.56930930636085 276.27168407046435 2238.692064853086 0.028770212836063996
43.62751647206773 276.36764711601774 2238.692064853086 0.030355554190765577
43.5798709500217 276.267972071941 2238.692064853086 0.028146174145673376
43.625399926057625 276.323549307547 2238.692064853086 0.03264479119716216
43.64905582153406 276.2961610557923 2238.6920648530863 0.031787050079438606
43.599177820713194 276.2654275107129 2238.692064853086 0.02618177789434735
43.57412461885738 276.24423677323983 2238.692064853086 0.02654385871880818
43.61373302859462 276.2144911970347 2238.692064853086 0.0367846678887129
43.58179032481203 276.22391088639563 2238.692064853086 0.02980910026247144
43.625741833343675 276.3810196206231 2238.692064853086 0.029667898413247247
43.64483053219781 276.2194891239127 2238.692064853086 0.048060822685440326
43.552509812751495 276.2603036000039 2238.692064853086 0.02806042760647941
43.6188446220444 276.2421573096361 2238.692064853086 0.030566815553765354
43.56349497487719 276.2526042231147 2238.692064853086 0.026034573199030416
43.62879378672734 276.28387621429715 2238.692064853086 0.02790132979723631
43.561765690506675 276.2295878731903 2238.692064853086 0.0314936702402182
43.63172848919129 276.2655545104315 2238.692064853086 0.029703386451443905
43.62426894619453 276.33588836628286 2238.692064853086 0.03424232452257486
43.634860238645444 276.34931381667144 2238.692064853086 0.033371321320348736
43.587422500540704 276.32952226839285 2238.692064853086 0.10883282168368133
43.64974959116967 276.36412931154234 2238.692064853086 0.03842230761086139
43.52617876592889 276.23619122576804 2238.692064853086 0.03193355881652623
43.616490833788234 276.30734604547837 2238.692064853086 0.04881721712981972
43.60011775398113 276.2154430625254 2238.692064853086 0.036517629988999996
43.64971006562175 276.25084859496747 2238.692064853086 0.04017114281983651
43.62971886781072 276.311240816324 2238.692064853086 0.027336504101604767
43.61649150962775 276.4255029088878 2238.7015648530855 0.03315237980926407
43.610369595110924 276.40471825091134 2238.7015648530855 0.02848379666211448
43.53700321687884 276.39624465006557 2238.7015648530855 0.027595665603654153
43.516176276646824 276.2838790264484 2238.7015648530855 0.031079138770643694
43.57651202658233 276.40402355063975 2238.7015648530855 0.028385944453322282
43.60743328703932 276.369324721048 2238.7015648530855 0.027162813068161915
43.52698257045679 276.4104237859883 2238.7015648530855 0.03653737201765061
43.554044947492486 276.28163098529774 2238.7015648530855 0.04618699695741826
43.63528174760321 276.411471537974 2238.7015648530855 0.03750715551434431
43.513156855973584 276.40915002044403 2238.7015648530855 0.04352754893615582
43.58380817770958 276.42390930626476 2238.7015648530855 0.03166992318516246
43.52301180864627 276.3415681721521 2238.7015648530855 0.031313746164281474
43.57414291473767 276.35055558955463 2238.7015648530855 0.10900661040069899
43.60147076089027 276.3820696198457 2238.7015648530855 0.02818514898830617
43.535633400295424 276.2827602357314 2238.7015648530855 0.027940870178211098
43.62125414234661 276.39398747131355 2238.7015648530855 0.029490689977702378
43.5532491782881 276.37595841362844 2238.7015648530855 0.026141149664852457
43.575666123947215 276.36169951887604 2238.7015648530855 0.047672865322006874
43.51736234313043 276.3044022938453 2238.701564853086 0.03172848139412307
43.563197765529935 276.3508143428485 2238.7015648530855 0.08400916049538665
43.591335820955166 276.39698370092515 2238.701564853086 0.02541276435125541
43.567534177619194 276.4264167288858 2238.7015648530855 0.03695867411465918
43.512013231203994 276.2617697917801 2238.7015648530855 0.03707489981126381
43.565663963673245 276.3004638495913 2238.7015648530855 0.1087339855835624
43.58837545773581 276.3642267885575 2238.7015648530855 0.04875880101721626
43.57168234403009 276.41535606605356 2238.7015648530855 0.030408844003958695
43.51820322078536 276.2257577187603 2238.7015648530855 0.043316251851570196
43.530737713988636 276.3544702375548 2238.7015648530855 0.03146954269794159
43.557284337694014 276.32776123712387 2238.7015648530855 0.11723467396309081
43.526471973225306 276.2977781043925 2238.7015648530855 0.029709646292552707
43.52595415849573 276.247492819805 2238.7015648530855 0.02820682276372665
43.553827581299394 276.40578412067043 2238.7015648530855 0.028689658954003595
43.51357105616958 276.32301386733343 2238.7015648530855 0.02730004414623741
43.544830530263226 276.3637292405218 2238.701564853085 0.029909017793363746
43.529755367358106 276.36715609583007 2238.701564853085 0.02920904871166961
43.534096730737375 276.2715139416886 2238.701564853085 0.0302740134502715
43.5566185566777 276.34014766252665 2238.7015648530855 0.08906218605218523
43.519641618658994 276.27188004344725 2238.7015648530855 0.03312743503241776
43.559497975838866 276.39329521112165 2238.7015648530855 0.025805989103217682
43.51088155991622 276.3974131212375 2238.7015648530855 0.03539209303199649
43.56010632917769 276.41608860929193 2238.7015648530855 0.02986115265345236
43.58973490887673 276.3754775912634 2238.7015648530855 0.03382018061103217
43.55848167709545 276.3117869605414 2238.7015648530855 0.11307827781145333
43.51916259883001 276.35603820347325 2238.7015648530855 0.035715323727999834
43.53404515054558 276.32725135903615 2238.7015648530855 0.06469720436837867
43.55322507403088 276.29707935704744 2238.701564853085 0.08843587180480057
43.5761983861687 276.3892012780044 2238.7015648530855 0.025655745434770283
43.538930858035606 276.3741822263013 2238.7015648530855 0.027173765364323303
43.538407087566455 276.33714485315636 2238.7015648530855 0.06056753845082513
43.53992756631112 276.38579574356856 2238.7015648530855 0.0294362345390402
43.55036918368035 276.42202516334424 2238.701564853086 0.031235671412923858
43.62422535737326 276.4137364163762 2238.7015648530855 0.03159408658842395
43.55876477410626 276.3641861156436 2238.7015648530855 0.048604755484346444
43.59473086681011 276.41033474248644 2238.7015648530855 0.02860390293354918
43.61367889601995 276.38215234962456 2238.7015648530855 0.02900803792312992
43.526031784574776 276.37960469722617 2238.7015648530855 0.031240294879505907
43.531318574055646 276.31185111255354 2238.7015648530855 0.036309325735177284
43.62857652354898 276.42941376355276 2238.7015648530855 0.04408034280082631
43.599598255778744 276.244069483917 2238.7015648530855 0.026632313527682677
43.600052734957735 276.3506999144133 2238.701564853086 0.0691154789997998
43.626267956751576 276.36161992970506 2238.701564853085 0.02714154829417405
43.642995888364666 276.33157590851164 2238.7015648530855 0.032513338147016964
43.606816043647115 276.30758815723146 2238.7015648530855 0.11963484303782249
43.6447096867355 276.3527691456879 2238.7015648530855 0.03313083048484934
43.57944345996678 276.2960199538413 2238.7015648530855 0.11535866379938906
43.538685348289754 276.2421279538451 2238.7015648530855 0.02774328264516657
43.64862270257501 276.2568557818927 2238.7015648530855 0.03954868112512504
43.59885125816801 276.2873019189884 2238.7015648530855 0.07263037629530493
43.58017211494416 276.244812596355 2238.7015648530855 0.027016784604121317
43.567749914975664 276.24177424057905 2238.7015648530855 0.030160866696259236
43.63218186040576 276.397099526069 2238.7015648530855 0.029435712505634405
43.599952635707716 276.2980590524363 2238.7015648530855 0.11549785103000929
43.64106528279846 276.23958094035214 2238.7015648530855 0.04078322749739875
43.623262152853016 276.2869946256352 2238.7015648530855 0.03242346965047507
43.649682036193255 276.40689987000246 2238.7015648530855 0.044308607547973854
43.63204251186384 276.3258165991982 2238.7015648530855 0.03817012107961706
43.62602793827742 276.2710715952436 2238.701564853085 0.02782055425668659
43.63548210831189 276.3397493916384 2238.701564853085 0.031913603599488645
43.626982832968295 276.2309839843219 2238.7015648530855 0.03631534055556674
43.56639551829772 276.2240614542023 2238.7015648530855 0.030854317361595204
43.6305063690062 276.2161396749697 2238.7015648530855 0.05006082153148566
43.59902961511864 276.2574211419695 2238.7015648530855 0.02488267859598053
43.64701372691408 276.381388541624 2238.7015648530855 0.03288687868916466
43.571131648200726 276.27869671115263 2238.7015648530855 0.05859245505427995
43.63835767203517 276.27481548212603 2238.701564853086 0.029103068916689828
43.5556948906359 276.2504346787262 2238.7015648530855 0.02842648317461741
43.61426422596189 276.3262808888802 2238.701564853086 0.07833773619353189
43.53766766462305 276.25373708764346 2238.7015648530855 0.025828580907222058
43.55159291275288 276.22682006660045 2238.7015648530855 0.028848987017109612
43.6286203501212 276.3047166195943 2238.7015648530855 0.03279371774868064
43.583525981006794 276.2606654723046 2238.7015648530855 0.026326417523071216
43.530048131447664 276.2192777855348 2238.701564853086 0.03705912934565502
43.5840888597835 276.2142473508175 2238.701564853086 0.03555653446420688
43.602223709669346 276.3295583178565 2238.7015648530855 0.11663261604871648
43.61317096220309 276.22690306507485 2238.7015648530855 0.03316423944543928
43.60729007274407 276.2143563542098 2238.7015648530855 0.034328394260208554
43.5391685662635 276.2282795811602 2238.7015648530855 0.031116539309545613
43.62267231983749 276.34225321972315 2238.7015648530855 0.05525579809515724
43.64847747733664 276.31949300304944 2238.701564853085 0.036662174312764334
43.632844759282534 276.37892749048865 2238.7015648530855 0.02982947292738614
43.638091221239925 276.22825819497996 2238.701564853086 0.04627944047428045
43.519497875600386 276.2136782185028 2238.7015648530855 0.053643174080648
43.590723424024645 276.2769955674788 2238.7015648530855 0.057670291571655916
43.612926434306495 276.2625563393516 2238.7015648530855 0.025945561387100625
43.559477231766195 276.2622001892463 2238.7015648530855 0.026210433342187908
43.63045327501659 276.244409009963 2238.701564853085 0.031065653764088662
43.618327144077895 276.24864888907416 2238.701564853085 0.025550626258994423
43.64748976358763 276.2136579819486 2238.701564853085 0.06449078921365603
43.61116572240023 276.28697896628483 2238.7015648530855 0.05987336086613072
43.63773274556477 276.3640201992083 2238.7015648530855 0.032108192951329446
43.5833936819934 276.3242607782398 2238.7015648530855 0.1982877601610859
43.637698968200844 276.2594776668511 2238.7015648530855 0.03259421534548037
43.58997513971761 276.23152587879304 2238.7015648530855 0.028249706179312106
43.54071554946851 276.7143524414067 2238.42295200343 0.16110464075623096
43.5407155494685 276.713092114637 2238.4713839076057 0.15993126072788563
43.540715549468516 276.7090634736156 2238.4605337442404 0.1314137128827591
43.58535894471186 276.7082621102576 2238.434065777676 0.23418666553973697
43.55292560059418 276.7082621102576 2238.457169876291 0.1757147787537237
43.54451603409743 276.7082621102576 2238.4389133239806 0.1401954485225223
43.56719182653537 276.7082621102576 2238.429010689158 0.22087846019977395
43.589238711440906 276.7082621102576 2238.4154720931465 0.15475204844481202
43.55269120031233 276.7082621102576 2238.425719723791 0.18127484708789843
43.60382616047972 276.7082621102576 2238.4711376258074 0.15721600613470157
43.56613686506727 276.7082621102576 2238.461993525357 0.1739808860186047
43.610449602160614 276.7082621102576 2238.460083907561 0.14864721197061592
43.60822973123107 276.7082621102576 2238.425159272868 0.2061394076975946
43.57885874561036 276.7082621102576 2238.4664486202632 0.16077374743590983
43.59767892406517 276.7082621102576 2238.437537464181 0.217458514876589
43.6207155494685 276.71088496711735 2238.4526103545913 0.14326145979652244
43.62071554946851 276.7083672294716 2238.431871678762 0.13900183780181966
43.62071554946851 276.7108116107986 2238.4171859242306 0.13797635861093063
43.62071554946851 276.7193523975101 2238.4244523277985 0.1404392864145871
43.62071554946851 276.7217747783504 2238.4385471664314 0.11965992247227783
43.620715549468514 276.7189395191266 2238.4635201194924 0.132842080444429
43.59449457128593 276.7242621102576 2238.4267946319546 0.14102719372171132
43.60983744995791 276.7242621102576 2238.4170149782017 0.15125776254181098
43.581692963074346 276.7242621102576 2238.4271205000923 0.15017153485676268
43.603808471069655 276.72426211025754 2238.449639570897 0.10219715195273958
43.572138368558385 276.7242621102576 2238.4154678175587 0.14835595772733293
43.56615596071424 276.72426211025754 2238.432429304529 0.16854458340732603
43.59307127075928 276.7242621102576 2238.4454674226295 0.14806132729695276
43.60966392386199 276.7242621102576 2238.4350542960165 0.11782446424902418
43.557695788459014 276.7242621102576 2238.45109038031 0.11839619790389778
43.546881157166155 276.7242621102576 2238.455151019307 0.14248503489740294
43.54706078362827 276.7242621102576 2238.4184228214476 0.18810398038848467
43.586580726982014 276.7242621102576 2238.4655286090388 0.12699437847049797
43.55464292792082 276.7242621102576 2238.4284766757023 0.12439996760115792
43.56886307888625 276.7242621102576 2238.445450620394 0.1191232510722891
43.542249506866185 276.7242621102576 2238.4390511877837 0.098459264892419
43.61098699539328 276.7242621102576 2238.467915224319 0.14854504040671004
43.581779018218604 276.72426211025754 2238.4479095261504 0.15372762888818345
43.57248073720464 276.7242621102576 2238.460799921534 0.11902207934927919
43.54324957025469 276.7242621102576 2238.4716292762805 0.15417831803018878
43.558995022254706 276.7242621102576 2238.462977901224 0.13930538083095464
43.55961675948678 276.721900498496 2238.413494784726 0.1413931716303686
43.549607043524006 276.7115959524789 2238.413494784726 0.1868402362399215
43.598515153640385 276.7145355139982 2238.413494784726 0.18903635134324323
43.62071175967786 276.7236479598873 2238.4134947847265 0.14723112465814636
43.56709308364118 276.72270019602627 2238.4734947847264 0.1468629747666101
43.59574433071173 276.7217337456524 2238.4734947847264 0.12897372907101332
43.55471869194099 276.72157643100593 2238.4734947847264 0.17798722294308014
43.584180788628004 276.7157539430576 2238.4734947847264 0.1486333338671443
43.598215549468506 276.641000341025 2237.981172944562 0.19877600355027486
43.5982155494685 276.6209409863472 2237.9835559641183 0.20492437079043285
43.598215549468506 276.639211482229 2238.001503987117 0.20977349435623233
43.598215549468506 276.6283983224721 2237.9969816252024 0.18874500058330362
43.612105484935164 276.61646210720585 2237.9807890566126 0.15822476078643768
43.62385777287072 276.61646210720585 2237.9853042038276 0.19069549520501422
43.601114003418836 276.61646210720585 2237.994437834282 0.18962169531022596
43.63082620985917 276.61646210720585 2237.9763347150542 0.11920086452019756
43.61196156062544 276.61646210720585 2237.9933053313225 0.17910881609500667
43.616685930676965 276.61646210720585 2238.0038718569017 0.20029894338840926
43.64217562327952 276.61646210720585 2237.98326444984 0.14402885517014202
43.63505284464849 276.61646210720585 2237.9963723600054 0.17572845659036762
43.64621554946851 276.64267432979415 2237.978567866817 0.15258836252047592
43.64621554946851 276.64108393348823 2237.989615157799 0.17698483701762333
43.64621554946851 276.62951714090116 2237.9977440953026 0.19373431644599418
43.64621554946851 276.6200807571763 2238.006144080898 0.11749682061846795
43.64621554946851 276.63802029588203 2238.0064460588105 0.16172602011778245
43.64009927627156 276.6514621072058 2237.973208079606 0.13484475380412603
43.631978700705524 276.6514621072058 2237.9834780648785 0.1883444067512543
43.63523313492247 276.6514621072058 2237.996932373155 0.18751757813813064
43.610302445930934 276.6514621072058 2237.981127629785 0.1873453760689742
43.613436127555836 276.6514621072058 2238.004701588386 0.17845281831659152
43.61463154539054 276.6514621072058 2237.992615640474 0.19921517976496594
43.601120390764095 276.6514621072058 2238.0035820794524 0.21861548662129146
43.61007407244998 276.6320292356864 2237.972244784726 0.19404574508622308
43.613763359096566 276.64446367468486 2237.972244784726 0.1868814941171266
43.625205567045086 276.64814822193864 2237.972244784726 0.1684137176889731
43.644864470598485 276.62004388442875 2237.972244784726 0.13339986041867186
43.628966094890906 276.6509543522893 2238.007244784726 0.15601913273923831
43.6089749090108 276.6355053522058 2238.007244784726 0.2259869417445773
43.61961298928453 276.6405269077852 2238.007244784726 0.21913207791663886
43.642941777310355 276.6511593654646 2238.007244784726 0.12450710715480029
43.606985804860166 276.6213959035044 2238.007244784726 0.23346979958201639
43.62834320636 276.61823775868515 2238.007244784726 0.1594419644585158
43.63513301429651 276.6264424938485 2238.007244784726 0.17963778071332567
43.61842880662322 276.6282974386138 2238.007244784726 0.23244300308072643
43.61011554908704 276.62745652494226 2238.360484963673 0.14803838191359375
43.61011554908704 276.6329422823847 2238.375227767339 0.18263281955739022
43.61011554908704 276.6386037337568 2238.4904532480723 0.14990745097193306
43.61011554908704 276.63494541757416 2238.4360764463995 0.15007075536354805
43.61011554908704 276.6310921395774 2238.395635121682 0.14570155576764024
43.61011554908705 276.6364850428296 2238.511499454381 0.13440614299345857
43.61011554908704 276.63909630957664 2238.4488983103324 0.15880617344835243
43.61011554908704 276.6284013459816 2238.407354491271 0.13321524502308787
43.61011554908704 276.628725268269 2238.5260263622877 0.12246436284726618
43.61011554908704 276.62547987201117 2238.547999898038 0.14918563668161158
43.61011554908704 276.62529624189517 2238.486667516414 0.15273044399108635
43.61011554908704 276.6262611326918 2238.428701121952 0.1246366023845612
43.6319825265885 276.6243621163611 2238.4028807730583 0.07951326773612315
43.61944001935211 276.6243621163611 2238.435075065294 0.08001739344236601
43.6354832162681 276.6243621163611 2238.364835747237 0.07166439914943905
43.62744026202669 276.6243621163611 2238.4259521398485 0.07727542794338645
43.612865936264434 276.6243621163611 2238.4619673891825 0.11239664941425305
43.61260557416761 276.6243621163611 2238.447152667155 0.1239918575192142
43.63504846237237 276.6243621163611 2238.378887663875 0.0656289687414438
43.62269762641914 276.6243621163611 2238.413035356898 0.09936043333558754
43.62640460727975 276.6243621163611 2238.387905326968 0.07589612473293957
43.62652554072368 276.6243621163611 2238.445665825632 0.08413088052057363
43.61377345902236 276.6243621163611 2238.387779047744 0.1161146005977944
43.61900103070179 276.6243621163611 2238.399496749166 0.09993162497877943
43.61076715310282 276.6243621163611 2238.5085395042247 0.11637408083025597
43.61633909956232 276.6243621163611 2238.3733858227947 0.1153174337859725
43.63423189486982 276.6243621163611 2238.551470053015 0.0982346384953246
43.62540247629636 276.6243621163611 2238.4888938440527 0.08310943759794796
43.64299677334846 276.6243621163611 2238.4300050217516 0.08607297408118567
43.62629720423844 276.6243621163611 2238.5262293861583 0.08209465891306372
43.63878776777244 276.6243621163611 2238.5317675349397 0.09253285894096636
43.617830409003204 276.6243621163611 2238.537078440151 0.10561674253411531
43.63354346175723 276.6243621163611 2238.506502624592 0.07470902084696229
43.626843110200966 276.6243621163611 2238.4769134168137 0.08588880283113967
43.64352237710942 276.62436211636106 2238.4979605992935 0.08370345741656038
43.631617753259235 276.6243621163611 2238.4566055432333 0.06712797137402438
43.6234306108132 276.6243621163611 2238.550047595449 0.13304911981413717
43.64459562067009 276.6243621163611 2238.5438390863037 0.12208625784288266
43.64400136222135 276.6243621163611 2238.515979005717 0.07240415626615493
43.63451632245759 276.6243621163611 2238.417432303604 0.07771245424216819
43.64521370024179 276.6243621163611 2238.4481250915082 0.07158561807297288
43.64531554794263 276.6298164788918 2238.410075441904 0.08143726345646805
43.64531554794263 276.6302725217607 2238.3949372463767 0.07782373248613611
43.64531554794263 276.6315849398992 2238.3752849443526 0.0846944446980435
43.64531554794263 276.63189523621344 2238.3608817298773 0.0915829428372671
43.64531554794263 276.628068470897 2238.4788702127385 0.08418037490212006
43.64531554794263 276.6257035853844 2238.385097375686 0.0867475675724037
43.64531554794263 276.63665506744906 2238.425031349527 0.0912378419574367
43.64531554794263 276.63950502097674 2238.4683211174283 0.09896783404721055
43.64531554794263 276.6292648541917 2238.5537556518 0.15782668461176688
43.64531554794263 276.6333115045385 2238.457175358018 0.0913911605285272
43.643559079007304 276.63956211330935 2238.517830770434 0.07858550856147146
43.63867452753594 276.63956211330935 2238.4811456567268 0.07439984755729778
43.63140121760331 276.63956211330935 2238.4249523233557 0.06156946808305069
43.6363176317 276.63956211330935 2238.5009563147228 0.06944732993003652
43.63448691686767 276.63956211330935 2238.3595840773464 0.06749220995346644
43.634792441565075 276.63956211330935 2238.402768754322 0.0697942175958768
43.630955173532655 276.63956211330935 2238.4439156378303 0.06513752823766432
43.63446076450249 276.63956211330935 2238.384255689194 0.06582633118867956
43.63362170496362 276.63956211330935 2238.465094735684 0.07260481969687703
43.620432046410556 276.63956211330935 2238.355372333319 0.14455910720496984
43.640439095455655 276.63956211330935 2238.4152108281282 0.07729407081566872
43.63903548705451 276.63956211330935 2238.3696883821904 0.06880552971132624
43.6235574363524 276.63956211330935 2238.3894174457882 0.09645010826962844
43.622528036190594 276.63956211330935 2238.3752588288453 0.13529995789637006
43.625419572926546 276.63956211330935 2238.4128426749476 0.10001181008295651
43.61016879023069 276.63956211330935 2238.415010109514 0.1387468187726803
43.617085182530246 276.63956211330935 2238.4044298918134 0.12218560269528
43.61559196057363 276.63956211330935 2238.545254213719 0.14779839176182985
43.63903992160886 276.63956211330935 2238.5310439558666 0.08819993076093394
43.628165169585955 276.63956211330935 2238.5526777043315 0.13590802184862677
43.61335886151764 276.63956211330935 2238.460095649011 0.12140005858059197
43.61429417686287 276.63956211330935 2238.5274915600207 0.12552639277974598
43.63448160916179 276.63956211330935 2238.541536562815 0.09877084509525454
43.61067725071043 276.63956211330935 2238.475377041117 0.13052339149163208
43.62648156057693 276.63956211330935 2238.4924446894947 0.08949871572638206
43.6435257920367 276.63956211330935 2238.549311023065 0.14364182138563172
43.62167492793535 276.63956211330935 2238.435461255622 0.10292405287294833
43.61124372110586 276.63956211330935 2238.38505121453 0.17269026098048984
43.61395517271868 276.63956211330935 2238.501566792076 0.12764204515736502
43.62941126727422 276.63956211330935 2238.510533199601 0.07985150026492714
43.62726338423515 276.63956211330935 2238.479246414552 0.07454489863881665
43.625784230485294 276.63956211330935 2238.5309641018703 0.09994317184678032
43.61675739005132 276.63956211330935 2238.424103202091 0.12543976384800917
43.61906245841884 276.63362833154525 2238.555744784726 0.14854501732677056
43.54071554946851 276.7152717220681 2237.1797503718108 0.14003951786820107
43.540715549468516 276.7126580563588 2237.2118595955503 0.14365115622994173
43.54071554946851 276.71321595946847 2237.193928475937 0.13735604764937423
43.55221440691374 276.7099621072058 2237.194807295285 0.15505512047781322
43.597256608628484 276.7099621072058 2237.1669342165114 0.14684392979839678
43.58309112510068 276.7099621072058 2237.166240812919 0.15145392001430386
43.555053898710504 276.7099621072058 2237.206827148035 0.19830273538408655
43.5510796417315 276.7099621072058 2237.17636348563 0.16314843671786644
43.56455063168756 276.7099621072058 2237.1777292241777 0.17491396794620104
43.58094426781227 276.7099621072058 2237.1952462919294 0.23811314646703444
43.602565249985 276.7099621072058 2237.178746944201 0.2010766246447477
43.60434147676266 276.7099621072058 2237.1922894308755 0.17912839747427334
43.614365319303474 276.7099621072058 2237.1741071145448 0.14698899821931402
43.583240373726895 276.7099621072058 2237.2251425709746 0.19493543456837822
43.564459131057234 276.7099621072058 2237.2128005015757 0.18478886681263246
43.55905499593788 276.7099621072058 2237.2255826045157 0.17926316696638328
43.57203818272113 276.7099621072058 2237.2254963187775 0.20183884362388377
43.60381182353498 276.70996210720585 2237.213950124139 0.21536197355613673
43.59479758845573 276.7099621072058 2237.2234282616696 0.20775156276406934
43.572356323464234 276.7099621072058 2237.2039506005776 0.20765575500342873
43.62063678145833 276.7099621072058 2237.190969900375 0.13067171070285935
43.6081598528821 276.7099621072058 2237.20318878737 0.17716954965498863
43.6207155494685 276.71570775879525 2237.1677757210123 0.13748386533016493
43.620715549468514 276.7237105197681 2237.177206694462 0.1192798892635871
43.620715549468514 276.7159528193446 2237.209963027076 0.1511229536608236
43.62071554946851 276.7248439221784 2237.1921532717456 0.08143567206051516
43.60411524961266 276.72596212246464 2237.191599107056 0.12303885532691068
43.60663118395311 276.72596212246464 2237.20646106809 0.12256063837707651
43.59640093272142 276.72596212246464 2237.1788808668384 0.14037300321815557
43.5909630493635 276.7259621224646 2237.194606715462 0.12118280017402655
43.57807854796675 276.72596212246464 2237.190258905057 0.1410705913200544
43.574160630362464 276.72596212246464 2237.167683246751 0.12078715794744245
43.564975717859866 276.72596212246464 2237.182078639593 0.1578187641148738
43.610267582238144 276.72596212246464 2237.176527929182 0.13340612610022795
43.55238374471354 276.72596212246464 2237.200111432615 0.10207695077712418
43.568141668939404 276.72596212246464 2237.197489151974 0.1430830107928902
43.58378364111016 276.7259621224646 2237.2153148981415 0.13410899328643727
43.54119251435497 276.7259621224647 2237.1857618972513 0.11835237829508025
43.541173705456586 276.72596212246464 2237.2248080969034 0.12168531649429117
43.613149726475214 276.72596212246464 2237.2247083749307 0.10150971829720008
43.57032258953845 276.72596212246464 2237.209881310062 0.11907765051948538
43.54190493010442 276.7259621224647 2237.169297120415 0.1329737432197907
43.59133596177722 276.72596212246464 2237.206388907131 0.1504221018067359
43.545840538760295 276.72596212246464 2237.213620411044 0.12215757287896284
43.5519646416484 276.72596212246464 2237.1758600795833 0.12832826802694777
43.59541686835864 276.72596212246464 2237.2180053657253 0.154958674980021
43.57991544321746 276.72596212246464 2237.2035947452646 0.142583133771603
43.543903012223126 276.7144471765753 2237.16614480914 0.1334954629702767
43.55556725503818 276.71945487785473 2237.16614480914 0.14810442934903456
43.59127544117756 276.7192753810514 2237.16614480914 0.16204830413009477
43.60883103021033 276.7162648494381 2237.16614480914 0.17851823181850246
43.56690712416483 276.7126755382542 2237.16614480914 0.16136240171058916
43.57370851373583 276.72460406898614 2237.2261448091404 0.1211384219919546
43.55349228977925 276.7225179981708 2237.2261448091404 0.16927439752960788
43.58708124499375 276.7210671453454 2237.2261448091404 0.12440143819542143
43.6188549322979 276.7159831460199 2237.2261448091404 0.14188245312969233
43.54503077532743 276.71001814857027 2237.2261448091404 0.1187491042806476
43.573465339728756 276.65006211330933 2238.442142247592 0.18608083935230224
43.5757035778518 276.68000469026686 2238.455777368943 0.11732020142736702
43.59080976163842 276.68583147834295 2238.4522311806495 0.1796715089141021
43.59163773421557 276.69572961404356 2238.435766034725 0.21363247754500544
43.59134593440174 276.6847419104856 2238.435450214492 0.15400133354284376
43.582992984588245 276.70149086755896 2238.456765869335 0.21468444859805777
43.592225942487396 276.70033300367686 2238.4501298042487 0.243160305868714
43.59290418741743 276.7123771018117 2238.4487043898844 0.22006671566651012
43.58271914876276 276.69043930303593 2238.4303505919324 0.1506172814822543
43.57554059173445 276.7003459378367 2238.4313086992956 0.23422986830665823
43.57156800481118 276.68585731638007 2238.4338833751344 0.1640768762113661
43.57009958431257 276.69390701104544 2238.451555054183 0.18431407586345547
43.567805356527074 276.70250077088997 2238.4398017373755 0.2272433613629294
43.574212820766675 276.7128621163611 2238.442556837501 0.2100315357866207
43.575123604362 276.7128621163611 2238.455052105763 0.19179325883607504
43.57696350202753 276.6577652306651 2238.451654842627 0.22098644085897545
43.58307508566562 276.67114609288984 2238.4348201502025 0.1235864130887364
43.57278290449479 276.66179402081923 2238.4392925374163 0.14687471972740923
43.57449276214864 276.6680915173677 2238.449952938625 0.14834467205148172
43.58886187023991 276.65606893722236 2238.447246173511 0.22776121544649938
43.5895208388541 276.6732886282294 2238.4439578219935 0.12025266156831496
43.57244933428724 276.676411445285 2238.4401103130895 0.10539863659331054
43.58477078114322 276.6634621072059 2238.0840851920498 0.1678083155371177
43.591039859208756 276.6634621072059 2238.0745566387877 0.16444655827155255
43.57238030394321 276.6634621072059 2238.0915581684603 0.20172639565533043
43.57009659477628 276.6634621072059 2238.214198850967 0.1634708552342037
43.568480823609555 276.6634621072059 2238.1230465817966 0.11812351530931775
43.57855105072446 276.6634621072059 2238.075145437943 0.21745677009556597
43.578051767892134 276.6634621072059 2238.2262287962544 0.1807842196098515
43.58016821976766 276.6634621072059 2238.0992266555522 0.18643023589254343
43.56818783467409 276.6634621072059 2238.147359610675 0.15028009264583897
43.5781656651848 276.6634621072059 2238.131208421917 0.1855651932235405
43.57967852320766 276.6634621072059 2238.143699438874 0.1519304187909986
43.58285881339157 276.6634621072059 2238.172928243729 0.20198930582032468
43.577505335169576 276.6634621072059 2238.194993577991 0.1902237248749408
43.567505225933324 276.6634621072058 2238.0713175394185 0.14992122787041554
43.56570130468038 276.6634621072059 2238.301312947116 0.20473928474909397
43.566460233321216 276.6634621072059 2238.3434757011223 0.2091472324051728
43.56840665403397 276.6634621072059 2238.202759502888 0.1621302013551528
43.56795001616497 276.6634621072058 2238.275975664762 0.16999081919550318
43.57738009399998 276.6634621072059 2238.1603900017926 0.16166905364761333
43.56650362563152 276.6634621072059 2238.2388035830995 0.14142695449621942
43.57743942878341 276.6634621072059 2238.182938512731 0.20377847590450507
43.58200034632529 276.6634621072059 2238.1142047998724 0.1756463264578671
43.593385249333274 276.6634621072059 2238.1703809173164 0.1922177532776734
43.581279822887154 276.6634621072059 2238.248820109852 0.17198348848792305
43.59500229192313 276.6634621072059 2238.2186167844125 0.1502459658544747
43.57796484504492 276.6634621072059 2238.261027987395 0.1894948162682452
43.58267818424207 276.6634621072059 2238.2705444936537 0.18376587328157074
43.59303862841908 276.6634621072059 2238.334241355098 0.18842751678844866
43.59535832705426 276.6634621072059 2238.153954454499 0.15711424787838021
43.591044351297874 276.6634621072059 2238.260750667072 0.17705587559572428
43.57859007455248 276.6634621072059 2238.29932666189 0.22953682853519328
43.5759450574641 276.6634621072059 2238.284235005649 0.18058412277717728
43.57523857880756 276.6634621072059 2238.3111434737248 0.22004330399923616
43.583289729651845 276.6634621072059 2238.36469967581 0.20650279784024236
43.57982123550188 276.6634621072059 2238.344384413087 0.20846577860145532
43.58474123942817 276.6634621072059 2238.2088942629953 0.18311792512699757
43.58836116084612 276.6634621072059 2238.315013204546 0.23669021326185016
43.59549262727953 276.6634621072059 2238.356213201945 0.130378847836698
43.572050926135645 276.6634621072059 2238.3594426506943 0.17577176561285304
43.57960903075594 276.6634621072059 2238.3773207227478 0.21922109822874014
43.594551543219396 276.66346210720593 2238.2981167463113 0.2157064438371151
43.58703042154927 276.6634621072059 2238.232124640205 0.16858863758007178
43.59054293213468 276.6634621072059 2238.139265149808 0.1734978751415477
43.595733159173314 276.6634621072058 2238.1040136516967 0.12137644519596584
43.56691662564547 276.6634621072059 2238.380885397148 0.17094848889219766
43.59299947170579 276.6634621072059 2238.1168769328774 0.13725303946168024
43.596065559386716 276.66562559627744 2238.2502862714655 0.125112788415793
43.596065559386716 276.6644654552703 2238.2063801318104 0.1229275453504772
43.596065559386716 276.67331242303806 2238.0471639762354 0.10857348669003405
43.596065559386716 276.66885431374067 2238.127333854096 0.12652672845047164
43.596065559386716 276.66974213270714 2238.0627197849362 0.14516764387791353
43.596065559386716 276.66423891088834 2238.087572306845 0.13283474651914123
43.596065559386716 276.66595494419334 2238.2793473260067 0.15785983705057108
43.596065559386716 276.67406315046395 2238.314643041107 0.21617514413239144
43.596065559386716 276.67399923989814 2238.2410500357178 0.10010084734451506
43.596065559386716 276.66660223149154 2238.372194607981 0.13002714454432723
43.596065559386716 276.6731919936901 2238.146647644671 0.12854763880166847
43.596065559386716 276.6703762665036 2238.18581235913 0.1526854339565515
43.59606555938671 276.67440757984724 2238.361459470857 0.12468569821529571
43.596065559386716 276.6742377179699 2238.1591229055225 0.13361349820569524
43.596065559386716 276.66907088387944 2238.344486268808 0.1478531902824347
43.581370259381224 276.67446210720584 2238.0616842131612 0.16483623174786322
43.58843832766608 276.67446210720584 2238.1776597806875 0.14351141613153906
43.58457421143013 276.67446210720584 2238.132343207402 0.16590296366177404
43.56820315830076 276.67446210720584 2238.0692299823463 0.14002705479223498
43.57750552489002 276.67446210720584 2238.0863522465943 0.15100233874573712
43.59340852649639 276.67446210720584 2238.104466398689 0.11847424736526094
43.58567941787618 276.67446210720584 2238.121351046132 0.14752324294487526
43.585881346943864 276.67446210720584 2238.2600546678486 0.1507088322898116
43.57884053402695 276.67446210720584 2238.1685304807456 0.15147109708737375
43.58447176983948 276.67446210720584 2238.214370409188 0.15308237329838095
43.5869246803578 276.67446210720584 2238.2737337994995 0.15348075545944204
43.59138544639633 276.67446210720584 2238.2255920413572 0.12700158387667118
43.584169294810536 276.67446210720584 2238.249023889703 0.15408190274633768
43.585241302321265 276.67446210720584 2238.097335257271 0.15084314366272866
43.59591227325292 276.67446210720584 2238.3007329317948 0.19425107896750618
43.58501470043369 276.67446210720584 2238.074766048137 0.15121025515275524
43.580506635254594 276.67446210720584 2238.1942249066533 0.1349091787403382
43.57508799968167 276.67446210720584 2238.1174865170938 0.14105917112688282
43.5918806511886 276.67446210720584 2238.2882210837865 0.14509098242061888
43.59205547778409 276.67446210720584 2238.1969185148655 0.1417692916318739
43.59131752420632 276.67446210720584 2238.084229203988 0.1385349017422367
43.579380427865516 276.67446210720584 2238.143727478547 0.17015511448246357
43.575574028205494 276.67446210720584 2238.269872988448 0.1612069793171541
43.58884347517769 276.67446210720584 2238.324628223525 0.1814811821235073
43.57460598185908 276.67446210720584 2238.365060523047 0.14383404665230487
43.56794673150492 276.67446210720584 2238.1379196293738 0.13430016805286818
43.56973409433995 276.67446210720584 2238.3344023510845 0.15487602396431768
43.57206823299138 276.67446210720584 2238.2453168650686 0.15354452792046452
43.5807393217827 276.67446210720584 2238.2946207976024 0.1737321194491031
43.58075533314624 276.67446210720584 2238.338767797656 0.1658178802958932
43.57150426144636 276.67446210720584 2238.178802413389 0.11675161773211287
43.56744903103267 276.6744621072059 2238.2802143257545 0.1587109110083672
43.5933099775821 276.67446210720584 2238.383877624077 0.13076450310707885
43.56730587010243 276.67446210720584 2238.2997890293163 0.17224982490159743
43.57004423999647 276.67446210720584 2238.378868286584 0.16001261420518428
43.57198582481759 276.67446210720584 2238.153543689059 0.14291225230036447
43.58210316575744 276.67446210720584 2238.3559799347686 0.16653703644114337
43.56582250410444 276.67446210720584 2238.219568992717 0.09365694029656099
43.57999135317033 276.67446210720584 2238.3825867800115 0.16109472398237593
43.58525464968211 276.67446210720584 2238.3048231745142 0.1679878330813847
43.57404708683897 276.67446210720584 2238.2068296914013 0.13404150427216172
43.56823319195054 276.67446210720584 2238.1007892474895 0.12264071888962053
43.56711296359913 276.6744621072059 2238.166517773771 0.10926580496793487
43.570919402687935 276.67446210720584 2238.2312352302033 0.1286598816694236
43.5653655395503 276.6713895797875 2238.2559938634104 0.1314292303178551
43.5653655395503 276.6664878715995 2238.0597575373226 0.14370795401646455
43.5653655395503 276.6696606091229 2238.0477539758854 0.09280713379244578
43.56536553955031 276.6741558679593 2238.3467079985885 0.16041603204853627
43.5653655395503 276.6718660795202 2238.0826263100776 0.12561160882011368
43.5653655395503 276.66658291206875 2238.1100132166166 0.12116688419710195
43.5653655395503 276.66458045826846 2238.15876225019 0.11870653371512624
43.5653655395503 276.66410845196594 2238.1885270863786 0.13979940254569265
43.56536553955029 276.6653493344064 2238.3696420859637 0.15881046285463946
43.5653655395503 276.6649628308217 2238.1760183876722 0.1384922114080356
43.5653655395503 276.6728135544487 2238.3590477121525 0.16108878824790296
43.57512164397513 276.6636446568701 2238.0462447847267 0.16647080273016054
43.58184965542985 276.6719970077171 2238.0462447847262 0.14297924976367946
43.56776918136369 276.6702369561541 2238.3972447847264 0.08866750320395853
43.588294276988194 276.6706780459854 2238.3972447847264 0.1768993904221971
43.59606555938672 276.652364661817 2238.3907778605058 0.15576415165943647
43.5653655395503 276.6590434418003 2238.3927236736336 0.12109758768676515
43.57750445639583 276.6550249568063 2238.386244784726 0.22145269378424923
43.57961367156575 276.65997545534714 2238.3972447847264 0.21542547285514102
43.52867895499733 276.65396210720587 2238.322088254822 0.13831057787529671
43.52771554946851 276.6681198827913 2238.307322006989 0.1674504159406047
43.52771554946851 276.6801291161583 2238.3209392954946 0.18409104413370472
43.53355826591353 276.65458710446876 2238.307244784726 0.12991020364641823
43.537813303719105 276.6834603715771 2238.307244784726 0.144808791353823
43.54400081281308 276.6603921066734 2238.307244784726 0.23933837692221716
43.54300720524706 276.67281698380526 2238.307244784726 0.1929002785242221
43.53128719860753 276.66801159323603 2238.322244784726 0.14435713199014807
43.54128392592459 276.67504003904816 2238.322244784726 0.2087879096736755
43.543034761806425 276.6630580867305 2238.3222447847256 0.2460211804050517
43.57574837497323 276.6857469250107 2237.2084487176844 0.16440009007917955
43.57294144950813 276.6978056227787 2237.207113312506 0.21415661916742784
43.593948644495455 276.6935813945722 2237.196223554411 0.212686085561464
43.58932113396046 276.6944821187173 2237.185908679607 0.21281129896018697
43.583174832514985 276.70316480281303 2237.209347997011 0.2266358623812032
43.593992197708225 276.71225500442125 2237.19528049992 0.18640795414526756
43.5787053021613 276.6984507366842 2237.1828151974523 0.22609484880402547
43.57032825493692 276.6875297964389 2237.1876789152434 0.15248324803092858
43.567489094255876 276.68614167761683 2237.1985419341718 0.1763858761483171
43.568897955686076 276.7003377689256 2237.1901554784135 0.25334240446725464
43.592240989346166 276.68146210720585 2237.202164492326 0.13845075166098753
43.588506691800994 276.7145620980506 2237.206446484759 0.2161940572823357
43.58370144963719 276.7145620980506 2237.1854948390796 0.2057106021320094
43.57073563291568 276.7145620980506 2237.193544474575 0.16535441372029086
43.58345876012447 276.6704471220978 2237.204682861894 0.15716377617271687
43.58929498061662 276.65995202435636 2237.198762559859 0.20633362819096093
43.57933477175982 276.6732526758022 2237.1872531841113 0.13379570195674184
43.58853295901182 276.67879760380316 2237.1917398753094 0.13839821222705095
43.5804821057365 276.661936162977 2237.1873064072574 0.17784752137853083
43.57255119340195 276.652073562087 2237.199490847884 0.1958615121482462
43.57194425775232 276.66410229612757 2237.1979893945545 0.1679401706543214
43.63253612389002 276.6376820235555 2238.245562134679 0.10110910794987923
43.632447583662454 276.6377676752259 2238.2884354492617 0.1507717162893768
43.63045549906472 276.63884808179637 2238.2690429043682 0.06782522665487874
43.629840642062796 276.63914794985897 2238.2569324671094 0.08239985252564873
43.62056503630854 276.6341978404144 2238.273449055208 0.13240712390031523
43.62149877230692 276.63609710976317 2238.2943337526585 0.21560313743802748
43.62277237525903 276.6263608020439 2238.2545854616837 0.11792744054804954
43.624097445805646 276.6254789227725 2238.280363314371 0.09825384179863261
43.63372250350167 276.62750223741466 2238.251439722433 0.05006971575200602
43.63427218619074 276.6285944410838 2238.2628853681213 0.06657153177000048
43.63465055172766 276.62923150922495 2238.27895029285 0.0721107646292755
43.62143453269035 276.6358838147709 2238.2305137744793 0.15846126555542905
43.62083242817721 276.629348582066 2238.2439051369092 0.1398723960503451
43.62950797956496 276.6248290376489 2238.300842267677 0.17805550790524644
43.63379981969676 276.6278290973342 2238.229744784726 0.07801617326012397
43.62922398329535 276.63844226960174 2238.3042447847265 0.25076355421142377
43.53971554946851 276.63377001662843 2237.9740993027 0.12471275345394096
43.53971554946852 276.6494352641787 2237.9878442270624 0.15267309880506424
43.53971554946851 276.6378887239772 2237.99101351812 0.19372264029307548
