x y z curv
0.09249917234295421 0.1646379528234618 1.2204360258131264 0.047357571884090385
0.07341045949867583 0.1409307702291509 1.2246101217402467 0.04445291931202293
0.06260082125663757 0.1359213268934894 1.2338873796510275 0.0489003009343345
0.05139394947167885 0.130637861146977 1.2276125925023704 0.05188988257952774
0.08350306004285811 0.15712232633925122 1.2220429681157443 0.04622906914363175
0.07359266338403277 0.1583225490518128 1.2215558504203576 0.04726293516885013
0.05884204559679441 0.15545800606733673 1.2220602506954472 0.05816565000828525
0.068735537182313 0.14953738442369557 1.2239800998380588 0.04959905097964978
0.12116268232235321 0.15610556345099572 1.228778772573911 0.049155651391863356
0.15568612326882936 0.1708137101784662 1.2193578285471494 0.046080151188699396
0.15462186359737404 0.18638125093003885 1.2166213173227276 0.04613032487959118
0.1423424078998598 0.18523925805319014 1.216822649216296 0.04512696021026686
0.14471918382453458 0.19687330190369245 1.214780792423884 0.04686831733055171
0.15120233462884164 0.16084658883724695 1.225762866646988 0.05789974970924975
0.17274931911432612 0.16024640615448082 1.2212218233262053 0.05359190811697238
0.1634471556171775 0.1604923201205044 1.228998137213249 0.06601037673476096
0.19550972322519003 0.1617994909776917 1.2209438570789648 0.04961282562178321
0.18154133345930046 0.16104603238286389 1.2274196568029452 0.0517700029376685
0.24452534023487427 0.1606917646488672 1.2222625118450225 0.046372026710405766
0.21693414173114678 0.16920820613039136 1.2196478764952876 0.045051289138556494
0.2071365937590599 0.17036703798915717 1.2237612451335411 0.0487362937372075
0.18625834356820198 0.1681164907871352 1.219829162130862 0.04925818251388463
0.1758795715868473 0.17111920226652189 1.225716530134623 0.04833717792101746
0.16816770477256138 0.1706084799312434 1.2193958736592934 0.04893301335875742
0.14769884845697728 0.1729440128186906 1.2274068623573087 0.045507426111740114
0.1290654055774212 0.16974327315749943 1.2233832692256625 0.044584027316048505
0.10215937566803737 0.1661737857118495 1.220175647055098 0.04784985366265316
0.06827152380512486 0.16943782971203353 1.2196013471395515 0.05022443709796501
0.1366405412554741 0.1784645894599191 1.2239696810636067 0.04578366711760373
0.12791538291559054 0.17917962693317713 1.2178964755389008 0.04627444622103038
0.11421353497104925 0.1836490181428627 1.2171052845743593 0.04863473246144284
0.10535681992769241 0.17738849136630952 1.2201026267192066 0.04596763621017983
0.09738405443974532 0.1845134441905364 1.2169451324785037 0.047373619976148064
0.09025722369551659 0.17700319074045734 1.2207520106275622 0.04652332580743042
0.07939282452585522 0.18198582148729553 1.2173965616275273 0.0549262698732533
0.06755351366971356 0.1798730120358224 1.2225439317623816 0.054605766782802274
0.17329439790190967 0.18092033713625397 1.217588025047475 0.04855118177706225
0.1633450286462903 0.18135553063858914 1.2233008649457933 0.04842165858255883
0.1829956080764532 0.18018013496784696 1.2205386993181144 0.04937008661279906
0.18509946615638445 0.18949576564965093 1.2160719837747935 0.04813212159143807
0.19549896374511622 0.1919694406638662 1.2156497449217452 0.048891183610271095
0.17040367983281615 0.19075608451086484 1.2191157437783307 0.04923024464793627
0.12931280522815272 0.1915918465581142 1.215706700768053 0.04940070969042522
0.10985986525249258 0.193905559575105 1.215300966321612 0.05101067114525038
0.09306616844572448 0.19531511464780293 1.2158809988490322 0.053716634763310046
0.10129191113862851 0.20061264425835368 1.2141301639995488 0.054919575406489694
0.12273693829774857 0.20208968565702148 1.2164674355456637 0.04739803977436669
0.15509479073807597 0.19927060585881412 1.2151602732752367 0.0475726751616774
0.19556635812280357 0.20285232568420103 1.2168221666185943 0.04773668054419418
0.2095811411182843 0.1932479131669395 1.2154205008664185 0.05338238366404833
0.22036575006706619 0.1889622415482085 1.2161688828642216 0.051743585420725796
0.22279719725262892 0.19885184188398658 1.214438921186779 0.058523374740018314
0.2357894128077735 0.18303066191202147 1.2172252689927925 0.05754838821655503
0.25433961346563555 0.15563995783323 1.2220475069341834 0.05212731724243142
0.2585004004553752 0.1455082703870368 1.2238262774851418 0.056588502855335544
0.2588861084377348 0.11240691567954927 1.2296329586061303 0.0521797131067372
0.2565499234426848 0.08042871518928879 1.235268809154229 0.05974034553248907
0.25621607723671225 0.10085862649433315 1.2316531098180294 0.052717464314062074
0.24691681108013527 0.16975566600678454 1.2195665952010197 0.05031204026073811
0.13415607810287633 0.20461757134315195 1.2133893501664834 0.04737377974980807
0.17222772158547006 0.2057139468066092 1.2131819687380874 0.050493454217639316
0.18297938815314463 0.205516319023365 1.2132200711770031 0.046350119204957435
0.05338635838295154 0.06769421054517398 1.2375041997074012 0.06470032842666329
0.08724129560223791 0.036430808699803925 1.2429893892653658 0.05046629243489074
0.09752898545135534 0.03054980226354937 1.2440131886033488 0.04856450459722622
0.07087634299295925 0.06882405064823684 1.2372680879170355 0.05231101111412643
0.0612793848265905 0.06115325044251998 1.2386347545498944 0.05763904220896425
0.05465754130236598 0.07985477283744773 1.235328738027909 0.05988610234969593
0.04622984247480935 0.10301724784099628 1.2312756847712558 0.053401735480136756
0.05255067348480224 0.149373334500649 1.2259472301682688 0.05765508531028594
0.0558317829316626 0.1700362170650499 1.2195175353982297 0.05981741994474574
0.24869265470365873 0.06277645772434229 1.2384001784655485 0.055633368882459525
0.23616076892156238 0.05518519139727947 1.2396679057469038 0.057687521669120244
0.22191084842791878 0.03268169059703275 1.2436833040267887 0.056529802537954095
0.2051071578802784 0.02756254341574131 1.2445332615811973 0.05670821007844941
0.14038532953608754 0.234367524500458 1.2116087105553626 0.062486752878501625
0.15983607463894953 0.2337281999634426 1.2083510089118616 0.060854855118057424
0.1536752992389673 0.22653962943225825 1.209557545823575 0.05747614202456198
0.14210692714452935 0.21747765616704515 1.2110860407979154 0.053104892399737674
0.130882447419919 0.2241714896777795 1.2099767296127122 0.0582807672700423
0.14859686405404546 0.2104011628260805 1.2122685320809297 0.04794966852287062
0.03412097834782739 0.10482249409772648 1.2416737237017879 0.06113985380850808
0.07652718871527572 0.027012428754759857 1.2453000913096437 0.059844483016973544
0.06850392561443722 0.034414839125038774 1.243686942002858 0.06433740651127251
0.23400317574276266 0.032177293898799614 1.2448935551484925 0.059983314802282015
0.2688466940316153 0.1415234623787901 1.2271528803623537 0.060579797278391474
0.18430046366702948 0.23023747665023453 1.2107050906799257 0.07131324744941314
0.12963808861374782 0.04027534184270993 1.2422846681907371 0.04579074468921823
0.12570185218924648 0.018027730564463086 1.2462031802194868 0.05087696814858347
0.10229889817215285 0.04696087288414469 1.2411100120075296 0.043991012020229904
0.11851115909320638 0.054137913121216207 1.239846983707693 0.047093360541156995
0.06391426265208955 0.08085128823356078 1.2351612784258776 0.04875890759015531
0.07290331081557522 0.057265656797022294 1.2393067054675653 0.05151396297262949
0.12810228817570438 0.1021073399528136 1.2314308976937516 0.08011158547539284
0.18129630775838418 0.030186092278184154 1.244050444248929 0.04645227224930269
0.17817690254371846 0.042003262090178094 1.2419791019277244 0.04970901041138239
0.20994769982471467 0.1108116793781498 1.229895549964147 0.052115792329352734
0.19818411787177453 0.08087104686769331 1.2351609872212506 0.055681640686369556
0.2318698460632141 0.10909754678679967 1.2302061549247818 0.047653283370763334
0.2230003451277836 0.12159670511706633 1.2280017187088976 0.04868218464856464
0.19901500741964967 0.11614870033438139 1.228955055961627 0.05683142814707657
0.06989092398360525 0.11956847158772808 1.2283569136683656 0.04393899157539459
0.06785175506539684 0.13029828606083937 1.2264805697741337 0.04498004680284361
0.05820496391047856 0.12307812289739259 1.2277454129473662 0.04604255453064082
0.11017297416798516 0.15300017798281684 1.222493100243518 0.04918917683599244
0.08745220371925386 0.14697633674183416 1.2235507954278 0.04606641437227935
0.06127060192580743 0.14095504997434824 1.2246032312029367 0.05016812019775913
0.1415418409975976 0.16495568686331158 1.2203806392833196 0.0427711177536715
0.1878483978099057 0.15244020390368354 1.2225873132470562 0.052694314000334364
0.23418448936416286 0.1409737451804565 1.2246028445482382 0.042075970620677174
0.22479113603857362 0.17637870997672928 1.218381168054608 0.04932027293943414
0.21186056402662573 0.1796274688187144 1.217807336110512 0.04458465973915645
0.19466777841717672 0.17243621395819897 1.2190800905919332 0.04808248023261287
0.11693284174833418 0.17339143876957272 1.2189100434210733 0.04676652718762149
0.20175427822179273 0.18251295108123192 1.2173028057881716 0.04447171141027963
0.18515021061146905 0.28662200563926155 0.8440885460557509 0.11849861937811959
0.1824433966530322 0.2736881471189566 0.8491763544945721 0.13416693513588257
0.1694483608642304 0.27805704036000056 0.84923649473159 0.13007788761117678
0.04371153362613823 0.44768172823890606 0.2239835401714043 0.1397821012034851
0.08042845406106591 0.4469710076546934 0.2588750495792387 0.1210124884206134
0.04581984346809422 0.4550663393401183 0.21293764373301172 0.17919351505580244
0.045156612457722574 0.46687421937351903 0.21627193108170895 0.14587640341881808
0.05477705202626178 0.4618022473595458 0.20045706432333432 0.18596909979897341
0.05473410202522322 0.4504949780164211 0.20048576255555214 0.1655193235955122
0.06734445603921968 0.46322548219725085 0.19336857748900907 0.17115238267669947
0.07253475919002442 0.45091483786018305 0.19233616080469346 0.14516378664825125
0.07909015518321577 0.4620188786169733 0.191563511908533 0.2033877329985201
0.08892888704862 0.4554271728607061 0.19352055962524983 0.14046954107506546
0.09158777029224113 0.4671609467010458 0.19434694298638502 0.16383482357426837
0.10033186177203324 0.4534549377376849 0.20018954977923975 0.11995306456618225
0.10558530702123448 0.46437837369207724 0.20655105160107184 0.15562464593548106
0.10967635267432793 0.4504730072981877 0.21287181971495217 0.15972811523416228
0.11158143069340483 0.45594058036830304 0.22244929338243027 0.17820439039724723
0.11133201908190046 0.4667037463384631 0.23038245423363862 0.1871662158349981
0.10992697026691103 0.4495602775506986 0.2374461034387158 0.1648243755907507
0.10928764913025812 0.46206611160017863 0.23948587137082394 0.19027230594767638
0.10177603950318648 0.460759545973463 0.25042335888521405 0.19087898130085007
0.09926613605568547 0.4495332859658485 0.2521004203576001 0.12595493638001248
0.09112058125025385 0.4596952877020757 0.2575430983016461 0.18699632938413055
0.07834995815668795 0.45840711743515694 0.26016161283015726 0.17911659615736703
0.06792542349062843 0.4491321360360867 0.25832486405662847 0.15178423690191553
0.06577841807244622 0.4627155452791652 0.2578977952070469 0.1666850812017532
0.05675962839160553 0.4601647975184696 0.2524455249566421 0.1866319239595339
0.05125414609402748 0.4514967693792652 0.24701756015442927 0.13444865224096123
0.047850541509628586 0.45896294791206776 0.2419236986466823 0.1485128499542324
0.044105347646357144 0.4671837177049016 0.23002087519571532 0.17496649274094236
0.04552220153456252 0.44822982880243856 0.23714387244275942 0.13685085591930954
0.05892151861837304 0.4461311101913452 0.21964580967488426 0.19239123562433175
0.049108324093468526 0.4461311101913452 0.21329305157346748 0.13600640850600887
0.06267175719132866 0.4461311101913452 0.19731393605621664 0.14464719881240706
0.07225186760740965 0.4461311101913452 0.21282051872521787 0.22357175031785517
0.07277056208602614 0.4461311101913452 0.20211087348981813 0.177004592989188
0.08298281165385034 0.4461311101913452 0.20012724462321702 0.16901499621244387
0.09024484332416258 0.4461311101913452 0.2092689463693322 0.21738776603830076
0.10087052567126881 0.44613111019134527 0.21663568982705603 0.23712511454406696
0.10822866438701217 0.44613111019134527 0.2251638224615983 0.2545978698619506
0.09039945897388078 0.4461311101913452 0.22645426670878172 0.2481481486643375
0.09845019617788336 0.4461311101913452 0.24293343498091824 0.17778746094368716
0.0877369351061527 0.4461311101913452 0.23869233961351174 0.24181646308987467
0.0875373639466633 0.44613111019134516 0.249008225567634 0.18871738072019895
0.07706423626965883 0.44613111019134527 0.24662032167191691 0.20080372129764046
0.061551038017398294 0.4461311101913452 0.2515568183274418 0.1605464649044875
0.05758327518052442 0.4461311101913452 0.23638451886202472 0.214985009486821
0.06591227696117914 0.4461311101913452 0.22747206361438715 0.2295218411288775
0.05565964241095469 0.4693371653556824 0.21989799619997713 0.17205152133756998
0.06969621754340288 0.4693371653556824 0.22527178553859725 0.1752036606848304
0.05676401558634294 0.46933716535568243 0.2067713120544722 0.18087351271053864
0.06549865923654727 0.4693371653556824 0.214948382155244 0.20097695314571956
0.06670551857087156 0.4693371653556824 0.20247742096985677 0.18346533714433488
0.07742041059573421 0.4693371653556824 0.21009323620330583 0.17852151759020646
0.08322480803689175 0.4693371653556824 0.20087005016257756 0.2068293358262872
0.08436066915106633 0.4693371653556824 0.21826279674143423 0.17389376740350987
0.0978511569927026 0.4693371653556824 0.2012616439194693 0.19113286757215972
0.09820716554649914 0.4693371653556824 0.21263445583154397 0.17947109618935864
0.10914943931401874 0.4693371653556824 0.22044898160984663 0.15287500493837808
0.09268105702853197 0.4693371653556824 0.2247051800014088 0.1725232105983903
0.10236364708397909 0.4693371653556824 0.23582313823754553 0.18063872867766562
0.08813760250946448 0.46933716535568243 0.2330419206358019 0.1638895664989061
0.10427116156293863 0.4693371653556824 0.24572672254030117 0.16445894484503013
0.08768279532874171 0.4693371653556824 0.2452710520249053 0.18443954487007974
0.08235746065633034 0.46933716535568243 0.25858591723840824 0.10430334487596998
0.0687873406363746 0.4693371653556824 0.2459251211002581 0.15805423217559159
0.07294853787333958 0.4693371653556824 0.23568008781980104 0.1534862607398877
0.06125204924275484 0.4693371653556824 0.23472956523357708 0.17670014697532582
0.0497503274675671 0.4693371653556824 0.2422181005425696 0.15050376973280277
0.28122585900849895 0.40802369435544333 0.21487940716174314 0.21705358027447144
0.17771486782474344 0.38764468387008477 0.7743083451184496 0.18891216815944675
0.1757538170555988 0.4044119890378368 0.7587197166075126 0.17228406558350995
0.17906801280709944 0.3922286670821418 0.7639213841839864 0.16130655373653055
0.13622505281035918 0.3972210385567863 0.7610190118792869 0.1750108509151572
0.1321398852713323 0.42064827983955344 0.7643965866404525 0.1997523726502915
0.13213980854109278 0.40734002305337724 0.7584357927590395 0.17196316581768956
0.14821099603656798 0.3886242155877768 0.7778394403276214 0.18118579134657684
0.18665320944745847 0.39939213722110356 0.758843904584518 0.13675458450254102
0.186564445415813 0.4121733229660356 0.7584390608866646 0.1365276699145747
0.1452030863754531 0.4231719249442943 0.7846661309199486 0.1563807634714074
0.17588246337430324 0.41904387225922723 0.7901445356148482 0.16640663446183615
0.1918182762354582 0.4054779904994375 0.7924748225748849 0.18446388426429636
0.1929399156565928 0.41772404802964735 0.7889263368258312 0.15455828247525935
0.13497105650867736 0.420511730690728 0.7870553129239919 0.16312267934397068
0.16965889716367005 0.4074007526451414 0.7940998790983478 0.1748166987526232
0.16565700183093132 0.4218351975590748 0.7657370016534509 0.19300795633989615
0.13453047294794304 0.4251283840225691 0.7766437564104054 0.1826002051034815
0.1709764722689086 0.42375609993009783 0.7799196902201501 0.1956986202369178
0.19216165321756015 0.3899409761567211 0.7678920266759292 0.14149723882387538
0.15521265683959062 0.42420736456678204 0.7821087227303377 0.16326248590129025
0.1572577212188654 0.3905157789087501 0.7661960143693745 0.17048455507984855
0.1440917501777753 0.3904630837039903 0.7662962618462151 0.1664060151463833
0.18991714486298555 0.4247131534134674 0.7801020417474889 0.179200075783732
0.2291785092043975 0.2505813323969253 0.8568881677466821 0.13735595145712123
0.22090894365933142 0.19352679719404456 0.8666295329381833 0.1421221586549623
0.19070967412659778 0.24339869174198012 0.8584025752178999 0.16632784025158479
0.17877421120760828 0.2330957901239745 0.8603812431859407 0.16923355004781152
0.18164984649079166 0.2518264473027504 0.8567840384207914 0.1486592419316576
0.14564540518388058 0.22561615346939878 0.8618177517330631 0.13129871235452215
0.1687834739739968 0.2316081243970386 0.8606669533983035 0.1594783375500835
0.14342788757717018 0.19952503285512965 0.865279668091568 0.14110943368531212
0.15418716535230303 0.19620536699325253 0.8649444905207126 0.14042137537534877
0.15347817619863374 0.20937604932751314 0.861260759287245 0.13353994276903378
0.15142605170274076 0.2383522055308422 0.8546218458911252 0.11274270764820474
0.18103385805266792 0.18676470033678488 0.8663678471802658 0.1474035939331856
0.17184254736175097 0.19331677012086307 0.864456027662217 0.1234920981732617
0.15830853749830454 0.2521570798563652 0.853135356545597 0.1409904156639316
0.15863183251976087 0.26214843163729906 0.8523060897783038 0.12386208075974532
0.19400251949207997 0.1874296564146291 0.8662820138714374 0.146917698928479
0.22219822095953914 0.21671609043012843 0.8603371423701303 0.1312489941428498
0.20597534183517358 0.26114125553627465 0.8520247480572052 0.12480987530502352
0.1911008891824001 0.2691470517424442 0.8508358385234506 0.1368212893430959
0.22922081590505966 0.23809514822304456 0.8572537241986311 0.1579681841360224
0.21779214676211417 0.24624262158250215 0.8545860778996517 0.1528920240859594
0.21950431378648327 0.23045422944807303 0.8571634281028334 0.14089951399475575
0.1659410757749828 0.20092246166337735 0.8611123732950223 0.14153095455404485
0.16940760605561742 0.21169291743599528 0.8562949983899524 0.13322903241780046
0.16686563742154886 0.23734991413810497 0.8510438069486201 0.11999292033083185
0.18458481893979745 0.24537041833665263 0.8493858329216929 0.14613191060197198
0.17718403878627642 0.23661005748490196 0.8510689546180189 0.1385273297667614
0.18823952914066858 0.19508016615347124 0.8622843525105689 0.16040646970106004
0.18321044214248972 0.2037520299803353 0.8588971541961667 0.12491566482157841
0.16279047533009247 0.22086054390029564 0.8554298593127907 0.12331463736156628
0.1688214562775868 0.2478619635239848 0.8510423528679536 0.13533672375225447
0.20379260982498898 0.20082122778160436 0.8612599759413546 0.11621357668354294
0.2092817047125537 0.22883225944489718 0.8543500033429188 0.12637070897102665
0.21038469338465218 0.23894610729553642 0.8530823321142007 0.11516383722242916
0.18157665511575302 0.2603520288529182 0.8501091091445679 0.13940631624448685
0.19132986490266465 0.2551076940167499 0.8501451695234007 0.1418797675711932
0.20496234021621743 0.24872634186657055 0.8515453620056981 0.14265022440112285
0.18394637062144736 0.21815213335135447 0.8546138687156627 0.138660802412504
0.1878290140234293 0.23498874045709392 0.8513805754139084 0.15248287797376325
0.1476829802026392 0.2520156898581977 0.8567477467473235 0.1400456323890588
0.16475556175584122 0.18311224953519728 0.8699805396536543 0.15293105064358825
0.173647990413845 0.22325608240964476 0.8536336244452486 0.14809359120443133
0.1958222899060778 0.20953397256961886 0.8562680690211758 0.13650008333788993
0.20038972258750548 0.2237658049851552 0.853535625336565 0.13022484751535715
0.19976359399955987 0.23409048047069905 0.8540964084642009 0.15605714364052262
0.23099044121769374 0.39265500633409134 0.2100196166865605 0.1805060569237292
0.20542626738106146 0.3923010911513048 0.20972245292246894 0.21082689302669683
0.17438428888030988 0.3939261560492552 0.20973186436586855 0.2264992217340667
0.10389134791330676 0.3967371262361917 0.20974912880912688 0.18384089529726122
0.13869191502626527 0.39491531868194985 0.20973773270213325 0.28056361757610415
0.07163020519885986 0.39522798153102456 0.21050249056918485 0.17337806146607038
0.1870598388618955 0.3913006477705854 0.20972156010357462 0.20496129888167589
0.18143746666755833 0.40214274076299733 0.20978330818236413 0.19686567222863474
0.12529441710325145 0.39867536701333794 0.20976135262893025 0.22100872845255018
0.11402137338951344 0.3993060565595309 0.20976545534133373 0.17259851552422706
0.19428790304674293 0.4027058017110151 0.20978685453868878 0.150238895793876
0.21298457782681124 0.40407466772688 0.20979553987342975 0.1728642375949973
0.08684490217677071 0.3974286804449975 0.20975355135006432 0.1599216750461152
0.14463443300102397 0.4035739459373341 0.20979240288263573 0.2149755022997675
0.09733733334957789 0.404291168726548 0.20979671823333335 0.16071710619476237
0.16853834683397978 0.4056792045741894 0.20980571342024715 0.19153486103377215
0.13380576276777467 0.40691384484141424 0.2098133266142911 0.1583453379557445
0.11738028674336187 0.40868962017762833 0.2097406320083624 0.15119083979813058
0.05730002503501942 0.38776178529762084 0.23337392088005243 0.22564482930629307
0.057300093655574105 0.40153441881625507 0.22471912636218333 0.2067600234283409
0.05730006711842789 0.37148189508159657 0.23033735610726574 0.19648732108021216
0.06845584623297095 0.4028675907324964 0.24292667224797534 0.17949572712607598
0.06971845452923142 0.39175416247014155 0.2477049685014342 0.1577037430890412
0.06521446017476985 0.3806281814133348 0.2455124236632467 0.21323482917321931
0.09633189496718761 0.3975103268225244 0.24610832278071654 0.19661787366731381
0.0849054666745807 0.3946391099062224 0.24746600486634435 0.15414640219189246
0.16674685171575843 0.39183604588167376 0.24787895187361275 0.1902187882222245
0.2086676036327479 0.39260851777117783 0.24782339968194592 0.1898180522118024
0.1343401530843523 0.3978934407430067 0.24583164656399487 0.2503386945982603
0.10692505022353468 0.39934384324999395 0.24520138842534617 0.23380950397530614
0.06444891304825989 0.37236813694709475 0.22173291760819186 0.16067557517148306
0.06803829577384549 0.3720191845488672 0.23332385133520497 0.182893319447265
0.07601490127173018 0.37117735411479286 0.22691668014798383 0.13393802332030966
0.06762367854964735 0.3810173014925978 0.21241408092559813 0.16965854567109054
0.08780769435104234 0.42214522881290556 0.23728104382014598 0.2401496066023627
0.09040508083253122 0.4081422628693774 0.23770487322134787 0.2045862075905474
0.0788832671164885 0.4245026409626007 0.23214452338703662 0.2666082453707749
0.073408546633838 0.41889249001892526 0.24050579262375565 0.22645423815194562
0.07720427258773285 0.4094756506787812 0.24159907311480563 0.18159856005292968
0.06790688434699461 0.4212916127079427 0.2131039397783617 0.2122675493628743
0.06186043214027118 0.41942329233044495 0.2229864573863487 0.20254943168952852
0.06559550814737239 0.4221609528851184 0.23535933642514062 0.21348205530842942
0.07325924669848634 0.41127955689647455 0.2104889854394773 0.1631664972007678
0.09948531377763212 0.417774124957084 0.21367762426831577 0.172269240808282
0.17447340811104323 0.41783298453687495 0.21390833645370813 0.15955016727143123
0.1356713299580459 0.4180032090833527 0.22039124866141874 0.1304817144605496
0.11368023507042854 0.4177385373503196 0.22363305768903396 0.1958539806166472
0.12490139787304841 0.4164365277090928 0.2272624905845546 0.24856595726270894
0.1271316007688275 0.4162378916715272 0.21112483301507806 0.17883804586425256
0.12683271975060062 0.37285629757038347 0.22085327985604003 0.1698458484413536
0.07784254840825726 0.37530921035038095 0.21676670310419208 0.1331002217522635
0.11425122474933384 0.37435395525362003 0.21835816746539588 0.15621568172859088
0.16925832179069208 0.37195548705937703 0.22246032002966734 0.15401093523090903
0.1423257849988031 0.37114034301145293 0.22706128344662263 0.14668355701258948
0.12076342775644382 0.3709105773106337 0.22835816292041966 0.1736655180455108
0.15705183695435398 0.3717132402221739 0.2238276474838558 0.12542504353341716
0.0923387859246214 0.371163491075693 0.2269306275251167 0.15505409346593818
0.10345506328064313 0.37110377962607927 0.22726766022006878 0.1751447344656026
0.07827417063817767 0.37381228458837906 0.23895366680023175 0.16176672323003077
0.13122415625222963 0.3751833359916278 0.24082275855006607 0.1512807470108875
0.19278453075788227 0.375569415436176 0.24134293653000063 0.1602623476590477
0.10798708799808954 0.38776071865571937 0.24780758102638503 0.19250630572715852
0.12076061669894873 0.38866985575111596 0.24792108362627294 0.17120016350325726
0.15071775679493188 0.3885865570238375 0.24772995787477087 0.18785662293614255
0.13033897589178908 0.38530725914807085 0.24704235393924062 0.15982290679952882
0.0928081581556702 0.3808567608637607 0.24571093917503437 0.13117046239199767
0.07477191866422102 0.38238917819501583 0.24632905730617788 0.16676575165897822
0.09113739741687535 0.37302163434105406 0.2377098003678276 0.1576514510871409
0.11268084664764058 0.3720770083450672 0.23398316037619377 0.16966872344682882
0.13460271355235076 0.41298449270481236 0.23166333815975038 0.20035354520765414
0.09754625221493626 0.4152263426818849 0.228790181431757 0.19133307894573362
0.11639680917654385 0.40636974523284203 0.23942036707261383 0.2502580019721834
0.13268421792164642 0.4057842532374202 0.2401121268201017 0.2528884583337493
0.14028263293082593 0.41238837342308793 0.2477953900815919 0.15558176183759456
0.1500470744804812 0.42038991407014503 0.24601746031677732 0.10505078928164194
0.14655006527461545 0.41962021976336195 0.22554628791662096 0.12623016429175898
0.1431334258376779 0.4164541475158141 0.23722023027198796 0.14725332180550726
0.23191646533095597 0.3986143309219736 0.2457872335598653 0.14932893397570718
0.24729993275555728 0.39837004176890306 0.22492504993126114 0.18110730445389067
0.24730000644922256 0.38368506264854085 0.22542286256800814 0.22438875185998847
0.2456311286991325 0.391579459228913 0.24777421809412226 0.18012182418451253
0.23028372393482766 0.38597901745620605 0.2472602739700237 0.14474769820929126
0.24251431870046314 0.37518888114343685 0.21748061894594367 0.1953699480069009
0.2459184459172332 0.3731904595071578 0.23753318230098872 0.22189510890121658
0.23103052999999546 0.3745983606138317 0.21797619923067285 0.1723012800632069
0.24096061285917103 0.39421720686168127 0.2107142820814425 0.17746546363462382
0.23430656740053035 0.3715924655214294 0.23210026709348536 0.199639366407315
0.2469705155137813 0.40880711351528765 0.226632854230851 0.15867732010036706
0.23794911193425894 0.4074310416758874 0.2384525124880052 0.1808631585528346
0.2236203884010822 0.40772021947263043 0.24123521643201537 0.19137003816967998
0.2170714205434279 0.41433100434317555 0.2376579472733389 0.19742382007007536
0.21171023903484784 0.4222021554469485 0.22742512500874892 0.21456131484778931
0.22488584725633254 0.42311996590418 0.24100303131616763 0.2228289432701934
0.21385121155727355 0.4196481365481067 0.21581504908331145 0.18417957779977082
0.16658476787797744 0.4165357727373897 0.2272387874073774 0.1180361264510421
0.18335316830762258 0.41766059343495754 0.22434617380914978 0.20399321934451897
0.23362735809695673 0.4173779227849014 0.21140916849673688 0.17892970163446492
0.2428308651699173 0.42349207983781423 0.22462206543386076 0.19918488004716908
0.24033682834603848 0.4162925646146435 0.2342770166601501 0.19177445501476412
0.24017630924082267 0.4148628810837748 0.21781179010984925 0.15973936278499376
0.22821563508485307 0.40581563680277855 0.209955954291656 0.15840877510575097
0.15866518615309852 0.4157955115171166 0.21076140839205898 0.11914380510692588
0.10805608868477891 0.3811825995087655 0.21195199332764192 0.18405902971258506
0.1723473185423853 0.3794565634473512 0.21325988328758458 0.18508851822985706
0.09858418433739932 0.377045887617371 0.21508655353230938 0.19242010673913798
0.21425836310015883 0.37815623955778366 0.21424519326914165 0.1498345208915717
0.15987278200551994 0.3761227269378248 0.2157860711213006 0.11355106772486243
0.1361619263457705 0.37742422007805204 0.2147998751494489 0.16006332955480196
0.20884506352606563 0.37257418592412017 0.22132328062591905 0.14649669400947335
0.19252541206321108 0.3746501906719947 0.21786463635264053 0.1872954286997524
0.17954813565743055 0.3732031869926656 0.22027535867591488 0.17510627327326125
0.145883955911241 0.37481812061827247 0.217584863414934 0.13086111890143629
0.20479686582238263 0.38289344901359795 0.21131158680931109 0.18299497197986334
0.2151634908431586 0.38745221643936856 0.21002165647098262 0.16984314988195737
0.11535876538962861 0.3881919123749846 0.20987122556911336 0.207690909475263
0.19845480084489214 0.37091835068198836 0.22831428724308384 0.15736231966810826
0.08020038674838076 0.3858755783738718 0.21051077226098405 0.16449828133729022
0.12748240915744233 0.3820055993678674 0.2115541482137991 0.20552775253841746
0.14451854645591358 0.38529809359741896 0.21066646657558696 0.2538297328609241
0.19182786515194059 0.3826412464733941 0.2113827728902239 0.21730867579926189
0.09760797771768394 0.3859441618530519 0.21049228163020128 0.17583366950668503
0.18068328259941752 0.3740546478108907 0.23930212431427533 0.14382152029410625
0.21976266738885716 0.3853332721667869 0.24744800181300852 0.14067016655386771
0.2277892576767065 0.3760944885442234 0.24204807030273118 0.1554340310337951
0.19307971280572817 0.38983670871884957 0.2480614395564281 0.1586290959871166
0.18510843929243978 0.38202565687650225 0.24618920418846713 0.14541430174929712
0.16877843879412302 0.37201545774039757 0.2336060216277392 0.12958339815920986
0.15211857306645205 0.3727816580245683 0.23660668880804298 0.12911336552639874
0.18746557177242365 0.37151025304829827 0.23162749046527875 0.19296329640075097
0.1338245110913594 0.3714747086865597 0.23148828822022943 0.12697085453759652
0.21080474105973707 0.371331937170284 0.23227803428726293 0.15104291091460004
0.203069837754775 0.40606878878571734 0.23976197209795713 0.21414761825313955
0.1753553214031602 0.4062568003249046 0.2395607109109576 0.20430668917076694
0.18304037073252 0.4098162032590601 0.23537520407645657 0.23433505028882826
0.19284786221781045 0.4130283016823363 0.23151407707925453 0.21675005890237647
0.20339086927443442 0.41438212258515295 0.22984326896903506 0.20918766491335278
0.19022513001497343 0.4042212077842109 0.2418805150058418 0.2174387483734797
0.1595850041648467 0.4135840320173406 0.24779539008159188 0.1353525108351226
0.15630351238537837 0.41933032987862534 0.22083911994109362 0.12488598070432387
0.16678773935249705 0.40141897939163423 0.24636234234351245 0.2298745001272835
0.1590391668549989 0.4186958651839758 0.23738733715394916 0.09911285557036449
0.06423068029687667 0.4048932393083829 0.21586684536266015 0.1896283174240897
0.10316542343379043 0.3768213356333572 0.2427399397894193 0.13999001192482494
0.2072377783094147 0.376419725613217 0.2424313518354826 0.14813303595316255
0.14315299581257532 0.3791761189001313 0.2445493257947258 0.14456933384920626
0.24020693647825161 0.37888143583077427 0.24419018503151899 0.22145945575134324
0.2392975004079715 0.4037617558608975 0.21495237274894813 0.181441914960127
0.16684471065840473 0.38013301656106546 0.24528289545103618 0.10674856776995324
0.08243088245948782 0.4224389822629311 0.2110931575174323 0.19633291778882192
0.1453737482386496 0.41675147482064756 0.21169157994733057 0.1102610205685747
0.10275063260059651 0.40728407233563585 0.23832746669199098 0.21311674003832648
0.19224245765800227 0.41800377409905876 0.21658458125941027 0.17302391439780632
0.21798531561366294 0.397116719959003 0.24642136107422605 0.16573752312389906
0.17978890228799582 0.39532342187034875 0.2469299236849235 0.20674193579066455
0.19873220214736984 0.3984948953978605 0.2455354232660543 0.23632258863818356
0.185073788270608 0.4126531964587177 0.20960412061123423 0.12389003887282393
0.2015801439457943 0.4109539881070119 0.209689938402996 0.13923047673742162
0.10784508922945726 0.41264579748374075 0.20966264546962893 0.1292092423464857
0.08453066428538117 0.4095785116952547 0.20978658232470218 0.15562619973918845
0.22028195534893144 0.41330396227594596 0.2098594016662981 0.14622436969344904
0.17769004405267788 0.39621044210964745 0.7949282453613145 0.17936789517372412
0.17551959655250038 0.40314545465520046 0.7866094416098317 0.2000022831995151
0.19361040503711968 0.4081135469482965 0.7812756670922325 0.19784563864022417
0.1760145083235406 0.4123621500495874 0.7689967281789084 0.2230408015668837
0.17430849575046883 0.3986478352503924 0.7762985884399016 0.20951294027821182
0.19296745323029812 0.4075879151035191 0.7685801690704341 0.14250694635707736
0.19252486756055864 0.38708098568289645 0.7799241337533364 0.1612539219725992
0.1954315174251148 0.3967977448017769 0.7844493228184878 0.1833037008532186
0.18734856140220196 0.4147426508718963 0.7723961816608602 0.18248447235843998
0.1823795066572606 0.41567758312453335 0.7821682443519336 0.19530505270838358
0.08590622231595191 0.4352117872197477 0.21825666243898045 0.23008798777573464
0.08574379943166205 0.43416097428892986 0.2332392428668253 0.22883466181261455
0.0834510873007531 0.44699594378471375 0.21839301532493924 0.24852205571705857
0.07537633798505018 0.44699594378471375 0.23421553758198832 0.26887213011048927
0.15718873200387 0.3964410050617454 0.15951072700773836 0.04214533237489193
0.15353921169667745 0.39737741714262836 0.1488147682745196 0.037761623729694965
0.15145728242359854 0.3978301320811448 0.17741916875853164 0.12973002738201678
0.1453072945063979 0.39273519953185587 0.16782049791684356 0.06390177389752826
0.14628656636401474 0.39376014708733503 0.15680030333937553 0.046166115409568505
0.14618251745587618 0.3919170755802303 0.13661327218082137 0.042004228301470416
0.1458418340362481 0.3884592376159246 0.12591751986728109 0.04270463597155146
0.15694603792083966 0.3833163966143255 0.12654669058960832 0.04157695296155965
0.15582075172347934 0.3835250198796617 0.15367088904482276 0.043548800208421765
0.1580120956570127 0.38471759254938453 0.14010234924829829 0.04202801087575173
0.1598867278395224 0.39227250326108276 0.16832259281944983 0.06357786730659944
0.1481466426544285 0.3910425979960743 0.10423983719635213 0.04142708247776402
0.16029238568909576 0.384700576389875 0.11267918843102853 0.04336864645129769
0.1537492744157014 0.3942021059843968 0.08595110606376241 0.039918251150839974
0.1557404440395372 0.3937496634337786 0.07446078314923624 0.04239540170268676
0.1531138762685543 0.3870202759149024 0.06505648250286815 0.03944511967139962
0.1578504859516153 0.38516656696355356 0.04999848696867851 0.0473725600007781
0.1496575174299689 0.3838901567881021 0.16601971876495641 0.06475742153116018
0.15106487659717363 0.3824838645372238 0.09051773727226836 0.03852200130470393
0.15031930543886346 0.38277345436230736 0.11629526590084886 0.03981565843774832
0.16792203852703858 0.3936778369059367 0.04353950655730673 0.037451140740255025
0.16299183554437568 0.3835210927619642 0.040213203959572466 0.04453567696500455
0.17954247446563257 0.388226991177251 0.019846666330747796 0.04094895916081465
0.1865312417523209 0.3957795031313455 0.020153767396055983 0.04040162355033416
0.19844789148760056 0.3980501641713552 0.02072490952587552 0.04945907412186924
0.18723053457969693 0.38979169003299 0.03260781765382739 0.043334728394756813
0.2305441531848838 0.397591866906577 0.017692583535998726 0.04144575881261645
0.21812476027289868 0.39067485769703214 0.01699126807924025 0.036356509300878664
0.20581475757355455 0.38684829167824003 0.011111097334541275 0.0411863170058123
0.18309915305426536 0.38095146309810346 0.027492919287612348 0.04603292840162651
0.2222791851511804 0.40567710108876587 0.010457824340024248 0.03764328346742962
0.20201335648262073 0.3880438016569926 0.023362548000537643 0.0520022396072901
0.2035083400997825 0.39647042629093854 0.009012405178582766 0.049832044095126066
0.2153688159040619 0.3989563746589843 0.005820187360892643 0.041850403419649684
0.2126262828826792 0.4020130483051946 0.017419252965423078 0.03774536363777288
0.24290610824304576 0.3969359237373107 0.011953190694373225 0.044842275584016475
0.2518883415388789 0.4035607796240701 0.02147892067169127 0.05076134026561887
0.23738521020165199 0.4066078794451764 0.005877519201134708 0.05429315846450139
0.25482361020612343 0.4151688097159204 0.014630078498771473 0.05594112500291466
0.25783772870634 0.41529135183323884 0.024601639109135993 0.04298710636465714
0.2655724022200967 0.40411549904461436 0.02261014004921066 0.04140797736480166
0.2655554643344162 0.40868747364473645 0.03192218535680797 0.042441735468017605
0.2695373795861255 0.41550310824047976 0.039516893938373085 0.04165689311307372
0.2619403568844411 0.40775959441983045 0.012147349368655498 0.053137549439571274
0.27496616006878905 0.4100583096491527 0.023384906896324317 0.05711490633288449
0.2804957085197279 0.4094789532833422 0.042552893027593706 0.0387649605798593
0.277429044590749 0.41607680167480976 0.05768490461986428 0.03691543439209957
0.1582434526362955 0.3949623854991719 0.11914326801689401 0.03464698938813771
0.15613782868315207 0.38006678986048925 0.0762087242653561 0.03811187838087434
0.16031990933144558 0.3795338498218422 0.05967525724209444 0.04324713440595737
0.16592039386597254 0.38252226566019726 0.06895381733113021 0.039718652468641286
0.16318088764027674 0.387796087227503 0.08857628439491844 0.0373866878745899
0.16482989897734793 0.38924215163304887 0.07743877682416142 0.042203698601958925
0.1661065330517638 0.3930242302826971 0.054727790885666316 0.04623138126351185
0.1677203253667479 0.37983801075440576 0.052864721931402105 0.045850709946657436
0.1730726788985657 0.37955784584792107 0.0423455463710537 0.04086663469551799
0.17609932038451948 0.39423477405785945 0.035949145399999036 0.041694882453073394
0.24784800023637785 0.40970426780854247 0.0073020427316633375 0.045850244443180234
0.25326198649021153 0.4009391454089658 0.011046619052673923 0.046850806018610615
0.28572334702744173 0.42036300503276947 0.041135898633872195 0.04617450813831857
0.28869518463820676 0.42570556976225515 0.05837452398931769 0.042185488979951814
0.28791272259644674 0.42818000917946064 0.0689301965548528 0.04478852899895133
0.27608063932950194 0.4235741390380479 0.047757450301401605 0.04384906783748616
0.2827690132485161 0.42604734655602394 0.08185527051236145 0.046103402583799545
0.2845664098220014 0.4273509934747887 0.10214179953676235 0.03959302514422003
0.2943371125600366 0.4247391656392439 0.07603942339484884 0.04152318441909124
0.28313754657397966 0.42619136291213133 0.1274309431665283 0.037232656652653545
0.2810192890903847 0.41729990897352603 0.07033190379754375 0.04988282423875129
0.28395900787279377 0.4186842635141169 0.09515305717786675 0.0392792164131104
0.2871288404286906 0.43425575620537593 0.17037721277194598 0.04569245106614785
0.2899594645604222 0.4298928214917731 0.08901229429471723 0.03575786132734554
0.29179433726789844 0.4321087087013382 0.1300513562256495 0.033740041265909244
0.29648802465054547 0.42862488379256075 0.11205509841900722 0.04219006294024195
0.2853593804903308 0.4151940135506075 0.08470566416443616 0.049425385082413516
0.28564523516327694 0.41889659209830704 0.11593793915766668 0.04143687717313802
0.282484653835451 0.42394007661927186 0.16693052597791724 0.03836769610137971
0.28287775501070345 0.4246355934174118 0.1398521197349509 0.04425102419323913
0.28294066498422155 0.43385011424227926 0.19745338494454895 0.10647302776111761
0.2837382224588101 0.43231733626638247 0.17966065171015327 0.040834609128639725
0.28335788374117676 0.42340375539660796 0.20136596123674397 0.12839244421480106
0.2888842308078524 0.4374749113548435 0.22187205393538723 0.10847015214920676
0.29159530887287916 0.435453676909311 0.21236916695591518 0.07541556002796614
0.2815386726396447 0.4405439323699564 0.26357596626768764 0.03872053535001227
0.27783216349249473 0.44193288852380713 0.2726292935880618 0.043468073548715624
0.275506658434625 0.43960071554131486 0.2547653224280674 0.08603415409004593
0.2867278388899973 0.4366288597215754 0.25507861325172343 0.0659293498420402
0.2918401003674769 0.4290057584232394 0.22927211476794462 0.12592781193566288
0.283761726188435 0.42621775915204385 0.2525648757555865 0.13193507700520915
0.2630356067809545 0.4441722568518012 0.316594119518371 0.04901316851647046
0.25266417839153843 0.4457234810578361 0.3141813659061424 0.036830024540612585
0.26023234962414 0.4426392566239754 0.2953064792882553 0.04011682682911752
0.2650417643576184 0.4418365697159077 0.2851975024654505 0.04070250962171219
0.2697379297439157 0.4377459270123333 0.2663999474761898 0.046984011638090954
0.23571044052698642 0.4498503650893993 0.3517694457026378 0.03335813288611642
0.22710503650049085 0.45389902548041194 0.3858284715174616 0.04501922002983544
0.2880638444733151 0.4337476003670854 0.15823719023278526 0.039789925992290726
0.2967631353644611 0.4284504765582105 0.14385803474215875 0.04392917746781259
0.29083894160714197 0.4191746065584789 0.16303910716477482 0.038178484719206277
0.2889110251779326 0.41753164585221336 0.1270164980987003 0.045399792743024504
0.2930868275121057 0.41831762431553215 0.13749106640730047 0.04205552306340504
0.2944465752218329 0.41998369947278885 0.148839788089497 0.03930203535261022
0.29378179993706016 0.41700943749742936 0.11059763298363318 0.03813219985384792
0.29487907436554694 0.4175978805886663 0.10056555467266319 0.04130994016959147
0.29462022868818133 0.4221410385480634 0.17599094760671868 0.040383111892640836
0.2867042750687729 0.4208868507652424 0.1846507782041799 0.0433843380182542
0.29406171227320693 0.42397507888670105 0.19463086402264143 0.06409074097457387
0.28428191478044984 0.42146463586570304 0.15411680640796707 0.044139820242707
0.28445431284782924 0.423060917768484 0.21472070786095387 0.25116579452214643
0.24516177479829376 0.44142742113067945 0.32449872787111034 0.041156171632465426
0.2291598293162211 0.44495606782260416 0.3611418361043072 0.043992897652538325
0.24108023219105817 0.4423260737110674 0.3333657165666122 0.030918566852669842
0.2660867973467317 0.4304016262547413 0.28734107608690307 0.03821699737935188
0.25216850555825476 0.43649570255029935 0.3099980936918034 0.04811802539331769
0.26940363692148156 0.4302745906491768 0.2741212931154606 0.04849367894977089
0.27333781794746104 0.42916124806014766 0.2596253590898893 0.12974382286069752
0.2808649177617928 0.42484003316200136 0.22612466093619266 0.2711934490971565
0.2782361465048253 0.4357415992199433 0.2310870218861436 0.206909014904233
0.275021495650443 0.4428027141093823 0.2869726871877578 0.04266795565905869
0.2659797396369241 0.4450317080433641 0.3045541539983787 0.037473532671768395
0.25033183878294085 0.4485449582189367 0.3393155947119505 0.031055783627965013
0.25784614552853397 0.4437175067163997 0.3313169690668844 0.03935260306684405
0.27387673852088823 0.4373249024054269 0.29673546488184066 0.03646770925622143
0.24934634913841996 0.44422131743103405 0.3499184877818955 0.03977121658630412
0.26788911995844095 0.4339390842691181 0.3062369996845709 0.03977322359817762
0.2609944462948107 0.4358494320972506 0.3215347510763664 0.03794867625199394
0.24805547967725777 0.43467379128611533 0.3372426520917025 0.028693315076927305
0.26283413684284274 0.430973524825132 0.29709204126908373 0.03650403970286781
0.25123282225944177 0.4335927710049704 0.32177580082825524 0.03940735977903113
0.2897679888516378 0.41436281550119225 0.05377514426051242 0.0388146992483098
0.29070050614677506 0.4141717560903818 0.06702045992633643 0.037041424201462725
0.29642651115505386 0.4271943380490556 0.09822254381774491 0.050948349282028224
0.29673314731159117 0.4220040143518006 0.08716459370164606 0.04225924692115431
0.29183068252078775 0.43499415444650497 0.18754356273159564 0.04213045217563591
0.2936128088538505 0.4331083402047592 0.1982955600463464 0.046830956892401375
0.2935024436639048 0.42541710059147547 0.20824383135320448 0.1380631645830889
0.281021226533263 0.4344543320051144 0.21461383929112157 0.1797639343153165
0.28865703230664985 0.43663255905777926 0.24327986275943672 0.09782673124061039
0.2808000564721792 0.4252105842369234 0.2399117932504855 0.22778920546744785
0.28120709663585625 0.4315488154057434 0.27368744320376287 0.03641426257838689
0.1513849882144186 0.39665836889436623 0.12758386284707976 0.047492847845014424
0.1618715547868634 0.3894025029614777 0.1033583907223454 0.035312522292391506
0.17171141219303285 0.38198323411470947 0.02984195425127679 0.05477645116954168
0.23204747704343864 0.39612151809495777 0.006164084808636656 0.047959024325345635
0.24393860229543268 0.4109764508050999 0.01779689397955344 0.045973754053163
0.2697969068759266 0.42062768351365576 0.02790664092192077 0.04620019408999683
0.2966914360420872 0.42866699880465126 0.1675811558812712 0.03959559259929436
0.29782924468648275 0.4248295482774312 0.12179960379618573 0.04425299651752073
0.2786727161364068 0.43872153967686045 0.24355270200270418 0.14440819827823428
0.2362533528314785 0.4395194769264636 0.3462436994707918 0.040295567230618126
0.22837657066102368 0.4397912127942647 0.37058759121919504 0.03681829118358253
0.20543416141894275 0.4444232165628858 0.4536617470573634 0.038099288732710034
0.21126591928495791 0.4433311423381189 0.4267216136567702 0.03351187889528192
0.20484384332459388 0.44401091229987794 0.46811616082880436 0.036559349837673616
0.20196259460131497 0.4451611379393843 0.4969379488294555 0.03635117283544238
0.2061073746366791 0.44541228453503895 0.4856165223625837 0.04135960934685723
0.21588820805132225 0.4457346815858696 0.44766321087856 0.03619741314840077
0.2223925532516638 0.44518341888978524 0.42480740700111996 0.03867588808496424
0.22719133974765024 0.4516814934249951 0.37462159325830013 0.04065248199422956
0.21751940814040258 0.4547239543296651 0.4093819591628598 0.02931496918717944
0.24188067164236388 0.4499024808212809 0.3616067110319345 0.04314071327185252
0.2392744210442497 0.4490949972281236 0.3725257790625296 0.04232150693570726
0.2324945697171096 0.43925676821938775 0.38071842211199064 0.04242212574932004
0.2350073462970342 0.43726907559859135 0.35816122789612886 0.04155502708540141
0.22639348613561996 0.4391160877359348 0.3881085966802689 0.03915486119024357
0.21768888080781398 0.45058451675497396 0.3953695005390533 0.03984086833132311
0.20412449255829765 0.45328593884386004 0.4443962203652017 0.039928152108992025
0.19988529540313463 0.45283984525413434 0.46378835477309255 0.043494476728269046
0.1878485516561548 0.4523220366913177 0.545036082606976 0.03563028242921221
0.18913826125328154 0.452681306552623 0.5324394165030545 0.034029082729730674
0.19321113094939707 0.450584450409005 0.5036737556504034 0.03341787434077388
0.1842922967500656 0.45680008150662305 0.5922992967487055 0.04937330006795602
0.18587217621220536 0.4523554590433893 0.5689507414838646 0.04076946588165784
0.18199559022615378 0.45589713446312136 0.6330577136513418 0.04632290857600695
0.18263783446172013 0.4522798792082182 0.6190061290839908 0.03937877213679715
0.18118108958009993 0.4568357436130759 0.6865102094383088 0.04915914221881028
0.17989266908977353 0.4547117222146996 0.714486373063296 0.041403344927754764
0.18280602802605345 0.44907069708904407 0.6577433899877281 0.036890595960658364
0.18672667106286464 0.4475160368174886 0.609232248509406 0.03484073358160046
0.1979175580207061 0.4471808544030901 0.5462723318687407 0.03663259813574479
0.18446499109047118 0.44701042208339015 0.6743079639426404 0.03996069712809167
0.18704726674845384 0.44628607851895524 0.6890025272167895 0.04573382748917661
0.18770284973508095 0.44674436896593117 0.648157840269477 0.04206020422018362
0.18283310186310514 0.44709152243949074 0.7025031618859798 0.04202242406429323
