x y z curv
0.42485807128231945 0.549901424299562 1.2266889283559685 0.10653659577141854
0.43224540294847313 0.5499179848574164 1.1858163627390381 0.10214762033121474
0.44578484267685503 0.5499483369094254 1.1652696687578414 0.11583542295757554
0.45886441557326 0.5499776580545223 0.8533737292490305 0.13129294803638214
0.44226757565255964 0.549940452072697 1.2896858481283524 0.11265085216757267
0.43581585789066496 0.5499259889282108 1.1182014183974847 0.11421693644990176
0.42826731410435553 0.5499090669729312 1.349341402944389 0.10541393373748825
0.43779649102958074 0.5499304290144513 1.4228851309981776 0.10324851815054092
0.460993980240068 0.5499824320081583 0.7633977200751172 0.1311606584511901
0.4634752274047551 0.5499879943463718 0.8855733778114088 0.13703932698054208
0.43362398032355565 0.5499210752845705 1.3579826400801933 0.10687297325807885
0.4448596869668717 0.5499462629407244 1.4630649011090389 0.11192127906764215
0.46032440194626856 0.5499809309803755 0.9998601313567612 0.12707496476599842
0.4330220676489212 0.5499197259462543 1.0937426938992718 0.11164465906960318
0.4630698393499229 0.5499870855673108 0.7261048899134557 0.13806955933037948
0.4611044348351251 0.5499826796198529 1.2705174115537519 0.1363838272148239
0.4294029052696353 0.5499116126855161 1.4951338832157934 0.11967147278208244
0.45012535179717417 0.5499580672499127 0.9042943575600924 0.12899079572924593
0.44563141246717414 0.5499479929571054 1.1988717578185966 0.11291956199912646
0.4165929597860837 0.5498828959779309 1.4438834802795686 0.12686329829834841
0.4424299060207207 0.5499408159769558 0.9683417175668384 0.10986066197214296
0.4322659491093162 0.5499180309167921 1.4694936234913363 0.1021132367392053
0.4150818317407281 0.5498795084051845 1.4260378455493445 0.12118789960427338
0.44424878962151904 0.5499448934610138 1.3311967911281468 0.116908724127362
0.4629037585282993 0.5499867132554694 1.5116024330390627 0.15101360539695968
0.44870902665519835 0.5499548922016659 0.92945023182225 0.11467862904310308
0.46445194847645355 0.549990183911772 1.1265926800720152 0.12583714066126547
0.4516863304153875 0.5499615665752287 1.2254158258956727 0.11852974037086826
0.4460958843426031 0.5499490341873781 1.4134010747697592 0.11355371775358887
0.4530616199935575 0.5499646496319608 1.323518269573214 0.12045404909823533
0.4058774841937939 0.549858874550235 1.5028654148767964 0.15592673879141244
0.4330557628133539 0.5499198014824215 1.389410118419002 0.1099635593306153
0.44867114583779427 0.5499548072823072 0.8805561952221375 0.12665520004907385
0.45871751562832874 0.5499773287414297 1.0670805274106767 0.12546294301069325
0.4443054236135664 0.54994502042032 1.392020104192919 0.10976890217238643
0.42471232025373623 0.5499010975620537 1.3989579494386375 0.1207721054018808
0.44500690678936733 0.5499465929709026 1.4521662896217316 0.11767527969178469
0.4444583922385549 0.5499453633378819 1.3201499503604732 0.11153309848094486
0.43279521197332593 0.5499192173923257 1.5071846989840527 0.13191033472680017
0.44368277782733434 0.549943624603531 1.1522189918249977 0.11166001920484821
0.4524479150060039 0.5499632738582158 1.5091988684756164 0.14804356470464033
0.46415738436676734 0.5499895235723963 0.8191982296074247 0.11197546547237644
0.44418448717354253 0.5499447493109395 1.0882443317177959 0.11815679482056302
0.44143832669569927 0.5499385931030519 1.051280585070622 0.11184400824638734
0.43159117216196935 0.5499165182349227 1.1475489772272836 0.10859560754766803
0.462674232575712 0.5499861987154449 1.0454898663901395 0.13110052865275684
0.4455420622629916 0.5499477926561995 0.9439897921805244 0.11864064992378173
0.4222126842036094 0.5498954940005387 1.3419135814052583 0.11878493657594984
0.4478232573981988 0.5499529065275838 1.3755505993733672 0.11729287512192586
0.4641401106334555 0.549989484848988 0.8300242497650021 0.11793272998380736
0.4579640213434401 0.5499756395948932 1.4843120327779977 0.12066822453648333
0.4230406082865931 0.5498973500001467 1.3045123037410518 0.1343288261569664
0.4264666811071088 0.5499050304021811 1.2640842019411764 0.11256226140237936
0.43750154792990953 0.5499297678254745 1.0064245308696824 0.11064580056308777
0.46053762644093266 0.5499814089765911 0.9038254655923642 0.1303986525265349
0.4383907361415757 0.5499317611640016 1.0744213867558017 0.1135502052483777
0.4237750971134181 0.5498989965411791 1.507334886433154 0.1356396836721023
0.404497442363049 0.5477596006923111 1.1216898826175603 0.1470039957828171
0.4044921419726913 0.546347840336934 1.4928591660143606 0.142043911326799
0.4045006769560444 0.5486211353809656 1.4242432992414136 0.146025846731674
0.4044992165876882 0.548232165888088 1.1828868275877233 0.13330577514698572
0.40449137512425765 0.546143590056469 1.5151440966366578 0.1560733680120541
0.4044930199329452 0.5465816852797425 1.4629287308625312 0.1179069866492214
0.4045047922174443 0.5497172363290561 0.960877536565457 0.12489570920667012
0.40449908339875235 0.5481966909802644 1.1133110544800289 0.14096681101616543
0.40449281843364626 0.5465280158888592 1.4442615652701025 0.14849034687290988
0.40450304911294277 0.5492529599900751 1.3878217079176574 0.1469950494791624
0.40449688899199854 0.5476122101685774 1.0454723880669614 0.1284324676522564
0.4045034306426669 0.5493545805316762 0.6456449654251719 0.14014285423859782
0.40449781477679514 0.5478587931907969 0.938850395086055 0.11676667600927983
0.4044972086031824 0.5476973386908115 0.9861654509555686 0.14839252172086995
0.40449189968685084 0.5462833074400998 0.9214711261359546 0.12382095383018603
0.4045022707296885 0.5490456374070902 0.7168375817296024 0.14688479148688735
0.4044951645329963 0.5471529000631709 0.6339589368880104 0.12617055283874326
0.40449125714115985 0.546112165227578 0.8198677951174249 0.1686186304481189
0.40448977224308624 0.5457166622380676 1.265520171164393 0.14074165638759556
0.4044904579875302 0.5458993104497107 0.8853434820977722 0.12580828305775416
0.4044901070671774 0.545805842722148 0.6563015656093657 0.13764206198966814
0.4044922891674414 0.546387045697051 0.6033490483664139 0.12451394741682591
0.4044914960839844 0.5461758077112606 1.2446404945317633 0.13434909524140992
0.4044934840862403 0.5467053126310522 0.7993787000792607 0.13053021252808
0.40449356161336825 0.5467259620018253 0.737665910047359 0.15857916146928588
0.4044904195356131 0.5458890687715406 0.5852403331905185 0.1595694967681357
0.40449559962298076 0.5472687863941097 0.8714257213207983 0.1408749006261881
0.40449019688571697 0.5458297659135865 1.1693609519213841 0.14353701419520767
0.4044939693383628 0.5468345596605613 0.680626335258571 0.1388815062031687
0.40469532573336553 0.5456745326519012 0.7894340065309616 0.13318607196361085
0.40573631945683875 0.5456745326519012 1.3462180808240265 0.13310696017495594
0.4059927348086404 0.5456745326519012 1.1467137202828015 0.13825607702911213
0.4047257188027944 0.5456745326519012 0.7577149510989442 0.13440782714833283
0.4058370837381803 0.5456745326519012 1.2332904729276475 0.134817731289914
0.40603190786762305 0.5456745326519012 1.4031996642515006 0.14474923063640222
0.40493639782645696 0.5456745326519012 0.8604140786276386 0.15232503104852207
0.4053960853303169 0.5456745326519012 1.0142894939062876 0.13840467608407214
0.405334640640166 0.5456745326519012 1.0325177538043948 0.1418976846475043
0.40575210502447817 0.5456745326519012 0.5734661211448264 0.1795831151503403
0.40702641297302106 0.5456745326519012 0.7085062802272859 0.15845676683606771
0.4061057053183937 0.5456745326519012 0.7797074396902729 0.14048377337179074
0.40749968112067325 0.5466624412174631 1.0954958229937724 0.13861180620880725
0.40749753563598273 0.5460307693599034 1.3789167907661897 0.1422708412707152
0.40750223561550236 0.547414533507364 1.2928850369799383 0.12865080365742557
0.40750290535021083 0.5476117162554857 0.6126427454090402 0.13354406230000004
0.4074994513379291 0.546594788768808 0.9774343615969165 0.13163184704127284
0.41276437512321984 0.5477765172611918 1.2046312914976376 0.12139808023727171
0.41287806080289235 0.5477764811317599 1.1655151957422507 0.13129462001322315
0.4085513089397502 0.5477778561781808 1.2812267895985543 0.13257803499294077
0.4094758337264263 0.5477775623632037 0.8084262232694578 0.14522879057938418
0.415344296973547 0.547775697359238 1.5130971156550703 0.16885572652114153
0.4098258028964661 0.5477774511426231 1.4345154756920464 0.13300888963179852
0.40809998027139816 0.5477779996109196 0.6673326760453518 0.1557122554149352
0.4083987370247182 0.5477779046657003 1.0062581626992662 0.12692921007861266
0.41066480174776565 0.5477771845078809 1.253328148719552 0.11973985880082019
0.41116284466777536 0.5477770262293025 0.7000915904387719 0.13955064528971536
0.4145434615716907 0.5477759518655947 1.1301670262497754 0.12785361291360056
0.41595009379490944 0.5477755048363532 1.365365871080853 0.11699679843458896
0.4145919783841924 0.5477759364468993 0.6458408019667025 0.131371247328242
0.41630217151802296 0.547775392945672 0.848803934943008 0.12640568384246992
0.416086778726105 0.5477754613977341 0.6576652932920674 0.13304190297009896
0.4165060296654701 0.5388220439226599 1.2024539327253712 0.11185563783947451
0.4165060296654701 0.5392102648665593 1.4085321327113283 0.1127314458595411
0.4165060296654701 0.5429260526507349 1.0131248197174147 0.11758564558816288
0.41650602966547007 0.5442878338992843 0.9023224816558448 0.12053652333714222
0.4165060296654701 0.5397240465492215 1.0947908531186938 0.13054235868266206
0.4165060296654701 0.5450383161684481 0.9713611797484343 0.1283302034287931
0.4165060296654701 0.5431278821850516 1.117972973285097 0.13209981479324323
0.4165060296654702 0.5380985455158063 1.2415209974101211 0.1082933625515362
0.4165060296654702 0.5463137300674846 0.95792981251245 0.12497180336391084
0.4165060296654702 0.5376517952194209 1.3268747198918938 0.12431082296202335
0.4165060296654701 0.5432030962585616 0.9257062216951487 0.12318615587020453
0.4165060296654701 0.5445457589652645 1.4691371610179629 0.11811696234066132
0.4165060296654701 0.5376833762837783 1.4960739920167576 0.12850252522660263
0.4165060296654701 0.5400460208464504 1.2877026383011478 0.11356520774283431
0.4165060296654701 0.5402706952625542 1.142415205321087 0.11940718570757451
0.4165060296654701 0.5428047046879758 1.4852242268977296 0.11963693631927501
0.41650602966547007 0.5450344409092537 0.7993955182486799 0.11707901897297905
0.4165060296654701 0.5394251982376316 1.2149814812610886 0.10985049035531837
0.4165060296654701 0.5434897015403853 1.2308890115498379 0.1161686490172722
0.4165060296654701 0.5443274754412923 1.33482520864505 0.12065368559659215
0.4165060296654701 0.5469040242340661 0.9146227193299529 0.12348442484703574
0.4165060296654701 0.5382322080376589 1.3608478967518833 0.117913970392348
0.4165060296654701 0.5451795603774758 0.9432337650852147 0.1210524165642473
0.4165060296654701 0.5428998499215528 1.3739602237402813 0.12626928777907115
0.4165060296654701 0.5398064922122627 1.313416792550866 0.1331903207259035
0.4165060296654701 0.5373406015481356 1.3931392938530607 0.11799137604240625
0.4165060296654702 0.5438982577341143 1.3863424767311996 0.1229980339984375
0.4165060296654701 0.5423845459561503 1.3473698894213544 0.11445644795538311
0.4165060296654701 0.5413697998589833 1.1068364417418681 0.13222382416101489
0.4165060296654701 0.5380585964459438 1.2630708916587077 0.1135413446363042
0.4165060296654701 0.5394063442152064 1.1728050275604398 0.11408664339551755
0.4165060296654701 0.5391312404338231 1.4504895978986296 0.12543226469300953
0.4165060296654701 0.5381814795776666 1.2733637325805207 0.127286022858569
0.4165060296654701 0.5364341037288076 1.4610091091318287 0.11630783122008521
0.4165060296654701 0.538224326007002 1.4260699310748288 0.12138712377496699
0.4165060296654701 0.5375352069938495 1.4384612753157329 0.12341834554930038
0.4165060296654701 0.5416737743770358 1.1901999532377534 0.11959471962765755
0.4165060296654701 0.5442001690474829 1.0511563308224732 0.11974924389981884
0.4165060296654701 0.5418349769283416 1.0330187081879756 0.1215283967359013
0.4165060296654701 0.5454252625280123 1.5007193185714018 0.13568418428791812
0.41650602966547007 0.5382451039523959 0.663019337616812 0.12380758297316569
0.4165060296654701 0.5386704926263303 1.0612140713787261 0.11191411824400549
0.4165060296654701 0.5373490148803904 0.6072325499153386 0.12773406388935094
0.4165060296654701 0.533515079594409 0.9463484839931343 0.122299891797004
0.4165060296654701 0.5382412871949428 0.7781552807183159 0.1164745093547554
0.4165060296654701 0.5406445498002548 0.7666996501645762 0.11281691859464071
0.4165060296654701 0.5418238798657697 0.8762102996669758 0.12083966835021251
0.4165060296654701 0.5407301993607474 1.0018704693860594 0.12438645081975862
0.4165060296654701 0.5361397494298163 0.9362150586698504 0.12191721094523165
0.4165060296654701 0.5402666482984884 0.8390066172914248 0.12180868767953622
0.4165060296654701 0.5337647037084234 1.0068470974320818 0.12166011175370005
0.4165060296654701 0.5410300312771052 0.5952426801795131 0.13042224901368799
0.4165060296654701 0.5344084516862287 1.1831822292329761 0.11586472569282535
0.4165060296654702 0.5424215480652238 0.8272740535273879 0.11560586713855789
0.4165060296654701 0.5357546615863589 1.2255235330733165 0.10874842945796115
0.4165060296654701 0.535371037276667 0.9141762077674737 0.12086019944974732
0.4165060296654701 0.5399925828617487 0.5720789683745259 0.20509560838685834
0.4165060296654701 0.5407421118842838 0.7503591658114686 0.11946374127929864
0.41650602966547007 0.5439602705702238 0.6171466945856219 0.13067442048828856
0.4165060296654701 0.5356700793642362 0.9920956522265183 0.1291686909661067
0.4165060296654701 0.5360448146599912 1.2520417783516238 0.11712205212639973
0.4165060296654701 0.5362105458284622 1.3035123370693762 0.13068487299717288
0.4165060296654701 0.5343834641945469 1.0221290722251488 0.1106101536231465
0.4165060296654701 0.5371532180654116 0.9800419308577061 0.12273232550703445
0.4165060296654701 0.5336529281201812 1.133213668929772 0.12304429839608273
0.4165060296654701 0.5378160391266599 0.7127632897697509 0.12984734945101886
0.41650602966547007 0.5382878797237632 0.891428002914715 0.11674260738073111
0.4165060296654701 0.538134106250697 0.9561794032054355 0.122127915509177
0.41650602966547007 0.5439083977997415 0.6901969804610506 0.12767860301260867
0.41650602966547007 0.5392653898793129 0.7901000937781848 0.1112869983961365
0.4165060296654701 0.540679630290344 0.633528141431544 0.11709066555315802
0.4165060296654702 0.5382491514364797 0.6761740293203272 0.12359738358599089
0.4165060296654701 0.5391607467883549 0.7260460737437899 0.12963322796575696
0.4165060296654701 0.5334056660980091 1.0420176336528408 0.12162375712835047
0.4165060296654701 0.535601628320961 1.0780295718030939 0.12647169219032994
0.4165060296654702 0.5396647481568476 0.8667510744001617 0.12511635524085382
0.41650602966547007 0.5387402896698631 0.6502212397322573 0.12264478467722656
0.4165060296654702 0.5378194352395971 0.7370314400489866 0.12563195737315708
0.4165060296654701 0.5366725370201475 0.6251655616830762 0.12083850174521428
0.4165060296654701 0.5369637916331058 0.8140856713379475 0.12280608845294028
0.4165060296654701 0.5350564424525897 1.3821753182527896 0.11888958255738385
0.41296962133938103 0.533076619719321 1.159944093900553 0.12976909850646756
0.41441736774033056 0.5330750069603144 0.8043194635119194 0.12007910723976972
0.416048959545251 0.5330731894013988 1.5105212834531498 0.14962291753983925
0.41407123122008005 0.5330753925491096 0.7588157358718002 0.12711630717627587
0.40941695849245885 0.533080577310927 0.5835164245709952 0.218934428250368
0.41287273419033216 0.5330767276495649 0.6828936145147189 0.1333655549838041
0.4074953180436121 0.5350289875505619 0.814173357371394 0.13645860955149047
0.40750734719536363 0.5339496059006881 0.7665080464191752 0.1337010089121152
0.4074944022213995 0.5351111647240874 1.0477043179871512 0.1306281804182531
0.40749523422421824 0.5350365087056289 0.6672876296735654 0.1347359529977135
0.40749799245813656 0.5347890110317239 1.266446840678591 0.13227411198622652
0.4073988760407369 0.5351812541484833 1.2540790177885448 0.12448671984995213
0.4057923674142156 0.5351812541484833 1.3627048787251197 0.13128926958076076
0.4058692359282942 0.5351812541484833 1.2079937846806845 0.1158060140326543
0.4069124731455388 0.5351812541484833 1.3147259044133057 0.14139632665853358
0.40560218916760565 0.5351812541484833 1.3255035723046664 0.13863828134729064
0.4070219096663026 0.5351812541484833 0.9971758959562111 0.1477381382990723
0.40713773245205864 0.5351812541484833 1.0111866763765733 0.1317694152408023
0.4052164555048136 0.5351812541484833 1.4737365329807284 0.1245626451788837
0.4073554427238399 0.5351812541484833 0.7200651717496824 0.1446198983687213
0.4050381707769802 0.5351812541484833 1.3847131258922 0.12267667691309196
0.4059271281678595 0.5351812541484833 1.1899721737076252 0.13981442911077488
0.40718102140519 0.5351812541484833 0.7063728953967434 0.14219245676877731
0.4073984037585934 0.5351812541484833 1.0996876689824386 0.14951329071692762
0.4065809648194326 0.5351812541484833 0.6945173781305574 0.13549525385380773
0.4049935566234554 0.5351812541484833 1.2795979844603143 0.11839495676895789
0.4050904811115914 0.5351812541484833 0.9124756985295536 0.13506178036978495
0.4061600959250783 0.5351812541484833 0.8462906162578723 0.14777038376636054
0.4048508767041598 0.5351812541484833 0.7801708724031315 0.13590292501399448
0.4046004831229514 0.5351812541484833 0.9403406816502954 0.1442104085660449
0.404809820258984 0.5351812541484833 1.1186971477308054 0.1466458435734778
0.4045112356543541 0.5340603947843473 1.4558019888273654 0.1346570705881564
0.4045112356543541 0.5350787784661749 1.1407884096998615 0.1368804688126873
0.4045112356543541 0.5350179338552085 1.5119045586594995 0.15923091774012568
0.40451123565435404 0.5344438757913584 1.4859172517681842 0.13021932285042528
0.40451123565435415 0.5350461147716606 0.6196916269999079 0.13791443048969754
0.4045112356543541 0.534409910536251 1.4367423116244313 0.13775866380059212
0.4045112356543541 0.5333891568730313 1.3455582336530858 0.12494466267466639
0.4045112356543541 0.5333366147400143 1.2191601455092473 0.1043567356003731
0.4045112356543541 0.5348374512665832 0.923175862654037 0.1416387526213366
0.4045112356543541 0.5332068732893881 1.171102723717332 0.13575254006312312
0.40451123565435404 0.5350102967715551 0.8943808324797055 0.13863793418327675
0.4045112356543541 0.5331178202864757 1.3001953851543804 0.12438773329502231
0.40451123565435415 0.5328430217315216 0.731118827209862 0.1333853931020356
0.4045112356543541 0.5313587271505356 1.4152489029939122 0.12578912498357397
0.4045112356543541 0.5314739078088665 0.6409335944728543 0.14526021433847217
0.40451123565435415 0.533679143385939 0.7982792057767223 0.14206975764121801
0.4045112356543541 0.5328713721571794 0.8279695054717298 0.1372978222659787
0.4045112356543541 0.5326030682196499 1.080420582189812 0.13850952591271204
0.4045112356543541 0.5320216363115862 0.607675033013855 0.1340777788744902
0.42142264324272616 0.5309292078018187 0.8969337726566949 0.11629211923026882
0.43339755960098403 0.5309292078018188 1.1454348255728626 0.10408315731992344
0.42565492804572447 0.5309292078018188 1.0362726020661266 0.10607141410785115
0.4423120115214878 0.5309292078018188 1.2680111626024337 0.1034479410808514
0.43394204384784635 0.5309292078018188 1.199066864927136 0.10002805242912988
0.44458919126967145 0.5309292078018188 1.446602253006375 0.10728064728242005
0.4437969560233914 0.5309292078018188 1.3704879027888857 0.10719929061873343
0.44355781503593594 0.5309292078018188 1.3395244789804865 0.1075950080690046
0.43576823110802876 0.5309292078018188 1.4291450136127115 0.10653422409290644
0.4430849177977231 0.5309292078018188 1.194325031920929 0.09641986753332835
0.44917311080892813 0.5309292078018188 1.3483409514711986 0.11051986610735166
0.4231985701248902 0.5309292078018188 1.1604604386360895 0.11350257447513626
0.42744408673092615 0.5309292078018188 0.9481173732867947 0.1067454019171774
0.4273754969737142 0.5309292078018188 1.1255667876618987 0.10612273276743023
0.43113064292975656 0.5309292078018188 1.5158700276064727 0.13631774929363535
0.45357159233078714 0.5309292078018188 1.3992063388051945 0.10948889397553224
0.4428773906314384 0.5309292078018188 1.5055213492591584 0.13286319444149883
0.4172273622865833 0.530929207801819 1.4846194958979249 0.11532857349191686
0.4439706131380635 0.5309292078018188 1.494557588726293 0.11112687746678207
0.4526345635386046 0.5309292078018188 1.5162838558116478 0.14602021161151693
0.42381998630307716 0.5309292078018188 1.5069000493442617 0.13102512694733634
0.43864885205490134 0.5309292078018188 1.2103203419179986 0.09877906446880311
0.4342792296231192 0.5309292078018188 1.4645429679579165 0.10439644371826515
0.419734758781769 0.5309292078018188 1.315749595141717 0.12727400215996118
0.41899054377490563 0.5309292078018188 1.2940099833599907 0.11966430342068742
0.416043503194934 0.5309292078018188 1.349301875088446 0.1181443672569483
0.4340020895234168 0.5309292078018188 1.1147651710669297 0.10893121723671208
0.44623729514750693 0.5309292078018188 1.3180392916064565 0.11754039405153478
0.40455359806031815 0.5309292078018188 0.629602934712975 0.11855139679419069
0.4157482636538032 0.5309292078018188 1.4737494927173633 0.1108404437761057
0.41481651328701613 0.5309292078018188 0.9675987507003783 0.13073227090786327
0.4352753427352121 0.5309292078018188 1.441556861962157 0.10528081424884346
0.40558982690184414 0.5309292078018188 0.9735202721383223 0.130726924652156
0.42012240242898674 0.5309292078018188 0.8810540955096517 0.1189093753213369
0.42814971991244705 0.5309292078018188 1.2084525086114164 0.1002253837596308
0.44343468114572615 0.5309292078018188 1.243620373388375 0.10569935118115932
0.4273797838120721 0.5309292078018188 1.023944267468806 0.10447683236104255
0.42286420082358034 0.5309292078018188 1.2816419366743235 0.11168302791714907
0.4339379935134899 0.5309292078018188 1.056144193779738 0.10541206572929238
0.442037361892168 0.5309292078018188 1.3943217962324412 0.10378426899734702
0.4367289132679564 0.5309292078018188 1.3162019226370858 0.1106945127867422
0.4052048190552353 0.5309292078018188 1.2464307037634665 0.1088835582808985
0.42870542582833737 0.5309292078018188 1.353450098281867 0.10121576562167786
0.4218610332277348 0.5309292078018188 1.3738649183314473 0.11700519067316109
0.4316560221202954 0.5309292078018188 1.2753654065583193 0.10736573728406525
0.4196385636558682 0.5309292078018188 1.0882644686190293 0.11906076489736055
0.4224906879379241 0.5309292078018188 1.4444089147752726 0.12216256680822285
0.43219650766940554 0.5309292078018188 0.7923857835886277 0.09496139218558436
0.4644643032953007 0.5309292078018188 1.3733193737503087 0.12376025953945784
0.4461597913621784 0.5309292078018188 1.163032984072369 0.11755224707458946
0.442582502880724 0.5309292078018188 0.7747317562981275 0.13561393037477
0.4428007542916845 0.5309292078018188 0.7010579475304264 0.10658540812200681
0.441764768309412 0.5309292078018188 0.9327688176306066 0.11202149439799952
0.4422146904450213 0.5309292078018188 1.1510935032401628 0.10675217090839803
0.43702283723738733 0.5309292078018188 1.0345499842977428 0.09937539896222551
0.4371048848118547 0.5309292078018188 0.6243742339123385 0.10311773581665395
0.46398802132177774 0.5309292078018188 1.3524974158716665 0.11637847555901959
0.44391704148240724 0.5309292078018188 0.97993544267182 0.11116440737666533
0.43980866932347074 0.5309292078018188 1.0042019355733989 0.10464731012018763
0.4461648015923675 0.5309292078018188 0.9225988016214983 0.11559094270925901
0.4496757144018378 0.5309292078018188 0.6690718294771247 0.11349561578278808
0.4398471197481537 0.5309292078018188 0.966854121408281 0.1108196036853112
0.436378315927043 0.5309292078018188 0.5979980837906573 0.10996160445046213
0.4449978919974671 0.5309292078018188 0.7481038085387719 0.12700511995702876
0.4542937688499321 0.5309292078018188 1.2972635635898617 0.13213025097070108
0.4406484819275057 0.5309292078018188 0.6631992536278399 0.10923713421214577
0.44185108696038333 0.5309292078018188 0.9113940671113369 0.10595060330677648
0.43841623556344644 0.5309292078018188 0.9544025546518956 0.10438495325434473
0.44119418358951124 0.530929207801819 0.783577894488163 0.12484628649154339
0.4223555068012933 0.5309292078018188 0.6497442520842791 0.120015705226724
0.44478914192615226 0.5309292078018188 1.122324396461844 0.11491065644115286
0.46400954439452147 0.530929207801819 0.6249672877424032 0.13805997459454333
0.43533875030542113 0.5309292078018188 0.9206791986937812 0.10337439778181023
0.45184125285943255 0.5309292078018188 0.9894038406660703 0.11811439804767264
0.44340308744964096 0.5309292078018188 0.8576069486627638 0.11522795077755732
0.4448120377842677 0.5309292078018188 0.873607974931877 0.11738814394453266
0.46366180471386886 0.5309292078018188 1.1264836633900361 0.13662954013627415
0.4290949043585838 0.5309292078018188 0.5904579325800497 0.14814018507563337
0.43811146713606003 0.5309292078018188 1.0712904988526604 0.10934134833487848
0.4306270579307595 0.5309292078018188 0.7544879250768626 0.10426727969159706
0.46451021730899805 0.533254849864513 1.4903537120663999 0.13173867120205526
0.4645102173089981 0.5341703801718495 1.2996076482529977 0.16057892732446505
0.4645102173089981 0.5310356244016321 1.3118092775693562 0.1497573446850559
0.4645102173089981 0.5333299184932581 1.2802748780064035 0.14225184238712668
0.4645102173089981 0.5320533434379081 1.4354213184259623 0.1281652846198293
0.4645102173089981 0.5335654241236963 1.2294950963107898 0.11186874825675382
0.46451021730899816 0.5348107377999786 0.6430776969976332 0.13495435822556195
0.4645102173089981 0.5343748983707108 0.9263938100022058 0.132437563312476
0.4645102173089981 0.5348606368039662 1.135744137789525 0.13536335428283913
0.4645102173089981 0.5332340922381217 0.9712888063221639 0.14343450452330703
0.4645102173089981 0.5329445482710911 0.6824579721034809 0.10637376561618184
0.4645102173089981 0.5320548746603658 0.6996834576091258 0.13238794413137617
0.4645102173089981 0.5337230208877416 1.0840628246277733 0.15607744162347142
0.4645102173089981 0.5346575591827067 1.2082860611940502 0.11837836165860083
0.4645102173089981 0.5325977009816114 0.665905339753776 0.12907929048486574
0.46451021730899805 0.5350321448319272 0.9393247312120581 0.15030491744660562
0.4645102173089981 0.5346874824958494 1.2594559709554938 0.12299349186870202
0.4645102173089981 0.534620853362801 0.5844237070482045 0.20129842516649088
0.4645102173089982 0.5340067962967541 0.6546888039008673 0.12340015633869417
0.46451021730899805 0.5343039296617655 0.7965225361583173 0.1615598730171644
0.4645102173089981 0.5346365632941488 0.9613547612249894 0.1364405757195454
0.4630770224586779 0.5351788699626923 1.1477115251853538 0.14078405273538094
0.4637231309702141 0.5351788699626923 1.014109296912 0.1435377870707427
0.4644587687195404 0.5351788699626923 0.7232423591487467 0.18293182643801245
0.46377951463026285 0.5351788699626923 1.3958713454832374 0.127395711698775
0.46306581441753686 0.5351788699626923 1.4065511852674142 0.13453688552753498
0.4638445290735536 0.5351788699626923 0.8397357825952568 0.14710223849566031
0.4636946074839825 0.5351788699626924 1.4714858451321304 0.13580250000754637
0.46404310496917406 0.5351788699626924 1.5011572631793917 0.1402752223954095
0.4620273773809869 0.5351788699626923 1.5160063167682007 0.1619291253810866
0.46283662649215945 0.5351788699626923 1.4246030940568253 0.12609342159013742
0.46179342053978734 0.5351788699626923 1.4457953020862333 0.12539997589956767
0.4626750580883667 0.5351788699626923 1.3194556043080197 0.14267654469318342
0.46377002772830755 0.5351788699626923 1.1859937087746848 0.11346247154025761
0.46204987681882587 0.5351788699626923 1.0305582123134829 0.13701514369365506
0.4615315440824039 0.5351788699626924 1.4618008934515212 0.13001384421416262
0.4618613352148483 0.5351788699626921 0.8143155245253676 0.1389030379623427
0.462372002435447 0.5351788699626923 0.5967588879339374 0.15055134791515334
0.4616617635086206 0.5351788699626923 1.1744321408778817 0.12268770186370939
0.4624441225679006 0.5351788699626923 1.1614399984022346 0.13018928289429513
0.4624487548296853 0.5351788699626923 1.0501644963099381 0.1291575822363435
0.4625441358376482 0.5351788699626923 0.9919874919531798 0.13030447714780122
0.46151219631619844 0.5351788699626923 0.6071869560347293 0.13996985541074242
0.46152679373434136 0.5351788699626923 1.2191161662471288 0.11152529364122289
0.4623539667647883 0.5351788699626923 0.897817829345154 0.14838675977123447
0.4615099724243402 0.5346478941746968 1.3638932954874075 0.12426978933361844
0.46151065116253887 0.5349323438876529 1.2398505173452619 0.1180036132872506
0.46150645897612097 0.5331754570265929 0.7351509345545765 0.17293815851083447
0.46150818004625094 0.5338967335150266 0.9073855748464585 0.1389587406410764
0.461508907360089 0.5342015406010102 0.875230401870988 0.14853663983807902
0.4615093274886962 0.5343776106409333 0.8273695529004572 0.13093847752854665
0.45785080702902514 0.5330789140692643 1.098149867575974 0.13723462113670382
0.4584660133797352 0.5330781457949565 1.1183218572098872 0.13642511058044596
0.45281000266480803 0.5330852090635845 1.178268131415183 0.10734275290227313
0.4532828059911796 0.5330846186232422 1.3291024531939404 0.11513746089383804
0.4556360861472783 0.5330816798293223 0.574070886624358 0.2520967454676122
0.4525664674849815 0.5330855131921446 0.8554786647028321 0.1303398819711706
0.45494204549103223 0.5330825465525025 0.6505097266049094 0.12736835057407295
0.45250925421714777 0.5394123589553326 1.4581074011787616 0.1199122029087061
0.4525092542171478 0.5394338410861216 1.1265786768299915 0.1152218134998469
0.4525092542171478 0.5371437437856075 1.3043047697068584 0.12224950298944616
0.4525092542171479 0.5420517564636005 1.293083801650549 0.12231237187543002
0.4525092542171478 0.5403794294095418 1.2757521664811309 0.11895393126771513
0.4525092542171479 0.5342509300257394 1.4430371086196243 0.11424953005112867
0.4525092542171478 0.5375395772716592 1.3818800780477842 0.1165764116537951
0.4525092542171478 0.5429328785012947 1.5021466746710304 0.13655283349264266
0.4525092542171478 0.5361315734267609 0.9540626173999452 0.11773081456798766
0.4525092542171478 0.5356287290374637 1.1409569228432779 0.1257126994366024
0.4525092542171478 0.5344487466191202 0.6773282347257854 0.12073889836314355
0.4525092542171478 0.5373861363466019 1.408981495737305 0.10680941124733112
0.4525092542171478 0.5377481221279827 1.0761919415430796 0.12135595517966406
0.4525092542171478 0.5378507069582701 0.8888660633607881 0.12489659719908068
0.4525092542171479 0.5373621155224715 1.428649517173964 0.11361261243612082
0.4525092542171478 0.535397509759934 0.7966104674090917 0.1238635290092525
0.4525092542171478 0.5364368807797049 1.247531056352059 0.11308003253117296
0.4525092542171478 0.537323134647005 1.108963584483327 0.12734315617645003
0.4525092542171478 0.5396061950282935 1.0363665304192846 0.1149937971280603
0.4525092542171478 0.5397679571060401 1.4825091786034337 0.10733223611104412
0.4525092542171478 0.5384946329048786 1.4710225356070252 0.11543918386710496
0.4525092542171478 0.5415602329594378 1.2210899205884105 0.1122255118619375
0.4525092542171478 0.5335732292065869 1.006465863212612 0.12147313540603455
0.4525092542171479 0.5414775779937032 1.3548632431731897 0.11627372378273453
0.4525092542171478 0.5381677418652351 1.3656284433983248 0.11232467556375035
0.4525092542171478 0.5358909849307649 0.7740799034668608 0.15080272458966976
0.4525092542171478 0.5393209408909998 1.0139946030812155 0.12294860303861897
0.4525092542171478 0.5383050300141135 0.9237283762001854 0.12133585505364855
0.45250925421714777 0.543100725724734 1.4494639552910809 0.12634563120084485
0.4525092542171478 0.54220117098454 1.3445982227413555 0.11777215819864278
0.4525092542171478 0.5359708473045341 1.2130622604409043 0.11202212314516195
0.4525092542171478 0.5370026145581436 1.169621216531732 0.12539725837160834
0.4525092542171479 0.5434591746191377 1.3334899968248684 0.12017084659235527
0.4525092542171478 0.538046893351368 1.1580307412800352 0.12094520673902392
0.4525092542171478 0.536784369489624 1.4929921635581476 0.12302700844801831
0.4525092542171478 0.535851051806119 1.2023866876987204 0.11596606063192244
0.4525092542171478 0.5389860706240692 0.9706165399518154 0.12252102379047385
0.4525092542171478 0.5331456786533553 0.5848488530361146 0.1951835258978754
0.4525092542171478 0.5335065173154312 0.6368536048545405 0.11764748859195269
0.4525092542171478 0.538874785367053 1.2609090515722028 0.12058095531466012
0.4525092542171478 0.5408038925766315 1.3968522497633376 0.10771929586073921
0.4525092542171478 0.5376603750134041 1.320529783947867 0.13015461249487806
0.4525092542171478 0.5414016847878506 1.5122089958915725 0.1411846248042172
0.4525092542171478 0.5335920816764705 1.0579287940565534 0.12041891328522675
0.45250925421714777 0.5387453507948983 0.6602377732651163 0.1232090448470754
0.4525092542171478 0.538796110377239 0.8642540365298388 0.12630599596094502
0.4525092542171478 0.5426873634592468 0.8550170001547482 0.1275006028119422
0.4525092542171478 0.5399868298981009 0.832150426695921 0.12426572734853814
0.4525092542171478 0.5366889383503577 0.6248050027940423 0.1293730560422186
0.4525092542171478 0.5476977847052735 1.240847568101003 0.12421572729988552
0.4525092542171478 0.5427064086336505 0.7627555988996877 0.12443740719793078
0.4525092542171478 0.5426889104527239 0.7015079503588435 0.11280672649605278
0.4525092542171478 0.5465475370454065 1.368539700707969 0.12267473965625367
0.4525092542171478 0.5464802779287019 0.9510851468663466 0.12430226122077456
0.4525092542171478 0.543153585912954 0.6743009572717698 0.12055041954514252
0.4525092542171478 0.5437692942629626 1.1852716823566396 0.11112527974637003
0.4525092542171479 0.5412767471642017 1.0878044858085407 0.12117268701680979
0.4525092542171479 0.5477452159471539 1.0203776257068355 0.13055834646932693
0.45250925421714777 0.5434725181256245 0.9348427435466199 0.11480703489023315
0.45250925421714777 0.5474660487320029 1.252344434571524 0.12058178650557926
0.4525092542171478 0.5402505985259918 0.7155956154920001 0.13932521462092343
0.4525092542171478 0.5420768218043458 0.6893574825302652 0.11262361022831607
0.4525092542171478 0.543267885707426 1.0667084433265555 0.11930690942806693
0.4525092542171478 0.5399029327125134 0.8790957442916982 0.1272808135924877
0.4525092542171478 0.5408231139587985 0.6097656180118479 0.11843466332107735
0.4525092542171478 0.5408078906703637 0.8981427448914929 0.1255136201575189
0.4525092542171478 0.5407588755377006 0.5960625239910242 0.13033871756228568
0.4525092542171479 0.5445534282342079 0.6358821380669648 0.12097117060838898
0.4525092542171478 0.5439360909303453 1.045759224659352 0.12046707407842322
0.4525092542171478 0.5422645212022258 0.647679674505945 0.11907294891483586
0.4525092542171478 0.5392817386211761 0.8432805670713253 0.12450909529661378
0.4525092542171478 0.5470521859219701 1.2094936910911438 0.11676465918572575
0.4525092542171478 0.5410451713350609 0.9968034076593434 0.11731504189738202
0.4525092542171478 0.5404051568286301 0.9829345778215286 0.1256541554871573
0.4525092542171478 0.5439437827082788 0.8205209521028957 0.11759254620805243
0.4525092542171478 0.546803845939518 1.2821065795116806 0.12315627765517916
0.4525092542171478 0.5458334195926304 0.9167231564186028 0.11978302120189734
0.4525092542171478 0.5410691483785202 0.9439036646344766 0.12047618402488502
0.4526764552385729 0.5477901860386706 1.1137761824449621 0.1203995790634963
0.4531064086816331 0.5477896149246386 1.1729115037147748 0.12465560250186343
0.45516388064115154 0.5477868819517424 1.1557931695871944 0.13255203948320643
0.45673948487585103 0.5477847890514485 1.3126757531572926 0.13225191738872222
0.4550668171425202 0.5477870108827393 1.3034974505850285 0.1479880838761803
0.4525943636343068 0.5477902950822611 0.7932963311287029 0.1085324446808926
0.4571048701209396 0.5477843037043861 1.4426579820454377 0.14140542351753457
0.4572089244045944 0.5477841654874177 0.709551789868486 0.12919377392831433
0.45380797130835504 0.5477886830277858 0.6657043011809906 0.12213275043321838
0.4614247033890188 0.5477785656007956 1.3508286176337814 0.12536685924695423
0.4596791180100904 0.5477808842897609 0.8406255369559481 0.14070524451462388
0.4566756787926126 0.547784873806089 0.6823237316439034 0.13000341288858044
0.4615070966572786 0.5468458224644245 1.24513990897898 0.12413194896075355
0.4615063202099366 0.5476173814689391 1.3267981451375925 0.13111663851707372
0.46150798580343766 0.5459622741692582 0.9794195535144911 0.1266031740862639
0.46150742542777823 0.546519121829831 0.7008188787730353 0.12108902293860965
0.4615070331220425 0.546908957697074 0.5717948368158783 0.16406991917364058
0.4615065091834301 0.547429597709947 0.6174795112966921 0.1256506716997782
0.4636040636601648 0.5456758141517639 1.3730088213861475 0.12726733802460227
0.4622468823090564 0.5456758141517639 1.2244927787264048 0.13078064350446272
0.46350311499647046 0.5456758141517639 1.4580967385644925 0.13741402801362154
0.4635797798994169 0.5456758141517639 1.433974699693953 0.10711489683211098
0.4615581423592538 0.5456758141517639 0.8656158172571853 0.1261099876369284
0.4641731895076249 0.5456758141517639 1.300890138962289 0.1347721823272297
0.46446680314724564 0.5456758141517639 0.929430876919422 0.13507009897845398
0.4639603239710996 0.5456758141517639 0.8058494606010438 0.11547001709240877
0.46364487672442334 0.5456758141517639 0.7948537535410445 0.13183714849509953
0.46373611015261906 0.5456758141517639 0.6065730401159237 0.12457049882969991
0.4634625313777242 0.5456758141517639 0.8779983383535364 0.14461522865936363
0.4643070502457042 0.5456758141517639 1.4030842301594786 0.14200100580750713
0.4640335983165642 0.5456758141517639 1.0241566583925543 0.14126033696613377
0.4642645418569239 0.5456758141517639 0.9197363534486757 0.1425768991908549
0.46302283128791505 0.5456758141517639 0.9697314331929843 0.13387044031416784
0.4645021075796065 0.5489775717035555 1.1793183343102291 0.12634611896869993
0.464502110784098 0.549905400147239 0.7481390696544274 0.12930506619038357
0.46450210344216186 0.5477796159765564 0.5929923686521582 0.14200747107530565
0.4645021082485277 0.5491712511402073 1.1655470893389264 0.13924948056223618
0.46450210631713695 0.5486120362562847 1.2016073403779173 0.14963431566505495
0.46450210636850886 0.5486269104830822 0.6760702967054651 0.1297176714810611
0.4645021072916905 0.5488942084894983 1.1918952777376253 0.1332346109517963
0.4645021097928581 0.5496183965496787 1.1141973814674297 0.132563056693248
0.4645021050448174 0.5482436488591838 0.6547134495399985 0.13589070538984516
0.46450210690880134 0.5487833467701172 0.948213209569348 0.1298040555473015
0.4645021001494288 0.546826238031793 0.6659445173216814 0.14332357844558213
0.46450210235957984 0.5474661651781192 0.6446468047631142 0.12438500243472544
0.4645020970844076 0.5459387917757906 1.3889300410650705 0.11915845888838376
0.46450209681733434 0.5458614634085746 1.0961007289114202 0.15962097723282756
0.46450209753257676 0.5460685546986446 0.7142876867137461 0.1543720924326711
0.4645020985604261 0.5463661581874633 1.1494405866314668 0.13828563720814996
0.4645020985297905 0.54635728796975 0.895600209373389 0.13801072803440945
0.46450209673793463 0.545838474016903 0.6277304094501056 0.1368579056880972
0.46450210405360803 0.5479566540701245 1.474763906367233 0.12015601838359781
0.464502108680445 0.5492963084614275 1.4133900337516976 0.13587604928910987
0.4645021020893853 0.5473879330463267 1.078982958806657 0.14008214595135268
0.4645021004540327 0.5469144330393234 1.2810143108598804 0.15034233347857195
0.46450210586331797 0.5484806374816615 1.4477024691405154 0.13167162475830457
0.46450209985695584 0.5467415553984678 1.4234170173596996 0.13057298775314188
0.46450210327735575 0.547731897990916 1.3611637639419993 0.1270225914971865
0.4645020965174794 0.5457746434067777 1.0343952633300035 0.11908759162188497
0.44416757781265853 0.5493822886510129 1.5197945021936903 0.1488850468182681
0.45703778098470316 0.5482569034448377 1.5197945021936903 0.1649317671983805
0.5579067979711411 0.4293170184347238 0.5030868209180542 0.13705791846532028
0.47421059996864007 0.5456068217754364 0.7405628999986574 0.14921533680887136
0.46974402742858273 0.5456068217754364 0.7574878115523067 0.14771596531487133
0.48061489257495427 0.5456068217754364 0.7793224646292085 0.1456670954945188
0.4832908724898776 0.5456068217754364 0.7539897173274268 0.12538816422574933
0.47495839443028826 0.5456068217754364 0.7716402537236788 0.15059478764928122
0.4718346931255858 0.5452887666521343 0.7228936254765537 0.1487392457814027
0.4840826099258302 0.5411271620949991 0.7229286123253726 0.1238183745652426
0.4789241017846765 0.5290964020369808 0.7230297283666406 0.14099479076055313
0.469889349410343 0.5246602628758139 0.7230669999741104 0.18366662019187535
0.47139922827601277 0.5081545603897977 0.7232056585255912 0.1300026891189947
0.4804526545043936 0.5128377265380188 0.7231663175289486 0.1284715482391581
0.4834982133600241 0.5022487545821716 0.723255295453345 0.0983038483455082
0.4722061297935439 0.4982413134538033 0.7232889611926624 0.09222799466537192
0.48386552323106663 0.5066312782690752 0.7330875160403265 0.11628699337733761
0.4684175147177225 0.5047031397048839 0.7426321430792048 0.13102022377437475
0.47440304271701433 0.5173699618378309 0.7450631303166539 0.14548947181605063
0.4838173687997257 0.5020242960404316 0.7409748635042627 0.09960786943712555
0.483815794335297 0.5018752861899641 0.7716418742306086 0.09008613135103016
0.4839614787453845 0.5158084532732148 0.7758631151368893 0.13805775390333364
0.48387329541366625 0.5073745025137986 0.7816471249609318 0.11542004009451202
0.4839977289999678 0.5192759144748117 0.7865805161660038 0.14315944141088183
0.4761080165669075 0.5110708333652617 0.7879396250186261 0.1481374864385226
0.4840269569563612 0.5220713710100523 0.7259919453634126 0.13698257292361388
0.4839731684026986 0.5169265468895745 0.7366275655471075 0.13233621806262633
0.48405664904385504 0.5249119408792504 0.7427066919982256 0.1363791360191308
0.4840804527763086 0.5271885064367476 0.7334254681703625 0.1395532117127302
0.48412519051756364 0.531467837403696 0.7501122763357346 0.13027389079864707
0.4841409459486215 0.5329747840241041 0.761742601224771 0.14070865235830157
0.4841754731266692 0.5362771763280786 0.7411010671103445 0.14502385159845718
0.4842710478869648 0.5454185359960504 0.7356423657970561 0.11821177231251481
0.48424565802371045 0.542990092846301 0.7652312158251874 0.14391740561603175
0.48410120472107065 0.5291730518611502 0.781072772981677 0.14694935750867325
0.4840261622309678 0.5219951677499444 0.7677459603187367 0.141587176012163
0.48424625740028915 0.5430473236235603 0.7877164781059461 0.14049934106432302
0.484157873266374 0.5345935939172394 0.7725403815133665 0.13795599181194212
0.4656669285156837 0.5329165891461587 0.7586752122834706 0.16430055537346339
0.46575790537509965 0.5242147133522702 0.7326021172385626 0.17107721587608687
0.46574171360081407 0.5257633412579972 0.7469883011842814 0.175060234515691
0.4658155022955456 0.5187058300770578 0.740479985120563 0.18595505695576384
0.4806071724581618 0.5337545043358989 0.7881302208789862 0.15838915415350902
0.4675879939649227 0.5361727832444447 0.7881505386891847 0.18341930464119163
0.46577909552731966 0.5221877507405248 0.7714924658730701 0.18385922122661322
0.46587028343216413 0.5134663779396844 0.7294656129755733 0.18351511409984989
0.4658199528780255 0.5182800658690538 0.7820711710081333 0.20568340759834308
0.46591084490570456 0.5095870129733967 0.7866808132679896 0.21865605046263012
0.4705724111284235 0.49787981094691064 0.7341550041840412 0.10335752904059363
0.4802030034812527 0.4982130105203313 0.7302905133720088 0.10128746337056378
0.4685768921641589 0.4988221254368029 0.7701649066653841 0.11753976849189594
0.46609081457809953 0.5002959986552268 0.7800984103860729 0.15021950577056442
0.48164742349698086 0.49906934396825064 0.7870982173760251 0.09878697778314774
0.4767114220140558 0.49741679701033137 0.7796437622229041 0.10682225886085822
0.4707722197011557 0.525880321926806 0.7880640634964216 0.17971108720815177
0.4737337160941345 0.5453568252635819 0.7882277011720309 0.1678839346951881
0.47770569846280725 0.4477277528840046 0.7676938457315288 0.11762705846384733
0.4804331510380235 0.4345600306733432 0.7655939177438067 0.12314421105602409
0.4778993296014332 0.4208673660215556 0.7726479205918495 0.13013389118826568
0.4851999256634672 0.4172087621659747 0.7923024877275802 0.12008279501235207
0.3054726437419135 0.48192202851844473 0.5030209501131008 0.12530321432986916
0.29693041482001387 0.48942628361080764 0.5010893118071625 0.13833198438147756
0.29764189557165344 0.4970653410573023 0.5105167590925849 0.10905812049251128
0.30383660765128734 0.5024450356157794 0.5007043703041199 0.16062389925997908
0.3150580299985435 0.49900679845989004 0.502857414767743 0.12555535701057383
0.30051763780527485 0.48332062846789436 0.48998675070768793 0.220160613221265
0.29761748172575947 0.49770436105483923 0.48230352085276973 0.28848117660522615
0.29772847508018063 0.49878306659094857 0.4921623616362325 0.19605949695396546
0.31640972039468224 0.49758445100948245 0.4814561403505438 0.2872553121740826
0.300496420962711 0.484933606815768 0.47761494283557504 0.2805955156805696
0.3073960427059548 0.5018103463094141 0.47761471257831684 0.26997839633670506
0.31510150329982806 0.49452638197611154 0.4730042021193249 0.22213554950042863
0.3148837669288712 0.4878378452960556 0.5106463217089185 0.11344136586078134
0.29937137991269436 0.48809769802418423 0.5106463217089185 0.1137982563895249
0.30761722399901 0.5023710597574826 0.5106463217089185 0.11643062807546381
0.30933367726934363 0.4865361721487731 0.468603202039958 0.20503646089813798
0.4784297440827465 0.4656081376422869 0.7716723230696318 0.09822756117947731
0.4704548659866686 0.49024379485861985 0.7517740295916353 0.08278926453404974
0.48341891653605057 0.4728851121390217 0.7601598324003548 0.08343115150760369
0.48301471866677714 0.48592824988412586 0.7585141325328955 0.07236733510674359
0.4671513291801159 0.47434693905291725 0.76521472979198 0.09193006732723376
0.4781335569604413 0.4757211660307199 0.7657808116794942 0.0828163807710518
0.46964219144738995 0.48412082410483004 0.7596802977170938 0.07464447775462374
0.4744307640467225 0.4101757212649229 0.7884611275401323 0.12223416274749266
0.47815105767547206 0.4208210624150809 0.7860131899318847 0.11952945969732563
0.49058784354327045 0.2817506494055672 0.8504345870251746 0.131790066921791
0.493077237125808 0.270949235434423 0.853858627255619 0.13253438003343154
0.47793249786557396 0.2594595522450393 0.8571413177717991 0.13948813854588107
0.46276845748235357 0.26588613872270983 0.8551599430195878 0.12714449784830667
0.47329786422498216 0.29412897486064915 0.8468416428939103 0.15266101908813082
0.47466206483071216 0.27311671997883136 0.8524801566417274 0.1377651635081444
0.46521134956415844 0.28898739337321866 0.8482161449149116 0.13018151036449488
0.45933706671431485 0.282586806979947 0.8503276047523044 0.13244604916634042
0.48287876698230553 0.27463869585245815 0.8573643614712807 0.1306642674120207
0.48326001759774057 0.2653441849592833 0.8605118317352816 0.13648286271244212
0.4579212354571227 0.2765467630502032 0.8571989829271921 0.12131838140402022
0.48028115819593636 0.2883471981940901 0.8534537655816228 0.13815863075341894
0.47009831742110525 0.2820901001447953 0.8548522112132223 0.14597879258185026
0.6199873685836792 0.4429465400434135 0.5542429930974775 0.1450242861764223
0.6199873685836792 0.44199907405721073 0.5436988081154976 0.13385507341365613
