x y z curv
0.21210253700984977 0.14098112285137177 1.4692293278483102 0.14461728610068947
0.20435336672223006 0.14098112285137177 1.062925176113904 0.1366407422061636
0.23422350420393204 0.14098112285137177 1.3778557903320445 0.13315681217715397
0.242057156281478 0.14098112285137177 0.9388040875533731 0.13173259944474017
0.23784074878325326 0.14098112285137177 1.1042174954660662 0.12239749013167461
0.23664481439844393 0.14098112285137177 1.3629737252670018 0.12816501874751055
0.2428449331840032 0.14098112285137177 1.084738898065078 0.12350549262277802
0.2404860219601339 0.14098112285137177 0.9988289885371013 0.1239750973142562
0.23929473877682159 0.14098112285137177 1.4399754801115925 0.14086652166993308
0.24088011920916422 0.14098112285137177 0.9725189367999049 0.11405261636198177
0.24041540618117707 0.14098112285137177 1.2318561963797026 0.14068725334658563
0.2422900646138781 0.14098112285137177 0.8825971522146244 0.13007046366288877
0.23894426444661357 0.14098112285137177 1.2082025090336608 0.13069051700058895
0.2427434676492881 0.14098112285137177 1.1640103885641182 0.14949666179398138
0.24114123575051757 0.14098112285137177 0.9262924777441366 0.15120173183516664
0.24136253136547398 0.14098112285137177 1.1531081928336713 0.1288980500510619
0.24113814652289256 0.14098112285137177 1.415351713277818 0.12665871529947567
0.2419622155481195 0.14098112285137177 1.3511033755401567 0.11153921681614057
0.2418344069620526 0.14098112285137177 1.3168513444259282 0.1242904185049828
0.2406863943972754 0.14098112285137177 1.1764084596408069 0.13641245548615583
0.23924806868464105 0.14098112285137177 1.384252694363556 0.12423193567402287
0.24094150402551234 0.14098112285137177 1.322526371004649 0.11828859991547326
0.2419345402522057 0.14098112285137177 1.0548009041143982 0.1201085405003732
0.24098554383172924 0.14098112285137177 1.1880615448502057 0.13946498005940727
0.24065333634829306 0.14098112285137177 1.016845547300853 0.12683119323895342
0.23953167092082275 0.14098112285137177 0.5061852565277545 0.1275757337022536
0.24087349845334283 0.14098112285137177 0.1315028555940415 0.14269992879954957
0.23352896284104302 0.14098112285137177 0.10147381822995923 0.1266773661751793
0.23455072087062184 0.14098112285137177 0.16017877270575742 0.1369366535013961
0.24250170666589838 0.14098112285137177 0.2411950776214296 0.12761293124806353
0.2418879565444475 0.14098112285137177 0.1441124473550391 0.13431641515951162
0.23497646819837947 0.14098112285137177 0.06316483712432805 0.1326050788034921
0.2331820817027152 0.14098112285137177 0.20522647712207318 0.1343175958828432
0.22760277552670838 0.14098112285137177 0.07550315983319217 0.13301218613215646
0.24272292761921616 0.14098112285137177 0.5775884882609164 0.13521752506308415
0.24257440065295557 0.14098112285137174 0.577624725020887 0.12981787179145268
0.23154729930515833 0.14098112285137174 0.23886605106075526 0.12166069941189502
0.23010317226707158 0.14098112285137177 0.07265755867584431 0.13496411395853514
0.2409507044490098 0.14098112285137177 0.6286038058865359 0.1298070095711879
0.2289419721720116 0.1409811228513718 0.13757417966322713 0.12786687683365086
0.2412999113446303 0.14098112285137177 0.0903703068359308 0.13563190587126583
0.24255432492800663 0.14098112285137177 0.14543741623538423 0.13698571240901294
0.23592407052267297 0.14098112285137177 0.2816281721799977 0.12065566776686219
0.24226287518720144 0.14098112285137177 0.04008595113353797 0.1597946651658276
0.24172180055884754 0.14098112285137174 0.04231614068040013 0.16272036757532926
0.2367271373817784 0.14098112285137177 0.3188485075077183 0.11798413887421969
0.23719574667386545 0.14098112285137177 0.43621348308943625 0.12056618522292667
0.23475878522699356 0.14098112285137177 0.40213653446951947 0.12184686963821714
0.23342617617786793 0.14098112285137177 0.35072225005873664 0.11818420180670916
0.238539959569064 0.14098112285137177 0.13198903782367705 0.1423615017721049
0.2305127575339279 0.14098112285137177 0.15072526476744041 0.13220946311146847
0.23934705522831715 0.14098112285137177 0.1939367623744056 0.12156543785297298
0.23459659773861025 0.14098112285137177 0.08215871044185469 0.13021945780459349
0.24227532073795324 0.14098112285137177 0.6470494530695803 0.12936823255602972
0.22820434135031517 0.14098112285137177 0.10886032571233546 0.12222343958770648
0.23485555054620816 0.14098112285137177 0.2479791146319197 0.13491120001821424
0.23233859302692197 0.1409811228513718 0.23785119358561807 0.12297278256767731
0.23379040282043173 0.14098112285137177 0.26231912131573826 0.1250104538978457
0.2409682647967586 0.14098112285137177 0.3872501289795681 0.12198015831826711
0.24284229267626228 0.14098112285137177 0.6261270816982321 0.13990698279488686
0.23664323558346234 0.14098112285137177 0.3058581980278833 0.12112836089237725
0.23565654037471417 0.14098112285137177 0.11288194994376508 0.12716204930817324
0.24298370709952152 0.14098112285137177 0.06880152269673256 0.1415279842815462
0.24281585207167738 0.14098112285137177 0.6891153292870881 0.14449120633993584
0.2417897778308905 0.14098112285137177 0.34406332039203397 0.1315216815802376
0.23076934781020053 0.14098112285137177 0.1820200193095646 0.12252889832508664
0.23007486014579553 0.14098112285137174 0.19377365406235328 0.12571247489291773
0.2432322173495386 0.14073322582325137 0.7371451422938158 0.12920427990919184
0.24348209453172315 0.14048335174393628 0.702925454528786 0.1425151778277255
0.24340452896439085 0.1405609163480921 0.5351194618573192 0.14749822950373737
0.24314582195994708 0.14081962014002142 0.6910623512563416 0.14528665843236174
0.2435405418990671 0.1404249051023671 0.03034248960434436 0.15942096147010126
0.2434891415163479 0.140476304846818 0.5520686423520764 0.134417385533941
0.243558314019158 0.14040713320296289 0.48389430035274156 0.13067297498414732
0.2434481735996767 0.14051727225476696 0.8210659755467986 0.1551437535774689
0.24330407934961906 0.1406613647155229 1.0965499652006916 0.13564147323442036
0.2432835542775041 0.1406818895327662 1.0449361867412015 0.13012134929566754
0.24325968624217892 0.14070575727170817 1.2171203777134607 0.13247770208189405
0.2431060156937352 0.14085942591193587 1.2421318208393657 0.13571862878373772
0.24303883284343314 0.14092660792798958 1.2774594284497671 0.11798076678318437
0.24317623449327141 0.14078920798434705 1.0190813443192757 0.13118103053983757
0.20358432084321976 0.12542104777098703 1.0918214372374409 0.13526984832409894
0.20358432084321976 0.124725324198665 1.3750067258925587 0.12372085098886487
0.20358432084321976 0.12476244077016935 1.1980992551619574 0.1287773027282288
0.20358432084321976 0.12544918850127929 1.1977193669080248 0.12894613955534556
0.20358432084321976 0.12543105587373649 1.1622533640443977 0.12359489568142777
0.20358432084321976 0.12533565736539964 1.3181093554340877 0.13650382599778435
0.20358432084321973 0.12447567089866893 1.3987663446435241 0.1217381159507055
0.20358432084321976 0.12454632899523344 1.2802249187797556 0.14458469211886482
0.20358432084321976 0.12509313890751392 1.4118921332982601 0.1295428340911114
0.20358432084321976 0.12507838991819317 1.2154807059288206 0.13687293660385996
0.20358432084321976 0.12468907601607251 1.3632194103237478 0.13746797951408637
0.20358432084321976 0.12556258032087847 0.8841834501790348 0.17433315114990633
0.20358432084321976 0.12412702000674174 0.0917620019101644 0.13020833219642122
0.20358432084321973 0.12456849506728848 0.2974202531584146 0.13277222990471982
0.20358432084321976 0.12510989130559405 0.4938903338164336 0.15263986163992876
0.20358432084321976 0.12554686994056652 0.5929109943256745 0.15314168026069008
0.20358432084321976 0.1255193888692812 0.07614417231617346 0.14404289184294894
0.20358432084321976 0.12489045885686102 0.10559780971168917 0.12369751310034777
0.20358432084321973 0.1251155958483911 0.4603691125313202 0.1410412114352053
0.20358432084321976 0.125596652361644 0.3320937130514436 0.12917128064345484
0.20358432084321976 0.12551221046116767 0.1560810530226917 0.14524825971324257
0.2036380598530364 0.12252739308014322 0.6478539486713709 0.1424625157287608
0.20368780082770277 0.12247765241430814 1.0794868848379435 0.13713787562318355
0.20372026082469818 0.14051706588933457 1.4472072131755893 0.12648835005231865
0.2041246768280734 0.1409214768708424 1.229707845612154 0.14564314376144405
0.20388798721747042 0.14068479019935115 1.343751466736665 0.13047732388052113
0.20358432084321973 0.13813525169516014 1.1128304968590448 0.13279137957884
0.20358432084321976 0.1383560710928624 1.1764340554520174 0.14127372170712743
0.20358432084321978 0.13873357816042908 1.2695460646678023 0.1444275498078758
0.20358432084321976 0.13889588537328243 1.4196089173994333 0.140797654849058
0.20358432084321976 0.13937642531394642 1.3443862774327502 0.13326547021169582
0.20358432084321976 0.13972805653610051 1.396364777205489 0.13301257884025827
0.20358432084321976 0.13922992830644818 1.3944636755042037 0.13301372652772042
0.20358432084321976 0.1374824154477446 0.9797787230756541 0.13721893117870904
0.20358432084321976 0.13816487711295003 1.2972521782862323 0.15286792905256177
0.20358432084321976 0.13784809079067512 1.047207724724187 0.1277387124328673
0.20358432084321976 0.1373642636059409 1.0604334717316721 0.13520828887162872
0.2050244055558761 0.1367311328649521 1.3325372856695332 0.13795231858518112
0.2049929577811084 0.1367311328649521 1.3615419712171883 0.14029842382107208
0.20611979441536177 0.1367311328649521 1.4390895661080023 0.1346125743958133
0.20550980841634378 0.1367311328649521 0.9283863313483629 0.1311283796688307
0.20595614411224364 0.1367311328649521 1.2700113701854308 0.14206017341708943
0.20509110313169449 0.1367311328649521 0.946086835794892 0.1275694503715855
0.20516891247527372 0.1367311328649521 0.3770764769541088 0.12867664693968028
0.20452587762790084 0.1367311328649521 1.3790291968522055 0.13508726212422106
0.20517971056818518 0.1367311328649521 0.9590850646242186 0.12947198998707868
0.20544036165531418 0.13673113286495206 0.14452256181097045 0.14226861182309034
0.20573399840106543 0.1367311328649521 0.5150828363928208 0.11986626311065962
0.20591256319035475 0.1367311328649521 1.1550281984611255 0.13462571719435698
0.20522619777721418 0.1367311328649521 1.0286787496193854 0.15479282528155935
0.20463070092836802 0.1367311328649521 1.1414431787537742 0.11957014059766158
0.20490793279001623 0.1367311328649521 0.8752055943935163 0.1345618552796688
0.20567725743837204 0.1367311328649521 0.40543955385765407 0.12874515173622555
0.20494908703909942 0.1367311328649521 1.2070760888926813 0.13562864050212867
0.20455191745663096 0.1367311328649521 0.27701393710861516 0.13335039520165504
0.2043327013474899 0.1367311328649521 0.6737527156469107 0.14890169706615983
0.2042152924259147 0.1367311328649521 0.1702880530947931 0.13856821869424932
0.20455405191170736 0.13673113286495212 0.1689302452228077 0.13391712515643464
0.20463575300761927 0.1367311328649521 0.6843407211314165 0.15493460384682092
0.20497307118164784 0.1367311328649521 0.3662365853180267 0.12110619633330645
0.2051401618705399 0.1367311328649521 0.18856878289760814 0.13497352265918036
0.20358432084321976 0.1378963317002111 0.6119861362829289 0.14132544385865534
0.20358432084321976 0.13762007729992543 0.24263373463268997 0.14561605474541306
0.20358432084321976 0.13854824884114256 0.09774006070922903 0.11408800036819033
0.20358432084321976 0.137842626151148 0.2209760866675714 0.13830142494004796
0.20358432084321976 0.13780699901657067 0.5836555998568865 0.1312711125697137
0.20358432084321976 0.13864132240559054 0.13238772015815772 0.14436676502120868
0.20358432084321976 0.13740627534895722 0.38965956558203524 0.13750361066576383
0.20358432084321976 0.13772211246065252 0.08558591185848541 0.1459659408926407
0.20358432084321978 0.13935821392825695 0.058849477025258085 0.16188820228138934
0.20358432084321976 0.13855576525085317 0.29669286242767784 0.13105250543073146
0.20358432084321978 0.13741811257546369 0.11933590315230642 0.12905314064413534
0.20358432084321976 0.13762355743785648 0.6502315236892017 0.1372582538267926
0.20358432084321976 0.14019630328499422 0.7411332643950727 0.12317352379289516
0.20358432084321973 0.14028697756771688 1.195111378176048 0.1179103583404398
0.20358432084321976 0.13842955841556764 0.863023448518149 0.14197085561489464
0.20358432084321976 0.1402908244271538 1.2401773064188935 0.15126440649346504
0.20358432084321976 0.1402019826786408 0.39815352364651957 0.12951087103085773
0.20358432084321976 0.14028964067055094 0.31388956530014234 0.1503579147525339
0.20358432084321976 0.13996262960060513 0.7817141306049654 0.13640899310821414
0.20358432084321976 0.1398203814278691 0.25892698523900404 0.13799969226507514
0.20358432084321973 0.13988767653868478 0.4506199662782908 0.11702613711372223
0.20358432084321976 0.13964686721653785 0.6636907252488238 0.14292818227231374
0.20358432084321976 0.1393855861457604 0.9790253898256223 0.13181584396601204
0.20358432084321976 0.14030929536872344 0.6200667118832139 0.13918085532306915
0.20358432084321973 0.1384756850913004 0.9315382141384703 0.13718822876250392
0.20358432084321976 0.13751615035494358 0.7919366235798379 0.15721255224036645
0.20358432084321976 0.1401187136906809 0.6304141943662103 0.1332023905015559
0.20358432084321973 0.13865071271835527 0.8121742655354175 0.141154708128629
0.20358432084321976 0.13975970514101277 0.9695493134730422 0.13551918906889626
0.20358432084321976 0.14006004351311813 0.15789118673664637 0.14040613811759106
0.20358432084321976 0.13975441772579336 0.8144469128786471 0.13551571598922107
0.20358432084321976 0.13836020180055944 0.7080391187516731 0.14204076623861595
0.20358432084321976 0.1398867235113866 0.6018630413283725 0.13172647576680693
0.20358432084321976 0.14013286837326727 1.112304713604007 0.13753161625599264
0.20358432084321976 0.13958680873344342 0.33581982587448866 0.13820338130731058
0.20358432084321976 0.13943825102686386 0.7531040590927506 0.12571218490494904
0.20358432084321976 0.13859791817192826 0.7218927803145399 0.1493821709728897
0.20358432084321976 0.14014662211088316 0.584809759872318 0.12892747765620813
0.20358432084321976 0.1403731953259378 1.2499714056545719 0.15417659734838032
0.20358432084321976 0.1385691281718257 0.694539040330613 0.14061847627212873
0.203865724594132 0.1406625278524606 0.8847934564576647 0.13250270959717989
0.20379270985106374 0.14058951401605863 1.0177379128221329 0.13335231232553227
0.20369878658589466 0.14049559191718908 0.2334087804616744 0.133006128959043
0.20370688843554863 0.14050369366623766 1.0966753064993935 0.14077051753031067
0.20367464906682461 0.14047145469784855 0.674711251076292 0.14922930541817803
0.20361808497042497 0.140414891303838 0.18065664413676896 0.11798168379514351
0.20396532989996818 0.13695012379488378 1.077527381800673 0.15065320506791532
0.20380865504499335 0.1371067967043363 0.5511773440134551 0.13889053438502125
0.2040534129251924 0.13686204186343734 0.9064009228205793 0.11752954682917723
0.20413400974568108 0.13678144604376605 1.408850865961684 0.13807451717146943
0.20365162433795575 0.1372638254614328 0.7943739261595395 0.14133295423726913
0.2041826861508247 0.1367327702430655 0.4293083677306535 0.13648561953052865
0.2039852469516862 0.1369302069904873 1.4598030470345806 0.1266961827933521
0.2040231628506008 0.13689229156239632 1.3780570267284193 0.13869021936404666
0.2037801502091052 0.12582696059767026 1.1081577147671655 0.13686502475760823
0.20398749087943585 0.12603430126800091 1.4088232585697513 0.13585214636961465
0.20359497427176088 0.12564178466032594 1.3378165405386802 0.13926436907223094
0.20363402688830973 0.1256808372768748 1.1245114396668725 0.1198191262301646
0.20416233589149663 0.1262091462800617 1.3102332018739373 0.13618633440494504
0.204019877824275 0.1260666882128401 0.970884939644367 0.15160066235493458
0.2037605022706765 0.12580731265924155 0.752666638982219 0.14312303804457888
0.2038488182097168 0.12589562859828185 0.5412745031426076 0.13566872560535526
0.20658431947231293 0.13763652601382245 0.14627173851278227 0.13278799703707375
0.20658431947231296 0.13841276400681538 0.49835678638540726 0.11383360519165622
0.20658431947231293 0.1376641495315215 0.3052126685340632 0.12473560940672616
0.20658431947231293 0.13728343330221307 0.8523074526320016 0.11975837802880616
0.20658431947231293 0.13700475133876508 0.3353588018677104 0.13193471832678388
0.20658431947231293 0.13717066806118922 1.1327380497838069 0.1289023052181648
0.20658431947231293 0.13751060851278601 0.7741112044784633 0.11586724812011173
0.20658431947231293 0.13697640439016415 1.285930751296574 0.13993403530833157
0.20658431947231293 0.13768907011832965 0.5382681967775276 0.12428411719264255
0.2435145007131907 0.1225113129538392 0.7922345319767691 0.14103081305440388
0.24348058552295895 0.12573486565797595 1.3183099753740073 0.13636719957288548
0.2433430604991812 0.12587239068175368 1.3298444076284786 0.13294003016917438
0.24356221428819064 0.12565323689274427 1.373802910517325 0.1443517412990195
0.24352315919099948 0.12569229198993542 0.5459881708525663 0.14244291593776662
0.24346233871274092 0.12575311246819398 0.6223554879927979 0.13727539012194473
0.24329977327721336 0.12591567790372152 0.9786520726196782 0.14260317393902794
0.2435373197015835 0.12567813147935142 1.0093279067116347 0.17111658814443442
0.2430676103697608 0.1261478408111741 1.4589532737870086 0.16295203658957788
0.24352883733560138 0.12568661384533347 0.5462178551964485 0.14244311342878532
0.24305688538468131 0.12615856579625362 1.119391616854403 0.1301424841907007
0.2431643462513121 0.12605110492962285 0.6067386944491276 0.15470128330115163
0.24315368685156677 0.1260617643293681 0.4176044260924559 0.15092393828276787
0.24309600212968965 0.12611944905124525 0.1921970082528522 0.12676035632425187
0.24299449173564766 0.12622095944528725 0.10539811993333904 0.12956351176016714
0.24307296979192444 0.12614248138901052 0.7691313570282665 0.12054097014622013
0.2432092312185244 0.12600621996241054 0.12586993830518045 0.14034331181556234
0.20387739513313108 0.13703805746978398 0.19981507707251328 0.13514935564351152
0.20367910928364577 0.13723634085703923 0.22187136028691645 0.13863117069501252
0.20389641610595005 0.13701903673315946 0.3542612358378454 0.11995120690481267
0.203732404011664 0.13718304679081245 0.15653667400204596 0.13588755138143263
0.20373932494236527 0.12578613533093033 0.3079505939761269 0.1326842928558918
0.2038550859421981 0.12590189633076312 0.12709640317156445 0.14006814719813088
0.20376526490234714 0.1258120752909122 0.38527997307095196 0.1331806819108501
0.20388970194151532 0.12593651233008038 0.05291458240360564 0.1586606656456245
0.20658431947231293 0.13845134042152007 1.408557153254602 0.12367765260057573
0.2065843194723129 0.13817596469479654 1.0865803416215727 0.14451057423605207
0.20658431947231293 0.13822144671690942 0.991003221007416 0.1303190386454131
0.20658431947231293 0.124514993511848 1.0343589441108019 0.13251981070645774
0.20658431947231293 0.12438426604627426 1.247198233224206 0.1323577105625943
0.20658431947231293 0.12507966768765616 1.3866146901252412 0.12226038646293946
0.20611910427439306 0.1367311328649521 0.7320544430760625 0.12814283732960924
0.20574966477821038 0.1367311328649521 0.035249000196200295 0.14271974526658934
0.20605781047454136 0.1367311328649521 0.32270296252617003 0.1280935395078175
0.20599109073790156 0.1367311328649521 0.05982324251268625 0.15220811286716607
0.20654190899091746 0.1367311328649521 1.1686432250178036 0.12513622693868956
0.20595707091955212 0.1367311328649521 0.07058867064044923 0.14235717243974993
0.20634102156577117 0.1367311328649521 0.5503645367605069 0.13582592337759575
0.20549372866795865 0.1367311328649521 0.10694872059478429 0.11919698288799756
0.20653548747634207 0.1367311328649521 0.5183392158776149 0.12039021693618053
0.24358431994915006 0.13918472055584355 1.3399222721685353 0.1247244426788032
0.24358431994915009 0.13876535217479583 1.1859867644806845 0.15508754852924694
0.24358431994915009 0.14033253756107616 1.3697415623021656 0.13488081101561433
0.24358431994915006 0.13759592454329778 1.4601064307309475 0.15290361105680209
0.24358431994915009 0.13908363956578224 1.2583633320846461 0.1371021276134374
0.24358431994915009 0.13784435455565663 1.3749023904197522 0.13399266138644148
0.2435843199491501 0.13870628001833696 1.4062279680454903 0.1327352028101785
0.24358431994915009 0.1403494978432269 1.175064529402423 0.1488933408934869
0.24358431994915009 0.14036663541875372 1.1638893553058636 0.14984671433651342
0.24358431994915009 0.13974659493043123 1.2761083292493074 0.12537351068177888
0.24358431994915009 0.13995227527454016 1.1280460921433222 0.12307181943998866
0.20358432084321976 0.12386800296438101 1.1078702677121355 0.13649500270107381
0.20358432084321976 0.12267587198158116 0.9562942222942488 0.1433040065643065
0.20358432084321973 0.1252278388269167 0.8217055490492473 0.13821000495530417
0.20358432084321976 0.12444987400528183 0.7659918645402928 0.13266944458565247
0.20358432084321976 0.12326394087544922 1.2928369530184307 0.1590610091235127
0.20358432084321976 0.1250073450208299 0.6036019494127933 0.14715975288650576
0.20416564637997947 0.14096244591400584 0.2544205490428267 0.1319740539740288
0.20382586438205136 0.14062266813534727 0.13578127623087827 0.1363365377971355
0.2315843179821968 0.1355464207453708 0.09083184790357263 0.12039435264770466
0.2315843179821968 0.13852932297202186 0.49352503706828127 0.12294440032717567
0.2315843179821968 0.13418249821759012 0.26733219959027493 0.12203667484578595
0.2315843179821968 0.13122800124840467 0.3546100563891425 0.11878545763299592
0.2315843179821968 0.13406989340069092 0.4552976517794771 0.1248812691070547
0.2315843179821968 0.1285458729775677 0.16940595790116195 0.12453612518319887
0.2315843179821968 0.1378209206147649 0.4436974947743444 0.12615448825044015
0.2315843179821968 0.131831551022031 0.1807179712509303 0.11910333276187285
0.2315843179821968 0.1311240333998036 0.30557694135290725 0.11038273371047783
0.23158431798219684 0.12794965143239312 0.04967340019738707 0.15059158977026474
0.2315843179821968 0.13708387747601836 0.3274782456597951 0.12080926422498668
0.2315843179821968 0.13318593692538672 0.25572920146168526 0.11899844091147416
0.2315843179821968 0.1354556220302788 0.444970734283847 0.1296709778233378
0.23158431798219684 0.13813306349821283 0.3934973594701456 0.12575972440377317
0.2315843179821968 0.13025806187620972 0.10940623958993008 0.1147447302151254
0.2315843179821968 0.1380122294462375 0.29295940576598134 0.11784073924658506
0.23158431798219684 0.12948076291531477 0.13090914648428184 0.1239769324361059
0.2315843179821968 0.12928155499099755 0.08485216639240245 0.11967082144008198
0.2315843179821968 0.13314433669491416 0.2820507257564824 0.11797708273340478
0.2315843179821968 0.1346752013906257 0.42237589040141876 0.13063001873020808
0.2315843179821968 0.12873200523707168 0.05180549940156992 0.14531834411358358
0.2315843179821968 0.1315156170967571 0.3188255490744125 0.11505332494211158
0.23158431798219678 0.12997001611806663 0.09947444722664375 0.1152524211433595
0.23158431798219678 0.134054385038763 0.3426332357901054 0.11239928285989086
0.2315843179821968 0.12949000863009807 0.12013184009618297 0.12019523978742938
0.2315843179821968 0.13122294029913967 0.031059603325876345 0.14598957413645067
0.2315843179821968 0.13049182863571188 0.13241191992778042 0.12303467913964433
0.2315843179821968 0.13454787710024702 0.37073521416805577 0.12415815061864904
0.2315843179821968 0.12963569333749253 0.19178932377401361 0.11493850370691937
0.2315843179821968 0.1311255589961795 0.07300544749186268 0.1356723865772625
0.23158431798219684 0.1320994729185203 0.2187609092659478 0.12172703414385011
0.2315843179821968 0.13098488005892212 0.20662117680141093 0.13111511355226016
0.2315843179821968 0.13137296561592005 0.1915202964496936 0.11762474445032241
0.2315843179821968 0.13826214743548462 0.38190785422800616 0.12347582146526735
0.23158431798219678 0.13830805937588408 0.5257923900837659 0.11821349763288914
0.2315843179821968 0.13103547217262734 0.2079410154804988 0.12841872604603868
0.2315843179821968 0.13267254533105963 0.14661897215429393 0.1256784052110249
0.2065843194723129 0.12561907269807185 0.14517304748684284 0.1420726065166665
0.20658431947231293 0.12428409555547355 0.11479656711728756 0.13700761960647478
0.20658431947231293 0.12514456408852426 0.17154698803141102 0.1336616595076684
0.19998274766016097 0.06765224045167623 0.8779850071428229 0.06217109649403537
0.03921681838295001 0.0746004012934483 0.8800333086134369 0.028237118059978812
0.14674403252781607 0.10521846274704669 0.8782556881919636 0.02441450269902155
0.19462003737379863 0.11576045761707007 0.8774642107544649 0.2193831626176974
0.1506545552227433 0.06824847604471496 0.8781910401393156 0.02914731444043002
0.1160490915508274 0.08134338589071041 0.8787631313946034 0.028067315103218964
0.19578200366191695 0.10227810910453869 0.8774450013383255 0.12851759768795554
0.15909122652704377 0.10462703767102934 0.8780515666179466 0.025542219474626225
0.1995406843057727 0.07016691593347887 0.8773828635109534 0.05976440380374631
0.19784223016857477 0.08532988623274905 0.8774109420470082 0.04966131388996462
0.0025834564508392674 0.09565084833635876 0.8806389247153289 0.03384656668541006
0.0052764554645098475 0.11041636469101386 0.8805944045435773 0.03236877384665456
0.05591181482592265 0.11287730725324659 0.8797573099571946 0.027552022563703208
0.11605138779200823 0.10908320810070327 0.8787630934335602 0.026607096253467643
0.06536553554504562 0.12839678027271653 0.879601022759178 0.030974845384802392
0.004512704660040251 0.11098843694238655 0.8806070307334933 0.03183415243791536
0.07736448845778632 0.12938343150050785 0.8794026582437053 0.03386141836660365
0.012030415826740267 0.08942772452648114 0.8804827492946135 0.032358036349715416
0.13299957641664606 0.13935787879376146 0.8784829119665944 0.03501609759123612
0.005705295148026605 0.13612689130962918 0.8805873148595685 0.05660921120190571
0.18511489226597025 0.14130224747904363 0.877621352504036 0.14354328008728967
0.18704009833263036 0.06446580518168228 0.8775895233299502 0.050079778882720534
0.017083942588742282 0.06234922289619799 0.8803992017118585 0.03623921371772275
0.06679239139094771 0.06309306473218587 0.8795774337717845 0.03945672187444327
0.11310874794671179 0.06220532532399844 0.8788117417259075 0.031389435244312085
0.03787853130046531 0.06602951858118951 0.880055433518087 0.03255387737882669
0.0036217664907098163 0.06489372406902745 0.8806217574598009 0.046002548773804296
0.1230947404038339 0.1266414371718126 0.8826472187697767 0.0300633636827305
0.0897209844715555 0.12521142612468056 0.8831989476353288 0.031209594381863767
0.12169336101136198 0.12727422827913853 0.8826703861191152 0.031237130887696984
0.18285417095319878 0.0828678953070997 0.8816592867285064 0.03187421412185311
0.057677180676177976 0.12585638922767195 0.8837286899739456 0.031001943534421775
0.08091929317990294 0.11773924238553397 0.8833444555955696 0.028701381533969193
0.18583114742085977 0.09892826513909721 0.8816100718947726 0.072697277630407
0.1313697433498884 0.1059179532277964 0.8825104179255108 0.02436801356156067
0.10638587671867254 0.1137337766112313 0.8829234466664625 0.028221144087663092
0.1640205787320339 0.08922378892306486 0.8819706402510629 0.026002198524115835
0.044155382735497704 0.13230528696449756 0.8839522298791685 0.031054135110574577
0.11843478393173217 0.09970549060152611 0.8827242563229695 0.025399871663456225
0.15211752619871635 0.08700986882160167 0.8821674193515074 0.027810042403051214
0.139916170909293 0.09861952285979891 0.8823691299388832 0.025366543120097902
0.17503419858136657 0.08890547356841526 0.8817885650900464 0.027548585227943786
0.09361162360934316 0.10398890482041856 0.8831346282964411 0.026248988275956293
0.16930208629467897 0.10644770846233019 0.8818833273282424 0.025868957318560235
0.18487108526423174 0.13095742192829918 0.8816259434678018 0.18439649421723658
0.16672974720718547 0.09805176156375103 0.8819258527703724 0.023310996649801317
0.029144924529246684 0.13109516149100064 0.8842003800452558 0.03380358360177825
0.06544514853314276 0.11874566688418439 0.8836002713415909 0.02712475481407328
0.0757973145540823 0.11642112993154807 0.8834291312150095 0.02844471850689006
0.1480224106937368 0.0956283966415425 0.8822351190565227 0.024856806498134248
0.1308663731715348 0.09362820056999027 0.8825187395497839 0.02616276427621361
0.1257885659357923 0.11601313444237088 0.8826026849358337 0.025214136951317478
0.1931925195226613 0.07798807626084778 0.8814883750295209 0.04230909906479094
0.15813153967887708 0.10620794981726478 0.882067996774032 0.025117895011877955
0.15823202745183856 0.11848386625459649 0.8820663355284386 0.02729057998905924
0.10640819778012342 0.128273899027339 0.8829230776587327 0.03168670269423159
0.13260468760115882 0.12667951009313372 0.8824900020516678 0.031047045102191057
0.1613002451155199 0.12999142247861772 0.8820156123118403 0.029003987844540034
0.17382990276892973 0.08980652523876781 0.8818084742894702 0.02647142943700938
0.044848428040610386 0.1224232568945802 0.8839407725801838 0.029386640031175904
0.19285663904937622 0.12483244280943397 0.8814939277444405 0.1943958775218163
0.12942341275489758 0.10374441059417944 0.8825425943090541 0.024901182622478583
0.01810494661370384 0.1317484585687994 0.8843828909530309 0.04066867869434876
0.09168472008635235 0.11420724053433083 0.8831664835151621 0.027802967995003827
0.1903145339976645 0.0893451299514962 0.8815359533629877 0.050654097618568955
0.09803917209483483 0.1320058536089339 0.88306143286983 0.032676203137607836
0.08896986023404882 0.13498323053648636 0.8832113650846649 0.03350097453259843
0.17227123102266814 0.13327891720289167 0.881834241967405 0.03860355121401538
0.19905073308577462 0.09446783723686893 0.8813915281079489 0.1210972727362982
0.1983723058357159 0.11468704127046248 0.8814027437439054 0.21435817693265607
0.14716998900422654 0.12353851289232029 0.8822492111369191 0.028907366294618892
0.14204965604318126 0.11318446201297605 0.8823338595505281 0.02714160208827063
0.15279097863817281 0.13393761364839835 0.8821562859582156 0.03250431364144321
0.1793169413248499 0.10959196493943978 0.8817177635656357 0.06914858829777426
0.03827954931465404 0.11217867260932742 0.8840493680890252 0.026645555182732764
0.04739840712305139 0.11377305648666465 0.883898616789592 0.02741810962014082
0.05253325127809939 0.08646610157224964 0.883813728479562 0.02889720619705066
0.17196988544962144 0.07697981197137675 0.8818392237576325 0.031779501930617945
0.02264562005670516 0.1187438297923274 0.884307825365189 0.030232858064204428
0.09959879863278123 0.0711273724182152 0.8830356494074527 0.029002413603438356
0.16205385598388922 0.06855560575882615 0.8820031537539748 0.027888222594168656
0.022942375269723536 0.10831458945227777 0.8843029194619589 0.02806548918870041
0.031047961018403618 0.07623743442099501 0.8841689193919989 0.029669494988512797
0.0237015849114454 0.09485920492151018 0.8842903683461902 0.026479795508009756
0.06456235503361052 0.0836635997310558 0.8836148655232288 0.030993640442039314
0.0835153029084683 0.08354535660681076 0.8833015388347047 0.029631981593706353
0.11031654375683116 0.07336421894811329 0.882858465593603 0.02861498374370753
0.10970371131491186 0.08665914873720748 0.8828685968281169 0.02521854479450805
0.13046235231986095 0.08461717872576734 0.8825254187490507 0.025837373355427084
0.07145112960252172 0.09275263946828441 0.88350098155447 0.026757777386655312
0.021585372511283858 0.07868075534129378 0.8843253531848514 0.03334357988554777
0.05044506980622992 0.0961855547991246 0.8838482499160127 0.02612818549016579
0.015058822575924705 0.10182960349030619 0.8844332489218225 0.02819141025794165
0.06512356500871742 0.10860583887135146 0.8836055877019512 0.026928632076973574
0.09290326860807993 0.08597409887696672 0.8831463386925394 0.028605070043424625
0.13153735503478534 0.07073988480339946 0.8825076469996086 0.030598360109580006
0.11610981990068028 0.0931867702502725 0.8827626922056404 0.0257032635254196
0.17090385853008191 0.07322876992444187 0.8818568471208571 0.03017006301323852
0.0017527341209689453 0.08503401995790619 0.8846532227570444 0.03486988855732616
0.03942267162536999 0.09138538135022058 0.88403047019881 0.025240105794864923
0.05379985744706917 0.07736764303633359 0.883792789176652 0.028807224018300007
0.10298968059699352 0.08069859688079074 0.8829795919633001 0.026965484379091298
0.12500112128943977 0.07642610354796939 0.8826157028275656 0.028515912555308175
0.022949763586749553 0.10890580123092504 0.8843027973196451 0.02806847836324289
0.09091201230022902 0.0732956552595534 0.8831792577798001 0.03142200880526636
0.07823237007739095 0.10436663766358607 0.8833888753198038 0.02706557408735498
0.040401682208549956 0.0906988742199163 0.8840142853738381 0.026718651825127063
0.03279845367457597 0.10043065401488545 0.8841399805656556 0.02791696719855427
0.045016010540690946 0.1034447182946073 0.8839380021367597 0.026041817028652978
0.0720718965515361 0.07645480008401642 0.8834907191481276 0.032154428444188386
0.16046403542896948 0.07864293278164995 0.8820294363783511 0.027766646463767575
0.013258041508102275 0.10135552985713919 0.8844630191070444 0.027875815333020953
0.03181052237978425 0.10043992304961949 0.8841563128662102 0.02790541935024412
0.03114755349366303 0.12124830247963034 0.8841672729473045 0.029746850157461882
0.14449793419816773 0.07592894615345848 0.8822933850611796 0.028329962869070777
0.08222387848675873 0.08336306896967244 0.883322888428457 0.02908669917868015
0.0881844952922144 0.09617817569530335 0.8832243485951001 0.025588494651979626
0.009530182835889047 0.07943152367077713 0.8845246473888695 0.040304935184616184
0.055581917183521796 0.06484147328315991 0.883763326296173 0.03379217995071645
0.06767368995690264 0.06561082760598205 0.8835634279243016 0.037141550973925984
0.026755274748693776 0.06572241547331586 0.8842398838148751 0.0347119123206288
0.0774107073534504 0.06334047460893809 0.8834024562083391 0.032667445923830814
0.16898034989375435 0.062364609740444284 0.8818886488470674 0.03343495202865377
0.12465812832788441 0.0647276918027786 0.8826213716666156 0.03073821765106869
0.1882731033344671 0.06497159230280096 0.8815697034241716 0.05014095419448761
0.09883655306154573 0.062050874150043824 0.8830482501171619 0.03108145918563592
0.08001092151596674 0.0627142606044892 0.8833594705707906 0.039230185113501535
0.05836603894440976 0.13760344822487325 0.8837173002665416 0.03635657956856769
0.07704802439526202 0.1398228465038701 0.8834084520102978 0.038861863538053674
0.014279259187157521 0.14153638861483353 0.8844461320847167 0.04812507114333119
0.10922801127907654 0.13942540457857144 0.8828764595949558 0.032456349075618125
0.11291767507137256 0.1398194464486937 0.8828154632423397 0.03270769117113574
0.15965903198894307 0.14030444470730824 0.882042746333361 0.034517918879167
0.13169053039313686 0.13796565455843104 0.8825051132578356 0.035872957832836144
0.06706443930241093 0.14024506034855466 0.8835734986670042 0.03710675424766971
5.553250751333664e-05 0.12616644942888333 0.8840408687963791 0.04371747190714992
2.2506203261832083e-05 0.09384417173580922 0.8820430639595289 0.033686101567881065
4.9538235274740925e-05 0.12225141683691691 0.8836782673384481 0.04212257743860225
5.8773791893460414e-05 0.07216664808588873 0.8842369383766416 0.0351995439344756
0.00035253990788587446 0.13719308766229482 0.8833314441102514 0.06034765531556732
0.014756145405041627 0.061574649177534996 0.8809677701095108 0.039443522315924476
0.047791776727920426 0.0615746481047245 0.8801336116680479 0.034588002609174974
0.08894811151185429 0.06157465133111119 0.8803194235125158 0.03547069887711569
0.13492159568476694 0.061574661000146656 0.8821552788651708 0.03202861745537401
0.17795302303467533 0.061574655641326644 0.8800051928976785 0.04884617556449884
0.15832200455450052 0.06157465759364737 0.8808538744424892 0.03646266512608347
0.13493848280711823 0.06157465934935592 0.8817118063727322 0.03252109616196487
0.11246875161631753 0.061574654522082536 0.8807872765033989 0.031695871827085255
0.17608476609372908 0.1415746510028839 0.8800167979419001 0.09026827525912956
0.0956490725354834 0.1415746510028839 0.8792105155297425 0.0348346881414985
0.1465552812166625 0.14157465100288394 0.8807311036980393 0.033420966886203225
0.07619951082917989 0.1415746510028839 0.8816843322650236 0.04272076095513903
0.14485544042920623 0.1415746510028839 0.881809157534536 0.037405584323784206
0.03427920460745992 0.1415746510028839 0.8809309375726826 0.03641234608595662
0.025963294816921046 0.1415746510028839 0.8810711098798525 0.04095775159744166
0.0485248524447086 0.1415746510028839 0.8826117813012326 0.038743515288120395
0.1968420808888971 0.14073690658893895 0.8790217876209259 0.12866255668362075
0.20000415579592207 0.09192108072289434 0.4790425316385235 0.08690253546426813
0.19999695453525862 0.10636980785837799 0.4786069701828518 0.20644592138987458
0.20003704237372072 0.1314336210014454 0.48103164526286235 0.15754662370211164
0.09879355599522678 0.0700376933690609 0.47881107492825425 0.03119666297767213
0.15872116144531317 0.09266442581429994 0.47782036261318833 0.026276148876797464
0.19345779251245088 0.10083213821044082 0.47724610292228875 0.15350559113445417
0.13639037532849035 0.09214067301061278 0.47818953112317436 0.027505074789490064
0.15011467101918638 0.11008678535837225 0.47796264355350987 0.02842101986852627
0.08237842095359531 0.09132109733494785 0.47908244696651736 0.029171496453914307
0.19699998325907542 0.07318891731882786 0.4771875440666723 0.04420877619810641
0.033439476864892896 0.10393803878170824 0.47989149672298376 0.02608560819945228
0.03808589873993416 0.08387722294414372 0.479814682918427 0.028394065035814955
0.0014674868280634544 0.11201353572315695 0.4804200518692934 0.038461592938820545
0.009785103154479363 0.08941447140635428 0.4802825465432472 0.0311909885211614
0.005759269008345935 0.12216397659654832 0.4803491009039135 0.04139562575712171
0.15846398104045684 0.13991443943214393 0.47782461761865225 0.034433582768374375
0.16859988895415873 0.13786872967746386 0.47765705104847006 0.03329915573419414
0.12131184188044884 0.13907762357143047 0.4784388094065647 0.03718724164806016
0.10164562285862375 0.1403375923680923 0.47876392612039376 0.037615566564500574
0.04384864569980904 0.13867072954457543 0.4797194137933601 0.03252683739620728
0.00403519195167143 0.1411673454842851 0.48037757477449106 0.06505658077046557
0.19446617978414393 0.06352435949016687 0.47722943556905495 0.045453254618077296
0.15533497124420323 0.06327320945132527 0.47787634581209987 0.0319191036480382
0.13460402669817076 0.061749572171918704 0.47821906450940666 0.032625208631136944
0.06285730679071902 0.06275201103558607 0.4794051655356913 0.03221941035191814
0.11086765143142972 0.06231489927387619 0.47861146925464726 0.0383084740774374
0.02555263913902269 0.06292254714233134 0.4800218778148037 0.03183325055163594
0.023967978175390165 0.06218270599723183 0.48004807443291797 0.033664974966374446
0.08469218068239417 0.06385780044798524 0.47904419739482007 0.03534171286931895
0.14788503308748072 0.0908361966791502 0.4820000385021733 0.027886636283729015
0.1322708567454244 0.13443706296200802 0.48225816922672265 0.035393604814831295
0.16618696184095005 0.0990625825146389 0.48169747434340565 0.025060786318180515
0.11652398352777642 0.10500824462563854 0.48251849367189426 0.027118166487370792
0.1898358830711927 0.07992014885616171 0.4813065146771228 0.03271164444443913
0.08743118559033569 0.11259057023130928 0.48299945051817583 0.0275743855473268
0.049389540881502894 0.1281666260161117 0.48362834807233557 0.031317962015577565
0.19691736050384462 0.11421816040283234 0.4811894449796552 0.2198660355189196
0.18610493048138033 0.09778303445768351 0.4813681941070312 0.06281685183931268
0.149680705505564 0.09206065735418656 0.48197035277222006 0.027030444912090792
0.18540193685104653 0.12599711396939228 0.48137981586992 0.16265941606719647
0.17280159959798058 0.11072734940765014 0.4815881223545816 0.04165941591112718
0.11357370773601079 0.1266153587328663 0.4825672670949084 0.030678544509676532
0.1426613558568554 0.12985456424209885 0.48208639538445863 0.034308049124455585
0.16320433355750638 0.12889026752742638 0.4817467826119305 0.03101272211203563
0.12961045613890945 0.10823977282385125 0.482302150485875 0.027803780318663443
0.03830073475630655 0.1246859103420326 0.48381166619919536 0.027855924398130928
0.15666409627656944 0.10373584291668789 0.4818549046256101 0.02651777683612893
0.14398866592255075 0.10124313459259177 0.4820644525357643 0.02781568116332026
0.16578390924466468 0.08138405988925188 0.48170413753565045 0.024764595266325292
0.12449359042594167 0.1012213322513312 0.48238674157956934 0.02775486169958633
0.19755836895532947 0.07423469892276241 0.48117884794447385 0.04134535248609414
0.1341720664284575 0.1220422840377568 0.48222673877389244 0.029888095488941953
0.10709153066684841 0.10477345603807142 0.4826744292677227 0.02519440457366361
0.18466249619587977 0.12928631895489107 0.48139204016839715 0.17800050558143188
0.11554969892228606 0.12736126007741438 0.4825346003678622 0.0318173024789014
0.19990957891354738 0.13005257883475904 0.4811399781689067 0.1718974394810036
0.07551203819128399 0.1205053458117982 0.48319649569601464 0.026806853473804952
0.19765142933543398 0.09096244635273766 0.48117730948718884 0.07994508566315625
0.06834032327924161 0.12923028070611392 0.48331505718308587 0.029753285669752515
0.18147492860769787 0.08249856439360592 0.48144473645624875 0.028603682969246046
0.17334303274857024 0.12935829420816938 0.4815791714801714 0.054415519727736034
0.16849671797585072 0.08350858783123052 0.4816592898749091 0.025209394816844043
0.17705640963156474 0.1187410744393422 0.48151778260865274 0.07162792977450487
0.09056970956602547 0.12117722216487123 0.48294756501040953 0.028427725047115392
0.05757118980997119 0.11676920403015312 0.48349309053971606 0.025587209902093736
0.12319704359061028 0.1217511205288847 0.4824081758561321 0.02862218725899888
0.019339313299284767 0.13022700064278375 0.484125132971439 0.04250808723883742
0.07153729750668528 0.13023733726317333 0.48326220538638415 0.02965058529647667
0.15772815836952722 0.12090002515976224 0.4818373137445413 0.028272543692034687
0.022075882258576852 0.13236593652751952 0.48407989251092626 0.04081476272035712
0.10481801647412732 0.11653685086222657 0.4827120145910202 0.027267372945486777
0.11988273686089997 0.113221766099526 0.4824629673724297 0.028102545270418906
0.03839198330478819 0.1302740941924035 0.4838101576947813 0.029380407832987693
0.1020032990579003 0.12728596880407467 0.48275854698761517 0.029106592680818028
0.0822835481379285 0.1289882986907386 0.48308455032467207 0.03146794122761517
0.16688828150263518 0.09913767962977933 0.4816858802542623 0.024530897310707702
0.14702640278184004 0.11946161271735539 0.48201423322228276 0.030414097729291416
0.14356970311926606 0.11824196826749334 0.48207137875265865 0.029752358011863114
0.14906685959903443 0.13276218910541646 0.4819805007611464 0.03523125260033411
0.17604106631294314 0.0935307769950918 0.48153456807980155 0.024637823043380004
0.13993701973010342 0.10320249791379552 0.4821314336140078 0.02819299090861676
0.047014687748032934 0.11586532554585717 0.48366760871257763 0.027733002830327307
0.010413991960325499 0.07747437479059943 0.4842726847611454 0.03713510658949224
0.024620891605261347 0.10957762479317357 0.4840378188791027 0.027738081288267158
0.11706816261697868 0.09485023454525851 0.48250949740212606 0.027191005925299928
0.04073754376907487 0.07353809988459475 0.4837713813156207 0.03185713660662794
0.05843128254653406 0.10276409945475043 0.4834788716429645 0.02577691240228177
0.05242949646024914 0.07172956490497263 0.48357809207938734 0.031649444205427375
0.07304803250022994 0.08448440580517141 0.4832372301901302 0.027739191626864553
0.17238981187180127 0.07201957865367814 0.48159492995440567 0.028754616366559075
0.11652711441533845 0.06979908938610786 0.4825184419126303 0.034040768692900326
0.02636808564311882 0.11998746387572477 0.48400893458491767 0.03130946980312401
0.0019285045647265502 0.06947432689030736 0.48441296529606415 0.05108702674549147
0.07222368557378622 0.10063949238623643 0.4832508581436477 0.02439167100599109
0.04459572953544675 0.10429002122423936 0.48370759848996914 0.025840046822895858
0.009377898040773337 0.10223367594494379 0.4842898132774562 0.028786097448660255
0.02136809316610284 0.09683875583682915 0.4840915935515233 0.024706052468793822
0.08805469472939759 0.07692959998239202 0.482989142778446 0.02856145624959805
0.05179541889270277 0.09468713712433974 0.4835885745344555 0.026726597031651988
0.030450458763137452 0.09213395234801258 0.4839414455346939 0.025292998776649096
0.11109400212628558 0.087140470304284 0.4826082611372252 0.02671184824766729
0.0014036772021186216 0.11182556768567417 0.4844216416466065 0.03792016594522583
0.09777523460660385 0.08202700876901958 0.4828284445804401 0.031156940267506775
0.028728701656305648 0.07347106570839768 0.48396990931015976 0.03167489525934071
0.13392972106171003 0.07472753134445516 0.4822307451834359 0.02850044138227501
0.10649117766130206 0.07648781287519471 0.4826843541944631 0.030286392237564057
0.06096941151998944 0.10584012680190892 0.4834369117562202 0.025197201965401792
0.09214146874000245 0.0934907484713341 0.48292158097349913 0.026616824192272452
0.06409523415795414 0.09165731005506257 0.48338523622465995 0.025331802858288052
0.029399579081317902 0.08169968943174613 0.48395881848653843 0.028667636182548924
0.1419032213189075 0.07881451445034479 0.48209892872680726 0.028873091076448296
0.017285937081687314 0.08736901745827155 0.4841590790137539 0.029973542808746857
0.07299328483697246 0.08321738459370528 0.4832381352685458 0.027845344181364924
0.10833419811882282 0.07612231207747633 0.48265388571532997 0.030878010880390855
0.12437448380799576 0.09024050537343041 0.48238871062852307 0.02796672695461321
0.10083416644098099 0.0973384919087826 0.48277787487548374 0.025927094955181626
0.07623547805746253 0.06763977922476855 0.48318453591967203 0.030358624790567414
0.016582106414656704 0.07531979738767366 0.4841707146143812 0.034228893651204156
0.0396613048398922 0.07209750711847762 0.4837891735019322 0.030571082989548394
0.08084998009651595 0.10068171423809784 0.4831082498109026 0.027195308909265515
0.06411007093965689 0.07661176439518436 0.48338499094568227 0.02878472647668917
0.15336792614748046 0.08139137767030911 0.48190939631092355 0.02783661706356302
0.15775993818015965 0.07222746918879266 0.4818367883664897 0.02772771801258838
0.05548850875503169 0.07268469991364887 0.48352752104427416 0.03320940669305885
0.02616345907198639 0.12327685399942312 0.48401231743418943 0.032521700889041445
0.01296257908822039 0.11512115330629619 0.4842305519820932 0.03290927629398865
0.12290257875193593 0.07726302063029758 0.48241304389530987 0.03180242459529192
0.038917730316940506 0.09324719219480432 0.48380146614076 0.025307494887022216
0.12688329303881096 0.06654967756931723 0.48234723462806367 0.03754694469832009
0.015122687834884047 0.06414330714304457 0.4841948387039532 0.043404762641999786
0.182003771113574 0.06750734174100534 0.48143599367407514 0.03637602717652384
0.1453248862079179 0.06574250508707405 0.4820423611389487 0.03135479709595445
0.12407493061308343 0.0631681735973891 0.4823936625488473 0.03394479628183049
0.06401348923549507 0.06222207060915477 0.4833865851577425 0.032077041820972776
0.05144045868292953 0.06237320704271511 0.4835944394686157 0.03774062709478076
0.10963867949437103 0.13694193350375222 0.48263231916938876 0.030637114533488843
0.059646356594001686 0.13627175331140268 0.4834587837004183 0.034070401734065024
0.013660034572021054 0.13840765921567955 0.4842190195018462 0.04763195531615247
0.17981473381223 0.13907890782073395 0.4814721842974722 0.1286349675191247
