x y z curv
0.17770772913245098 0.013034917597395026 694.2958870715263 0.05749990015696664
0.2057849622144461 0.030536325899497736 694.3021435325919 0.0628957796074979
0.23455895108045405 0.06592380169918391 694.3067209257795 0.06364505335418684
0.2329923642351554 0.06442617310564851 694.2954530946815 0.06631037415933123
0.14996275850126523 0.0025683686531091637 694.3070548208946 0.06716681540380308
0.14295128218555064 0.00219706172383008 694.2982975393379 0.06272655118699505
0.16523365705664972 0.006875386458240166 694.3006074830835 0.06739586886314541
0.10718155719910685 0.2419798871189765 694.2951135610988 0.05939443869160043
0.09273973058928328 0.23645881779847758 694.2951135610988 0.050242376223018026
0.12047838260470607 0.23985951986760223 694.2951135610988 0.05293161024490202
0.03618332280137394 0.17838530012214662 694.2951135610988 0.04822698757669726
0.18767838858415997 0.20620181212303335 694.2951135610988 0.049010333092869625
0.11730653851568959 0.2011659886182837 694.2951135610988 0.04435763945021906
0.038910156785848374 0.2024928463191746 694.2951135610988 0.05408078882568392
0.1416173443374898 0.20391499529747759 694.2951135610988 0.04422082434224033
0.02856495935774815 0.19330740422243264 694.2951135610988 0.05405307638921606
0.06367208885059032 0.19582056321551763 694.2951135610988 0.04590650600013015
0.0814811976143676 0.19846172587037075 694.2951135610988 0.04181431487184052
0.052215866730269865 0.2006578889870705 694.2951135610988 0.04832422618149576
0.08882625183344936 0.18793956273836188 694.2951135610988 0.04524738432674765
0.09286065681242894 0.20091457634938714 694.2951135610988 0.04473733329131786
0.10441758305991324 0.1919734026076429 694.2951135610988 0.041790418719929015
0.16361804531518598 0.20722247767387242 694.2951135610988 0.043467970167110716
0.042465656218095546 0.19228371646484413 694.2951135610987 0.04847770016349667
0.14969646577551932 0.23050166202130612 694.2951135610988 0.04583914947982663
0.06994040286757928 0.21587103242185213 694.2951135610988 0.054119277739505575
0.11022438578971748 0.22635107471611687 694.2951135610988 0.048974755964479866
0.05677396539483978 0.2197387116555386 694.2951135610988 0.05496461965404762
0.13777243922974292 0.2266210780256409 694.2951135610988 0.04668606433409595
0.09775048726895587 0.2274929087443358 694.2951135610988 0.0489823799791459
0.039178275813567906 0.21336040874138346 694.2951135610988 0.05966441652526188
0.1167867851018535 0.1726854995888487 694.2951135610988 0.0449754529382528
0.08514990575407984 0.17115312743290956 694.2951135610988 0.04384615052213489
0.06769324334700735 0.1721378943024414 694.2951135610988 0.04380472839045699
0.0568457878875481 0.1581890011909745 694.2951135610988 0.04566985809291744
0.16102250148148167 0.17684676956982606 694.2951135610988 0.044325440315445164
0.03806269616244251 0.1554204712569791 694.2951135610988 0.04379639185047292
0.09894334983697992 0.16684928942617444 694.2951135610988 0.04396819877531886
0.008134763479659829 0.16182929895365497 694.2951135610988 0.061265666290613995
0.1375268461256475 0.17352704308863626 694.2951135610988 0.042745842788457694
0.07442583220182726 0.1632355235154649 694.2951135610988 0.04931639062301097
0.019228335774402854 0.17167236107041872 694.2951135610988 0.055579378905842816
0.012817805327607582 0.14337868949427612 694.2951135610988 0.05876737570556918
0.04760246515627972 0.16807314836812973 694.2951135610988 0.04236656258280762
0.03403342644928748 0.16565754692154175 694.2951135610988 0.04541572950450988
0.025347569752299407 0.15180583979383358 694.2951135610988 0.05002027195373823
0.14672305383438997 0.2460614019213998 694.2951135610987 0.05939405777129973
0.18141743234930788 0.23401244807630076 694.2951135610988 0.05292050161759073
0.16944037359335692 0.23738069249244845 694.2951135610988 0.05328746651411223
0.12714443430474393 0.23120168866197588 694.2951135610988 0.050570735900627634
0.13441773615435085 0.24098511792093033 694.2951135610989 0.05468249636879129
0.13339416428839923 0.21329265065755376 694.2951135610988 0.04354238835093386
0.18471046988262124 0.22140829071346374 694.2951135610988 0.055880211478477826
0.17476215320035968 0.21260814189722965 694.2951135610988 0.04356170521334956
0.12225346288341804 0.21250970006582592 694.2951135610988 0.04403743651468055
0.14996344515771803 0.21400449936575672 694.2951135610988 0.040452068332032624
0.19623559545435787 0.21211080328351983 694.2951135610988 0.055534430441660745
0.1682636828293671 0.22561076309042266 694.2951135610988 0.04721496166594292
0.11023966568777233 0.21350224084111713 694.2951135610988 0.0454728096233423
0.07865863257848933 0.21008193807792153 694.2951135610988 0.045715510504328156
0.09583692615250604 0.214595478347954 694.2951135610988 0.04322526151051988
0.20685175991011473 0.21780164785229655 694.2951135610988 0.06283841280491036
0.16448969769848093 0.19286091538849953 694.2951135610988 0.04293033699501721
0.21165163319735858 0.18052795534357788 694.2951135610988 0.04561352908897037
0.18758767674139099 0.19396051771043374 694.2951135610988 0.04667102093527194
0.17421195460018496 0.1987540690122881 694.2951135610988 0.04122417427393776
0.07295661978790745 0.18247449485745088 694.2951135610988 0.04641599698931736
0.05194083324269609 0.17818769999534523 694.2951135610988 0.041311243617657804
0.1466987952553059 0.18231716539119938 694.2951135610988 0.04440982954006781
0.19228195129533457 0.17931179059900174 694.2951135610988 0.046493345854683836
0.1351662751428676 0.18498181212880427 694.2951135610988 0.04606942464175172
0.19893688738198642 0.19293725182848473 694.2951135610988 0.04598171688626956
0.12451087561443011 0.18982794493672137 694.2951135610988 0.04269740296264407
0.22699202687021838 0.18034720754075037 694.2951135610989 0.05771304349378056
0.17442733379570188 0.17839264955624698 694.2951135610988 0.04465452285801809
0.21779731580338796 0.19242573038718933 694.2951135610989 0.05352627989265821
0.2086856960090344 0.2053680266664115 694.2951135610988 0.05298310052955951
0.09842913754366016 0.18100194366251662 694.2951135610988 0.042351279068662526
0.20120659259233775 0.17141421524094402 694.2951135610988 0.04229539837866348
0.10957110846391546 0.15755684708211143 694.2951135610988 0.056611212038656836
0.23951716355536562 0.17218577652051095 694.2951135610988 0.0606251022673957
0.14173827625687435 0.16297158908253728 694.2951135610988 0.05061876306266363
0.08178973784171341 0.15177827996432436 694.2951135610988 0.046206701016544435
0.15402186201799403 0.1637288909899433 694.2951135610988 0.04108572772953142
0.16771266134514265 0.15399541064793004 694.2951135610988 0.0403658502486679
0.13283272364602422 0.15631925602093716 694.2951135610988 0.06717965561077395
0.14084902114947126 0.1439006485085564 694.2951135610988 0.07458324043909367
0.19938734745862136 0.15721982349845431 694.2951135610988 0.044209227716000124
0.12178304918637951 0.15900191373969697 694.2951135610988 0.05588131423955203
0.23658918244900926 0.15350718542222017 694.2951135610988 0.049852114946597095
0.06743079803971799 0.14915744349517826 694.2951135610988 0.045708131662250476
0.2297362340006693 0.1638549300832149 694.2951135610988 0.05328500367900762
0.2037580411323201 0.14590089137224244 694.2951135610988 0.0438093738038276
0.15864465905050912 0.14732123506865272 694.2951135610988 0.04681637573221599
0.12544407330491528 0.14566372201243316 694.2951135610988 0.10592661481708747
0.18748824344898385 0.17012827748764198 694.2951135610988 0.04439644465068914
0.10361327888473548 0.1445711863587931 694.2951135610988 0.0741434441596463
0.21878695846975255 0.15674592792568348 694.2951135610988 0.04238371627089917
0.1784476985246467 0.15882202023436906 694.2951135610988 0.04063863652730096
0.052214575258754066 0.1410298836459487 694.2951135610988 0.043036978248672406
0.21379612190481276 0.1678058608117234 694.2951135610988 0.0445868718767123
0.09782758646147158 0.1540876720587362 694.2951135610988 0.05322943884216836
0.05351515424414281 0.12767483079217093 694.2951135610988 0.045511548532589464
0.11479805978995823 0.1277629514328119 694.2951135610988 0.13478278418703368
0.01823799562411423 0.1293450133709225 694.2951135610988 0.048409915228344425
0.02765741355231689 0.13938746190114953 694.2951135610988 0.047830147651224036
0.08164081971465391 0.12431017127751012 694.2951135610988 0.04862580702886077
0.03916437500933797 0.11348403673836774 694.2951135610988 0.04144413414390445
0.0929687240788104 0.13551433539052798 694.2951135610988 0.07605985022898151
0.07187751888080458 0.11991904817210833 694.2951135610988 0.04474083083077453
0.1746985358142407 0.13732698156695008 694.2951135610988 0.04161035005179875
0.08156460138596422 0.13729589176826523 694.2951135610988 0.04262928515805126
0.06203950789157542 0.11433810752410734 694.2951135610988 0.04559596093637649
0.11533667115329212 0.14048854416591644 694.2951135610988 0.09672658229545311
0.004274337640713203 0.13099724579459618 694.2951135610988 0.057421523641575906
0.12726717480013242 0.12692069846844592 694.2951135610988 0.13480333340848685
0.011105129683205315 0.11832737888455588 694.2951135610988 0.05299672771278402
0.04091106374898235 0.13354012086405492 694.2951135610988 0.04651782133299234
0.02249641871405281 0.11630847978987124 694.2951135610988 0.04540355624544033
0.04470651241391824 0.0921007232958214 694.2951135610989 0.039349263071399396
0.13129051676623357 0.07435760173558095 694.2951135610987 0.04864945559890809
0.11254863244172465 0.07929794192440577 694.2951135610988 0.051738749250321896
0.15165166206016614 0.08481479416585197 694.2951135610988 0.051269298552691536
0.08254208933998383 0.09062521698041304 694.2951135610988 0.04777845387751466
0.09871344290432367 0.0778090908149705 694.2951135610988 0.041263196845257866
0.03792212158952005 0.07576569818707149 694.2951135610988 0.03893950217178209
0.10037429128325434 0.09120123058293794 694.2951135610988 0.054786680309698355
0.19451413140305523 0.07664058760721149 694.2951135610988 0.04108914110282337
0.21522977571725047 0.07606610617341149 694.2951135610988 0.043905582815304066
0.1662795925194968 0.08038130543772508 694.2951135610988 0.04247511105425449
0.050678796294719254 0.07498868967651916 694.2951135610988 0.04053248687324384
0.02075385887773513 0.092640098520342 694.2951135610988 0.04946220824900042
0.0624465374554198 0.07225392255506716 694.2951135610988 0.04138273861958665
0.028227712763565133 0.08268403961850526 694.2951135610988 0.04373739553439074
0.182937957855352 0.07869349824642655 694.2951135610988 0.04120540342886374
0.06575435167057594 0.08714906566116834 694.2951135610988 0.04146307060533961
0.0879351218170157 0.07815652326603661 694.2951135610988 0.04714347227467847
0.137066610251207 0.024006282676845646 694.2951135610988 0.046971345959530564
0.11423449580510181 0.027349296155544447 694.2951135610988 0.046032852591301666
0.06417356249361336 0.02491852908848999 694.2951135610988 0.05412843384781279
0.16836308927558474 0.02250819543275328 694.2951135610988 0.051003763068408606
0.08613891243058266 0.03237946683610258 694.2951135610988 0.04179569419903017
0.1483813980963692 0.02308286394326213 694.2951135610988 0.04852846609190088
0.08356191995333886 0.052452270667802496 694.2951135610988 0.041015006993103995
0.018612807311160835 0.06191412584017808 694.2951135610988 0.05179637651513137
0.09073652484434636 0.04308498242304027 694.2951135610989 0.04182618622021031
0.1285330696277064 0.04653398977101723 694.2951135610988 0.046621272306120995
0.06567783388448412 0.060174547929539246 694.2951135610988 0.03984756705719705
0.040122629892322285 0.04980555452214483 694.2951135610988 0.04591756187828003
0.10959800489709445 0.05563315065715861 694.2951135610988 0.045306758515911434
0.0605132375668889 0.04878983473372099 694.2951135610988 0.04283695673077301
0.048188112931676935 0.06398542182375663 694.2951135610988 0.042410249687387935
0.0952194333276748 0.05468436400379227 694.2951135610988 0.04276553144033216
0.14033662980527203 0.05304055404328842 694.2951135610988 0.041162399687851646
0.08713916425760576 0.013017448701290178 694.2951135610988 0.05034713959526754
0.11514431692151261 0.006782628215434094 694.2951135610988 0.05447260416802373
0.219196587293964 0.06398122601463738 694.2951135610988 0.04771698075231526
0.20224777832021204 0.06419130438910076 694.2951135610988 0.045301810460888735
0.13048899276080253 0.06096156688873633 694.2951135610988 0.04496101267689608
0.1902991770060463 0.059665997035460244 694.2951135610988 0.043751469735392415
0.07727647654410566 0.06900905064262812 694.2951135610988 0.04031994171995525
0.18126133693649898 0.053862221101944364 694.2951135610988 0.04530529405265137
0.15345006301141087 0.05371474469011753 694.2951135610988 0.04534610036464013
0.16589407412116736 0.05470025611697309 694.2951135610988 0.04297162389578607
0.17839012214048258 0.06486113865669668 694.2951135610988 0.04357826527499186
0.10347027189989437 0.06797974416449452 694.2951135610988 0.04145445535443778
0.14119262887380452 0.06378398498023648 694.2951135610988 0.04248618534547912
0.15267129456096032 0.06570291114948806 694.2951135610988 0.044934368135620226
0.2008133280773748 0.05138628218772798 694.2951135610988 0.049533065995247524
0.11604599003099815 0.06663439657657791 694.2951135610988 0.04074994992015357
0.22355915492028847 0.050085622357654506 694.2951135610988 0.05712277090077829
0.1649103322575619 0.06915869551500968 694.2951135610988 0.04260226540305952
0.22248993760430702 0.10708049784354154 694.2951135610988 0.04576603986231205
0.19005993083842732 0.10405619833735086 694.2951135610988 0.04632705313640476
0.07422555146415616 0.10281501407637055 694.2951135610988 0.044804213846210174
0.13492567295428176 0.09173900929908833 694.2951135610988 0.0762943600854607
0.03368981987759726 0.10437097980044566 694.2951135610988 0.041478558670067396
0.08778082636831315 0.10095409052232174 694.2951135610988 0.04859457758608799
0.23642206289559728 0.10863044676225819 694.2951135610988 0.05493358610545505
0.21771269129446774 0.0868707504360449 694.2951135610988 0.041719018052955054
0.1693755744835988 0.10574026017358154 694.2951135610988 0.045396546341474914
0.13265683127535766 0.10484091253428036 694.2951135610987 0.10620566705009488
0.23118929690662857 0.07796510094693351 694.2951135610988 0.05777356536959215
0.10018800140057708 0.10562170240627601 694.2951135610988 0.06807428759281468
0.19761254288604022 0.08914391332525906 694.2951135610988 0.04026245070133753
0.1790789967169799 0.0980241534795197 694.2951135610987 0.04728155905982793
0.11577023173342749 0.10128700707591183 694.2951135610988 0.10647170108005723
0.21039288579627283 0.10210839774336251 694.2951135610988 0.040025638580424974
0.24090256560528467 0.09538413095787365 694.2951135610988 0.05374516771539394
0.15493590864951823 0.0970283934434151 694.2951135610988 0.06192408477694426
0.23075516479568797 0.0904843516816301 694.2951135610988 0.05185321042299082
0.10687492039850555 0.017244819279611818 694.2951135610988 0.046484100950858545
0.15399626215839715 0.010328900718582352 694.2951135610987 0.05559139984329709
0.14294240862351576 0.013541293038309131 694.2951135610988 0.05399447743217063
0.12290465422657451 0.017873913183246118 694.2951135610988 0.051413843325700155
0.10062226106088103 0.034574123611228254 694.2951135610988 0.04274682165201084
0.06429170789572661 0.03708971325831496 694.2951135610988 0.046233423053493955
0.1390724363889217 0.03881691275509646 694.2951135610987 0.04164747935160736
0.16856639791246025 0.041876532247325036 694.2951135610988 0.041775368047883864
0.1826742168382216 0.02575260383274207 694.2951135610988 0.05355224952234574
0.05160842695487326 0.040445749346536435 694.2951135610989 0.04215808533503977
0.15792963053091816 0.0286975525738779 694.2951135610988 0.04285189878282173
0.21030527752939035 0.04234502677372597 694.2951135610988 0.060940087092045965
0.15651261052652787 0.03989755365143909 694.2951135610987 0.04241565842586189
0.07505830915965234 0.041107049256365824 694.2951135610988 0.04012503828806376
0.1922539544636614 0.03807174688179223 694.2951135610987 0.050503459147861585
0.11060830771767836 0.0415233032464906 694.2951135610988 0.0431424867769295
0.12730083451310611 0.03210330540962596 694.2951135610988 0.04378390267685664
0.18002272407534498 0.04068852520212347 694.2951135610988 0.04420790119802523
0.12845680698478168 0.0029926925782455746 694.2951135610988 0.06121422084230255
0.16919561051164447 0.11681657306219434 694.2951135610988 0.04591134293137599
0.2282293125084198 0.12019779004103542 694.2951135610988 0.04682708706581846
0.24861194577177903 0.11770657029503587 694.2951135610988 0.0607695984112874
0.14663464437046708 0.12702611003248646 694.2951135610988 0.08081146991893179
0.24087452612684254 0.13464648321445835 694.2951135610988 0.051492963082159816
0.2067537259062765 0.12475532147344963 694.2951135610988 0.04472616908898124
0.09530933578182195 0.11753495359156226 694.2951135610988 0.07724574681625289
0.15571371234126347 0.11223179250592201 694.2951135610988 0.06508685921160505
0.21550116058561566 0.1170363774785718 694.2951135610987 0.04556589915007546
0.21552805903669747 0.13577907748912177 694.2951135610987 0.04523819632459062
0.1277264881162401 0.11590046357692557 694.2951135610988 0.15198960197423195
0.1907790939376605 0.12281626940439765 694.2951135610988 0.044612903196634544
0.011806794167367518 0.10423761102795473 694.2951135610988 0.04927837987120143
0.20457815173543367 0.11322925184558465 694.2951135610988 0.044456697306486534
0.1158071674555315 0.11283353500841911 694.2951135610988 0.1326257222903534
0.1391562714326793 0.1140504691614784 694.2951135610988 0.11497647544046004
0.2302218872795837 0.14139325821635482 694.2951135610988 0.04946268026903084
0.16021543441552397 0.1255248712359532 694.2951135610988 0.07396419562857355
0.051578341880053294 0.10529009819347943 694.2951135610988 0.04238360616120468
0.18669357881189455 0.13461467636278093 694.2951135610988 0.042908670237219365
0.1804435558894457 0.11931989943821278 694.2951135610989 0.045889526382165285
0.03678934642172537 0.03679724136628149 694.3003851511573 0.0582760556632151
0.017802044535470914 0.0616896583353213 694.3065357418324 0.05520565859679947
0.06040447939237117 0.018020349875256178 694.3033974915761 0.0655697313826494
0.07130134444209428 0.01316265675192555 694.2967441889557 0.06125611615749074
0.10343522206793733 0.0028364137400442176 694.2958216376794 0.05755333199845439
0.02417005104991234 0.052316436817421735 694.2994962799974 0.06005465839575386
0.008000200527464184 0.0840804604393882 694.2971888293722 0.057496745326464996
0.0117735438842751 0.07213200820004552 694.2983438068125 0.058448989540037584
0.0044062457434762975 0.09505070401848316 694.2980984265741 0.053839160952631575
0.0038448736859622024 0.15125982222512202 694.2966509680216 0.06450560342665519
0.022043489625339547 0.19534990510905278 694.3040684075435 0.06869657234083092
0.06024080858813248 0.23103688161058514 694.2956612476534 0.0630754904250379
0.08149801910964896 0.24142342111460138 694.2955865514479 0.06345612843180211
0.03755905939788252 0.21380641917532767 694.3070046716743 0.05723891859455568
0.017683183966307234 0.18703684320112146 694.2968936185969 0.052377165692948584
0.11580438587518493 0.24921880831486537 694.3040896862426 0.06189725425839605
0.16515518111381394 0.43803327490550215 693.9095790334407 0.11781131870193023
0.16115496252142933 0.44771642876752454 693.9250606648359 0.12719136966554376
0.1551013995404364 0.4385808403610885 693.9151717161315 0.18167789089731495
0.1540475005978053 0.4497194321316351 693.9149621509973 0.16763576673090638
0.14340496441167117 0.44343659891427695 693.9176485069661 0.2062457467585696
0.12894409298531195 0.43144163890571974 693.8995769097926 0.122316089866362
0.13149870912455647 0.43343022127054465 693.939556391677 0.11767705354379189
0.13097885030621753 0.43301564622508937 693.9174679168559 0.14237407642203548
0.13099939524008664 0.4330320303212943 693.8791144317114 0.12652763070119946
0.13571395772361694 0.4495553325511986 693.8899162869601 0.12400638987824915
0.13664697488598532 0.44695021248258116 693.9375244922219 0.21106347223278737
0.1267540660135762 0.4574269969015056 693.909471410225 0.21183224522013744
0.13371477182216215 0.4528492212223189 693.9198681465141 0.25192999023798807
0.12893488650166468 0.4800259568656714 693.9332648634277 0.07009011360335218
0.11648515982910602 0.45660200773282056 693.9328449750174 0.12326850887330898
0.11468169022873421 0.4654961993471754 693.9229437249205 0.09728429948067745
0.11452791613691551 0.4768772461516134 693.9237992546512 0.09113176348784194
0.11746490706339789 0.4869893004219307 693.9194841142561 0.090665654481599
0.12797416256391783 0.4633040119892077 693.9191938306466 0.20379657953142305
0.1224820363821507 0.4462150253626932 693.8676167349269 0.09242619139508192
0.1310561112205778 0.4381575474481001 693.8676167349269 0.09391095778869296
0.12335739177596082 0.4417729273940886 693.9416166128565 0.1550520669630744
0.1264753583504801 0.45535933922004346 693.9416166128565 0.20705622012435274
0.12359230326831314 0.45806996543805295 693.892536964394 0.1639617385902344
0.11894771511960563 0.4571817517808098 693.8709000196601 0.0995001069346035
0.10930621910095217 0.4429194844287576 693.908665183807 0.15420862303880387
0.11133477405665591 0.45140235684041985 693.9007304806431 0.13856553409251413
0.1103422967493816 0.4493414539393322 693.9185673375241 0.14143412478863926
0.11703559419248763 0.4314258289780384 693.9217609447503 0.1802542881512822
0.11787223627224484 0.4312348718700395 693.9397875901481 0.14158392272767736
0.12076393246741483 0.4305748644953189 693.8697598726159 0.10501423397449627
0.10966586554814567 0.4402126210621673 693.8831509413266 0.10358366013963119
0.11044505282350478 0.4385946222202509 693.9378520570942 0.1373142641385291
0.10975725268091144 0.4400228537499213 693.9258963449033 0.14075995775501296
0.1119151764300193 0.4355418794868458 693.897163667019 0.16114194290352624
0.11440157273350698 0.4334383051964913 693.9105143429616 0.16884154455233044
0.11644586473225525 0.4318080311000513 693.8799060202075 0.1269372541869977
0.15526178194511508 0.4428191210463556 693.9025662231916 0.12145549716795428
0.15597018233580648 0.4451795418147405 693.9357051955237 0.11070424805663956
0.12945436729058998 0.46562503078314443 693.9326771765818 0.20170349102549454
0.1198807916683315 0.47312647638347993 693.9350150552642 0.08827140087314352
0.12881457846640496 0.4801359460801057 693.9197592691831 0.12238701061072718
0.1448963705062957 0.4377703899216529 693.9060591126763 0.1287280067716049
0.19982487963503717 0.48212561179955027 692.96114175034 0.2970635343970597
0.207358990253746 0.4821257794817578 692.9706832070788 0.2214024757530932
0.18730616002756384 0.4821258874667885 692.9590884252375 0.2638341059184024
0.19446078521171642 0.48013482881363545 692.9505947463838 0.22737995756867346
0.1888074008329907 0.4767886714712307 692.9777013336965 0.18591650532425186
0.1823017200003759 0.47102003073905524 692.9702617573101 0.1922813783866566
0.19888015457381647 0.46702617229283006 692.9695331397565 0.1933342965785836
0.20999374207255905 0.4683685460972081 692.9736071992926 0.16980792095433003
0.1982209123341666 0.4713200047483578 692.981261439676 0.15284834727789695
0.06844829614105238 0.4379450682251363 693.5035646989915 0.15470798781775608
0.06765310867380864 0.4434268961118615 693.4830499010723 0.23857914481390263
0.06797490191103785 0.4310601120842332 693.4928472521392 0.17961435140557827
0.0873961502732584 0.44227982884261346 693.4906094687543 0.1904169594281702
0.07547989077019775 0.4273791770162904 693.5075454527058 0.15387930515201995
0.07312613162248709 0.46195029588643377 693.4886644828213 0.13916061668546717
0.08724857660330049 0.45980625213797693 693.4922423234234 0.20228067915490025
0.09624912082655697 0.46071510187166315 693.4694453111672 0.1963607699140004
0.08357809952729019 0.463509755467934 693.4827559264768 0.18844437608498055
0.09539704306578088 0.45205928905924075 693.461965969119 0.1991881868842016
0.09963041455957944 0.43977148228524093 693.4611489502619 0.18664051174648608
0.06642745724400277 0.4610252352987798 693.4700645867632 0.18596340157418512
0.06922828414000055 0.44127724674938973 693.4605090574391 0.16086581456462087
0.08230309131990232 0.4365626834215524 693.4619005830903 0.16852093996302941
0.0968100020412002 0.42444888496911 693.478714641522 0.19202279462886485
0.09805901732307458 0.42963031050944417 693.4938733324805 0.1644142025603801
0.09031279669154083 0.425587807159626 693.4868508164146 0.18567203882263855
0.10112201797132932 0.44422812421323427 693.5001272319129 0.16414855934397016
0.09854433147754815 0.42882185611890433 693.4674685721294 0.1608516014743155
0.08742802041959455 0.4277357137068437 693.4691540233845 0.2017092041648505
0.0736051018291902 0.4242360382630942 693.4802822877068 0.17360707747150153
0.07458831067364428 0.4460825802447571 693.4999714438488 0.1964133106082364
0.0928456450822534 0.45213335989361536 693.498380263699 0.17597984937088154
0.10307680892944315 0.4592371810555034 693.4827656679536 0.1862123135190718
0.10307680892944315 0.4356774213903276 693.4770144355721 0.18040651156765322
0.0656768074035643 0.42951459878368187 693.4743198440591 0.12152863469944737
0.07632242633011266 0.4348351398763438 693.4747860596751 0.2208066023952464
0.08757784774520713 0.4454779886232541 693.4689709199647 0.20778514370385606
0.08708859713150191 0.4384880260941551 693.4789387320367 0.21519913455311496
0.0850696242318055 0.45088135076283453 693.4844857789483 0.2191879251518859
0.0656768074035643 0.4584612522144039 693.4815766014829 0.18034228888720427
0.0656768074035643 0.45517824092208625 693.4932873356286 0.17498997609921502
0.12839365106728612 0.43164991491943544 693.0328703562888 0.14012150518575636
0.1332814271585404 0.4353037798602004 693.0427973298092 0.0933792213710167
0.1364046915238773 0.44573171400065553 693.0286049439726 0.1364404429049522
0.13624557611001442 0.44681120280891984 693.0475980075986 0.09907541251412282
0.13400141521058095 0.45195211589066886 693.0382735000502 0.09967884342487097
0.11710084652256361 0.4565590389057174 693.0348683878774 0.10511194685189737
0.11201228706180935 0.45238277832144713 693.0481094290413 0.08893197887910546
0.10934239807828329 0.4418151810259622 693.0353506946876 0.11117785727197745
0.11152854158323093 0.4363815304215737 693.0265143505603 0.15442338774212588
0.11285541841589111 0.4350258573342552 693.0453302429682 0.10394389676299672
0.12356629320521746 0.4339944754960189 693.0489166159083 0.09242708043967786
0.15727693515127478 0.43213113740002657 693.0734948605652 0.12974813384859568
0.15868651841966575 0.43300798749754854 693.0622430228484 0.12272169906422564
0.15991851063702306 0.44388388369702103 693.0561759661607 0.15071250321925764
0.1667951394214799 0.4526654548018722 693.059329890997 0.16002180342057554
0.15732082647210563 0.4568551630937976 693.0694807288871 0.11037751471915949
0.14966490229128318 0.4545791107805823 693.076090577598 0.12982199654693816
0.1457552089691161 0.4442395235863446 693.0695402312343 0.12947523714205353
0.1457552089691161 0.43389499604751486 693.0752497066542 0.1309083977678565
0.1670552101135252 0.43505935825181336 693.0687144558854 0.1687209619092834
0.1670552101135252 0.44849743670532116 693.080166662307 0.1553368300917825
0.058318538906022406 0.44178734658961644 692.9802011538702 0.18010773514436335
0.027619487308728666 0.44529680815794526 692.9546987259758 0.12940080361173098
0.03753100211639871 0.44190515340668607 692.9748533279344 0.16328236646816474
0.21913326054066742 0.4646552537818932 692.9505573575391 0.15771196958131492
0.15498506012873328 0.4403212821257602 692.9787754646841 0.19972767150471354
0.16618991085242196 0.44155059024718046 692.980183187412 0.2110000201074327
0.10809298972293567 0.43569518496408494 692.997726332649 0.13638351249919425
0.10374139208708755 0.4623581693612757 692.9939210651743 0.12270054314497603
0.08837003989037531 0.4541144411951358 692.9504431896858 0.17688529653989127
0.034957091652897815 0.4547935267699422 692.9503901776068 0.21100928160441257
0.037681300689096295 0.44068232818435027 692.9624008313272 0.23287414463557024
0.04918832601402953 0.44178227073480136 692.959366276951 0.22401244571863135
0.08386861888933045 0.4444867778949027 692.9554073290706 0.18047699288970398
0.04360475191631735 0.4490691442151664 692.9519965810615 0.1895584559935985
0.05715579690185181 0.45032676595595855 692.9514414247435 0.1713387198360799
0.09778462350246386 0.4454372757874774 692.9544764691896 0.18841565318079737
0.06991510253452042 0.4492247562053604 692.9519325405054 0.1523756799471201
0.07232454140955477 0.46069490927180756 692.9503211483017 0.17709500970751238
0.10745603134299536 0.4651186936708425 692.9503210408693 0.15550958148320396
0.03265720018092084 0.4667231265255715 692.9503210495108 0.20068151218180466
0.19387329876913004 0.4667223576220599 692.9503210495066 0.19829854133534636
0.16107318569927143 0.4648802088440728 692.9503210395847 0.1558179924788851
0.09488182175535322 0.4652706326761854 692.9503210416876 0.15745140905183544
0.2060250170454631 0.4595284394970932 692.9503216345838 0.21611461084724198
0.18269109078243567 0.46287453404900414 692.9503210513569 0.1720207851584872
0.10021995743360984 0.4193359740103736 692.9890366821134 0.1312047913370095
0.10042194303181044 0.44232142162202404 692.9894155557054 0.1302957940893848
0.1142994781452428 0.4206784679782349 693.000876887663 0.15786608622944948
0.13378763581509312 0.42353297188217637 692.9998938355347 0.1464752665340941
0.14332896189582095 0.4301440912084762 692.9922788579274 0.09314294027708124
0.14847770125063364 0.4165834890921057 692.9806273416278 0.1506546018101972
0.13756997600248955 0.45675345877539647 692.9976771973453 0.10723878354907775
0.1467589051501597 0.44938433072394507 692.9863204026043 0.1556675397254718
0.12579502474749582 0.4128886224856457 693.0021030265134 0.21152360451517424
0.09752157318894808 0.42869208567392153 692.982075271795 0.13302623737669866
0.21604348101427606 0.45449756926612606 692.9504124837882 0.17776241551149005
0.16551181133413456 0.4407722296770462 692.9620802674885 0.17746840827448443
0.15303327283244358 0.441301445713591 692.9604942170748 0.1734343244014666
0.18921368187918508 0.44054761315396895 692.9629448021369 0.19887044589220967
0.20611032380975486 0.44141792704655913 692.9601867572544 0.2356867418887724
0.170885234165605 0.44787810445776716 692.9526445806521 0.153882204528078
0.19910468584820173 0.4465268002747955 692.9535780230201 0.18103011300592034
0.18429839709513338 0.44809342564465515 692.9525156364862 0.16811937604386853
0.1900258480326235 0.4401891859632187 692.9779848433402 0.18377524514809698
0.17226231376146345 0.44018931589232985 692.9701507260622 0.15904657282992912
0.1478728312061004 0.42198601387485113 692.9694211704652 0.12107850920181414
0.14170212201890608 0.41462920043059326 692.9584735734684 0.16107592743581062
0.13507471644480668 0.4212741170389701 692.9533865015313 0.10318425352961802
0.13862976969586485 0.4333715405080297 692.9556602240718 0.11896867678889349
0.1261731936615736 0.43273071184273937 692.950530170877 0.07480118245633138
0.11548929107526423 0.4457013637738225 692.951382265698 0.11151327134197488
0.10352268830008463 0.42052990464909906 692.9589872624318 0.13018032947243885
0.1105829859988453 0.4132340390919824 692.9534282840848 0.1462701365158721
0.10331557777168972 0.4347658409227912 692.9591811463399 0.15692289845024196
0.09684150112750041 0.41477488727735146 692.9763159962339 0.14734291014138312
0.11344710478828735 0.4330783731236247 692.9521081286867 0.08241802359245896
0.11987382912229044 0.4197753741961322 692.9505362675276 0.1416599732688693
0.1328842313985793 0.41052784561604805 692.9524237230844 0.133948920255676
0.12684186730366817 0.44655800187590416 692.9505874415426 0.09017737832748081
0.1516648958752899 0.4509840706107654 692.9512028851425 0.159067019862072
0.1397928659588827 0.414864681234402 692.9959366342896 0.12624669699977517
0.08618887299829617 0.44018893603745995 692.9732087680841 0.2350006897199301
0.0485096583161928 0.44018955885423183 692.9717417303086 0.21087774459059141
0.07217398404561422 0.4401985364552727 692.965856882712 0.1638849643275979
0.07083365897891293 0.4637767173038668 692.980321042483 0.21136395531023486
0.06885353277170672 0.44905544606322645 692.9803208957999 0.16910627648007698
0.0875684959529864 0.45635330274397834 692.9803209017942 0.24396508208463333
0.09308008083045119 0.4440722020311029 692.9803206786443 0.23909716948894943
0.026715277696574332 0.4582048831784135 692.9601419519306 0.15968453433471644
0.03345822889162378 0.4562990793033298 692.9714074214235 0.2168156324324413
0.044591396783492214 0.4591588491933617 692.9785824211576 0.17109983501034698
0.05228837924454991 0.4519638248732871 692.9801456116033 0.17288842648932617
0.21741453759106175 0.4566187276436698 692.9640069328111 0.21663281798358439
0.20830108180565265 0.45544676244769267 692.9747990537627 0.21882792444422383
0.196321536383319 0.4510703925962529 692.9798752224764 0.1612809222789921
0.21037113417200917 0.44287439085329455 692.97319714403 0.16455126139025086
0.21797817424485016 0.44399723104932654 692.9627919689804 0.20594707751710092
0.18575378173491464 0.46432335241037903 692.9803210424831 0.17282865677937764
0.16300726790359138 0.456343537504971 692.9802822085227 0.20892161791328961
0.1750067246957617 0.4578220828421478 692.9803101247751 0.18917155279454076
0.1779338955600496 0.44376895504069747 692.9802747976096 0.15780063412898332
0.0974410258684438 0.4666696401624922 692.9825140853928 0.22439459534423936
0.09780698828046054 0.4362356803869983 692.969275894103 0.1731974000601178
0.1500667912561216 0.45748297058678533 692.980743978117 0.23442854576084635
0.1379282689959409 0.4445376045460038 692.9546967994336 0.13627861307183195
0.12196256444932543 0.4451823159767777 693.012321042483 0.17218435537529103
0.12221990426342692 0.4289600600149622 693.0036766541945 0.16871847810615573
0.11682101348160115 0.4551097881375775 693.0104964868756 0.20824033615778917
0.13399603067102844 0.43691649405242566 693.0059381692262 0.17594800678873296
0.12417061543137176 0.4598955664416683 693.0032330122617 0.1546081132557577
0.11106958694645405 0.4563479408897211 692.9996049670428 0.15477409159589767
0.10643040329058087 0.4096889648437525 692.9734300633796 0.1906745030535741
0.14739701800482405 0.4096889648437525 692.9684074822115 0.16265154962499678
0.11260455633387582 0.4096889648437525 692.9852418900692 0.2572090271504143
0.12401427339979398 0.46718896484374284 692.9834577724059 0.1201715990399736
0.16920017047163807 0.46718896484374284 692.9728157992681 0.24397998339005958
0.13754763084107963 0.46718896484374284 692.9912428860914 0.12320985615220913
0.08111217968123875 0.46718896484374284 692.9517068946369 0.18663560745021146
0.0482589996946818 0.46718896484374284 692.9504419457785 0.21126002477908934
0.13947886943030618 0.46718896484374284 692.9506982880927 0.12041460856842412
0.11565410202381797 0.46718896484374284 692.9899397102386 0.07970841959439598
0.06095741504912332 0.46718896484374284 692.9796967196761 0.2063331480896622
0.10208404017247269 0.46718896484374284 692.9622809919293 0.2242919867296748
0.06437189522186429 0.46718896484374284 692.9583964000878 0.20657803542394276
0.13876309666346162 0.46718896484374284 692.9679860381932 0.20100960615978922
0.0760772008769932 0.46718896484374284 692.9631409809974 0.2027240739208655
0.11386809287690322 0.46718896484374284 692.9762368589115 0.13653188690199597
0.04812095235752159 0.46718896484374284 692.9613108904462 0.23822583506093312
0.12320108894316306 0.4671889648437428 692.9699832834922 0.14722687799882792
0.20897263812393718 0.4671889648437429 692.9577521569225 0.19165812227128348
0.15214924324269577 0.46718896484374284 692.9687700079547 0.209835633618022
0.17605740724361907 0.46718896484374284 692.9594572592323 0.21064697550426367
0.09282521461690196 0.46718896484374284 692.9682062037581 0.2170151874475814
0.18750658509584237 0.46718896484374284 692.9619133540291 0.20880810465660585
0.08177793946468422 0.46718896484374284 692.9760673772779 0.2343762165724287
0.1228205218004054 0.46718896484374284 692.9550890660566 0.10711890686407605
0.13591892207290734 0.5094622791329316 693.9267757274714 0.218314835502644
0.127490567296312 0.5093002297726554 693.9384996731383 0.20555137359510267
0.13383920588402132 0.4990403887701541 693.9332965573279 0.1551392844138516
0.12211015554972482 0.4962122980359213 693.9392906240871 0.16581248434212476
0.11738420989679409 0.5164958409499422 693.9380009833005 0.23670048517531234
0.11137221443193769 0.5068952354468197 693.9324201127649 0.21886516466897923
0.15155581484415961 0.5213236636578977 693.9346569580914 0.18220694428389655
0.11629534148675016 0.5266752540033068 693.9556703503866 0.16906706692832751
0.09849683882027363 0.5249691862093183 693.9434868297915 0.14814435879207194
0.09418269805331887 0.5191281175611069 693.9336515703926 0.14576199053142638
0.10379680274775209 0.5299147243499789 693.9235954252946 0.17598540377423333
0.09873423371811152 0.5299147243499789 693.933211681191 0.13280273063962625
0.10892809948810228 0.5299141883573381 693.9456708704589 0.19349309305202517
0.13273263063657387 0.5299133853265441 693.9149890259716 0.19915655083051992
0.12102673380438106 0.5299144959223813 693.8999002370766 0.1965625424319382
0.12677739753873343 0.5299140191014505 693.9337065192817 0.18064008572122175
0.12329300177497644 0.529914222952224 693.9219840251014 0.1799097280598463
0.11592511156978523 0.5299136939613485 693.935912466622 0.19661993221310312
0.1283350853473375 0.5299141596785324 693.9546614537239 0.20754445221591097
0.13806409296404354 0.5299136789242007 693.9325372808061 0.19398269168482585
0.14186646190561195 0.5299141211164232 693.9484896812064 0.17527692478291582
0.15106563287020192 0.5299200094657892 693.9265729956289 0.19157531162851227
0.09374235635000636 0.5205317739862432 693.9226609661122 0.1939808833437065
0.09823223210089639 0.519253537310245 693.9103333895035 0.18848869840318289
0.10361831996350401 0.5264916450643384 693.9043372682157 0.16514805298847923
0.11348521098599243 0.5191546322235169 693.8987716776363 0.2108596199675045
0.13767772708525117 0.5286141555118636 693.9013258093653 0.16792471597235278
0.14439095448179862 0.5186149895293581 693.9224157145461 0.17107604378373997
0.1222672552362222 0.5186140890732336 693.9069862930638 0.23275909315423735
0.1292927725132018 0.5186129812967861 693.8977667527353 0.19069876267331629
0.13327020480731644 0.5186146295526123 693.9131273325977 0.21483746445172724
0.14300956444529828 0.518613826160831 693.9479076761183 0.18961625305599694
0.13453300555503078 0.5186150251091888 693.938077342902 0.27145698695310144
0.1263317063857667 0.5186139120900257 693.9544666939491 0.15983060304206054
0.11167402313408101 0.5186145209612374 693.9131979850602 0.24319730015162877
0.11007549329159552 0.5186147292670856 693.9285440022107 0.2234104894149529
0.1121120763159322 0.49953445366605576 693.9198859276167 0.1874011194132583
0.12102885441078745 0.5012056878833403 693.9139426016261 0.1870642596343001
0.13337231019857954 0.5014043894828042 693.9193516958649 0.15547677980440644
0.1191471512186843 0.4949147243499681 693.9277059971761 0.187495458818734
0.14947538700926694 0.5230336427663977 693.913566091244 0.13110686633284122
0.11631434552753107 0.12437398099525071 694.3071066030909 0.18313244569490095
0.12608642330795794 0.11436790543608985 694.3071066030909 0.21426171169375754
0.13933566435454317 0.12010552986496988 694.307106603091 0.13785361080027794
0.11357328348756293 0.12308029623870491 694.3268739037 0.1941741704878938
0.12709076242423567 0.11079632440903514 694.3282265791271 0.18100904962557035
0.1274382439301654 0.13430558526968864 694.3149539334714 0.1882715998178425
0.1337487405543239 0.13065142821147818 694.3242031153786 0.224522377138949
0.13610710681854324 0.11022003064324805 694.318735434888 0.2184906214155559
0.13877423826441943 0.11952448988457046 694.3235285416627 0.20836278817998605
0.13223737478167985 0.12579324803572728 694.3370581873119 0.1262227574742687
0.12424129630759838 0.10774004413674143 694.344792493536 0.10500861984455263
0.1213592765967435 0.1297774560167147 694.3308343508326 0.16234033548573018
0.10834791651335449 0.11296924752160367 694.3158275199612 0.21506880218861912
0.12164758519349234 0.10338001792915859 694.3200942964645 0.21114232573242026
0.11567799643551906 0.13312382763101593 694.3206685753822 0.22497914546420442
0.11676594663710693 0.13592354427640307 694.308303431289 0.15061474307224706
0.1165669279060022 0.10952010047024219 694.3325411961494 0.1756215824938512
0.11198272535725759 0.12249444665186901 694.3418309704216 0.11805152800690806
0.13490485339688635 0.4097541453339372 692.9773271873667 0.2827895812002557
0.1191657106317145 0.4097541402930862 692.9751519404024 0.29786336491286375
0.12998590434661092 0.3952551523412787 692.9905194058355 0.28321587856224806
0.11889289684255712 0.3952558889022513 692.9892561731663 0.272658878861787
0.11088255591526415 0.39525479335217006 692.9758784021424 0.22519946138362448
0.12137969308902871 0.39525439561905773 692.9746282812489 0.28924820429356385
0.10840206433076491 0.4028163277207293 692.9594265539004 0.16798671365098838
0.10875412642219798 0.40847321235417966 692.9952682115647 0.16102282584378297
0.14730204188100762 0.44530782292130794 693.4972646841456 0.2114033007060693
0.15521924646658083 0.4400881244658136 693.5061031529541 0.1905461589219204
0.14193800565900716 0.44384357398575325 693.5084676260401 0.17109063051410386
0.07692533986953043 0.3205314704951684 693.6657008878752 0.22048005802301573
0.09027665918324539 0.32795840055089454 693.6673635364189 0.20548367466285805
0.08537753523626455 0.34301301571282455 693.6788318386922 0.15157612684400887
0.08096997782744986 0.3312784805596374 693.6721018197924 0.24284445570705243
0.06582955417680059 0.33661495254551 693.6751828459483 0.17388886560082736
0.11265363181010936 0.4381414343860746 693.0146987069497 0.16946829454232357
0.11742833296404642 0.4544825314562047 693.0226785320021 0.13828437061056112
0.13038050709098536 0.4531656065556007 693.0206860968015 0.14115809156305412
0.12781406420198488 0.43336779896108074 693.0145206843389 0.19357066720663033
0.12235798865209307 0.4426241057164911 693.0257276434352 0.13791493742944094
0.06631421762953207 0.3454776476770294 693.6508917283278 0.12524278737652336
0.07622423567491449 0.35040159128365794 693.6423632139151 0.1087040194663256
0.07705017703386793 0.3570828422453158 693.6307909560517 0.11745465662601458
0.08796824857200891 0.42912998894324195 693.502275098022 0.1705099089529118
0.08262800044617778 0.4196102096751819 693.4967788318012 0.1328794523019761
0.0856901499585226 0.3581498330122073 693.6512369034781 0.115481541652923
0.08565035360022093 0.37380445227196146 693.6242399776263 0.12392811385524574
0.08404698984355657 0.39116662492620624 693.5963429895446 0.12781751762136276
0.0911987179277676 0.40088070527516 693.5608918483916 0.13543611230324973
0.09093899120216635 0.35024074993451737 693.6351460866942 0.12640602231722506
0.09122503156844675 0.3637207652065487 693.6144703370398 0.13459361792117652
0.08836490361238884 0.3646264821601065 693.635131537203 0.11762766061229837
0.08837393384144773 0.4011536389093843 693.572156687408 0.1390204294659284
0.07961455170234223 0.3999893203189675 693.5836722688439 0.13762780963985594
0.08190656406260013 0.4209116565791775 693.5463685367733 0.11319709921721725
0.07957598151457365 0.3870227381345196 693.6061601182411 0.13027032983601086
0.08004769484862997 0.4383349626311337 693.51702398444 0.11726321267074405
0.0913157492638429 0.41266389584807817 693.5324990406579 0.12346930002767097
0.0913907388615301 0.3913861363627306 693.5676563863093 0.14843670739027365
0.09141256320954308 0.38632525052201294 693.5785416213837 0.15291914609361615
0.09133920522474653 0.40762321316514977 693.5444281756018 0.12738412919024092
0.09128966594921696 0.4183694278252983 693.5192915652619 0.09607803313690416
0.0914635102067414 0.37406919088527807 693.6036971202767 0.1304050665231903
0.09049963534735336 0.33597016105096217 693.656616135295 0.16994234097973812
0.09081766634895624 0.37660427619814746 693.5881578357145 0.13034321289007975
0.0856157240448897 0.40306747463635795 693.5288743289439 0.13779630642466684
0.08770865785910241 0.3887785198407131 693.5572104746013 0.14233358463567655
0.08550971185443186 0.3659323451449231 693.5930300953487 0.1422250094214886
0.08787529838800269 0.3955106647839236 693.5457845590913 0.13989431755892243
0.08063907751804737 0.409483781585971 693.5133376441686 0.1316258520269568
0.08388633396625306 0.37673758938619817 693.5717276258661 0.14154723942198125
0.08942087425437983 0.34151803451783114 693.6428611978657 0.13895256517457832
0.07815379927776292 0.3673513200240113 693.609790044394 0.11615824549972761
0.06979920593980321 0.3605393167645786 693.6058570880225 0.13274859236088682
0.06978240565519757 0.32726740436437785 693.6593992835767 0.19375564322764757
0.07487811043168216 0.3684331715562507 693.5843200068182 0.12490986685200561
0.07229411608689255 0.37938512005078756 693.5665962381212 0.14891735126448594
0.07678284703887664 0.3862661818727413 693.5524965574814 0.12394975259483137
0.07654644770489324 0.392623489693756 693.5415932842589 0.1285956666643903
0.0687488171510042 0.40384727352885524 693.5287145532312 0.13482641322362868
0.06849136402181918 0.36643894167508295 693.5941546903473 0.13406550036163645
0.06713548555658472 0.4108461922059352 693.5192503023435 0.1415081099133546
0.06516101031740419 0.402511513947951 693.5400868294071 0.13557760438722596
0.0656460940488929 0.376634791453263 693.582511419993 0.14054734255230497
0.06629576579787955 0.41682948839072054 693.5108237131399 0.12970692965485336
0.06366889611888858 0.3367971290335464 693.664122068535 0.17297754532471896
0.06385593790466956 0.42281921634830905 693.5228904394288 0.15333281139552432
0.06427257729260281 0.3555241929672755 693.6420033994057 0.1177987856100236
0.06360837925554742 0.3580553524891779 693.6308003005848 0.11511574121084814
0.07204697822535559 0.3515014804831314 693.6661688780814 0.1584947342213746
0.07146097854854613 0.36115741579758837 693.6487162557933 0.11269105393862319
0.07050083505706112 0.36702548725650874 693.6373179331183 0.1334459524709908
0.06704177581364405 0.3717774263576059 693.6237069186823 0.1183297977146865
0.06602252945110998 0.3956415746957076 693.5794900462228 0.13641235349407763
0.06654668991865657 0.3841082272160714 693.6009554498206 0.14491245764198044
0.06482956511504742 0.3838245893061701 693.5735401256138 0.13052638390905083
0.06379228565144002 0.41348755540891047 693.5344816716888 0.15102948558167653
0.06385244822036189 0.42704374854070604 693.5042461799228 0.15480050128328046
0.06373577940644397 0.3981920717311928 693.5613998021906 0.14031548208257583
0.0739707761105809 0.3816410142425907 693.6148493877388 0.12713106696838164
0.07685659297845518 0.35723785156166804 693.6583796555478 0.13106161205182082
0.07332397203469068 0.3946809466138504 693.5919457902182 0.13939793887751684
0.07267204137929689 0.4091311411163758 693.5665910294574 0.1350003401100764
0.07407254854822537 0.4160272762679347 693.5552295543514 0.1255458034904015
0.07498432773600641 0.4328945101760879 693.5264161293163 0.09856852252450012
0.08686018783144192 0.3795517693331245 693.6124934573995 0.13669175371947784
0.08626096179338763 0.4128712162953575 693.5555073014368 0.11877784379896086
0.08882286877948278 0.43005363249652007 693.5208650064933 0.09722135696318777
0.09047889589066983 0.3469340725822149 693.6591724738539 0.16280063611704768
0.08923908448385355 0.4230834127280908 693.5313037499741 0.10574971706240682
0.06856342734868365 0.41853129789206384 693.5452064531416 0.14288416596416406
0.06683548109611219 0.43356441870841445 693.5162985200376 0.14219172765500404
0.06944612590382168 0.4257212590420127 693.5341147361978 0.1342534222383127
