x y z curv
17.067759929207384 0.4130407742707133 923.942897027259 0.10237362069242141
17.07071002658511 0.40458487630409457 923.9541056990241 0.0944637719464647
17.076636071636575 0.3980763391984018 923.947840023251 0.09813996479244966
17.074113494685893 0.41335988374022153 923.9343749549117 0.1137862853973659
17.076477785160833 0.40131318892778584 923.9310142324493 0.11967435107068683
17.0649786408079 0.3780785422777614 923.9915226752245 0.1438833562590322
17.06401040180334 0.3623036349123162 924.008554274841 0.17278517300295998
17.072445213659677 0.3634949477066465 924.0012309039158 0.13711752480550948
17.070710017050935 0.353648434557709 924.0129707543143 0.1357818505555026
17.07697716640737 0.34047236892164445 924.0116903018436 0.14061065301542872
17.07237228011336 0.38982076521604614 923.9359862804822 0.12775447130744244
17.07278277516536 0.3407821162576104 923.9951317938037 0.14943020856213035
17.07430395805482 0.3304760759019556 924.0079395304656 0.13016291998034435
17.075900485882244 0.37274294271195607 923.9854971076226 0.14041161359938803
17.076595146500768 0.3526911809695272 923.9930740359849 0.14557776279269324
17.05793304073864 0.3270838796834629 924.03360582525 0.13034920349082385
17.056606604132735 0.33767556419942846 924.0235590390723 0.1019288980528139
17.05595504197413 0.30631683118076736 924.0467956339344 0.14739905313161794
17.054478969395173 0.32147646702675936 924.0184249373021 0.1293296857680232
17.062119883549553 0.3158029893422402 924.0438681823587 0.15585023047979554
17.063278817314615 0.2911860667796644 924.0590693998117 0.18766346438130094
17.069951378083523 0.29792109206449235 924.0527847113705 0.15586364773808023
17.073499936765728 0.33152567677509714 924.0216122687511 0.12079343335711233
17.07191930481784 0.3238481136577269 924.0317913225914 0.1315631121940225
17.054198403275194 0.27761149269792795 924.0680604709721 0.16279930250707425
17.036109166465227 0.2925967500352418 924.0556180021872 0.16120306970068893
17.038587473506432 0.30082904465725013 924.0487478995932 0.16910824581815415
17.039984266841458 0.30935488730264565 924.0413128339492 0.1699377415710305
17.025067379797097 0.3002753174217776 924.0475782678009 0.1500878723290047
17.051774912806415 0.2903003857880145 924.0585395162929 0.16171526505981357
17.024001880682448 0.28575931351480566 924.0590501043912 0.18740614434419986
17.014777341896007 0.28094101843554686 924.0611628028098 0.19243414198954284
17.02071239462421 0.26879523135570516 924.0707244242841 0.17651432300560846
17.045189920412856 0.25258257308260235 924.0835370877729 0.14419044011359122
17.056016439412552 0.26643940531452215 924.0755229643762 0.15443761586303886
17.042506858854203 0.27651128454984786 924.0680299033392 0.1575054431559378
17.032725720235728 0.2807645508713943 924.0637801300222 0.17503604741023984
17.034838278120176 0.2695464265305366 924.072110152497 0.1557615382417531
17.044897108130172 0.2664509061091488 924.0751695857807 0.1596039682530054
17.058238923505826 0.24790047452628183 924.0868499312165 0.15210380061510786
17.10253819550397 0.27742208907535815 924.0652380617325 0.17729074403636166
17.10518852048676 0.30169205609808986 924.0457201774482 0.1915968044824696
17.095298360103854 0.2857394730791179 924.0603431635084 0.16720132779117833
17.095760526676333 0.3107296825611416 924.0390675724427 0.17192604516804227
17.085931893644847 0.29432824762811793 924.0543896625243 0.16359642462034168
17.081602583679285 0.28118855847142854 924.0650090524523 0.16106326708783408
17.07146328170249 0.2515256963449392 924.0845131102042 0.17100385103168783
17.072445611208074 0.2680459677626552 924.0746322832701 0.14833035329214045
17.062109005499785 0.25699598928857204 924.0814064696239 0.15663823389585943
17.104421987469802 0.2888162821862502 924.0564994170732 0.18871867323602232
17.090078823071494 0.30287437966186265 924.046818511179 0.17811009666819386
17.078994483657073 0.30315566743653277 924.0476564609364 0.1589311373549527
17.080199995989112 0.31125308317493927 924.0401764160396 0.13925569614103384
17.10207210734114 0.2673490884636956 924.072285819663 0.17182652366240156
17.071169984633563 0.2832532178736744 924.064059261116 0.17555798049224297
17.094265057274807 0.2574366722553472 924.0794399091097 0.1512891018503871
17.08252533148028 0.25757926055928015 924.0804456016185 0.17060742761784775
17.088829599867708 0.2670312973210275 924.0741974496804 0.15885330134641604
17.04962406219709 0.29829611528908495 924.0287739274024 0.13938057681598376
17.10886073423429 0.26980517925970215 924.0498092085983 0.12389997751811081
17.074287648805704 0.3081629706081107 924.0214885497859 0.13140488632536948
17.09654825475526 0.3013923327982684 924.0264900816213 0.124929388710367
17.02811638178626 0.24342631288789762 924.0692467882506 0.18186714933816134
17.03513125462993 0.25994425134432053 924.0570628995431 0.1389280571177565
17.022264851024644 0.27766662949113374 924.0439905849288 0.15609747782763936
17.03323957694609 0.269770438222446 924.0498149470907 0.14760024796900723
17.07726958446109 0.27608946702874165 924.0451539215998 0.1317504249892204
17.030729234441647 0.2864774459247652 924.0374915883338 0.1544322738572378
17.05214902748919 0.2656289147399724 924.0528698039836 0.13186209374543398
17.090154121070167 0.27107914342638706 924.0488496158488 0.15186201208264682
17.069817839359008 0.24155733918897693 924.0706253913255 0.1560819691527167
17.066333202067042 0.27744902260239707 924.0441510936664 0.15743931831436148
17.041973119807327 0.2899943328851813 924.0348974716313 0.13950181827745786
17.059462856340097 0.29387104472549974 924.0320379319555 0.14459454571318056
17.034571233601728 0.300832861161055 924.0269027803531 0.12046857082925676
17.104613166316128 0.4768064565658534 924.173774799319 0.19162808629292805
17.150766957994446 0.4177047128815586 924.1578581944955 0.09423877593593549
17.150329437550216 0.42984451613154206 924.163371565822 0.10345913455502363
17.128557385044488 0.41933249047236204 924.1630243170998 0.18510537996386361
17.113140861841806 0.41175112174510126 924.139954734927 0.11066949815128911
17.111786476855777 0.4114419920949386 924.1270475385852 0.11887998689917752
17.116701546871397 0.413738303465084 924.1519784706868 0.10648697158174922
17.119453393343168 0.41593282718271285 924.1703232627633 0.16921086641525593
17.122272459307613 0.422207279576472 924.1409731072551 0.11415765617053794
17.12024307636362 0.4322551772556622 924.1796178265456 0.2275864198468933
17.118277154753045 0.43460988365915465 924.1547968852972 0.1991433314656966
17.11592235388172 0.43651231881587005 924.1407291428784 0.16847382984077616
17.109246119107976 0.43856265436065534 924.1170462474191 0.11618341766920914
17.113970539193048 0.43754001158494926 924.128839429533 0.11355793477644784
17.116683565939006 0.4360897695942602 924.1680524879723 0.25057615651140436
17.11672405907965 0.4689512286261451 924.178175614867 0.10511138885327279
17.10921692019857 0.4622378783920503 924.1831658241904 0.08433594569482508
17.100301500426855 0.442294795383935 924.1775944990909 0.12311696642733015
17.101973403767655 0.45569123665318606 924.1684182154859 0.10724334279793768
17.101305907960324 0.46743955071942034 924.1692888524185 0.1157498719240151
17.113106954207847 0.446644945491131 924.1667175869356 0.15186918640802405
17.11754009099155 0.45461157373403244 924.174002960913 0.13350967164057964
17.098695334592975 0.42801815800130594 924.1153440340593 0.12124326233935133
17.120496975963647 0.42895312340823444 924.1153440340594 0.10825503268797343
17.110473590999487 0.4153527401738977 924.1153440340593 0.11083687956723165
17.12208560062038 0.42493558602666354 924.1893440340591 0.1887828312703272
17.10092750351899 0.4361475847870041 924.1238472444427 0.12019574779493253
17.099765027426184 0.4354633567656596 924.1520422477237 0.1439438976407564
17.094914907530686 0.42419305400185725 924.1396066629733 0.10701231204754919
17.094914907530686 0.42650734022972114 924.1881958029473 0.09451528685475105
17.095228431598024 0.42847279717859 924.1590880705414 0.16079385953631142
17.108191943031585 0.4107913552040085 924.1864267804114 0.11874713234068422
17.094968414141807 0.4214800560266283 924.151183309016 0.16212328850767152
17.096471207610577 0.41835947363392356 924.1292060736872 0.13876072980874718
17.10001794380073 0.41406391511915286 924.16697966356 0.16626302911089202
17.099033239954647 0.4148491898589256 924.140381814511 0.12211534652402004
17.098086745338918 0.41560399376876617 924.1799599831375 0.16377758200483075
17.098971668642235 0.4148982913187452 924.1188299244131 0.11251429338250721
17.102066011721398 0.437011929177956 924.1885800378541 0.10811762813806972
17.13366495703683 0.4202974958558896 924.1521994966461 0.1367438215280723
17.148334926141988 0.4266109915593784 924.1505612216274 0.12557832687184936
17.141380110253714 0.42562357505650816 924.1749390094935 0.19604762250412158
17.147534923336913 0.42313365134961833 924.1858450902904 0.11393496245705009
17.12978902885087 0.43094599841777204 924.1622751560315 0.2373376752828771
17.11561911485304 0.4446152970567481 924.179709637126 0.17376271241390573
17.106284728790136 0.4506180574056786 924.1831447185102 0.09944340734132763
17.11072254368732 0.4640659021867069 924.1656431101886 0.1014346382838241
17.12132645843808 0.4196335734431899 924.129291428795 0.11413774120679862
17.185250963719874 0.4734273587834511 923.246205090491 0.26868789292534306
17.177834723827743 0.4718004331188475 923.2608994129205 0.22325874158715964
17.16969575919004 0.4646730419426438 923.2522401187477 0.2600514939249517
17.17120891383541 0.46292156893228814 923.2403160334927 0.22224324249335323
17.1780831894226 0.47094794578584054 923.235010954667 0.20874587303921216
17.19971983026316 0.4670684101813824 923.2434891438654 0.2337676964515302
17.177930439764967 0.46013488545968556 923.2611575049212 0.22031581577965953
17.191000314534765 0.45974748688862255 923.2353748021395 0.1876659707450927
17.080575980344847 0.44399923084153137 923.9015350654613 0.1600663377071924
17.06379940633178 0.44350631144555597 923.9048602089451 0.15616496847673805
17.087159608524626 0.42348864489195776 923.8781410132375 0.16701427466745097
17.076958068667295 0.4272306233040696 923.8784024485802 0.17771366476500822
17.08023003919565 0.4150065962168664 923.8808001384757 0.1992751180444828
17.069564437652907 0.44429070557667666 923.8955125918856 0.19721150323862588
17.061752698684355 0.41822431380481895 923.8794290565006 0.14466997667575826
17.05287316157113 0.4061848332056205 923.8909070937931 0.11790148351540787
17.064742177038543 0.4061104856122822 923.8909703851959 0.16175983718039255
17.085751673575118 0.40510868450646736 923.9005692155843 0.15782394269510586
17.078360566364417 0.4107301738501913 923.91235597708 0.17148801049122778
17.08169151812911 0.4293136819822434 923.917117497542 0.16002819776286328
17.07950185825487 0.4077535306033813 923.8880668474519 0.17295159839851304
17.05197333836602 0.42433345105738046 923.9180444683856 0.1291003102837374
17.06816049079541 0.4329758828256438 923.9161443641251 0.16791363223331063
17.088685496405503 0.41393776430093604 923.8946618295756 0.18315003029509136
17.088685496405503 0.42838307439078466 923.9077044609239 0.14929894961835977
17.061257399045715 0.41091103961293984 923.9007089758162 0.17594492356927222
17.073805889440557 0.43228674781138504 923.8906724020809 0.18481022510831244
17.051285496786974 0.43789457099196777 923.8972217954004 0.14857914452355997
17.11668398609179 0.4136119572988276 923.2936274808337 0.10553494658702128
17.12210733174118 0.4228349069906667 923.287705664387 0.11416790760857166
17.118845882415375 0.43378876490185186 923.2930220583327 0.09975940661714344
17.105802658026498 0.43798409263337956 923.2922777473487 0.10821347184305886
17.09639884976244 0.43067829737887997 923.2895688082833 0.1269633604854599
17.1013302208269 0.4130006172989968 923.2945909987471 0.10540729323459927
17.140502257366535 0.4134083922364161 923.3228551530447 0.14416918003815732
17.14288011987256 0.4136644955382864 923.3102812663385 0.1333333310965671
17.13323755736178 0.4235514000144393 923.3042319276451 0.09945745233737639
17.14478412420586 0.4263499572005833 923.3043695494174 0.10009208754062829
17.142217407509673 0.4361621263351546 923.3109479187569 0.11830553053500317
17.14966653781642 0.4371599038226008 923.3196926416136 0.15407543626867035
17.138133333466904 0.43338435388401075 923.3265385564921 0.12343097667232719
17.131363896445176 0.42804259382334003 923.3162111685987 0.10613625113293612
17.152663895682238 0.42572620353715984 923.3215199803 0.19780862117992293
17.152663895682238 0.41578971655736185 923.3255095395749 0.1670435791841008
17.152663895682238 0.4133126649529966 923.3146061672148 0.1781730317180482
17.120634184428436 0.4861187435356563 924.1784173662097 0.20248734090776996
17.11351341186537 0.48678523240476024 924.1860275942449 0.23442023954747707
17.095833678377016 0.4916788923759844 924.1755260209404 0.23272190368902862
17.100323151495605 0.4792973040013511 924.1843380936576 0.14821715138195654
17.113505240403935 0.5088375011179986 924.2036170813836 0.19460530075760715
17.08255108894985 0.5105446506319905 924.161676530407 0.163475923487355
17.08889545030216 0.5105464572906442 924.1744033598184 0.20525819756896163
17.094474516816298 0.5105464572906442 924.1611470930031 0.19214093892942832
17.102007414794986 0.5105458537495852 924.169969850418 0.151486289123185
17.11934671738033 0.51054495104452 924.162081938746 0.17345291355718226
17.10228748069776 0.5105453371994635 924.188280978774 0.17861450429663808
17.105950678307106 0.5105462396827531 924.1553277440036 0.18785130070932968
17.114387640236114 0.5105455395872205 924.1920852865842 0.17506200871641742
17.100960461906777 0.5105449779897426 924.2015271869811 0.18593677380442308
17.130977108057188 0.5105461681041474 924.1575677764165 0.1298605264049485
17.12157835952997 0.5105451834813634 924.1749356849537 0.16730569681459284
17.130895777668783 0.5105461817613642 924.1901424957778 0.1276821919608237
17.134087037256958 0.5105473072775755 924.1789193594528 0.15115931997312126
17.096796978269015 0.5010382071651669 924.1474397280463 0.17713342628799333
17.11182610042663 0.5100426564745308 924.1452423198631 0.19576594188244095
17.129405967677187 0.49942242101628004 924.1535296151628 0.13666177095947693
17.13781187490893 0.5071388555721034 924.168553868976 0.15671673559870922
17.120456320597146 0.5036364270726713 924.1474034203718 0.17016610346982206
17.129146135051734 0.49924666022224606 924.1690849001857 0.20366270544530773
17.10976733880502 0.49924495459011986 924.146894575857 0.17492689718244459
17.13450770762025 0.4992468488040709 924.1881118718776 0.1691931123543798
17.12551522277281 0.49924573369126013 924.1950328067201 0.18578556036994504
17.121077227498112 0.4992464895933459 924.1790654420784 0.2601049904148687
17.10956353115401 0.4992459328999655 924.2028966527739 0.16323597726811107
17.083500566840353 0.4992481540810947 924.1647527123032 0.17360481289722848
17.094208845016677 0.4992461298245576 924.1608205497503 0.25217687462999866
17.099569463587187 0.4992464339387747 924.1851732011609 0.26831009263977995
17.08875282487245 0.4992465969432604 924.1819002316316 0.22867837567955063
17.09355868704936 0.4992457847316436 924.1986812034673 0.187811779616676
17.079432898955396 0.499267631185381 924.1769751809658 0.15545023452587858
17.104295369964476 0.47760279343266715 924.1623324457253 0.13695401940483226
17.09955160127152 0.49040743057857084 924.1653174681426 0.2389564153503554
17.111347186421153 0.49851259850578883 924.1616699007583 0.2556734596727223
17.114363459660787 0.4856119442287866 924.1630697713845 0.23096928930339186
17.083813067538344 0.5051311360380186 924.190757438176 0.15601857465558627
17.113409273008227 0.4992464567811253 924.1882998633636 0.2699348716629737
17.250798125599253 0.43344958336516143 923.2466961346003 0.24750935829512716
17.250797810153664 0.4226746875138477 923.2605186623118 0.2769755180333586
17.25079858807793 0.4135916068626694 923.2533002493604 0.24714069551973838
17.24840586618737 0.4399145448068885 923.2564836430538 0.2605660596455877
17.249503878732042 0.4145325298422107 923.235174710821 0.21125374620769993
17.242937684727004 0.4261013630189306 923.2680745660327 0.1928426580146438
17.239427691906222 0.4042676713963429 923.2432600022028 0.23175991053181322
17.24993589481148 0.4250003290370519 923.2320239419307 0.20737990240761978
17.10021109378522 0.09395700776321358 924.5548341463639 0.179370925849842
17.103325700473263 0.10601823264359021 924.5548341463639 0.18146208687254983
17.11261659466561 0.09301984792980778 924.5548341463639 0.18243400042161675
17.104925575714503 0.1082616473183637 924.5758651282102 0.2263311047569797
17.122731786143625 0.10673342499186492 924.5700828238234 0.1847846155628885
17.115804428947072 0.11370692159452572 924.562965522917 0.2199260356716893
17.123926100241924 0.1030705717673207 924.5599770819034 0.18170134871940602
17.121034676884264 0.0899028416036151 924.5704117969085 0.21660595436820043
17.111827983165803 0.08425314985503593 924.5689819315344 0.22285027836775478
17.110390441834994 0.1109083147405578 924.5921377025826 0.1115632764591231
17.119712965969857 0.10237068461490983 924.5822735767767 0.1684397587531087
17.110205461401375 0.0884506034408819 924.5929032240487 0.10188693491248745
17.1077045741138 0.08829307108845234 924.5807369268823 0.1780106498777756
17.099784301225416 0.09244548314995144 924.5890644236638 0.11121777353960906
17.097461664963777 0.09837409130848415 924.5790187024485 0.16590220466867547
17.095167046805035 0.09126602447268797 924.5668731253163 0.2188818785072004
17.09293017547731 0.10154983300666254 924.5618611284503 0.20737966195600202
17.102094130451526 0.11416421636836634 924.5662293559566 0.20144466413282255
17.10655231439072 0.11820209920070454 924.555198542773 0.1272236999070888
17.0481570782205 0.48546175626072463 923.2511111460035 0.24435745388139332
17.05534487169619 0.4561206264894172 923.844817956218 0.04734144852053906
17.055597183789384 0.47346828021565657 923.8168812576591 0.1199490612251057
17.055664915296354 0.46809913474372533 923.8267473888316 0.08093228722176139
17.055648759653316 0.42987058386965316 923.88568725838 0.19114098814626174
17.061526842085698 0.43072781507273905 923.8724351019684 0.15151069074329068
17.059419601997504 0.45283404510972325 923.8357028946502 0.05683472233919525
17.05756003712355 0.44260215971404787 923.8560336584356 0.05852844996672178
17.059798493384523 0.46327687251735084 923.8170838626455 0.08026169238365263
17.069437899035382 0.4465481077685072 923.8504808220262 0.043736281346232773
17.07125215586766 0.4627018352964922 923.8321071800224 0.0715725483199083
17.070931115155826 0.4735317419022547 923.817379517683 0.1271576007044253
17.0673505070079 0.47334312997532896 923.8274491771799 0.08066719256052025
17.06923893308112 0.44379491341049526 923.8756301387886 0.14061150925159205
17.063400634395652 0.4681032205992782 923.8389086638025 0.05826608536178055
17.05644683973328 0.44711221330408274 923.8672003099639 0.0929393229962552
17.05738552209649 0.44252119122577804 923.8778287308396 0.15659282409071176
17.057020366363307 0.453489407972131 923.8577900268243 0.050331964276234216
17.065813732437114 0.4403502752185173 923.886037763234 0.19563052812848597
17.06640087322924 0.45331533023475673 923.8633008453394 0.08141879374460996
17.065115184463913 0.4617000327296349 923.8493929466936 0.04500774708872733
17.070665878565613 0.4545816556644904 923.84046847922 0.04687800853328638
17.052953689744168 0.41289090648166504 923.9150428880525 0.1752812085495012
17.053651777753906 0.4259843489425168 923.8988769962975 0.19220758651951755
17.06069210269984 0.4046515983992432 923.9123945162215 0.16205048596961846
17.0680172755136 0.4197917534348581 923.8900294069771 0.18407809850061727
17.07401861533164 0.40865932877121236 923.922842419589 0.13118496416088524
17.0709703071474 0.41605136328503045 923.9002992414034 0.18544459262538449
17.072636482150468 0.42300967990995597 923.9095064986919 0.17734501322076213
17.068938793615477 0.42002556495379184 923.9243076294279 0.15217832213983395
17.067639122401363 0.43200120428588074 923.9031565989777 0.182601148274797
17.06015698291011 0.4059538609120914 923.9253807849047 0.13825091830797046
17.194259346277633 0.04842294725344703 924.5506600558734 0.059494520873055436
17.184944560556737 0.03506510635219931 924.5536694102658 0.062199756557570395
17.20729574179677 0.08543837968700384 924.5460486575547 0.06677970798021383
17.208977236447534 0.10120097053222225 924.5438311810237 0.07246525494806294
17.204613499330765 0.12827563728018165 924.5431674240949 0.06424234609494839
17.191365102091346 0.15528198125996273 924.5528933547471 0.06434596948717218
17.16465156212936 0.18219423544007754 924.5456480858503 0.061770060257516704
17.1722793364972 0.17612916303717208 924.5507731619964 0.06650177431919549
17.14280411359101 0.19324181975829624 924.5516655349909 0.05613461259796611
17.15767589900794 0.1865927694119035 924.5531782291482 0.06406669252730221
17.126814934788896 0.1972743288529087 924.5513717319377 0.05588135717111914
17.10219733187983 0.19864621503933644 924.5444890815721 0.06306745939099939
17.109699376083 0.19926444413521238 924.5531497124467 0.05457791200123098
17.087749010094118 0.197283697308173 924.5540073176395 0.06519924487805692
17.027810150134567 0.15774418249172975 924.5441720913408 0.061605005797345715
17.03635202923198 0.16720124214222556 924.552317879984 0.05695193421361808
17.015276178280626 0.13428962199841885 924.5475985647065 0.06828459565144039
17.009937041416727 0.09303852780321395 924.5436527498928 0.06186393571865824
17.0273188951571 0.042755701177315836 924.5464946653174 0.0628864521483489
17.01846938338414 0.058138726764417115 924.5432967469969 0.06716299084036809
17.045444709173406 0.022780017266771674 924.5451232088718 0.05583523290480524
17.057331668344723 0.014990256786614548 924.5464354439621 0.06211814832997897
17.063648800847528 0.011151033009141125 924.5546272741726 0.0586220667582733
17.08092133576326 0.004515649242116604 924.5448359728686 0.051745836145135796
17.075612118062136 0.006127619521989846 924.5546161822944 0.06055302550731237
17.097609291844865 0.0008538957522540133 924.5545745163431 0.06116050953929585
17.13383627989669 0.00349825114303892 924.5526395887498 0.06195586860603309
17.119314084830823 0.0004350728887691349 924.5540059563305 0.06212341715424918
17.142977081747784 0.005766193888661541 924.5434134319192 0.06037421980172975
17.145551149278322 0.007038987810457578 924.554103108935 0.06460545737271217
17.16859577901272 0.02002501417546213 924.5452354886497 0.05139332571076335
17.176734088118728 0.042138782116604614 924.5428411043717 0.054190115005143966
17.16079936680923 0.07221446476216829 924.5428411043717 0.044329149906993444
17.182662917198666 0.059836410039908236 924.5428411043717 0.04616984200614455
17.18507802068806 0.04905583065652469 924.5428411043717 0.05426917549709154
17.14306578139048 0.07068175926847252 924.5428411043719 0.04393612976349774
17.147930732530778 0.09006332592881167 924.5428411043716 0.05711489661440379
17.198507416732294 0.06513321089449915 924.5428411043717 0.05560620964875422
17.19422600084887 0.07665020542352356 924.5428411043716 0.055923927941035144
17.17726657405343 0.08117245476522943 924.5428411043716 0.043518181027550444
17.17182962965082 0.06682765328567522 924.5428411043717 0.04357724718309698
17.135285811612654 0.08915604868182027 924.5428411043717 0.07450393623025567
17.16225925889039 0.08339548177722439 924.5428411043717 0.04214443969190895
17.150085609674136 0.07998372805032924 924.5428411043717 0.04670822104090508
17.199443440852992 0.09393534504734555 924.5428411043717 0.056353045433418306
17.170383776636832 0.0945205272065967 924.5428411043717 0.04316195758665211
17.181849829745587 0.09638843220195749 924.5428411043717 0.04445955510385765
17.189266653035197 0.08638646215532787 924.5428411043717 0.05050686288662376
17.119766568681897 0.09913532138064517 924.5428411043717 0.1081389511416225
17.175972924739185 0.10885293266149387 924.5428411043717 0.04433527555446309
17.186766032381115 0.11053532950711528 924.5428411043717 0.05093298562334737
17.140974075308662 0.10082539346250824 924.5428411043717 0.06730328242244749
17.15743726150424 0.10314591772818912 924.5428411043717 0.044774545177004695
17.20158235636458 0.11067984268580888 924.5428411043717 0.05795142895643839
17.171341812559007 0.13234778670284697 924.5428411043719 0.044509040035882436
17.18464986748146 0.13560024043946156 924.5428411043717 0.05074693124078631
17.187726782474265 0.12444815458478649 924.5428411043717 0.051754242593163885
17.19574443612009 0.14383422840603755 924.5428411043716 0.06483162850912805
17.16531765194649 0.12136994717070636 924.5428411043717 0.040808312855886104
17.130220552178365 0.10783499983722636 924.5428411043717 0.07272338134410598
17.15062310068508 0.12042046566180174 924.5428411043717 0.04291853478177961
17.15434464849308 0.13187408805509193 924.5428411043717 0.0457024522179248
17.14005309267057 0.11848227218867215 924.5428411043717 0.058777932694862124
17.155226654052065 0.14344238556252734 924.5428411043716 0.04054809531335163
17.182708050567896 0.16636155747876025 924.5428411043717 0.059516553153963474
17.17509995947117 0.14217379764524646 924.5428411043717 0.04861495796403054
17.179355798848157 0.15452133759007475 924.5428411043717 0.05446338695506866
17.127847700565045 0.12713184715783832 924.5428411043717 0.06469148364470344
17.11899451602845 0.11063168838728443 924.5428411043716 0.09482906326990943
17.14089179434669 0.13212341713232761 924.5428411043717 0.04798317285178026
17.147647078245065 0.15627596999969628 924.5428411043716 0.0408878170756105
17.1388973287037 0.14373454127884375 924.5428411043717 0.04487287160005708
17.16215087617723 0.1565989638121584 924.5428411043717 0.04450147135205613
17.16597042059309 0.1679052598416262 924.5428411043716 0.047111519295719745
17.15264731581756 0.17369356069815342 924.5428411043717 0.04880658108991228
17.14187436257761 0.17988585725958345 924.5428411043717 0.04917681170019025
17.139132503262914 0.16709233459217582 924.5428411043717 0.04341819210706059
17.152004257839216 0.18711362045206797 924.5428411043717 0.06251467513013237
17.123054306602775 0.159491538547599 924.5428411043717 0.04417459140852694
17.12116033328179 0.14527433856850352 924.5428411043717 0.04922611486775051
17.12800469516952 0.16875530336858433 924.5428411043717 0.038220783673733105
17.135886417997657 0.19080937865240466 924.5428411043717 0.05278660270857109
17.12306851590326 0.19130767805304424 924.5428411043717 0.04992455148045403
17.11175407194119 0.13854943149515048 924.5428411043716 0.05774630249174332
17.114931803435034 0.12463702788807514 924.5428411043717 0.08503701521871533
17.115258356299833 0.168035304133293 924.5428411043716 0.04254849095295064
17.109433247570134 0.179461409560995 924.5428411043716 0.04728895910053116
17.110107966749887 0.19037607441778526 924.5428411043717 0.04778634885937805
17.094522994715838 0.18808194698585867 924.5428411043717 0.05381901094352088
17.108319087248212 0.15619113653313632 924.5428411043717 0.0419824700477497
17.097813020655003 0.16409270778093524 924.5428411043717 0.04242274826687252
17.094670083264315 0.1537170511122867 924.5428411043717 0.04115053990131765
17.065534830602207 0.18891389811479087 924.5428411043716 0.061697028221032554
17.101262201392544 0.13541215747250818 924.5428411043717 0.05276678032771228
17.078441267104086 0.16608667504485822 924.5428411043717 0.04276196372981303
17.086041341911827 0.1773552295888799 924.5428411043719 0.049537154012279046
17.074829842118156 0.1823909895512637 924.5428411043719 0.06095637899098221
17.076161343789657 0.19318718587159778 924.5428411043717 0.06167679868166208
17.069157222978788 0.16134929056246783 924.5428411043717 0.04474799874399706
17.083670274954088 0.1409505961491513 924.5428411043717 0.04333605217685865
17.068554476835423 0.14843941887384252 924.5428411043717 0.043133597754497995
17.098980887655856 0.11979177046466644 924.5428411043717 0.08356536871216486
17.06239602083201 0.1706485804577885 924.5428411043717 0.04795360598250789
17.05291938888631 0.17631252566739714 924.5428411043719 0.060833327989279914
17.08299054178047 0.12677538674531222 924.5428411043717 0.0537182687270687
17.052141745385608 0.1648828532146967 924.5428411043717 0.049233767603730015
17.040028251446234 0.15948845828505384 924.5428411043717 0.05531518100080567
17.04889333188081 0.15131450660613843 924.5428411043717 0.04835848979876258
17.074181001232404 0.1362099337368708 924.5428411043717 0.04346029488807681
17.04231931640192 0.1731797119655043 924.5428411043717 0.0627699495338534
17.062754286054915 0.13383724665098373 924.5428411043717 0.041895389294600786
17.038607422510744 0.1456559495754378 924.5428411043717 0.04893527205453622
17.04831515993144 0.13988445045858183 924.5428411043717 0.041480916630120025
17.070650625319352 0.12468058782746272 924.5428411043717 0.045675753628317106
17.087617672051834 0.11340307364710986 924.5428411043717 0.07921592860600263
17.037228617742777 0.12820274666151568 924.5428411043717 0.04500998876707957
17.02219621929301 0.1467679650957091 924.5428411043717 0.06979353654770756
17.048047217947044 0.12198499030719451 924.5428411043717 0.04162917972595678
17.058218593710386 0.1148939878843174 924.5428411043717 0.04382295311618071
17.02543846898392 0.1307571100261743 924.5428411043717 0.056713115320205953
17.014008738424543 0.12340677467335126 924.5428411043717 0.06482468805798065
17.025423230962943 0.11732464385213809 924.5428411043717 0.05162397774527278
17.072871874332535 0.11227478384105505 924.5428411043717 0.055550538895459724
17.08268095183291 0.10388421784830554 924.5428411043717 0.076270648997806
17.070511191864675 0.0999333901634282 924.5428411043717 0.05229448267672729
17.093853534191734 0.0986177180079246 924.5428411043717 0.10771929017864262
17.04219893746651 0.10032496037746735 924.5428411043717 0.04062308223210169
17.02225209803074 0.09251583510465229 924.5428411043717 0.050102281166856485
17.05769917180865 0.09487531672449025 924.5428411043717 0.03994959132746775
17.02280466227914 0.10410216433156588 924.5428411043717 0.04698420928754296
17.01640601764533 0.0809482776440226 924.5428411043717 0.0560198489560368
17.031376011310368 0.0675948097822439 924.5428411043717 0.050257532652517485
17.048091425998038 0.08611600550786032 924.5428411043717 0.04217913374454295
17.061349795607217 0.08068865326792922 924.5428411043717 0.04422359342035573
17.03579374577821 0.08146687801706431 924.5428411043717 0.04631422855360474
17.017855288949768 0.07062394083547702 924.5428411043717 0.0616629174879557
17.04384784961316 0.07260368722487993 924.5428411043717 0.04419500632470303
17.04352677379469 0.06053458656776452 924.5428411043717 0.046066443006769944
17.05721824072649 0.0694534808487402 924.5428411043717 0.046177610410223544
17.075024001397427 0.07787962863456442 924.5428411043716 0.053415651076493854
17.038458803151784 0.04804663390574382 924.5428411043716 0.05239038923545379
17.04312828566973 0.037303072857842956 924.5428411043719 0.0594000451506439
17.052195295921948 0.04355737518760497 924.5428411043717 0.047829135110531114
17.096792888345938 0.08678328989772145 924.5428411043716 0.11249884027010709
17.077597122840306 0.06105465151880146 924.5428411043716 0.04232734623614582
17.065057379091456 0.05947100694085294 924.5428411043717 0.047482909615659596
17.064152469768185 0.04581040156734403 924.5428411043717 0.04234933166172553
17.1065039114829 0.09681627654420795 924.5428411043717 0.12580456830655268
17.086757741951317 0.08199447872200381 924.5428411043717 0.05977574967048647
17.052942262787273 0.05477308487072147 924.5428411043717 0.04721906767656736
17.069047276130764 0.0347790904244491 924.5428411043717 0.04512198250860497
17.055785496184154 0.030748711969388588 924.5428411043717 0.047802563714240215
17.079175639054025 0.043437935323985516 924.5428411043717 0.03827557355312816
17.089495798514108 0.02279054230155249 924.5428411043717 0.048507987484364315
17.092054675527493 0.004240638245023996 924.5428411043717 0.06212328632369168
17.090461760804672 0.04375387368397496 924.5428411043717 0.04289610450372904
17.097865519530252 0.07362890487741805 924.5428411043717 0.06720344151454535
17.095376939691533 0.03386948032102995 924.5428411043717 0.046109733499749284
17.095119154464093 0.06046339522627199 924.5428411043716 0.048100928054279464
17.10207544148528 0.02431613984187895 924.5428411043717 0.04913419394292178
17.10573680431102 0.04291895585080082 924.5428411043717 0.047938483313625345
17.1119727696097 0.02853591992551181 924.5428411043719 0.0481329917313236
17.105846679910172 0.013388129194605615 924.5428411043717 0.0534182958038558
17.112165419077783 0.05298853973532954 924.5428411043716 0.04387955816534988
17.103957192279807 0.002153390911344547 924.5428411043717 0.0653964843361962
17.114799656665358 0.0025005235876877493 924.5428411043717 0.06615498607712411
17.12187251596614 0.023699894090520403 924.5428411043717 0.048390264785996596
17.118571300321328 0.041373311771102164 924.5428411043717 0.04424382064301276
17.11317273903564 0.07696659094567418 924.5428411043717 0.0867210014183884
17.131024353614386 0.015288648646751054 924.5428411043717 0.053863476162538566
17.11675992737346 0.014122808102799063 924.5428411043717 0.052738644283282
17.137354085353273 0.02656880714893737 924.5428411043717 0.045242402869604105
17.13126845131852 0.04298238818651014 924.5428411043717 0.04220435393067594
17.154087326033185 0.011615954489991682 924.5428411043717 0.059625129151708596
17.122993303712537 0.06836647494991975 924.5428411043716 0.06733176234912877
17.146175415012895 0.03380782522678834 924.5428411043716 0.04725481076399037
17.132774794895106 0.07460494350207075 924.5428411043715 0.06523563647127122
17.17822163018572 0.031386433734668706 924.5428411043716 0.06499644939398982
17.146222245622063 0.0583563174241564 924.5428411043717 0.044771071188450196
17.161156656429164 0.026604623380657923 924.5428411043717 0.050198665957782676
17.124648627201417 0.08347299122858928 924.5428411043717 0.07962805674397092
17.14797239513727 0.04676464548521547 924.5428411043717 0.03958240976498431
17.159168427718672 0.038647209746634215 924.5428411043717 0.04509012282604661
17.13500032635553 0.06068155341637811 924.5428411043717 0.04324943149647612
17.142782306047327 0.07838957095899064 924.5548411043717 0.07097416035734459
17.15890250701345 0.05712299318036567 924.5548411043717 0.041691927726845865
17.154485345076136 0.07269378433475657 924.5548411043717 0.04542336357753672
17.171190813058054 0.057498316633707955 924.5548411043717 0.044926832577204694
17.18418734178684 0.05505664598965898 924.5548411043717 0.04804987576104646
17.199562243107977 0.07316543558178418 924.5548411043717 0.06242384644197362
17.19068705249902 0.0642254613746602 924.5548411043717 0.05337376425746374
17.166009223653507 0.07960756903201477 924.5548411043717 0.0412488376601722
17.150364286921267 0.08812116962852286 924.5548411043717 0.06390712555079081
17.176669571861602 0.07099127560317275 924.5548411043717 0.045339752970756673
17.19822188077346 0.09400477764679163 924.5548411043717 0.05519731535760302
17.161449361181933 0.09165395483250166 924.5548411043717 0.04704759032750979
17.147951276506348 0.09914546046891695 924.5548411043717 0.07778055253740285
17.192959138391632 0.08451884894981654 924.5548411043717 0.05497882329190886
17.175667535712456 0.09025070013798522 924.5548411043717 0.04422712265717709
17.18684488144939 0.09827348858069548 924.5548411043717 0.04754593626120345
17.13213072001722 0.09535011977784592 924.5548411043717 0.10558194261744892
17.173257235591254 0.11299560282168744 924.5548411043717 0.044043063305165095
17.188851118360414 0.10952867153215501 924.5548411043717 0.05130149623202413
17.200227129512772 0.10456070772719858 924.5548411043717 0.05754048194923465
17.163175634820977 0.10480517190164883 924.5548411043717 0.04679969546085771
17.202647475661678 0.11502926471702249 924.5548411043717 0.06633092240412568
17.18226917538172 0.1381127969859936 924.5548411043717 0.049041711048423114
17.164984918339627 0.11947233743297644 924.5548411043717 0.040708398969339074
17.19797946622012 0.13028223337019965 924.5548411043717 0.06424653597341959
17.153910297301504 0.11461526294446735 924.5548411043716 0.055067249984313386
17.140485112078522 0.10961546070995498 924.5548411043718 0.07670779201262301
17.19665887587918 0.14204947921896227 924.5548411043717 0.0672928970401544
17.185595639929947 0.12624273090319466 924.5548411043718 0.0507764184452261
17.174401551086483 0.12767485782086074 924.5548411043717 0.043742233884651316
17.167625901023534 0.1469933595310562 924.5548411043717 0.04816134768373817
17.134132074187672 0.1232507682511154 924.5548411043717 0.0900841599009578
17.17976780491651 0.15224797878018975 924.5548411043717 0.05261987551674894
17.15420361128193 0.13105695274598123 924.5548411043717 0.04535596239693
17.151568664557516 0.15780806797122537 924.5548411043717 0.041147426174616863
17.149338275531168 0.14510440962701818 924.5548411043717 0.04277584053407208
17.15898430725914 0.1762705262686908 924.5548411043717 0.05241542669313081
17.16251436498677 0.16551750045036845 924.5548411043717 0.047613057993751214
17.138323635932966 0.1367739669182868 924.5548411043717 0.05428197908935346
17.123630074525465 0.11847327986273926 924.5548411043717 0.10639563254486237
17.174460447512022 0.16394071785607486 924.5548411043717 0.05246826735026966
17.12470678065646 0.14310414436873878 924.5548411043717 0.06310457427884436
17.131815586638545 0.15488613501337056 924.5548411043717 0.04161754787681845
17.12811169793114 0.13294464146933596 924.5548411043716 0.0657002805821635
17.13467624696446 0.17529141166258916 924.5548411043717 0.045162907848424284
17.14646993486958 0.17009137785224512 924.5548411043717 0.0447838037156997
17.118082161374268 0.18273158244239307 924.5548411043717 0.046157852778952374
17.11523766612088 0.12643165470445658 924.5548411043717 0.09457327882825353
17.12665207755724 0.16573521565968707 924.5548411043717 0.04303041706734077
17.117815155320347 0.15153411046390988 924.5548411043717 0.048892099909085364
17.11612946400761 0.16272437309818089 924.5548411043717 0.039397996975825224
17.11027017620518 0.13555089472459583 924.5548411043717 0.07276286729800553
17.098617479537644 0.18493269436924276 924.5548411043717 0.04876112190173714
17.10545353560391 0.16546609322933276 924.5548411043717 0.0438202039270302
17.09640555854508 0.14894762876513437 924.5548411043717 0.04930741712327937
17.07815948654995 0.17561936087196334 924.5548411043717 0.04781758153125813
17.077186437187734 0.19331456005537284 924.5548411043717 0.06587377566950618
17.085707821180918 0.1839137093352972 924.5548411043716 0.050208776028484205
17.092848151260046 0.17456645283857544 924.5548411043717 0.047991164370715836
17.098836901274176 0.13266916616167035 924.5548411043718 0.065834475845519
17.084334966168104 0.16418743420843077 924.5548411043717 0.04205956499567868
17.05448636684106 0.1712508724965634 924.5548411043717 0.05452498437556487
17.086902853812184 0.12909822822479614 924.5548411043717 0.06786112385273044
17.06855519583374 0.14860667932636698 924.5548411043717 0.042234868246263144
17.060429566686768 0.18377045700826297 924.5548411043717 0.05792324191051981
17.08555743216217 0.14393791204679152 924.5548411043717 0.048179379245537536
17.073338068599053 0.15940572479931941 924.5548411043717 0.042348268975899564
17.094273498691926 0.11748943750460776 924.5548411043716 0.09966721380881917
17.051006629156753 0.14794191565221604 924.5548411043717 0.04652042492130437
17.034141318317417 0.15708441442677473 924.5548411043717 0.056582117170558
17.055476409548795 0.1582924239026377 924.5548411043717 0.047708152187699505
17.05784855478266 0.13833695182982608 924.5548411043717 0.04370871072120572
17.076171883867172 0.13426536752534635 924.5548411043717 0.052384470792170436
17.075479526975 0.12191874852294139 924.5548411043717 0.06873933301797684
17.034074813921837 0.13384107581986443 924.5548411043717 0.05197877702657124
17.04403570553099 0.12971426810325853 924.5548411043717 0.04395025635166809
17.020551341088485 0.14151922061466943 924.5548411043716 0.06084057914803606
17.055147116674412 0.1275241644132924 924.5548411043717 0.0444552626536422
17.03015131039573 0.14653294059415256 924.5548411043717 0.05461229031253631
17.019920524107455 0.11612437791636149 924.5548411043717 0.05431151733496805
17.01352573836871 0.12441728369739287 924.5548411043717 0.06145710345743011
17.071607614019175 0.10903106759797815 924.5548411043717 0.08134349249424391
17.037719609122792 0.1208084096468203 924.5548411043715 0.04733442050065361
17.046325928045725 0.11052931566874838 924.5548411043717 0.04102714227992426
17.02795621990954 0.09099301408657025 924.5548411043717 0.04801167979245371
17.035780846065542 0.10671469307726825 924.5548411043717 0.042915797382779945
17.059321222464103 0.10245135913991557 924.5548411043717 0.05019752120823828
17.014938375795566 0.10285587703875727 924.5548411043717 0.04724066920511061
17.050237319315414 0.09292111235313427 924.5548411043717 0.04028360524237866
17.085979265622385 0.0967588790027117 924.5548411043716 0.12304165277199125
17.043000725216142 0.07920977028768887 924.5548411043717 0.0476085302611634
17.02157644319423 0.07355842616857741 924.5548411043717 0.05739355531444799
17.05367403521879 0.07914854748343114 924.5548411043717 0.04369415486357853
17.074837490756696 0.09053698118232961 924.5548411043717 0.07765006361471474
17.067080745482432 0.08224701645207275 924.5548411043717 0.05759791994586071
17.08634582624056 0.08275210121966717 924.5548411043717 0.13007603617738547
17.034971778866364 0.05629938087697374 924.5548411043717 0.05438643731932454
17.03641534838598 0.06901361218980945 924.5548411043716 0.047254122037053835
17.05844255809462 0.06884499920410242 924.5548411043717 0.046332470433942036
17.024193263390295 0.05310829657553773 924.5548411043716 0.0648345604765657
17.049284344203222 0.0601381464129698 924.5548411043717 0.04645709253699935
17.041619200395868 0.04365029882938554 924.5548411043717 0.053097593393442
17.05182675225996 0.0343989792393128 924.5548411043717 0.05378320456944557
17.06831814948346 0.06191491855759955 924.5548411043717 0.04143600866388185
17.037967008700736 0.03158825124887149 924.5548411043717 0.06540042527055778
17.064101175821506 0.049505104694751716 924.5548411043717 0.04218770032327574
17.07830000062027 0.07308648265091751 924.5548411043717 0.07087499498075608
17.050765400694466 0.021748888308917545 924.5548411043717 0.061297812068639594
17.089077933456448 0.07172942660742238 924.5548411043718 0.09086748622901644
17.06809415645473 0.03882240758520581 924.5548411043717 0.04435968106425326
17.08404335049615 0.060576784705489814 924.5548411043717 0.05301592253082488
17.070609332312465 0.027257098813893866 924.5548411043717 0.046131059676364806
17.098498464953263 0.05446255425381238 924.5548411043717 0.05407376756674599
17.08013563632511 0.021409972030295585 924.5548411043717 0.04718110032773426
17.10140928680467 0.07513838781264848 924.5548411043717 0.12392907670328367
17.081319066862232 0.0323521205955629 924.5548411043718 0.04321760988824566
17.088579828878412 0.04735184309337341 924.5548411043717 0.043823996887458784
17.091730135614917 0.027971386534277984 924.5548411043717 0.045750196268591996
17.091998013726144 0.012616898032067005 924.5548411043717 0.058500656979849026
17.098502446505208 0.03615598240687092 924.5548411043716 0.04231821543915115
17.107752594670785 0.06285015746263097 924.5548411043718 0.0832704857261584
17.111898000781437 0.05148681318387511 924.5548411043717 0.051773657735907856
17.1112633800358 0.04024026010000817 924.5548411043717 0.046115770355427806
17.107268086087238 0.0240225736057515 924.5548411043717 0.04965432496849858
17.115584223874073 0.012089730209994112 924.5548411043717 0.056162544612057046
17.138295611721603 0.015191869116499286 924.5548411043717 0.05277779939041874
17.12398670545439 0.0545051642097861 924.5548411043717 0.06073197826209784
17.123401800669384 0.04260355142722918 924.5548411043717 0.04647509267814203
17.125300267871097 0.020035251652169277 924.5548411043717 0.04902752459026097
17.118457546771825 0.06679857874840164 924.5548411043717 0.078953583367668
17.11769397389785 0.03129728792722317 924.5548411043717 0.04346679400929282
17.136370767167183 0.031204499050986944 924.5548411043717 0.043581891383502235
17.131243031779963 0.06390135784477066 924.5548411043717 0.060909569586133076
17.153022413068513 0.032655807378942234 924.5548411043717 0.04612422161928355
17.138183872019535 0.045263492220429274 924.5548411043717 0.04332810122353595
17.15677952765409 0.018648424518156962 924.5548411043717 0.06078845208842497
17.119080901465576 0.07949540383568171 924.5548411043717 0.10981664114507499
17.174997974495014 0.030840570932322432 924.5548411043717 0.051547636007579584
17.169285950108637 0.044824520702273905 924.5548411043717 0.04823332095480402
17.147800719501436 0.05930764538529605 924.5548411043717 0.04376276824324091
17.15294118412302 0.04767218330175426 924.5548411043717 0.04161452172131753
17.128837744012582 0.0764509456648739 924.5548411043717 0.09845838380556947
17.131852889248588 0.4247749946243856 923.9150842073991 0.19373811966835494
17.14336134460357 0.4224007661341318 923.9151743818651 0.24131843335125716
17.12969538315845 0.43107181026981994 923.9262871492936 0.15798854347404748
17.139689191508854 0.425764123938375 923.9262871492936 0.1576737955748403
17.260614717353477 0.32067679883117445 923.2389288033354 0.06406472227675247
17.256003090933703 0.37365613662903163 923.2435870718648 0.05497524626543487
17.256003090933703 0.35918412417527956 923.2484897341717 0.020222450852351682
17.256003090933703 0.34057443608892757 923.2532023041883 0.03123324178576863
17.256003090933703 0.3955204994002399 923.2456444727474 0.15599479750225073
17.256003388381814 0.3817654952958218 923.258958473696 0.0864842164947831
17.25600311457081 0.3712061128372798 923.2574582285837 0.05842159254836339
17.256003057198054 0.33046908934881325 923.2484137337556 0.03629538709983209
17.243875892448983 0.44639130057183923 923.2466870687185 0.2175257639352253
17.238103097037218 0.4234692412807397 923.2581148742959 0.26950469588906983
17.238103097037218 0.40768669862686546 923.2610542521136 0.18801843009806377
17.257007184625337 0.35935748989367333 923.2603908341057 0.02528396749300496
17.258475456822328 0.3290390308409249 923.2600797896571 0.039733001838263046
17.263890358885874 0.38942662514675264 923.2549759614756 0.08520893265485435
17.262529111609492 0.3528452059959291 923.2388849490352 0.022434057603427548
17.261947057115982 0.388032589362442 923.2383250835704 0.10041070499156768
17.263572678380505 0.33152491156373903 923.2404461021571 0.03567650485745869
17.25657768463957 0.3414424727379411 923.2357403233653 0.029380463112106816
17.256823097256795 0.36402312023207195 923.2357979642685 0.02394700395072276
17.2645110714961 0.36330488612987044 923.2433552977956 0.021095170438873
17.264602312623627 0.37583139154988043 923.2509007173239 0.05363757782906951
17.26460017773936 0.34506968151100137 923.2488669458975 0.022368326985286433
17.264603097037217 0.4200807885992001 923.2573748261352 0.16296035080169496
17.264603097037217 0.42822698784587004 923.2492972935958 0.18936114905532594
17.264603097037217 0.4129060457875673 923.2492501641976 0.14253903278871502
17.264603097037217 0.4212478264459507 923.240092516548 0.16566242470107775
17.264603097037217 0.4314255297838381 923.2615143928563 0.19421252045564114
17.264603097037217 0.4386865068505247 923.253782595359 0.19984078246880443
17.264603097037217 0.4383225239200098 923.238069912873 0.19062468355663256
17.264603055808315 0.401121721446626 923.2472481437462 0.13453055560359561
17.238208721043076 0.409143269288894 923.2300451487282 0.18109665428088673
