x y z curv
38.11431818401298 0.5004077078797132 1314.4716592471514 0.19472646169323582
38.09645157373505 0.49766893508099974 1314.4580959460638 0.1664569292180425
38.06066549906572 0.49035602952794705 1314.4818734650373 0.18498594277464236
38.061704587830455 0.5011038657571726 1314.4764258953194 0.20865531035204907
38.10326878662607 0.4751258482352231 1314.48657460772 0.1431069609490794
38.09474916186442 0.4750737139390742 1314.4990825483858 0.17994668820808654
38.083684138641935 0.4824285357398464 1314.4989297374207 0.24737772237371
38.09400660694926 0.4884300219673791 1314.4993467105116 0.2649942277417583
38.086791109492935 0.4787411943684915 1314.4727229752436 0.24117015553154947
38.0973446010286 0.47719753360216155 1314.4750985965584 0.20775605540063177
38.076201007578774 0.4858063816446273 1314.4816872934794 0.23071501768252126
38.08904261216686 0.47493481445312113 1314.4843940261537 0.22921987071397637
38.04674959667885 0.44907582093617093 1314.4825308108645 0.11857614895112621
38.046751872316754 0.4521957447252451 1314.4939656504646 0.0826353793212427
38.05397758035713 0.4621645206218169 1314.4855711534974 0.2336156942384769
38.05263929853678 0.45115921319188745 1314.4668643188795 0.12951113326149014
38.055177117332256 0.45782655759838853 1314.4554879657544 0.1253315371275412
38.09486389503955 0.45417118136963025 1313.7080959597924 0.1623089985124826
38.09951594820196 0.4601708663507386 1313.6932281869456 0.19514826914029906
38.09118929026822 0.453530002825884 1313.6965970169108 0.18018576821173987
38.07810141621859 0.4671120432315816 1313.705819304642 0.23950934682129513
38.082979075656546 0.4732561685439718 1313.693410011873 0.1386600980940881
38.094448103163785 0.4741936162335997 1313.6956388979356 0.1112935376837179
38.09786862019318 0.4724801971756756 1313.7068524873894 0.15678750892153412
38.179217243241276 0.46793481445311613 1313.7200043759929 0.1908395251381035
38.168857650363364 0.46793481445311613 1313.735258158454 0.25819376728075083
38.168133299778845 0.46793481445311613 1313.723765748848 0.2433470024586638
38.1561560006188 0.46793549524063405 1313.7332216768395 0.2540408363564059
38.15039715767218 0.46793597470305154 1313.7142624850928 0.17751947198782472
38.13916873254445 0.4679369095449819 1313.7222071400818 0.22716307243515538
38.11929418971679 0.4679389870897509 1313.7226418432037 0.22458615847252258
38.131362362109066 0.4679379469901913 1313.7326557237507 0.2591219481662486
38.1608979698145 0.4679351872750105 1313.7525438778316 0.18638257164129873
38.11852634602397 0.4679399150818705 1313.7405938612271 0.26332564130693464
38.117342565686535 0.46794061535246917 1313.752515618869 0.18179735588962517
38.143631303859706 0.4679372560498545 1313.7507407117137 0.19481615783542644
38.110894640859875 0.47274329460361286 1313.715350108751 0.19609191991815353
38.10835852310058 0.47521286697255294 1313.7394316158732 0.21284058022062619
38.10685888569975 0.47578840687602664 1313.7527618505412 0.13115399786417756
38.10354883318318 0.47592175868466674 1313.7268980149536 0.1641627185029013
38.09732597909958 0.4759294408085634 1313.7443368231052 0.09545947892590392
38.08688849780355 0.47593133083297523 1313.732744241314 0.10502098115042408
38.08954774472612 0.47593286712317884 1313.7169547810436 0.10261456204375988
38.07704899435235 0.47592577935257246 1313.7279143523751 0.14548865383824414
38.07913430815229 0.4759228053863447 1313.7128070283104 0.1169991490143136
38.069244421267484 0.4744864077839016 1313.7414967970951 0.18952249810923572
38.06707309842281 0.4715063412910585 1313.7524088307598 0.16064918801891967
38.067213274034486 0.47169565938222424 1313.713761245533 0.1913987663200566
38.06530015716177 0.4692753409816156 1313.7264983093437 0.26523840684571653
38.038087381484914 0.46793771883149626 1313.7119616067355 0.1627318260896601
38.03789690433335 0.46793694164331456 1313.7282132267221 0.24806840210641548
38.05016329459946 0.4679383031962424 1313.731826395253 0.2733128786065836
38.06034265183083 0.46793933773078983 1313.7368817146971 0.26755158961129627
38.02093230469742 0.46793536389231927 1313.7432715077487 0.20923788763984683
38.03812319429317 0.4679367951495287 1313.7405021640636 0.23007105547937773
38.017816666675536 0.46793510449449377 1313.732592922953 0.22486761060562208
38.052512116743124 0.46793799312412315 1313.7455889116914 0.23734349299708288
38.00670992526932 0.46793481445311613 1313.7282506184538 0.2327792142384884
37.999363446560274 0.46793481445311613 1313.7180618061282 0.16952908510756337
38.03564130579831 0.4419348144531199 1313.7250420623611 0.27012360515200273
38.058810356971605 0.4419348144531199 1313.720459026949 0.26308361793865054
38.042735373035306 0.4419348144531199 1313.7116103195272 0.15539517056316662
38.07383671667543 0.4419348144531199 1313.7332310932695 0.22064878636395074
38.02214489723821 0.4419348144531199 1313.7394587567137 0.23230059705212985
38.04518274383135 0.4419348144531199 1313.7408917708278 0.23484976838746574
38.013542435435944 0.4419348144531199 1313.7519601963706 0.13941465271176265
38.00253481020181 0.4419348144531199 1313.7337769621315 0.2176941095814339
38.047748526662815 0.4419348144531199 1313.7301890848207 0.2570207175592628
38.053840581296015 0.4419348144531199 1313.7508642856287 0.15403558229423517
38.13678870836525 0.44193481445311983 1313.7238403220729 0.26943090889970583
38.10951205117995 0.4419348144531199 1313.7257834826967 0.18221019807901587
38.118876815622755 0.4419348144531199 1313.717041590607 0.19636281438074618
38.12202554657998 0.4419348144531199 1313.7306527092342 0.2807774201501952
38.14018314559432 0.4419348144531199 1313.7400423775907 0.2692644505051059
38.11177003520929 0.4419348144531199 1313.7395507000565 0.256545417017265
38.148216832244444 0.4419348144531199 1313.752382153687 0.11507682477087083
38.0936263068475 0.4419348144531199 1313.7520058078903 0.19185124124925867
38.03888950373502 0.44193481445311994 1313.7536901077688 0.16055471940013066
38.06793297931167 0.44193481445311983 1313.7507566647355 0.15691848968968122
38.18131428417859 0.41093095465427226 1313.7447332840013 0.13098694564274502
38.181539388499914 0.462818462925379 1313.7443905812743 0.18318929683343724
38.18120510942061 0.4523459706040667 1313.7448994935485 0.12563834954640973
38.179698389544896 0.42364622480492203 1313.747193350047 0.12012919372647136
38.172520137577116 0.44445658784043185 1313.752049125936 0.12185103973785014
38.1853613244928 0.447183310356569 1313.7347107726157 0.13678878744746328
38.18434051595537 0.4342912370313044 1313.740062479778 0.1421895257303951
38.1286481909324 0.46673982118155816 1313.753738069566 0.18405852305175108
38.10178342798487 0.4536075280760953 1313.7537381284953 0.2297641054263014
38.12267314367489 0.4549679179559136 1313.7537381284956 0.2161325369766612
38.16158843791481 0.45451752570140447 1313.7537381284953 0.10661289692914956
38.14598343491885 0.453107613710396 1313.7537381284951 0.1158052300238498
38.10831757105798 0.44270388420021034 1313.7537381284953 0.17257842241688784
38.130373265719854 0.4432134260659252 1313.7537381284953 0.1435244791391175
38.09225252874268 0.4709085330140963 1313.7537381284956 0.16353529188957938
38.07996077195015 0.4652507458493078 1313.7537381284953 0.16500271686176454
38.07038052767568 0.4584862999884765 1313.7537381284953 0.21675317565352212
38.02290659287485 0.4636352392225396 1313.7537381284953 0.14514034992693367
38.05401163783787 0.45243493740803703 1313.7537381284953 0.17449484744999136
38.036212398855724 0.45608087404783004 1313.7537381284953 0.10378687515019024
38.01459996513241 0.4538292038901033 1313.7537381284953 0.12185089528444792
38.0264895218221 0.4430603356608187 1313.7537381284953 0.15496509746137568
38.07804823088326 0.4461990164320597 1313.7537381284953 0.19129182275507223
38.0600431357023 0.4627496338158932 1313.7537381284951 0.18137378401443696
38.04477418166037 0.46407251018795703 1313.7537381284953 0.12335342399966524
38.00681038794241 0.4640569150031116 1313.7523032014267 0.15436432403571707
37.99696133169891 0.45691638558884534 1313.7441390548415 0.15649604942252918
37.99376417278221 0.4669211500390496 1313.7371200792502 0.15629233847920806
37.99307195567526 0.45341971402342096 1313.7334910507757 0.1379051307723856
37.99508438416782 0.4581515465121051 1313.7231946996583 0.16389706383888494
38.0137790027313 0.4552903207191214 1313.7108437969403 0.169496498283899
38.003049178298376 0.45866020104456334 1313.7144611359658 0.17178404999892893
37.99426608703002 0.4449212659141375 1313.7247248340786 0.1501992976836957
38.10100672309328 0.45454797712749223 1313.7682455657882 0.17995569216968235
38.0973004328381 0.44552361333674745 1313.7626420074828 0.1747675098057394
38.08554078354475 0.4431581532919392 1313.7652062837367 0.13830364539728554
38.031191464118024 0.4519162554100205 1313.7107381284954 0.15093879693446563
38.05651734896106 0.4529022457472576 1313.7107381284954 0.17393202422581128
38.02356026768758 0.4632681853712457 1313.7107381284954 0.15592785713151233
38.05657027235577 0.46633208353247274 1313.710738193267 0.19619613664858118
38.06780398388396 0.4605452374035019 1313.7107381284954 0.17680569438710458
38.14259812431966 0.444819483175641 1313.7107381284954 0.1037633180252949
38.0783578677687 0.44832101647461586 1313.7107381284954 0.1456415952237963
38.09995179493475 0.4435158907035094 1313.7107381284954 0.10609379615707747
38.06748370067682 0.44454963220679006 1313.7107381284954 0.12462054852218746
38.127625503908746 0.46196836268569863 1313.7107381284954 0.1578233029387979
38.11825799572935 0.4508655139566655 1313.7107381284954 0.15741272210757218
38.1625879237703 0.46141855142965926 1313.7107381284954 0.1400724485677508
38.13986857646228 0.4572897508228114 1313.7107381284954 0.12225998872644843
38.15817919647478 0.45165830137599916 1313.7107381284954 0.10640671501258718
38.10661357404626 0.45576157460771166 1313.7107381284954 0.20180586888277052
38.1299616210774 0.4472095092448024 1313.7107381284954 0.16082334449837643
38.15846500549431 0.4244013698396976 1313.7118574383694 0.13692110628433055
38.158953206353544 0.4358476826971881 1313.711764314381 0.1025987841662637
38.147570283522086 0.4285375871248308 1313.7194101175132 0.18840248876320603
38.15442696287741 0.4070570238101172 1313.7135561417508 0.15830913295387092
38.15264435246573 0.4157619937922129 1313.749749213729 0.16834597014026276
38.14474617030138 0.410997186110849 1313.7407666604777 0.16051653808960184
38.14589513023957 0.42645159076237793 1313.7425158570359 0.1956109738561292
38.14426846429201 0.41144186934117755 1313.724712351989 0.16538571240600972
38.14342118884922 0.43140014379093883 1313.7291543029992 0.2178250066053131
38.15926244839677 0.42617053635884994 1313.752770930323 0.16516735852799644
38.16061181956762 0.4379952134240185 1313.7530283219742 0.1293720627410902
38.182944093040895 0.4478733069604302 1313.722224222298 0.12610052174284636
38.181907778856896 0.4245161379512914 1313.7206465195918 0.1351666884795827
38.17193864184654 0.43659016135583234 1313.7121889057705 0.08523435446936681
38.1716899084788 0.422514867419618 1313.7121414600465 0.09530081440083388
38.165119085295565 0.41343063515470296 1313.7108880799062 0.1460611280537231
38.178559924831625 0.45779114148072103 1313.7163943465914 0.11671938325516706
38.17893096016317 0.4103577413837418 1313.716638059999 0.13620000344096195
38.184968768542575 0.43697157296982403 1313.7277074642727 0.14618710460348208
38.185326668360275 0.4088374985797488 1313.7295837955803 0.16546560974236582
38.172714254228566 0.4029348144531184 1313.7502885192712 0.1663383276402635
38.16270983002346 0.4029348144531184 1313.7533117166406 0.17349220699519344
38.148844042123116 0.39652880812119795 1313.740179592186 0.22685767892823772
38.16368617092315 0.3846830034785034 1313.735352716611 0.2786204837118772
38.16066991942871 0.38703596761351544 1313.7237767932795 0.23950402979656693
38.17141364518385 0.39951035933335 1313.71532774539 0.20780701889304182
38.083089696316165 0.4204348144531167 1313.7410577480848 0.10580263043024168
38.095735199570086 0.42043481445311665 1313.7451244657425 0.10013081170251197
38.086901247950955 0.4204348144531167 1313.7277142998123 0.15415617318883776
38.09644493334473 0.42043481445311665 1313.7203854506563 0.09006127447581065
38.09833902243164 0.433165543152369 1313.7426391834813 0.15789500750889568
38.10164319381381 0.42320193482444757 1313.7369161894862 0.10742488925368711
38.0884779245137 0.4303077801890932 1313.749009015824 0.11156986412851408
38.07498430829893 0.42515227663105937 1313.7333855187828 0.11866019111965716
38.076743218341946 0.422960139281086 1313.7213393850282 0.12599124501155753
38.0962034941887 0.4357108681703704 1313.7192382206601 0.1291556929159183
38.08403883140577 0.436357989366924 1313.71924440578 0.12210970028725888
38.185287862693926 0.45646991394570047 1313.7293803523733 0.1582813365813287
38.1856378668122 0.42488992040040524 1313.7312152895606 0.12809886314766153
38.17083907091609 0.4304639335226377 1313.7524970936418 0.1077841160587033
38.16666173402719 0.414584153092049 1313.7532939178677 0.15679290891206707
38.174984039726056 0.38393481445311295 1313.733884592887 0.25063841084698746
38.17112490377911 0.38393481445311295 1313.7235646828094 0.2607569646361132
38.17468273028011 0.38816521721447184 1313.7477442326353 0.16694006725806024
38.14224917973189 0.40082105548109703 1313.730056871282 0.14588672305581318
38.14238170401363 0.3798570295946596 1313.72865881309 0.19099085679557273
38.14987519508797 0.37766728821735573 1313.7491690249312 0.1953976356970365
38.16831478361722 0.37141112180829094 1313.7541339565398 0.13575434332693648
38.15122697542421 0.3910918239357033 1313.7500156376645 0.15999930139564558
38.16256290890925 0.3848467951378747 1313.7543680238962 0.16026989372906378
38.184562767233295 0.3933059541439648 1313.7413056632356 0.1313791344781635
38.1442950962235 0.3860406604067953 1313.7416721768082 0.163446224646372
38.183283782988546 0.4007354199228229 1313.7213464256001 0.15041639014461952
38.17805860261145 0.3911709432744318 1313.715121606273 0.22338885597541533
38.17603647066486 0.3788268032539367 1313.7134544122175 0.2243491216588457
38.18579711536675 0.3809022946311706 1313.726703365493 0.15835748256685298
38.16400025331134 0.3792090446811867 1313.710076708172 0.2648266468374141
38.16126568410749 0.39910967934914876 1313.7104465083405 0.18205443318963702
38.15653371614403 0.387127906629273 1313.711733308517 0.20898480973010844
38.147918220889466 0.3829516317256505 1313.7174893551248 0.2233489824962851
38.14843344018745 0.40093481445312307 1313.7203148802532 0.1731777036544402
38.15327970025566 0.3687670006586036 1313.6610856332754 0.0059862959826675515
38.1493296158482 0.3692338409061139 1313.6855449485092 0.039955071753297405
38.14696408647483 0.3725147196792056 1313.7001647136944 0.18710002963294328
38.1850272661098 0.37215241299770374 1313.7209588099681 0.15857469949372607
38.17654272868677 0.36944321720678963 1313.6684476789492 0.008924837789763477
38.16055933986898 0.36873490786701624 1313.7370253864365 0.21568376866775438
38.15095176008973 0.3687349678548469 1313.7315292649919 0.17435313059407995
38.17509287412979 0.3687348344002982 1313.7396915349236 0.19217466739930564
38.15715915004703 0.3687348655934364 1313.7479745050794 0.17927722867593657
38.16143370829322 0.3687349275580226 1313.7253782716998 0.19899739650331508
38.17852295627967 0.3687348193331397 1313.6832256122022 0.04501698563806889
38.18076876260569 0.3687348180010463 1313.6953049337055 0.1165563283662245
38.169218527737094 0.3687348720175234 1313.6976473601212 0.10827609575141846
38.157831110764434 0.36873493067644914 1313.7073429056857 0.20214689959091364
38.15149506493394 0.36873496685644813 1313.717578475701 0.19183785729701647
38.173698764676175 0.36873486472958783 1313.7154157697998 0.1486232550301336
38.174011983690264 0.370450286375147 1313.6565748738478 0.011584104300398593
38.14517761190079 0.37002122390877284 1313.743112419513 0.17132094665736117
38.186295222090955 0.3701896316395349 1313.7341356797742 0.1198633386295971
38.15956270652109 0.37273519505912117 1313.6779801455507 0.03780500252515628
38.161690331216064 0.372735564723655 1313.6887295754027 0.10766518521571669
38.164503451030136 0.3727349749137704 1313.6622119329434 0.00744373403026706
38.13555927479143 0.40129008240630065 1314.5572654769242 0.08577327976582069
38.12748757665215 0.3961410381468762 1314.5513354717586 0.08277705958918785
38.10778523919605 0.4072336496018324 1314.537482838897 0.09360398110289073
38.10623915980859 0.41917471284163765 1314.4890956273696 0.07059248072083057
38.111355467126884 0.4263088480003087 1314.4801414003177 0.10325603845854475
38.148452966989154 0.39282413812141487 1314.556395614794 0.08355795916718926
38.107122136339875 0.40538655887231395 1314.526189205209 0.0953497095430167
38.117282151358616 0.4123307871581067 1314.5412879956757 0.08107736104780683
38.10927803820657 0.41743955546163813 1314.5283619422503 0.13143491835789597
38.10495165247891 0.42174330577347796 1314.5154228856918 0.09477013547162315
38.130007881802484 0.42581790486520904 1314.4650430985992 0.05788443417046969
38.12448469616324 0.4330103132092491 1314.4730598826307 0.07315740430828267
38.185398896973616 0.42271879877254687 1314.4719821818796 0.05717686706407427
38.198656126137976 0.41901494884831647 1314.492448620521 0.07944117147223015
38.20339367165399 0.4088694413560011 1314.5038007523813 0.0727081573143315
38.20036456295557 0.401314508008746 1314.514485767893 0.08695720308097446
38.19910775653949 0.4036218325707966 1314.52882156316 0.09226567349811433
38.18989333978347 0.4043010454528115 1314.5406486588724 0.07603478978207866
38.19517735092162 0.4089675224927668 1314.489357572154 0.08219347233581038
38.17584160494899 0.42861121611381253 1314.4736319119054 0.05860706843893795
38.18249515911393 0.39272064451945454 1314.5433869636217 0.08320061745179291
38.16214670412594 0.40261545981984814 1314.5558159767616 0.08238127789048359
38.13854484949883 0.4400261757684758 1314.4379616483911 0.041792821643886376
38.13459190930355 0.4397208158884013 1314.4207670276107 0.045335682475096055
38.14077423449499 0.4508474808294277 1314.3784811242942 0.04337880983926706
38.13406627975588 0.4489000948768135 1314.3407313054515 0.13286319786137363
38.13427763616582 0.4362105941137372 1314.4088492848696 0.045195064985247856
38.13429971273997 0.4450101007199437 1314.3595873635272 0.046159927587924254
38.1368291477356 0.4387113403980906 1314.3796945555584 0.05042598843790552
38.1401409703785 0.45290034396448764 1314.3666764621926 0.04576330218655417
38.17074728940048 0.4364561616692383 1314.4048638086408 0.05625580379253209
38.17049972151291 0.4325070637273524 1314.4480671048548 0.05162869200972054
38.16800891484634 0.4287445972967395 1314.4249307660552 0.057331500623916835
38.16718734875154 0.45364566391812083 1314.345713116224 0.1357362093446931
38.16760626233187 0.4469818127470313 1314.3825899518415 0.04922372034584526
38.16573337662896 0.4334599614455201 1314.3932640173766 0.0493748858402532
38.16699161756011 0.42571005035160076 1314.438047526815 0.04360048832561635
38.141995502344436 0.45021860110421547 1314.329307876581 0.18715269619628158
38.16170110428132 0.44697114635988777 1314.3295530590117 0.16970601135868835
38.146762423605686 0.4456488374841408 1314.3194539980911 0.20924546757702397
38.161457410875656 0.45591674660616377 1314.3151657030858 0.18611892946245043
38.159131116762964 0.42115832683401877 1314.4585837263394 0.05109282116624931
38.153921887610096 0.4189096921246106 1314.4694792409878 0.057636905427184686
38.15449699117768 0.4241554904816848 1314.4479368251307 0.04805241110862119
38.14187640246817 0.4249576429035272 1314.4505834400456 0.05184509148161327
38.14227293633932 0.4204971726767464 1314.4679787782175 0.05610838567973897
38.14300900803971 0.4295719512589202 1314.4256454415413 0.04733825920400224
38.1391791253283 0.4277004410378526 1314.4384671470996 0.04626126163977392
38.14182812025378 0.4359631455011914 1314.390037564055 0.046609779536935216
38.14889413565633 0.43141486328894957 1314.4118270309211 0.04202884273824166
38.15608271887568 0.4287585006520074 1314.4228469144907 0.04453693115017752
38.14806392909543 0.43723659369521856 1314.37927721603 0.04671603629981386
38.14477809130288 0.4444055217762808 1314.3404720201438 0.140779165331308
38.15437177567948 0.4329248049416371 1314.4001815010056 0.05142810162635563
38.16110358396887 0.43835591887911257 1314.3656016117934 0.05007305500708471
38.15335316273132 0.44165900488769294 1314.3512271055697 0.09813132159227149
38.16245420730111 0.430006118335457 1314.4121897122993 0.05010982731113
38.13201698527771 0.4189153015621689 1314.4764952509684 0.053311059491431015
38.16622672592569 0.4181610318989558 1314.4677618452815 0.059979748201685806
38.1096981060074 0.41287972639956777 1314.5019987107476 0.08350063868716226
38.10493150516211 0.41019707376232817 1314.5117348546567 0.09697481075744786
38.11891204168747 0.4186945864101127 1314.4812679132983 0.06350701529182169
38.13954621359221 0.395362703939032 1314.5464667488832 0.07127291515355277
38.182046210203836 0.41290024576634843 1314.4793434192766 0.061361684882356826
38.192984393374104 0.4032110690382307 1314.5056854407326 0.06641462588204859
38.1543233022408 0.39369886344981153 1314.5469603177676 0.0752353043609911
38.190534974676275 0.3956210195542235 1314.5297527224393 0.07961399298533242
38.16431829711071 0.4308527831138617 1314.469564272066 0.05934042390280652
38.15836992395474 0.4365202995108095 1314.4489564466085 0.04613134220567259
38.153851313128136 0.4319986832678131 1314.4684790213269 0.0555210258147631
38.14486006796946 0.4350734999588942 1314.4605064872471 0.050403973657176124
38.14279543959742 0.4301171494372119 1314.479275391528 0.05785324375128182
38.11409536146643 0.42793156374511937 1314.4949660115012 0.08940786975534874
38.193948604374505 0.41636778335425967 1314.505533553799 0.0644726439701626
38.16714849988863 0.40996870357528903 1314.5335533283692 0.05778882070708004
38.15836183709067 0.40777934082871226 1314.543020439522 0.06322880371129491
38.18398911382144 0.41465267451163684 1314.5139105565195 0.060735861150055456
38.188555784177076 0.41051993304351064 1314.5251754846383 0.07076707822836198
38.17357176566655 0.4249588729485331 1314.4855154150691 0.05763615550319902
38.17989896086964 0.41911851530790256 1314.5014741088114 0.058007127588567624
38.16816386236232 0.42022542663894613 1314.5017397549332 0.051557821488829605
38.16183556531033 0.4133959623459785 1314.5246879932495 0.05513327091621154
38.17275665082321 0.4153121171514396 1314.5153933004751 0.05743616947379547
38.161809354040706 0.42448622068561337 1314.4906402204306 0.05697194743314419
38.14162003258035 0.4202884106874349 1314.509836083597 0.059250395423028186
38.15235967908338 0.4187128129577198 1314.5113203169965 0.06360143971667674
38.13547344153143 0.4121694847018035 1314.5366871753863 0.06128624801691546
38.1424405791208 0.4079062397740424 1314.5476027768016 0.06818602814257071
38.13229266676308 0.41838982600186375 1314.5185792421435 0.05502663669593327
38.14288955500578 0.4164465231237375 1314.5212372028207 0.054308827274574756
38.14978980630591 0.4126422137481637 1314.5307644020218 0.06060069557764936
38.125268762502486 0.41569646241799135 1314.529043602966 0.06300942439954411
38.155839139520765 0.42819474423929416 1314.481107835824 0.054249517834510104
38.16416605703386 0.4382127125601515 1314.4370119404052 0.04594700651288539
38.15286695404314 0.44409084934589305 1314.4100286563012 0.051476968077695126
38.142061770889185 0.45669178145098177 1314.3446386069916 0.12381378559423072
38.15159295934808 0.4408529411867598 1314.4291093067407 0.04480999828970558
38.14548357161713 0.4473643524791783 1314.3956154200514 0.04654693156155885
38.164791962513476 0.4524048272292688 1314.3561790053366 0.09712097910025719
38.15451874870924 0.4556304596049956 1314.3436622357076 0.1356834318516424
38.16137737530767 0.44177532337494074 1314.4183746551107 0.05294107028398671
38.14923408421545 0.45429489012385293 1314.354198216746 0.08861280584030261
38.16249187161029 0.4440777851295422 1314.4046948006169 0.047453091669068165
38.1551571995879 0.4495114662024356 1314.3779987954838 0.04154796001519538
38.15203931764948 0.45210368451539423 1314.3650492967292 0.04931486160097739
38.13592154730002 0.43353915099918816 1314.4707001954566 0.06010091593978048
38.17553167387283 0.4052726116023092 1314.5453512003098 0.07261277736632436
38.1967876076674 0.4121020401327439 1314.5177375552935 0.07354868642572077
38.11648466974476 0.4073835884212085 1314.5109436065868 0.06343298466866615
38.14355052505368 0.41177562081397173 1314.4890037023065 0.05166952245806712
38.13012919016975 0.41210707129620294 1314.4921773764702 0.05841854181453147
38.15291609943831 0.4136685490712268 1314.480265945373 0.06196624216523601
38.12645744687273 0.3989141227940859 1314.5338375118347 0.0658616842877478
38.16549410079712 0.4000393424935443 1314.518190838398 0.054417643001681566
38.14842205844716 0.40149730703029485 1314.519045422364 0.05771092924847604
38.163390197931705 0.4097353649689499 1314.489073026242 0.05717772160646902
38.16712093651551 0.4036238805656399 1314.5066752400317 0.05503475888785252
38.155707694331234 0.4041676988746634 1314.5085697217646 0.06165773040057844
38.12781843015203 0.40594747747976706 1314.5118141392093 0.05728790179060434
38.152753235313796 0.4078901741203652 1314.4980613010266 0.058313446131077216
38.11872448201643 0.4037600904780771 1314.5213713015942 0.06368909370831388
38.137527923623196 0.4083308779174687 1314.501462815285 0.05312042133892086
38.13316985730505 0.40114941138181 1314.5248770241135 0.05574684255291832
38.17003356919432 0.41184671001644096 1314.4805146852395 0.05320301025001034
38.1842311022773 0.4058897279812255 1314.4943736367873 0.061554144443762296
38.18614623186759 0.3992227077288811 1314.5142487620958 0.06049034349770033
38.17002772917538 0.3966643439197603 1314.527139007945 0.06004695218808586
38.166504788622035 0.3929917448318698 1314.5395173544887 0.06861666017765648
38.155381175536824 0.39536955440310484 1314.535689365401 0.06155648709445633
38.10222628882625 0.4241286353440873 1314.5000566145425 0.08419123474102135
38.11893824738427 0.39878512390556453 1314.5435392272202 0.07679127490184105
38.192085462340614 0.4228982263003568 1314.4810835059022 0.06141222469168536
38.1694102964036 0.4238574397650716 1314.45545792126 0.056854770835597805
38.133945214719176 0.44186153529813443 1314.398418686226 0.0409022515681912
38.13437978745473 0.4343500727801294 1314.4480702717506 0.05413478650685084
38.16867693450328 0.4444094001593881 1314.339693891272 0.15443074946706534
38.168772486064434 0.4411232328804886 1314.3587377457618 0.07997783230769274
38.170711896478515 0.44502916536962234 1314.3698262664766 0.05424921386813728
38.143936586043345 0.4584537334043529 1314.3194497886732 0.21054818647332788
38.1176493561628 0.42084069197442264 1314.515626128105 0.11576167071490025
38.13148485890636 0.42312683043078936 1314.5042849929478 0.07454274008968419
38.14854131767211 0.4255822761472229 1314.4914180507612 0.057484657996105866
38.132708724309666 0.42633347528901455 1314.494055694951 0.055857152628238094
38.141588015109626 0.4840481247648027 1313.750159056931 0.18111987605725094
38.18935046263302 0.4946335141609816 1313.7477786612267 0.14707583839410499
38.146590685152375 0.49819119407714 1313.7559576501649 0.19812009317597565
38.16071614851865 0.4957049205806978 1313.7616631896412 0.1601029595104813
38.135630325659115 0.5021165834711484 1313.7390396886476 0.1355217032579706
38.13502657380796 0.4891156781686441 1313.7372171041532 0.17811304999708424
38.17273884272731 0.4938799299946525 1313.7608900182581 0.15375212196518168
38.135973460223305 0.4925743809369358 1313.7228155627586 0.1682238015391813
38.1412311573845 0.486836795400529 1313.7133498618707 0.19686186370289843
38.147081736062134 0.4951287359713328 1313.7080753310852 0.17256972068810564
38.17920604283841 0.48862049245131883 1313.7063288083484 0.14065046518036367
38.18812709342172 0.49712803117436893 1313.714545590529 0.20200858408274083
38.167443519129385 0.5017292132678562 1313.7027684181794 0.13664232010319513
38.19429989056328 0.4949531180394654 1313.73187757728 0.18283799268801504
38.1476679458441 0.48393481445312153 1313.7336957715636 0.24156827530362462
38.16532531713764 0.4839348144531215 1313.7153565302233 0.2102433202884799
38.15325664677544 0.4839348144531215 1313.718205035775 0.2932501250703063
38.18114197732087 0.4839348144531215 1313.735469045381 0.21836039910911187
38.158160274189065 0.4839348144531215 1313.7573214100426 0.20452015519946287
38.16554654659274 0.4839348144531215 1313.7402574621005 0.28772859978835985
38.18495327931713 0.4839348144531214 1313.722100740381 0.18920787135236877
38.17083941398737 0.4839348144531215 1313.753381890969 0.20943410305398283
38.19191736064596 0.4839348144531215 1313.7405075255326 0.14382485360189542
38.16894331675962 0.4839348144531215 1313.7044350852443 0.14463631536176205
37.998043213927225 0.48457944413504184 1313.7570003374644 0.14898352927405173
37.9842998707288 0.5003175602463195 1313.733135104746 0.15380314261960198
37.99043109341416 0.4944154647758028 1313.7501059184578 0.14263531213583716
38.00535684675741 0.503130617245434 1313.7605710558382 0.1475971539336883
38.01709463278918 0.49422375958454334 1313.7619671962482 0.1969396764760316
38.0410821751597 0.4948719014691245 1313.7452672991235 0.16048459594055808
38.03407774718706 0.49704323437576403 1313.7545504210357 0.1684377607822111
38.04397180250666 0.4910108937015594 1313.7349170691068 0.16867974108530198
38.04323882492063 0.4996515839278847 1313.726464437908 0.11881825045059557
38.035241552141926 0.49976610771260754 1313.7108712133995 0.137629573372453
38.00013046998416 0.4894046826726987 1313.7059216113119 0.1467344058268035
37.991048646173596 0.48955352490731074 1313.713432488881 0.1662086506771056
38.01668204557997 0.48575642520897944 1313.7024642157612 0.14179827998792321
38.029532355043706 0.4839348144531215 1313.7118983473504 0.20999864771472382
38.03603096422894 0.4839348144531215 1313.7219040421523 0.22281757487777587
38.01685525248035 0.4839348144531215 1313.725011090504 0.3009533129183377
38.02295980258585 0.4839348144531215 1313.759524205883 0.18887194534288257
37.990914869483866 0.4839348144531215 1313.736863196943 0.16358815090629847
38.03345591962309 0.4839348144531215 1313.7460132396304 0.21461807145601206
37.989811216339945 0.4839348144531215 1313.725642481861 0.1963646573759187
38.01178425270225 0.4839348144531214 1313.7604080994213 0.1634146868437925
38.00821987975464 0.4839348144531215 1313.7129842393729 0.2024797697562749
38.1576412377547 0.5039348144382103 1313.7310469377444 0.18101684343052532
38.147053390739615 0.5039348144382103 1313.726031426223 0.1788706498508835
38.15214395451661 0.5039348144382103 1313.74764125341 0.18570018104241715
38.1610332344125 0.5039348144382103 1313.7169178369447 0.20939332460265972
38.14133787463256 0.5039348144382103 1313.7158170541343 0.18972173379538923
38.171059249279175 0.5039348144382103 1313.713307376784 0.2011035859601977
38.15511953908282 0.5039348144382103 1313.705819645912 0.16555581773344563
38.19074833705197 0.5039348144382103 1313.737920138199 0.14123785374386874
38.176061998139254 0.5039348144382103 1313.7491674882087 0.18233950095618776
38.190445938361826 0.5039348144382103 1313.7245465020733 0.16921368969295217
38.17734382124303 0.5039348144382103 1313.728406509201 0.21321791059039544
38.16416509542712 0.5039348144382103 1313.744782798066 0.1895524196657838
38.01387085896099 0.5039348144531175 1313.7524211839718 0.18589957610619245
38.04323229833727 0.5039348144531175 1313.7370958677682 0.1358266232176818
38.02377688944888 0.5039348144531175 1313.7087024666612 0.15070660680009637
38.03337192475165 0.5039348144531175 1313.722340142013 0.19049477546640475
38.027282540601185 0.5039348144531175 1313.7385547202518 0.23212413407217702
38.02509433828609 0.5039348144531175 1313.7516620634838 0.22149290316235046
38.01952171554075 0.5039348144531175 1313.728846316823 0.20232332937671357
38.00831470524781 0.5039348144531175 1313.7413541633537 0.20643565090450594
38.01264268471753 0.5039348144531175 1313.7059634307893 0.15944573936453327
38.00986863809054 0.5039348144531175 1313.721064512752 0.21264902431617722
37.98710275497004 0.5039348144531175 1313.7216392636926 0.18692543546774473
37.99915517876796 0.5039348144531175 1313.7162308653458 0.19458198060313112
38.002486852551684 0.5039348144531175 1313.7297079265331 0.23171548788354787
38.00249436475538 0.10518220572227889 1314.7443836540592 0.042742810186826956
38.15625784941162 0.04945309999137952 1314.7434503632217 0.043506730343576626
38.17459221686298 0.12174425181344888 1314.743825755611 0.04492510417665404
38.15550821903481 0.16120984467934454 1314.7444407542691 0.04395799923854727
38.09406887067821 0.13142596308126336 1314.7424102116092 0.10805932698606723
38.106500466725144 0.1318108390000969 1314.7424421536648 0.0950234114197449
38.118897300287706 0.13654473948312576 1314.742515541657 0.06823033419822751
38.10147569024108 0.11402917068947778 1314.7423355286658 0.1422475157244309
38.11898156950769 0.12168362453249289 1314.7424567306543 0.08802316194356229
38.1170855268322 0.11040937015094955 1314.7424191091357 0.14152337452424632
38.12906657407318 0.11803172543679805 1314.7425065714306 0.07754197334241086
38.1302790406918 0.10631593960477226 1314.742500626725 0.08306335143741152
38.118638281249844 0.0980160071162958 1314.7424312541193 0.1160270371006241
38.098945574143244 0.09850382306719627 1314.7423121208844 0.12979418806675364
38.11335735008757 0.08830690744320996 1314.742425303777 0.09102444833066578
38.112998213177335 0.07716914648470997 1314.7424724716175 0.0796991717449149
38.09786376302513 0.06912824848682253 1314.742474234824 0.09196055880427753
38.09025094296224 0.07738839305965341 1314.742414717494 0.12412440723554281
38.0914145503078 0.08849786386526261 1314.7423443984292 0.1279846029788941
38.07836795737229 0.07815493761825451 1314.7424232771396 0.1061627135363314
38.06180840852148 0.07723176399087436 1314.7424877940687 0.08465557698026493
38.088151583101315 0.10387356433496028 1314.7422483195255 0.14132394751297706
38.065762413388235 0.0940037672574377 1314.7424048713842 0.09996690032899729
38.05171918545487 0.09015751317032822 1314.742496471157 0.07508176307769641
38.074184362193336 0.10393913576607237 1314.7423355278154 0.13798651802456777
38.04609837835628 0.10402410299955017 1314.742514976913 0.08190231811988706
38.05468130527922 0.11352329669057809 1314.7424672101486 0.0903787886809806
38.05893984429296 0.126363708393422 1314.7424765151577 0.08252232022370988
38.07357628449713 0.11665621953548137 1314.742364194593 0.12339295008492795
38.06607513955044 0.13782301394681692 1314.7424963678698 0.06749477112620872
38.08416804101837 0.11522767806798824 1314.742312099244 0.11889931826768735
38.08042024021989 0.12993964643946387 1314.7424082527996 0.09388378517629968
38.08788665592577 0.14318507179795104 1314.742483436098 0.0706139128086203
38.08730672797782 0.1795791928160788 1314.743118369805 0.039306471415941624
38.09780846685038 0.18199942910516456 1314.7431715851055 0.04164908950623993
38.097735588702946 0.1635841655072579 1314.7428202474964 0.048099471790416355
38.105341230967426 0.1717477291819129 1314.7430023378033 0.042148562171315275
38.120326743319126 0.16037650388193253 1314.742902781965 0.04633626871079817
38.13075379925813 0.1654084272425093 1314.7430904159623 0.04076385578331226
38.12094429575779 0.18356929572123692 1314.743309760998 0.04177011440341597
38.11784647684291 0.1730060004746904 1314.743099974781 0.04074942620334043
38.10671730880798 0.15279269959771996 1314.7426598383636 0.0501063240421933
38.1335927556981 0.1543176669106585 1314.7429565932862 0.041524398799071216
38.14312114608576 0.1689478848264618 1314.7432886237898 0.04230069950227766
38.14442290349862 0.1567546663573204 1314.7431356576485 0.039875175051915436
38.13011144045112 0.140277845682755 1314.7427202535591 0.053870873004943094
38.13543192387522 0.1302781291426393 1314.7426943766081 0.05395908013797026
38.15879234936051 0.14507572825729728 1314.7432243125595 0.04300431073501723
38.14584359824973 0.11143136174873974 1314.7427756801194 0.05510413876799063
38.174528092901824 0.10087150507370773 1314.7433214175207 0.04454034560885504
38.16345602282286 0.12845580726659023 1314.7431765415927 0.04343678107306279
38.14676892855905 0.1260447548350421 1314.7428574859198 0.05277105390712911
38.152726566329655 0.06496772213501385 1314.7431217612527 0.0438606390443078
38.14429318314068 0.058220355073801244 1314.7430679880206 0.040808853102088934
38.12727421176122 0.07735536045093877 1314.7425845213368 0.0725415688246242
38.12165749501941 0.048778961007630246 1314.742927268982 0.054567060517673065
38.13133988163614 0.029659153161239536 1314.7433391306258 0.04248983993792897
38.115906314529184 0.03712932394717394 1314.743080328463 0.044630859739981286
38.13181955155285 0.05672362238274653 1314.7429169808943 0.05340873788185593
38.121080855344815 0.06801627176483772 1314.7426196046522 0.05838526503478881
38.16042122471062 0.08550966374017893 1314.7430978565642 0.04420527951082211
38.131743306080665 0.08876416435986167 1314.7425532199948 0.07506233919545013
38.102945942869944 0.0231487646830373 1314.7432750693333 0.04064449615204836
38.10100903297926 0.03635484732387986 1314.743018179869 0.048411853067038726
38.09049376743758 0.06115911438228723 1314.7425235394014 0.0625236094923335
38.16114173972907 0.10636651949906319 1314.7430617681844 0.047346201588174465
38.14874769591113 0.07717685396174233 1314.7429422763466 0.047424326277912765
38.1013385612825 0.048973668973590165 1314.7427813697896 0.055581045673806576
38.14343786779705 0.09350420718841958 1314.7427440554984 0.05313313264310538
38.071479576978774 0.031045633780194246 1314.7431430584063 0.03961973846783198
38.06869710708684 0.06683736918860914 1314.7425170499357 0.08905813719002517
38.06059700322061 0.05495400406210964 1314.7427901625256 0.05506006779897339
38.05814285759709 0.04346153624639393 1314.7430069552656 0.04591166332727058
38.03627681747551 0.04940435732791319 1314.7431578940043 0.044953079057260426
38.0509858155103 0.06221231910796595 1314.7427853356053 0.055953778448182126
38.0701453604127 0.04465109914466697 1314.7428978897128 0.04893306273546736
38.07901262109278 0.06262937709990746 1314.7425203544 0.06618431283198634
38.025388422420896 0.04676110083594541 1314.743344179064 0.04111659274064866
38.04810630909688 0.07364846197003261 1314.7426779896819 0.05799686915801795
38.01794516890779 0.06034142463511955 1314.7432995721272 0.04207189945768383
38.03083112095176 0.09616311708520393 1314.742818401755 0.04785450943613775
38.011992192164676 0.11469890561798482 1314.743180225867 0.042945582788745384
38.023875241130455 0.11631617449419773 1314.7429578721183 0.04379084414418096
38.031942561272196 0.10757315021193774 1314.7427857050704 0.0546914382682804
38.02884448140393 0.08275630713987311 1314.7429197397169 0.044213663281718656
38.03349807467234 0.1385261317481294 1314.7429342205894 0.0491342477857145
38.02123621993118 0.14483354577959331 1314.7431993045757 0.04019528936422777
38.04770233498093 0.12964549646534337 1314.7426129159292 0.05298988497616027
38.028291752887235 0.16435113557701878 1314.7433186829705 0.03879308038139271
38.03541413119977 0.15105631649954882 1314.7430454533612 0.04215306318788623
38.06522918385244 0.15282390829936845 1314.7427138750377 0.05932746494447903
38.05402094266558 0.16776535803354345 1314.7430672405185 0.047766717972090894
38.06802152440356 0.16666809765707424 1314.742937050375 0.05173406825052982
38.065042024719276 0.18664203141142488 1314.7433195302176 0.044705867744847486
38.076309311446295 0.14880502121446715 1314.7425634276417 0.06055671506332263
38.041425265208375 0.16228077999379695 1314.7431176933446 0.039458801673556025
38.05643422395834 0.14514280040109384 1314.742682311185 0.059977518004777367
38.04650908731913 0.1517049864321386 1314.7429007238927 0.05047273506638053
38.07771967866071 0.17163562306454733 1314.7429819004265 0.047431593631788116
38.08375461006552 0.16022048078364043 1314.7427498293705 0.05562739464124202
38.032582123823374 0.06373770837705763 1314.7430299853916 0.044335068917834834
38.04047498827571 0.08507788717224425 1314.7426943045718 0.05643335540962983
38.01626275486153 0.10435679722739873 1314.7430852822786 0.04137406077094181
38.00736364453206 0.08684477859267094 1314.7432955044262 0.03703009796696846
38.054156251115174 0.17908431451438722 1314.7432596075782 0.04392095257313767
38.043595092304024 0.11562079276872288 1314.742585415579 0.05687866155282171
38.03399699879905 0.12320594722912812 1314.7428020475973 0.05216268972440407
38.023860744630575 0.1302478255732165 1314.743029994554 0.04243902518323634
38.01063880067175 0.13036677445216738 1314.743271692315 0.03990621093686853
38.143641740925446 0.14167200850546655 1314.742941391255 0.04977290461823733
38.15620339120886 0.11902388865612418 1314.7429949623124 0.049121438126040536
38.108187619985095 0.057547440549811216 1314.742660545106 0.06330011084328012
38.09200488357641 0.02823305923614105 1314.7431569161056 0.04489365943392519
38.07117351243354 0.10341295630707276 1314.7862381284954 0.17610684654322833
38.085802183532955 0.11374926725075418 1314.7862381284954 0.22138617537054864
38.09189245283945 0.09961161043971493 1314.7862381284956 0.21359430386892503
38.080097724869454 0.09460087188894395 1314.7862381284954 0.22936304411049208
38.09103840505781 0.08439041241547482 1314.7624012993715 0.19977104616111213
38.07207079328911 0.12147445185111143 1314.7599198846788 0.19097504292802378
38.084117917655774 0.1249967637217836 1314.7623741008726 0.18632570166910714
38.10360536890825 0.12605952210432025 1314.7586072985378 0.1857900089776072
38.10986920941091 0.10839735659347104 1314.7623861997845 0.1975327245028075
38.10851494322871 0.09132895782178117 1314.7601738949506 0.18413367857868015
38.10791011502636 0.20609288560101258 1314.746350040501 0.05377742529376814
38.11825588977074 0.20165177743775636 1314.7535362809515 0.04950018130047954
38.131510747594895 0.19962699577805582 1314.752203181551 0.05239991534180809
38.151775400177435 0.18782362543402803 1314.7473833664958 0.04565967792596951
38.158231148134476 0.18103044881799313 1314.7525709813483 0.05148149919644758
38.167140841300075 0.1742587729795323 1314.7487339028025 0.0557334322792515
38.19324718740784 0.10990369941454424 1314.751117139465 0.049658148160228975
38.18867404127216 0.07490502947169497 1314.751012481183 0.04643614224858245
38.17731399117616 0.04991504000269571 1314.747299654004 0.051519621540569265
38.16837686290248 0.04030801536666974 1314.753008296199 0.042019002509962426
38.15036698780421 0.020370216547874007 1314.7491931929364 0.050270001548324186
38.13419167829044 0.011353041896289662 1314.7514748489161 0.04220746395356683
38.09794055459355 0.0046017398119520825 1314.7536628422574 0.049308985683160986
38.055738530657756 0.010239988673594462 1314.7452550856294 0.04609732018529435
38.016804152526184 0.030998292422047324 1314.7520250788778 0.0634611467375527
37.9946519070304 0.06495229192749269 1314.7529924697112 0.05052907380835222
37.98960894664961 0.079376872437536 1314.7526457101703 0.044076490951435426
37.987001294563015 0.09076880833068643 1314.7466366373199 0.03561805327908171
37.990729716146376 0.13890558069370365 1314.7499201542278 0.045254320448997964
38.02999002359741 0.18796119767489958 1314.753220488082 0.047438210945568916
38.043693707258925 0.19867328019449443 1314.7493138788582 0.047315907959021866
38.06077546350246 0.2029330575937257 1314.7530001754706 0.0514652374413717
38.08137504080335 0.20807824171512845 1314.7473489822455 0.04066881625938669
38.10778391799153 0.19208099298036102 1314.7449033587031 0.03965336015678629
38.15291220361017 0.17392051310350526 1314.7450412184692 0.03780319221851494
38.12019310834095 0.1955118071389553 1314.7450945233832 0.04520986127713394
38.168092533660946 0.16318158486655254 1314.74516321403 0.04548302951594906
38.13203907427261 0.19055251338537157 1314.7451021078996 0.03838051788641703
38.17952237224212 0.1338295894326938 1314.7450655549944 0.050107739401726
38.185978467777545 0.12317088968467141 1314.745166052436 0.04467796113775874
38.17651939075275 0.08826163649644753 1314.7448992616473 0.040315376245939796
38.16382087517297 0.05862449916480105 1314.7448344987336 0.046990352897072
38.175613484188396 0.07116273423886471 1314.7449869829913 0.047441702589669496
38.14834986233328 0.03400329209915476 1314.7450051085025 0.04184485756369263
38.105537009736274 0.009684103294452727 1314.7451215134186 0.04070782341546957
38.09139604512799 0.015055033841407231 1314.7449261761858 0.04851488436921028
38.05641048811507 0.023190617371381617 1314.744841166595 0.042991737421248434
38.067517123884976 0.014614236222929412 1314.7450206311696 0.04245509087856386
38.032855343514775 0.03875978187600514 1314.7448434630282 0.043956352064895364
38.0431384238317 0.02948739060004723 1314.7448640943253 0.046926682802575906
38.03242590513111 0.024580112009770654 1314.7451800904728 0.04674739677182785
37.99738715710502 0.09516786832301444 1314.7449975030797 0.04243351934501773
38.00292427445379 0.12260626963582745 1314.7448768763657 0.04575496226543625
38.00187358064943 0.13969175693569746 1314.7450451320376 0.03606672254824067
38.00903871847371 0.14981005880809628 1314.7449823888423 0.037093812504868914
38.04068907860593 0.17943320756792006 1314.7448670590002 0.04609892398066431
38.05509293010796 0.19641600626529393 1314.7451543268833 0.043987834529905304
38.08124524887853 0.19373347619771997 1314.7448868955676 0.04256821836378081
38.182604255408734 0.14919606836476507 1314.7522585999106 0.049481696665539074
38.18951392891384 0.1336612533448451 1314.7501399807925 0.05111342769534124
38.19154167136355 0.09271516780884369 1314.752538990405 0.047134159916861956
38.18309221726072 0.05995215684231253 1314.7481558347804 0.036469554585250315
38.16071270410909 0.02980962280627584 1314.7471703628107 0.04570047720109592
38.12327121382009 0.006808740317099209 1314.747737958713 0.04123572931579806
38.084108031164945 0.000740525929998559 1314.750254598644 0.05102558764733452
38.03786120088425 0.015064039985922748 1314.74717033708 0.05653636998014707
38.00793769749373 0.04291147876148571 1314.7529968229871 0.05559464200292381
38.00169618257419 0.05612996726434029 1314.7537243959184 0.0448864585581752
37.98578841398603 0.10783366560959473 1314.7471129512676 0.04321933004674934
37.991030153213565 0.12830574398348898 1314.7454822163065 0.039607783309524046
38.00971020049995 0.17157556185347 1314.74785849162 0.05089414995418564
38.00283984224023 0.1629334151163177 1314.7512520999792 0.045240790610395605
38.01861219590555 0.18166357877561276 1314.748984415506 0.04675763298345131
38.07142051181291 0.20533581510395119 1314.75307565154 0.04907312519076324
38.001610111981876 0.07178843468760156 1314.7450313837953 0.03836369948652754
37.991202243291085 0.11683946841818435 1314.745190231281 0.046027713874134325
38.04530515628305 0.09881816038670413 1314.757120073297 0.10402530956080464
38.003880050016285 0.09137446822621131 1314.7545767051997 0.041158192093698844
37.99121305040749 0.09887332247330749 1314.7538556135291 0.04207444981841728
38.012143133565516 0.08109495817048036 1314.7549123880285 0.03652582917604382
38.029816914765036 0.08362934957513377 1314.7559791851263 0.0452671736454463
38.01993748032335 0.06911049667450189 1314.7550787301802 0.04237993074803335
38.04458879578891 0.07986622538254573 1314.7567033280388 0.07924089786078463
38.03213764488149 0.06902861406218339 1314.7557283684673 0.04502467464666879
38.020438134451936 0.04205433422563682 1314.7541752784095 0.044974901058207714
38.03286944426747 0.05796402686489794 1314.7553652153915 0.04430095134944396
38.05550252774687 0.05755977689654854 1314.7562880356395 0.05044003570016647
