x y z curv
0.1570305604537129 0.05974220063300713 612.098434012466 0.13192865898530604
0.15658989020862663 0.06945853089211111 612.1096411814056 0.15016711814699416
0.1490876235961914 0.06780523872201501 612.1028555000812 0.13590886616942927
0.017721874673374674 0.09621582924837913 612.0857857020565 0.19028837749613714
0.03130361201292145 0.09977810448318607 612.0763860067829 0.14632575575600257
0.03593987930645379 0.09636267624385647 612.0879007447367 0.16170519860114685
0.0018174016611255171 0.10252672070264879 612.1062625271046 0.20866346424219637
0.0042839092336998535 0.10252672070264879 612.0861866635995 0.1960086046870462
0.011947938300323863 0.09671321261406234 612.111110228026 0.20337394992939878
0.008204230180790995 0.09651058961250196 612.0993995776141 0.20272563894456166
0.015367230628891889 0.09880046011028792 612.119745334616 0.1668559256192753
0.02696765254663165 0.09699278740359257 612.1176331484969 0.14529709233974666
0.04647447521244401 0.10221027115719813 612.1101405201855 0.13878881816422753
0.03588412768313621 0.09700938885936049 612.1107493936438 0.15860173054733034
0.012780217398561226 0.10159770734461972 612.0782421453689 0.1621428803996331
0.0466059580316847 0.10216628666488575 612.0874187010187 0.15349306069025873
0.040025460608094275 0.10213576119211103 612.1199022863037 0.12070543004830463
0.04638079732991038 0.09856920176982131 612.0984410973363 0.14714886767754154
0.1719294640588345 0.0928931841091629 612.0895988252698 0.17746760178182808
0.16734517124360027 0.0672176414955023 612.1101697848956 0.13150419166833371
0.17224254695973773 0.06020116118747405 612.1047011385698 0.14414049549516977
0.1696187419226486 0.0638720913558615 612.0911193871901 0.12413819153700682
0.16400762250162387 0.07888642008473595 612.1077901318577 0.14756576048888992
0.17120588021106575 0.09069756652871076 612.1103271706925 0.17380450481393964
0.179626466117077 0.07430294734690858 612.1058088071791 0.15315140800654212
0.17623026948217507 0.07396574823541735 612.0909010919796 0.14104628084593876
0.18084985981365787 0.08158860281804484 612.0964552914656 0.21310076420481566
0.1652927253013049 0.08407183825553176 612.091136831456 0.15163586572044496
0.16045992279052734 0.07042572610785561 612.0984915781609 0.15878600836401824
0.02122892796939231 0.12409568086937874 612.1096844479691 0.20921343594581876
0.0232063140902226 0.10215101028648525 612.1100777728702 0.22237951786498505
0.028707030736645524 0.11732322007917378 612.0902219401055 0.2504150995072525
0.03233964902881973 0.10556903637892129 612.0925135676887 0.2233052524602973
0.03323635027632278 0.10765370146562865 612.1061038473507 0.23510575974886314
0.034986015480711195 0.11912655466866859 612.1023520180626 0.22177283363036032
0.015075233710450171 0.11215828928993735 612.1027866261006 0.2956823111088281
0.016058131706202867 0.10292567595041664 612.0948284358092 0.24689702896482663
0.018976770348239372 0.11358300330955931 612.0916171275226 0.28704195148054035
0.014534172482256857 0.12408980638874045 612.0998475460142 0.233677387567284
0.10920447860243812 0.058835571447495585 613.0077603705512 0.07661264456328394
0.08323394962942841 0.03668654565102233 613.0147476955901 0.13187152140433459
0.10355412526575503 0.030177397153092863 613.0174317134366 0.15055450110235452
0.08139264910172071 0.05470366897627773 613.0100696395277 0.08666503719307359
0.0917033034968778 0.06968954997109583 613.0073751985335 0.1560472439672447
0.09572675732577929 0.04577409213518773 613.0190758701088 0.1860056472228135
0.09796642279636816 0.06295453093321102 613.0134529352372 0.12831479888116284
0.09130881093097164 0.03328424460882716 613.0231636131497 0.17611047584203296
0.10738711102146897 0.04757293559921244 613.018487127352 0.17380210180370723
0.11607722691368144 0.050437944654604036 613.0101727731453 0.0755842465567032
0.09880544908028255 0.0003259057224354195 612.0812801884352 0.21289898633627116
0.10218277689393068 0.0020795364379893044 612.0939650582221 0.223188803633409
0.09349971184310635 0.00020169830322203097 612.1020116711386 0.1940184905404583
0.08966221302546899 0.00020169830322203097 612.0839912372235 0.1800464413545647
0.1156226195617696 0.0020795988660141963 612.1009534617409 0.2185947511122087
0.10089921224753526 0.0020795364379893044 612.1119907370153 0.22596951740587448
0.0882507681938736 0.0020795364379893044 612.1113149694623 0.1962853284974703
0.09700875515578299 0.060746209127560416 612.160373995921 0.09216522460456278
0.09837729949722565 0.060626529286715795 612.1981558978032 0.05899673942979392
0.09306383744375774 0.06611557878500834 612.2216508887852 0.06518697435552208
0.09213603240317396 0.0784775702447199 612.2136015408353 0.0674829768956811
0.09407625694241792 0.0630977204806485 612.212336932176 0.06197467062228698
0.09198002301685455 0.08565537014598879 612.2326114177474 0.05967582768116328
0.08977261489225782 0.07318377834642312 612.2297056364824 0.058506093012529854
0.09150955890437826 0.08368561355349273 612.2614852634624 0.06391202276983698
0.09046266905117883 0.09430804463387307 612.2600190551781 0.05618545940194453
0.09537672329733375 0.07711270950223865 612.2485124477216 0.0516975252044402
0.09476104801027808 0.08294120206925354 612.2726090772112 0.06024408723713047
0.09091608050538827 0.09681661436487402 612.7859004035104 0.05567385057057101
0.09028646741758208 0.09607601604452116 612.5582775794365 0.05745231787946422
0.09019746331913711 0.09591048937586148 612.8092020625608 0.055860009787655214
0.09157862024696903 0.09763261089958758 612.8547869379586 0.05495261288680189
0.09052411598530294 0.0963223986664557 612.7985003446408 0.06140625023269807
0.09098660023127148 0.09686987103054967 612.9495828699196 0.05321168395605936
0.09060771556080605 0.09645416762717768 612.6731365069013 0.0732928629435952
0.091160192299463 0.09705809639704488 612.3520645629637 0.06620454549222289
0.09132216625064063 0.09726662951569492 612.4468289445153 0.0662583599050717
0.09059882599300464 0.09647605654340376 612.3842233636356 0.061590922077535436
0.09147453739270787 0.09745128641571597 612.5064668768555 0.056168779129372105
0.09182459020458537 0.09776876241267357 612.3698776548204 0.06558410484905416
0.09144805613104189 0.0973911604593303 612.4242515836305 0.07161439170574362
0.09187726407418453 0.097796820152302 612.2987968269667 0.050471626194339037
0.0927577497287544 0.09879291601542917 612.4615595591783 0.06730736596652276
0.09163128255467304 0.09767236895183275 612.6475901414099 0.08619076088825674
0.08931566427120627 0.09281867464079092 612.278402583977 0.056963125925830305
0.09674306717943071 0.10012955020829169 612.3230667507304 0.05908172106557464
0.09675698549220432 0.1003701363393466 612.7175940596301 0.057356124827063135
0.09592546963157232 0.1002441826670713 612.864646136034 0.06041335810170181
0.0945316553733416 0.09960626325550424 612.4006690706101 0.06353659717535137
0.09787602483660611 0.10047530130381634 612.4125865221835 0.05589305720238193
0.09611025937681474 0.10033198187420246 612.9315278106569 0.062122760106828885
0.094543193558533 0.0996294809744591 612.4343691489577 0.05562430975572668
0.09639268140532875 0.10035130253375704 612.842530062195 0.05663851427565032
0.09538666503182276 0.10003905114557676 612.7543180767416 0.06219590178220081
0.09762484214250874 0.10047216059581204 612.5151168472123 0.05555747599414279
0.09533629704680513 0.09974640139768852 612.2887587192239 0.0537987925185559
0.09773724908192294 0.10041952238426965 612.3792680770139 0.0665958130138295
0.09482091705859341 0.09973331662785234 612.488077305246 0.057733619955213464
0.08960871647444174 0.0942635465774147 612.916620991673 0.056900746777469535
0.08913037409194306 0.09216779223570544 612.9028590774009 0.061685877042419304
0.08909237499861464 0.09200130737520015 612.960496085169 0.057559440475323985
0.08914457454749926 0.09223000847970764 612.997825105922 0.16352247996210553
0.08943353362706512 0.09349602058261422 612.8902471142833 0.06703472606486922
0.08998402008951223 0.09560243103899008 612.5986894528266 0.07924835472953082
0.0896491103028163 0.0941845546518301 612.534112158794 0.061221163590667475
0.08976908268956293 0.09484083937999688 612.7749620072368 0.0534574587438767
0.08992646557354997 0.09552816219899328 612.8361615235392 0.060612922800787415
0.08976306806475196 0.09480840811078918 612.7635778282332 0.05334377899981864
0.0899531971716722 0.09549017209209004 612.6195015826659 0.06202301506496379
0.08953443105806572 0.09382297377331737 612.6938490014848 0.057897916620585126
0.08978629154714962 0.09470775534911952 612.4760839452682 0.06651866754573363
0.08962358610954158 0.09407239601198741 612.5231753507019 0.04689267323460644
0.1067606004798264 0.0924795362265648 612.4494433221442 0.06367628569676065
0.10628659849821358 0.09431881602736138 612.3222563305762 0.06217022594821712
0.10686320938970931 0.09208138072795859 612.4331156074835 0.055193357325799774
0.10635696099946129 0.09404578694246579 612.4087717666057 0.06863232989212917
0.10680811681663464 0.09229515759126479 612.4608479427528 0.07248798123799727
0.10690854681107265 0.09190545698382137 612.470742171352 0.057890741356160014
0.10052630209886107 0.09997717492309996 612.4547975385418 0.060257703139729155
0.10230798520822432 0.0993629553993071 612.3330968123782 0.05833037127056955
0.09981565907458145 0.10025879604887153 612.604391132767 0.06853535208154243
0.10102472993991565 0.09990011841694568 612.6821785090578 0.05708529926088058
0.10128183627441881 0.09970045454285821 612.3583459452931 0.058030312893108546
0.1008381099482409 0.09994066698546672 612.6293098603194 0.0720855486104549
0.10022263214668564 0.10000992267602675 612.2770957786607 0.055227481625488614
0.10461845052765772 0.09739599262182111 612.7409396603457 0.060326009555610224
0.10520081178867458 0.09661394583845308 612.9819480713079 0.10448697378206032
0.10520674855260403 0.09669396741028063 612.5749079857665 0.059520524972919896
0.1055989092184003 0.09619368035265978 612.6146178862114 0.06193855391925935
0.10393034905237564 0.09821644972243891 612.9382335277483 0.05608768702061302
0.10479219651247984 0.09719932471196632 612.642268666632 0.0853873904771227
0.1052310472685608 0.09658037488209605 612.9617363957733 0.059632306340045745
0.10361383736502636 0.09853964366211143 612.8513919762097 0.05475692134419724
0.10412651002547996 0.09792560572114842 612.6693501538216 0.0611760739461156
0.10350881441655854 0.0985355834758002 612.555880628248 0.07011826482190509
0.10452813714088782 0.09743035516573995 612.4903080595092 0.0671968975786723
0.10326606960703204 0.09877213546381708 612.5031901742681 0.07027710791684216
0.10366940423208135 0.09850744423332573 612.9197112113843 0.06079693085492892
0.1036526847949303 0.0983199590255513 612.3937950623838 0.05828415711083503
0.10523032924004752 0.0966090712039724 612.2915779033717 0.05926092637861878
0.10449539587983311 0.09740843052605422 612.3452323493132 0.05478979302578069
0.10314110506677766 0.09889525249116123 612.4795010608121 0.06447653331420998
0.10323023331103995 0.09882233541944338 612.5345690530393 0.06679436949733152
0.10417330960270621 0.09792714835312748 612.8003504116152 0.05104506486260388
0.1054690812906059 0.09638628458201265 612.3687101293468 0.06772462533658458
0.10429998820621934 0.09776574151701972 612.7305551994837 0.05911911565359116
0.1068078971380334 0.09238945752134865 612.8684984840447 0.055167858004481304
0.10637310210047052 0.09429441853058694 612.949359276985 0.052757015527109506
0.10640958275009366 0.09413458640482639 612.9097305483922 0.06571250255145386
0.10658421851256814 0.09322495547742289 612.5975638897467 0.07333248977855202
0.10600014461715868 0.09557000760717446 612.5228143478356 0.055860602874741296
0.10661041404300003 0.09322406676144954 612.753947200725 0.05318744863326673
0.10628633276640236 0.09452803648417851 612.71655951545 0.05876427657728609
0.10619978513411288 0.09495222548898441 612.8180351278164 0.05676082757517487
0.10609254653987829 0.09543475246353463 612.8805646752239 0.04977412075607312
0.10592670419595308 0.09580143081275277 612.4203235144355 0.06061300050878533
0.10622596695525663 0.09485925801938075 612.8392183639711 0.05826309625502243
0.08960555855733296 0.07234179580873662 612.1693966260503 0.08786623861845107
0.08937596116462085 0.07135305975509607 612.1813432714598 0.07009332057409115
0.09642101918477616 0.07828575821179781 612.1892402001455 0.06670956191691907
0.10435824646089031 0.07573153037319709 612.1603596440339 0.11787816852885288
0.10561958969635926 0.07409858881103026 612.1808642507218 0.06822156978656332
0.10661100208011925 0.07149982787603641 612.1910583934991 0.0687725404603461
0.1045642632037938 0.06367886204557215 612.1701892788064 0.09187526971267447
0.10626327743660555 0.06642699704221683 612.158543385427 0.10491373640486287
0.09693989909556466 0.0606967068413509 612.1853004616871 0.05924481016822719
0.08937718644030537 0.06808579982452422 612.1908887894106 0.06472467347165665
0.08899552348223318 0.09156670814032583 612.5817993267549 0.05815729423715506
0.089144343384081 0.09081853824118274 612.3326871767372 0.0569599317315328
0.0890224750652255 0.09143121306958094 612.3067308564907 0.06189113148360019
0.08900108665228604 0.09153874013117061 612.3197333194399 0.06502903992012472
0.08915144555031022 0.09078283315788785 612.3627300653163 0.053352566277336734
0.08944101290083149 0.08932707641605007 612.4032701457894 0.06500324113411064
0.09400146628725264 0.0836159618880016 612.3111289461997 0.05334571885801274
0.09336618305433166 0.08397194093221383 612.6058409728854 0.07270327993073046
0.09267243696001845 0.0844464020872049 612.5588790786074 0.06098146137925881
0.09310022736979548 0.08413024147956472 612.6893249650361 0.07509745818897817
0.09280086530561292 0.08440206134590872 612.3804578803837 0.0566559193186563
0.09369785545908851 0.08381126425205872 612.3436684968157 0.05495496316848235
0.09124599739247367 0.08593994122180909 612.9485855502471 0.05768546252121149
0.09186024959042577 0.08503756913698073 612.5928786185348 0.07605841798265177
0.0917796748880732 0.08522460809452787 612.8244132569132 0.0588815448756365
0.09139648956503277 0.08569842829356658 612.806431894091 0.0495349368742073
0.09145240814450005 0.08551848025490381 612.5107501144113 0.05335851511658497
0.09193194624473658 0.08500003772126133 612.7338790450374 0.07908120661118706
0.09038277322312702 0.08702902233651122 612.4997231918603 0.06335691535556136
0.0906566053870973 0.08666381405363333 612.2857638373259 0.06246916807880467
0.0903507424358699 0.08703449319837978 612.7034009655042 0.06312564941947044
0.09047565198016728 0.08690708463107003 612.4178757415069 0.06130237377347826
0.089306578624609 0.09020459126548783 612.9739064181523 0.06261708222008076
0.08907105452520887 0.09123648986527105 612.9378132546723 0.059326693212323325
0.08908975161953672 0.09115457253491693 612.8758293381649 0.050162817530128995
0.08961858716548642 0.08883759240094757 612.925491210312 0.06140443176008841
0.08934595584591912 0.09003206837022246 612.8477185059535 0.04854277419004539
0.08977044599920489 0.08800823351980534 612.720180373091 0.06448997140873418
0.08940090682672466 0.08953619534817228 612.4359802531735 0.061645845643638855
0.0894319684435074 0.08954904775185567 612.6659376107405 0.06886232016700515
0.0895595146716666 0.08881701611414061 612.4655312351988 0.06739693481368239
0.08941957303147682 0.08966612405289623 612.7524111314805 0.051814977372570216
0.08973540710919826 0.08801086096365533 612.4857563266575 0.05946607097422391
0.09547210741582562 0.08306886327867727 612.2979656122124 0.05185460078742891
0.09602540632777591 0.08287274122956938 612.6617253884469 0.07478665417724156
0.0964517176631835 0.08276775992543209 612.7470282026297 0.06026771123468685
0.09609558957109732 0.08290804066479651 612.4535210060449 0.05395090506055913
0.09587577437388212 0.08285471350209779 612.8637239199428 0.060871365518045874
0.09762318788441016 0.0826261267780235 612.3607609325873 0.06533271421962872
0.095911095029296 0.08286604315260966 612.786141913745 0.04963274341355025
0.09566182927371158 0.08302471423256859 612.3250616673231 0.04853262928125088
0.09870588075652305 0.0826543562423825 612.5274672373428 0.06487122055205555
0.10032781943732517 0.0829666344864951 612.5712035098434 0.06600567802492731
0.1001771850653744 0.08295766064002476 612.4824886005214 0.06100695661399439
0.10038295417696733 0.0830113428346284 612.4285908529835 0.057706681532885336
0.0993176799827727 0.08278368640270059 612.4951973734073 0.06706443576228928
0.09904053923011884 0.08270821574281208 612.5811824254761 0.0596935522631043
0.10440951578310458 0.0852916843422154 612.3287090242125 0.05254678555132882
0.10414350969498198 0.08509041661200799 612.6848715581843 0.05018137684097186
0.10399514294285161 0.08498730832723077 612.9081580291329 0.06969818949885088
0.10457043098917064 0.08572017685858008 612.9390653712784 0.054820709586053396
0.1042625425238059 0.08521208645906678 612.6105863017816 0.07808689748068641
0.10412429018796947 0.08516786249551242 612.9582566422844 0.05949741399655192
0.10401087902259668 0.08496589985774453 612.7973977563549 0.06197999851560417
0.10545510878888559 0.08676386972673741 612.7623001046975 0.05908684017213992
0.10480100928251412 0.08599284800220318 612.8947383988803 0.06573938466027222
0.1042799663133601 0.08532540650715537 612.8568470945944 0.048740359515604445
0.10583524549525211 0.0874161998388459 612.2876186275782 0.0561203838078999
0.10588105682331785 0.08738122246691923 612.7842062737101 0.05263714443201239
0.10581360092295725 0.08728854932561039 612.744485953613 0.061617562430927336
0.10522829525966047 0.08646167410428553 612.5090128252853 0.05514041667807778
0.10543379845373904 0.08678328845685129 612.4415924296252 0.061456879455377394
0.10536182665785657 0.08668691420213731 612.3872083685329 0.0628949849788471
0.1060208691930431 0.08760679060058811 612.705912948481 0.05330121796546388
0.10684070674991933 0.09079936115554291 612.3559703326124 0.052764298243522675
0.10677318839772876 0.09045992316504818 612.3062664285962 0.054545423874352704
0.10197046413251341 0.0835955482071689 612.3502730465287 0.059386760494217684
0.10340277640015201 0.0844307298202358 612.8745251059605 0.06403419196284416
0.10399429385058694 0.08493220434816422 612.4174772802405 0.06526885433992942
0.10298988306568535 0.08427061572651703 612.3764521720014 0.06412585615010556
0.10355927465576177 0.08457182879994024 612.7173642607962 0.05120531378502371
0.10643779358901372 0.08913339872080935 612.9990955136516 0.22078183639134363
0.10671017649139697 0.0903267863031844 612.9722345024936 0.06157476148939456
0.10665772583510906 0.09009698494137441 612.927102891472 0.06272133019610099
0.10691523053517665 0.09122518685410493 612.6952151888254 0.05034331541898479
0.10630133179335126 0.0881741558907973 612.3983897306132 0.057850036577099515
0.1066577832194788 0.08993634318043364 612.5448112741205 0.04907443340873529
0.10685454582573402 0.09088130848051372 612.5851340483898 0.062485070472894894
0.10676959610104045 0.09051210384424282 612.6242759131139 0.07423831230147647
0.1067299431006256 0.09028373447226894 612.5608224142054 0.05354558317027907
0.09771681063489278 0.08277361921662704 612.9282644110684 0.0590881791914996
0.09839963366802967 0.0826304664379284 612.4651488063009 0.06541769190003595
0.09793029096419945 0.08276052213539867 612.8858938559949 0.06365062956788572
0.09843614406698259 0.08274349421777727 612.8308065958045 0.06164970315695767
0.09828771621717378 0.08261278287110502 612.4079404459861 0.07089712641582081
0.09819328591332116 0.08264656191908937 612.5172195279428 0.06169496425280707
0.09783622178682139 0.08265339069921385 612.5393114123333 0.059703211799161306
0.10365571759739332 0.0815680475359139 612.2560430564578 0.05343312704936
0.10440756948031084 0.09536590202926679 612.2571534308624 0.06218543537955475
0.10451642847933752 0.08584536863375059 612.2341976542735 0.061425032573370744
0.09916755082224478 0.09321215488873871 612.242185046875 0.05149373764840884
0.10684394197769745 0.08475046854428825 612.2474347718346 0.06050585074698549
0.10636289657878958 0.08837167160225516 612.2763826386872 0.058443532938644606
0.1057257296191953 0.06940817008540942 612.2217868213326 0.06455920902846331
0.10381253635740237 0.08002125152758464 612.2187674008951 0.06441981651566932
0.10694547909486916 0.07163760444175164 612.2116483455723 0.05979017080882101
0.10454878221694511 0.07326343127675958 612.2352885363284 0.05266378176392442
0.10608748546140936 0.06618562375668952 612.2027405119723 0.0669893957089977
0.09943604114918139 0.07874828314007334 612.2042162158382 0.07278834087709511
0.09912495030300772 0.0889606579231054 613.006615626842 0.2528630179575085
0.10026350591524097 0.07201527201995815 612.1486156802478 0.11480142150965711
0.09667569429790636 0.1003480753734367 613.0013185866333 0.17157833533677014
0.09901970569622717 0.10043690609367542 612.6936872925514 0.06178348150493911
0.09700972703493031 0.10038297729307644 612.880449109544 0.059920674522678616
0.09769057688167787 0.10037386692085237 612.9119994064381 0.05411482813222308
0.0985593839597356 0.10040289112429909 612.81148515594 0.0625661561312828
0.09810378999879117 0.10036143153802113 612.9550646084595 0.05632530040654663
0.09789948434580577 0.10047963637471019 612.5457072737483 0.05185550843442559
0.08912340861985356 0.06996846804916845 612.2070297357568 0.0722328565504165
0.08918551268318262 0.08522024001601522 612.2439145726732 0.0502566884391853
0.09570319859333727 0.10021509805713684 612.9772445737124 0.07032554037307012
0.09281921064936242 0.0988887652093842 612.7326748748803 0.061917360357328075
0.09279048640049219 0.09885230124941087 612.8211999389977 0.059348906302815745
0.0931914788508791 0.09908627734760246 612.6613374687587 0.07298283227449669
0.0935627515426001 0.09928849986823625 612.5696993585967 0.05638821325998923
0.09399446113792892 0.09938897983624684 612.9898917413864 0.13057832149458648
0.09420522605345039 0.0995952786438781 612.5799510522779 0.06311377625944684
0.0944597802692598 0.09967621556142232 612.7428716041436 0.07468188657047511
0.1026801062735454 0.09923263162969762 612.3097752443006 0.05964287906252661
0.1018443486288583 0.09951292159428524 612.787741290871 0.05032890639340298
0.10292979027668331 0.09901118498676605 612.7056551310479 0.06073458267514479
0.10265956720847622 0.09917085536795392 612.5901136687868 0.06721083665184198
0.1005684627048646 0.10010112465956285 612.890350960045 0.05755097936129305
0.10183530393489905 0.09952165113563742 612.7706323016425 0.05149642372817504
0.10182839092845225 0.09955518121405832 612.6524964358777 0.081219045727534
0.10247387526049545 0.0991989398708924 612.8300553540504 0.058817317555901784
0.09420171173991873 0.0775390309110199 612.1597639168045 0.11332077882675914
0.10144866305356956 0.07776713859482681 612.173075972644 0.08200139973385531
0.09355414851872808 0.061874460371929396 612.173633590593 0.0792149265128114
0.09448395612215141 0.08351953083635866 612.9928660337052 0.19278384956699263
0.09393784738043111 0.08363998982611084 612.5495985597578 0.05580631727153087
0.0936146472971246 0.08392904098157838 612.9644796970447 0.05564668305568938
0.09400387153100004 0.08363001046615633 612.6174452673356 0.06522392352656448
0.09356608474186637 0.0839369448586593 612.9163299313254 0.06258221123516522
0.09319559071453867 0.08413638567313714 612.9817002583536 0.10932395687133603
0.09451948567617838 0.08340140944814028 612.6787296439148 0.07390291910956052
0.09444477540766247 0.08334508934641927 612.3916883593369 0.06159887036565061
0.0945821587253779 0.0834409620214658 612.8955976777031 0.06068662899035697
0.10059550982112045 0.08301102254489154 612.7734183856093 0.05487665579461878
0.101189850277345 0.08331217811945749 612.8198671281846 0.056912093118946815
0.1010968668030411 0.08319527016437141 612.5955506304206 0.06222815745237157
0.10198513032841751 0.0836669153744693 612.7320111170133 0.06838509740489766
0.10266349037057568 0.08402960656481352 612.8439977519598 0.06111216477079142
0.10692214504490591 0.09088187897530711 612.2670915784686 0.059883030588064316
0.0985988664202206 0.05454224039396969 613.0086315737115 0.06735016043522786
0.08910421130640268 0.048220708118328626 613.0102058792979 0.09033360781621629
0.09653103669522936 0.03495155668863835 612.074039773033 0.1672977714930456
0.11486559165434987 0.03683558117109091 612.0803008057712 0.1675441452940156
0.12189607958289525 0.038476451082921886 612.0936542066643 0.21062955294151753
0.08532249448918551 0.03255082695077771 612.1200698185147 0.21426089551642435
0.07905127321715794 0.03231547164724786 612.0861223008532 0.1887128707075029
0.12185739126945185 0.0329340536970652 612.1054726340013 0.21073935876839459
0.07289551718122321 0.04476293789510559 612.097612929573 0.19449440301466134
0.09345812407693734 0.04487723057785414 612.1245584951959 0.19113752428469338
0.08943821127198452 0.03205171966552456 612.0901669645782 0.2293482908588544
0.08873045806507104 0.03205171966552456 612.1009170137185 0.2773511088449319
0.10767137999603882 0.03205171966552456 612.12005928049 0.19093467199751618
0.1044159471076341 0.03205171966552456 612.0798783633905 0.20455568595315976
0.08476799153549794 0.046051719665527464 612.0886883185005 0.18499300303534869
0.1083236129721261 0.04605171966552745 612.0931675018256 0.2535908212095442
0.09565122619009395 0.04605171966552746 612.0982515456924 0.3049677952830004
0.08667675358494002 0.046051719665527464 612.1072748255618 0.2589553525336874
0.09630903916458958 0.046051719665527464 612.1147520418269 0.24485749949135854
0.1073472163334932 0.04605171966552746 612.0816277398596 0.19184069907406173
0.09838320146396035 0.03427068822413951 612.1259208522143 0.20624620072756192
0.07922738874140489 0.040795309851909385 612.1179161939856 0.19665428606744387
0.07212098070525444 0.03485159257075636 612.1015296421991 0.2205030726868174
0.09152425927031982 0.04413605571059135 612.0761136471111 0.20156659422001555
0.11644632610078745 0.04094679308013416 612.1183622940797 0.1835801111109434
0.12536486859637075 0.05745935138854574 612.1037822976439 0.19283030376706994
0.12480829086319539 0.06782112021977449 612.1126196605609 0.16496299884866378
0.13179033344479033 0.07745663051290733 612.1084717374367 0.1814457466441202
0.062823732176067 0.057805302027547856 612.100924655347 0.16125756377836722
0.0529874038696289 0.06622601793141641 612.0988938951693 0.11898506668781329
0.08465181758869414 0.0649578670342984 612.0809261279009 0.10711842989725788
0.10107263612761214 0.06745962173310521 612.0771872842328 0.07626753589594469
0.10078663096507375 0.05510733235535661 612.0770420270509 0.1477554315816699
0.11117570630293845 0.06420062210213523 612.0808455503798 0.11267219223082936
0.11838727148621986 0.05157101392162995 612.1109875119758 0.16709348987688905
0.11633340739463847 0.050862596415325596 612.0858450659005 0.17349321380081684
0.12113255485228741 0.04885078583855713 612.0991047560478 0.18463636044062007
0.11324868447566679 0.05876041405114895 612.117191721325 0.14561671353422814
0.09957254252192041 0.06125639925635984 612.122996739163 0.21599448375969327
0.07501149120961073 0.054425469040350956 612.1034984398725 0.2079063607347802
0.07982994937313483 0.05602515397527012 612.1143778813498 0.16154252743497405
0.11947467877681747 0.08975448765239447 612.0961742579948 0.22422340307851546
0.11866093963981245 0.09909432553846215 612.1043559596588 0.13873952453009497
0.11057274695552713 0.10092256010745065 612.1164526852028 0.10114918163262587
0.10972607613712342 0.09132315927693456 612.1181231112121 0.11316627111266614
0.11343636095943438 0.06989374304950645 612.1167239200081 0.1611269883598521
0.09863616762332664 0.09802178812011633 612.1208311151838 0.11422886120651042
0.10751982240380072 0.07884051057283722 612.1201198524457 0.15808737501192205
0.08896187772224537 0.09341395406968675 612.1190994930389 0.11650300169579512
0.08629421432953334 0.08347523834921468 612.1186448737609 0.14511631085614993
0.0800565064167301 0.09836902436506778 612.1109963688759 0.11276221893761364
0.07658616957850008 0.09179816037553959 612.102791036241 0.2003259014885168
0.07907498980824533 0.09214377164882362 612.0898480135734 0.16743529553844813
0.07700546703355803 0.08102139957031215 612.1075050060736 0.18680385119479678
0.08578438545100497 0.08670634832125619 612.0817021225185 0.10969622783962858
0.09312286784735546 0.10056298953041491 612.0797712477947 0.09229291670077146
0.09141868866606012 0.07517220892247498 612.0782160124581 0.0799464955809565
0.10485794670682254 0.08224071326055601 612.0787954791879 0.06280951278348172
0.10490712391143985 0.03852671813965003 612.1121108154007 0.2738876501798936
0.09726752053111583 0.03852671813965003 612.0850701069197 0.23504415221135455
0.11181003531732475 0.03852671813965003 612.1037069428645 0.2601770397764953
0.12807109652187212 0.07971400976544453 612.0933122265404 0.1622315164782882
0.11846831242766911 0.07950214174701332 612.0906670791812 0.19872634865059435
0.12423842064380586 0.07176553456794751 612.0873695311427 0.16229199897131544
0.07566179419426 0.07913211911632186 612.0904859208082 0.1742816412087818
0.06642419530310274 0.08108445462028474 612.102892545991 0.1898135182659018
0.07145888188706367 0.07197628628756093 612.1125379696103 0.19557485592641388
0.06969139948855332 0.06208527611614811 612.11004538932 0.16285854998688049
0.06683519315037678 0.060433525153756044 612.0921214161616 0.13696783917155192
0.07462883655738371 0.06652208779696521 612.0870147904809 0.12389770111798488
0.11497619929006851 0.10152672069039426 612.0892066458097 0.12259892535918453
0.09577679300327369 0.10152672069039426 612.0989240621246 0.1536393808501201
0.08889507780987099 0.10152672069039427 612.0910687911402 0.13488888159704096
0.1045800775844363 0.10152672069039426 612.0896033583191 0.176974780891343
0.10774396566040897 0.10152672069039427 612.1027708603126 0.16150499151113282
0.07942126052264256 0.10152672069039426 612.0952000772393 0.15024998385370403
0.09227028035838822 0.10152672069039426 612.1125606485953 0.10006703182146318
0.12011079259940799 0.06158890238671303 612.0890091897584 0.166933623893243
0.1391664831875673 0.05692338390920006 612.0951567284313 0.15235801843637511
0.08115671023927486 0.056260120311300094 612.0841551400399 0.14085107182450957
0.10529621838194246 0.09737557287817787 612.0802113067043 0.10246429885121654
0.11976704612033942 0.08115779317283785 612.1066633159127 0.21082157597138926
0.06649185716519646 0.0750412501188843 612.0892909477254 0.15710836485932161
0.14948728570308123 0.07600181742895562 612.0928610497454 0.13250247398518442
0.13906770327182671 0.07870680190392655 612.0871315352802 0.12098733722624722
0.14948742004147608 0.0663388557962257 612.0878283457336 0.10774857399758335
0.14948742609877758 0.05600657160940769 612.1031368152319 0.13997417621261837
0.1364874038696289 0.06997592566269063 612.0949188420798 0.14867959179871743
0.13648747444522888 0.0649924608189577 612.1063274422031 0.14760053372525367
0.14409846245578317 0.08388322327902914 612.0958214625578 0.14209873649139995
0.13698698837962633 0.06768003222898211 612.0854550849224 0.12875419816664752
0.14537441905621323 0.059676647982699026 612.1118938623514 0.15525826523785688
0.14531149966798873 0.0825297849540474 612.1064329726142 0.13084692706782958
0.14122591431125148 0.0755023883967873 612.1144551052597 0.1527543678962107
0.10026020698757297 0.09952683472633339 613.0200079642227 0.12053440282213715
0.08145495374228495 0.10252683460712575 613.0194516449365 0.09858439374730757
0.07478798270394356 0.10252683460712574 613.0393721482096 0.09068685808284027
0.10263764695329362 0.10252683460712575 613.0455426982037 0.10947339478770925
0.08620585414149017 0.10252683460712576 613.0394784873451 0.09396677477372117
0.08857981674581997 0.10252683460712575 613.0284018104849 0.08948786201580775
0.10878977784908436 0.10252683460712575 613.0139638550554 0.1222443758281147
0.1147023924325968 0.10252683460712575 613.0245619526038 0.09613951121800514
0.10232186884286351 0.10252683460712575 613.0578382580157 0.13456885172261498
0.1157244160211127 0.10252683460712575 613.0386299955455 0.10024831913843556
0.11260596355238339 0.09952683472633339 613.0502657716241 0.12095218611138198
0.10749599298689518 0.09952683472633339 613.0322450832723 0.09990555932520627
0.10143712936582669 0.07288629599806018 612.1379542346301 0.191700476544749
0.09024533772051821 0.08319550221297514 612.1485760896296 0.11690366503499536
0.08225914075326972 0.06985845866577808 612.1443696387845 0.13265221522886203
0.08683716136443739 0.058484423012636975 612.145664149811 0.14668213557210769
0.09784717485249268 0.05490936221610657 612.1430649246807 0.14056300750688094
0.11028338513087957 0.061818277197496566 612.1484010771917 0.1270971972951094
0.11350328618707493 0.06924969615510129 612.1407548013909 0.16830709713626762
0.1074473336462268 0.08200071313827235 612.1497618813419 0.12194366406260881
0.09922884836298848 0.0839930705817058 612.1395749310525 0.16466278406146911
0.01458080226803574 0.08726558890500662 612.0993130981647 0.19559141730343121
0.019113956685252058 0.06568304002812318 612.108583532735 0.13091216428201896
0.019243473907205468 0.07945219097438608 612.0912227299973 0.16105890333707015
0.03365470690491744 0.07208876095592001 612.1100576313075 0.14378650351901182
0.0315609108283203 0.062018638878823355 612.1072116339916 0.1625298479534782
0.0298045012877187 0.0599092318564906 612.0958258207146 0.1544481445372117
0.025167691046015645 0.06776127563378714 612.0896100422635 0.1440308222421816
0.02609736253146431 0.08881377174601295 612.1103387284386 0.1620444890087989
0.021432103145141303 0.0759019267929827 612.1097724142619 0.1354865328886097
0.014675102226688663 0.07510806168297153 612.1014360278025 0.18595740698744453
0.03525001428705444 0.09073693434572236 612.0980348630768 0.15292405461034503
0.028522186065214724 0.08490529224947857 612.0901142029293 0.16674460628556134
0.018061145894616912 0.06044442061360406 612.095029144208 0.14484609259791167
0.1029109487549652 0.047438446235702744 612.1249150608293 0.16541416219000052
0.08826531963858 0.06104397982741949 612.1190119528754 0.1789306380046148
0.08684393532995503 0.05457569726511176 612.1305141644486 0.14101548250653972
0.09645742542280239 0.08042155721501408 612.1302150806939 0.20771277777251207
0.09113033588480193 0.06557060004250205 612.1379550504531 0.1472209186919401
0.10210611904905324 0.05616849727937757 612.13158496102 0.20059917567672458
0.08568077711865031 0.0742246636695166 612.1298454900102 0.17711393384153684
0.11015720711458934 0.06792828954499461 612.1274169722669 0.16849090798466518
0.09641860774776023 0.0780109313102994 612.119323847151 0.23383951987841384
0.17319819029638286 0.10622295374100316 612.1099868349486 0.23049387596895302
0.17247628453091504 0.11728241565499575 612.1101304303298 0.2894582637400386
0.16956588156010843 0.1206542794959106 612.0897593467859 0.22923738102981844
0.1671131442515278 0.10865917398604244 612.0902472324503 0.22938705049331148
0.17757497561767657 0.12452671813964855 612.1029532370102 0.19159159268656095
0.1665726832508099 0.12441594039203495 612.1054266195284 0.19585591424525894
0.1612818888070901 0.12130817599929056 612.0959504372286 0.2376677410560773
0.16359433783972932 0.10151208255924388 612.1073916320872 0.18969844753903942
0.16055705629704883 0.11072021847034282 612.1003196849183 0.2524086409010356
0.18059765646332127 0.10788106125026788 612.1040253898134 0.27492689744505966
0.178766127111852 0.1136275607816259 612.0931476461562 0.27635752078211
0.09166533950503201 0.10315247362518411 613.0675634437682 0.10410980093552066
0.09210945339438059 0.07444698991855492 613.0625664956542 0.0851036091401344
0.10707384118437084 0.09163251152251839 613.0662689892317 0.11106376153822006
0.11317454436432856 0.035903154113189215 613.0172681372762 0.1460701811234141
0.08115027910526933 0.10120479291985035 613.0601165233077 0.10808479807460553
0.08681275742979247 0.10238490194564881 613.0097336917646 0.12303560695709467
0.09332403811588647 0.055514140366337526 613.057653737322 0.07523907301804375
0.09090211832449714 0.044672481515774236 613.0519729943741 0.09150231891374407
0.0908217398798804 0.028468027653141683 613.0373099024004 0.14377128955524562
0.08195088514353192 0.04850288982898733 613.04894745333 0.10408216685709469
0.08454205690161595 0.037579074413368344 613.0434164073561 0.1187200716725758
0.08003596611576663 0.03465793314132585 613.0356154705428 0.13816603867592303
0.08062256932380123 0.02755092703015148 613.026087329338 0.11693913377757814
0.07564810524500241 0.04793156670501682 613.0405977723746 0.13628776035368428
0.073391070754466 0.04142962839904496 613.0301257721804 0.1452405549447365
0.07199485477612935 0.06078147831355743 613.039264704229 0.08500286489709642
0.07105561676013329 0.0596552188226296 613.0144173411752 0.09737065549376579
0.07691204785059667 0.06618701669641855 613.0080606051847 0.07771721208985304
0.08284019552809006 0.08680996323287642 613.0082135686954 0.17185948540719573
0.08920951561871396 0.0792278637316234 613.0050644512078 0.22122136563829334
0.08562442602024613 0.08582913818272608 613.0630692799365 0.10768453854311585
0.07708794416513143 0.08689804189175801 613.0556133133472 0.09845286442763887
0.0707196792502777 0.09466907988209183 613.0425639798381 0.10910012456981359
0.07016062640165881 0.07591182142237465 613.0364655453319 0.08941818485278015
0.07264685751193645 0.08187373387216751 613.0462522257192 0.07986360378597206
0.07247834362148406 0.036005517136815934 613.0200061743817 0.1296266136009296
0.07061512248298411 0.08142509020485518 613.0232312132647 0.08821279212918873
0.07231265729596233 0.0930758946229484 613.0200171549504 0.09752369758622188
0.07650062991431576 0.079014842519278 613.012540384231 0.11432838920963963
0.08761184383992106 0.0652331788453433 613.0585959271401 0.054435666424616155
0.08002678119121315 0.074737615555686 613.0559484871578 0.07055512090081054
0.06966539622777715 0.09175267212392642 613.0317252524604 0.1080478668309228
0.10703212547114674 0.06917734261837569 613.0064254499409 0.10090135606154865
0.09856910456610496 0.02125451737217662 613.0214965752629 0.13630688105627636
0.07032871872770849 0.05007151697037841 613.0116140786629 0.09740957290177235
0.10240411206454948 0.07845369423962867 613.0042865946579 0.24325004992926721
0.11262390796777813 0.08581585685804229 613.0077991045857 0.1621416601942443
0.1258094923003833 0.06730366844399677 613.035243756146 0.07186148601069131
0.12405306179761627 0.04515510313510544 613.0297948640426 0.12802599336996984
0.12263972835520746 0.056363614329696284 613.0409985953877 0.09121390794499526
0.11885465876585936 0.04417103105661427 613.040564473477 0.1292210410275757
0.1184951879265254 0.06206337874056318 613.0499853784223 0.05843890548089712
0.11662780459569737 0.051574585183636924 613.0480297016205 0.07720127070049014
0.11707091879569362 0.03510202805668389 613.0345987456376 0.16774651395381898
0.10945279653768243 0.04368578223607827 613.0493840386266 0.07363735212702582
0.10845529925174098 0.0348033843804474 613.0429033990201 0.10719773052497888
0.1182781817276113 0.09886237025660102 613.0125062906773 0.11297381775440167
0.12483339718958927 0.09983587309201669 613.02281013238 0.0870607415586759
0.12178687794863373 0.08783396760198832 613.0159833523088 0.106425801901637
0.1240444057635556 0.1023780684608896 613.0490139016476 0.08397237819525544
0.12560805464765507 0.09308288658643263 613.0412407956552 0.0929564533850403
0.11202801523703071 0.07684134873730318 613.0598021331855 0.07856302241395062
0.11598743354229449 0.088524553804536 613.0596522796302 0.10701329813980702
0.10949419056868841 0.06061290752360313 613.0568560227177 0.05627028205312588
0.12410567988757731 0.03730428645712805 613.0199905778204 0.13073385916581934
0.11664733407553848 0.026607341923302205 613.021504620595 0.12868745786680963
0.10104848594802981 0.049377654187592324 613.0553984924084 0.10006790930813265
0.09826872834943828 0.036008414859054344 613.0470393696365 0.1079979237949948
0.1019628017877296 0.025989642506231352 613.0351919723213 0.14512451576843344
0.10719886024895245 0.022580492458641216 613.0263060917938 0.1399192894957825
0.1260219927448991 0.0899955469440338 613.0272451585226 0.0995538706684603
0.1263004937452421 0.07832317624167447 613.02794170513 0.08973334115397598
0.12312034168791922 0.0759520404031201 613.0456976531742 0.06890038321123157
0.11659148513954357 0.10285188440474693 613.0592100426753 0.10038419786633176
0.07214898918232071 0.10249275940144464 613.025811454124 0.07752337405712988
0.09422700727748286 0.09347292528469814 613.0619340386721 0.14273062787758767
0.08151876875552108 0.09879741212048077 613.0482285052632 0.11844131829689193
0.09073265199714356 0.09890922576961045 613.053766428497 0.1192870646457523
0.0982375173254072 0.09864649939752115 613.0371810624108 0.12625103641401852
0.10137656758197998 0.07849705473737015 613.0642361870384 0.09570907563145718
0.10328609115887946 0.06714076459969871 613.0608292534833 0.07625107201821112
0.06964912557547509 0.06901246780249809 613.0284773409949 0.08417388134853564
0.12582125025131882 0.05485854552938678 613.0295756330256 0.09472491360064614
0.06973057570616176 0.05157114738329301 613.0220701812884 0.13133165423675056
0.12382584362556741 0.06948696232597343 613.0163853662135 0.07298930350949386
0.12608613146133632 0.056171766464894704 613.016974086811 0.08558266214049678
0.12577506077441525 0.08308981084438938 613.038588968642 0.07847668067142002
0.06897632394295145 0.021849486033088013 612.1071910091148 0.1579891845493264
0.07307473677500625 0.022045585595720486 612.0928638886952 0.16743815644360746
0.07448200298331448 0.006610364065420784 612.0889944377824 0.1658824610373481
0.07699967226113788 0.01791906830736636 612.0785573908101 0.14943820645406453
0.08449169519128502 0.008289926442167637 612.0731725867516 0.1374261434223644
0.10414880740072924 0.007854689885563886 612.0747045992275 0.1862183930334853
0.10320984394943816 0.019644038287257776 612.0745706881773 0.18400246465234402
0.11739381331543985 0.015502326410757173 612.0771646589931 0.13412221128051596
0.11976825235376298 0.008217480503812127 612.0856231435567 0.17905991257535894
0.12243393823431745 0.020482953776825092 612.0912804882879 0.18833241291466987
0.12756415908076824 0.007727499113463143 612.1048323474704 0.14053503998224579
0.1254296680988013 0.019433858437218888 612.1118580988374 0.1452984462819334
0.12174893483505966 0.007263201523563829 612.1143431878643 0.16411576803228264
0.11715821002899081 0.021163175479828156 612.1173795496958 0.17459807781653422
0.11017987266332702 0.0059707779091629515 612.1228303936182 0.16028267240795083
0.10187739895449022 0.009440774373395478 612.1296599667954 0.1373670965050475
0.08431313204750002 0.012669827520202188 612.1219811629834 0.1798808210471474
0.08050608331464208 0.002907422375175654 612.1179656076488 0.16905191572719133
0.110221073154703 0.0014601454958312427 612.0806285170686 0.1763758736440908
0.09694308464123617 0.0009766113156082833 612.121973987108 0.16759629628693612
0.11465370922912556 1.701354982230896e-06 612.0902407388053 0.18966632437167136
0.08671037650016672 0.002300415039059089 612.0940991432996 0.21340976324112138
0.0807858296642176 0.002300360537751783 612.1021615268187 0.17413126681818117
0.11233660327057285 0.0013253249302554492 612.1124075311806 0.20173904705966006
0.09096010504579635 0.02220172119140784 612.1252781225768 0.19196375993122122
0.08140408674451143 0.02220172119140784 612.1184302536979 0.18142582374541344
0.08861267557816234 0.02220172119140784 612.0785371611802 0.18908207744039562
0.09370121108703613 0.02220172119140784 612.0880769778771 0.27907131776444716
0.08351967691036898 0.022201721191407838 612.0903897122187 0.22771875475256462
0.07238406692317684 0.010417831419664061 612.1140155417894 0.16392596006197807
0.07069550044799601 0.01308858488283717 612.1018951649984 0.16375752715727465
0.03742616294976445 0.07911640991500081 612.0986089755365 0.16127558193912106
0.04316160156096519 0.06612550285861055 612.1090474144823 0.129681487810359
0.03498943328857422 0.06748908174820249 612.0990633304018 0.1576271494724804
0.10967411607918155 0.09147290655152351 612.6516464283623 0.08511820582027543
0.11023586978631295 0.08700656501477058 612.6403032068195 0.08636559588767874
0.08652167268653548 0.09903109281491823 612.6326173968614 0.09165467639828886
0.07961687367467694 0.10142262677057373 612.6526173968616 0.10219421935353386
0.08629964420891949 0.08834131181990595 612.6490573783224 0.09567827909955794
0.13039264297485353 0.09975994353770207 612.6429635180531 0.12644882238010857
0.06825607774319847 0.09815935045137165 612.6494425151006 0.11897013420366603
0.06696448783281973 0.09819642662158393 612.6375819414241 0.11066357616608288
0.1020652482519352 0.07912742665100411 612.6434714674656 0.07823722025596723
0.09341349885975465 0.08160720374304517 612.6342610071829 0.07922461966904866
0.075687883487733 0.1020335296002746 612.6329225704185 0.08642106263900604
0.11574711028750843 0.10203350865140057 612.651799436142 0.09186673653038212
0.12307933908422797 0.10203350448608005 612.6351757245355 0.10311368466918974
0.11129654493343172 0.10170876048736832 612.6336774779298 0.09047093801151132
0.1789546813286868 0.09809472266573938 612.081243637199 0.1819550150729952
0.15700108822400746 0.09551969930016277 612.0967103950939 0.1407780628369204
0.14678894341326174 0.10252226668382353 612.1033293965437 0.13656334969615158
0.18427380973312749 0.09566628599697583 612.0934732416907 0.21968791280253416
0.19398484027184168 0.09944929329739702 612.1052349614283 0.1997667876337196
0.18305469385605241 0.09610571285806054 612.1100245088156 0.19888087562770254
0.16035651611743348 0.09921423977516085 612.120460656152 0.1354601358133684
0.18143648028279383 0.10155642921846375 612.1214529530475 0.1625844085812891
0.1635973491612299 0.09780933913759549 612.0843392483512 0.17044689116015987
0.17240999882652738 0.09860670857827 612.1188661363849 0.17310694993484835
0.19537755819162378 0.10211023611359664 612.0952185930319 0.1786624658543363
0.16956394651164539 0.10246213993023023 612.0751024714016 0.14686862664968406
0.14965651932297236 0.10160741383014818 612.1129710355378 0.11886577141684251
0.1481423925468372 0.10108063377979108 612.0925236771757 0.1318519102313264
0.18912924832164207 0.10138142661222305 612.0828907169142 0.18651681295026307
0.11724903541566953 0.02799646662414905 612.09663277 0.24626125271674387
0.11669080826679341 0.02221224672550804 612.1055298350752 0.22195279331478737
0.10366477393772462 0.021715573196882772 612.1186133200225 0.20407333996305657
0.0817299712420698 0.02950244775096033 612.1111248421307 0.21960536754766055
0.1097844342276628 0.021923161007681238 612.0842294068589 0.22893731599349176
0.09881359722792218 0.034051719665527 612.100161887344 0.27603157674653545
0.09456942852467362 0.034051719665527 612.1128455605536 0.29313592465446137
0.10395746623350602 0.034051719665527 612.0916511846209 0.2728597408332221
0.10130142891587168 0.02105171966552888 612.1084784910529 0.30211915066436157
0.09013361578139198 0.02105171966552888 612.1121685061 0.26389821017624976
0.08324057436569134 0.021052454638270525 612.1036408144224 0.24488879951163095
0.10100643153815664 0.02105171966552888 612.0951931421325 0.3101990970103644
0.059470671073238654 0.07356586787032715 612.1012629745011 0.17177676812712353
0.04648826135031564 0.06717350171920818 612.0879385908073 0.12870662953970613
0.056039796672656336 0.07805176329680821 612.0863703657016 0.14087876698421883
0.05578928993604524 0.07766877415468137 612.1138527458982 0.15263423803351397
0.04648822850184049 0.055766487579477754 612.0988866338432 0.1323517025245658
0.05842840027839426 0.06528271138077414 612.0854548990551 0.12707035467807906
0.05014870220307671 0.057999514377626626 612.1089895628536 0.13702071408162153
0.05563668337928846 0.08464910683361056 612.1027624492574 0.15257338809177104
