x y z curv
95.35504933415758 286.6937350977971 1685.2299287821863 0.1288101968649365
95.39535656214196 286.69393460109893 1685.2320181787336 0.17709381992544287
95.33262847648018 286.69381351252395 1685.2283295910868 0.0968761826729914
95.34524874313215 286.6954206043516 1685.2234393421163 0.10779579972895041
95.4230701061618 286.697411102414 1685.2207868107062 0.14996343651243274
95.40273639897514 286.69704155836234 1685.221174366 0.19843925096177834
95.33220489328212 286.70239653240736 1685.2175395935762 0.0717211672885343
95.35961793037796 286.70263064623236 1685.2174827946972 0.19121711460277915
95.37091714426106 286.7086011443342 1685.2169608894826 0.24947704596007675
95.34445225846673 286.7060733449348 1685.2168405215614 0.16586439728403576
95.40304557425273 286.71108847521646 1685.2176715718365 0.23380983157827906
95.41474637718962 286.71455117656893 1685.2195837703048 0.17376290931582256
95.3534457350659 286.71637298843655 1685.2213050831385 0.24091793594048605
95.36433243991073 286.7196046609731 1685.230497291169 0.25687283261735433
95.41977561899597 286.7192224213183 1685.2324804232899 0.15919954585016421
95.34578205826459 286.71861362994565 1685.2346139245583 0.2003465977933829
95.40517485732582 286.7186392570769 1685.234564214621 0.23417249349847388
95.35729763108553 286.71256249399767 1685.2411913373262 0.21648117168969985
95.38089344518954 286.7107289601146 1685.2419999207493 0.25789588011278886
95.37116081581163 286.7052299062428 1685.2425648953658 0.26158264126531594
95.40435630966411 286.7071580820588 1685.2426566946876 0.23013464056573765
95.33838131184599 286.7039926869506 1685.2424488934716 0.0975934209809793
95.35577172430368 286.7003278171814 1685.2410489291638 0.18447418661874623
95.40757939011257 286.69542226201327 1685.2362962428244 0.1263420006522122
95.3316187691942 286.71764378959233 1685.2267102154105 0.1073826072828374
95.42362999966295 286.7082428660982 1685.2270543583604 0.21892177908412702
95.36331699830204 286.70708493299117 1685.1943505108795 0.19052766973924826
95.36751816439691 286.69403449650065 1685.1956183133002 0.2190309618571323
95.37495748616311 286.7231145913563 1685.202929243036 0.23625863515092688
95.37485011624771 286.7231375641951 1685.1897851949393 0.23793863054951966
95.38824034864437 286.7202727487122 1685.2009325121062 0.2354585392280026
95.38960824977977 286.71998008752803 1685.1874440378808 0.2232097492165979
95.39508034775551 286.70178975772296 1685.1922374221099 0.18744430677068077
95.38428443737865 286.6900065621524 1685.1853112030235 0.21281876423182491
95.3794444846717 286.6910420598466 1685.1967328455116 0.23244824425431287
95.37733328858347 286.7104257445621 1685.2032623833115 0.24149968389428234
95.38194195075778 286.7001615719571 1685.2032623833115 0.20303312722930938
95.38407360109733 286.70781954815504 1685.1826232841904 0.21458220469948133
95.43884823832232 286.6674831521471 1685.7464638495371 0.10732826171046979
95.43750948248015 286.6730527501601 1685.7328640385267 0.11417389486184845
95.42756500543209 286.70759426598084 1685.5930099036889 0.176517168601206
95.29452014929507 286.7174618396363 1685.2219568387832 0.09650403280039284
95.29076568263346 286.7130464324936 1685.2328758753501 0.11789345644275083
95.2719500010786 286.709080006737 1685.229108185326 0.08709529217609109
95.2837285566429 286.7042621529009 1685.2324892506215 0.10296772488702959
95.22165495125876 286.69673700562555 1685.1922652011995 0.08917283558731393
95.24637465611467 286.69591252360755 1685.202867292027 0.08804925718975708
95.22840551102703 286.7043300516615 1685.1799193190582 0.08554979851142443
95.24587104208443 286.7033874407675 1685.1945107555512 0.09006343738276572
95.26803060059548 286.71229873631773 1685.2065008224727 0.08872196354697254
95.2389510054099 286.7137992390582 1685.191349040594 0.09931514575136083
95.22284680125509 286.7176462613557 1685.1874580971107 0.07950292003669279
95.24716789804825 286.7177662102942 1685.207181382518 0.07422912356586185
95.26260560484415 286.7167963052542 1685.2187475564203 0.09054300473805885
95.24763030104444 286.7091208082238 1685.217939376598 0.08406602976809724
95.22195920137601 286.71150347131595 1685.199140830397 0.07709994043489182
95.21315908652447 286.70584185833644 1685.1932318360746 0.0839655073829408
95.18082307735622 286.7040042700396 1685.127329466671 0.08410911399224098
95.18695382114375 286.6978301640887 1685.1344944750037 0.08502589863346101
95.20874339735002 286.69726523002583 1685.1617907315408 0.08379475347315855
95.20180075705734 286.69925905205656 1685.1385706198487 0.09267966704244524
95.22104070513085 286.71089736272603 1685.1737967627914 0.09170805388115018
95.21153420906828 286.71405619516054 1685.162131839 0.08521316627449593
95.201653658367 286.7106831669534 1685.1295080914397 0.0933094217557918
95.19689623438887 286.7175096074924 1685.1493041134863 0.10111686683866586
95.21173156549861 286.7173944164809 1685.1784881863714 0.09906820776034027
95.20005730573234 286.70168001516106 1685.1740778269411 0.07121153068967846
95.18907906579489 286.7047220157396 1685.1577511836842 0.07708964523386984
95.18444443157892 286.7064148113552 1685.1410533945646 0.09292805768272154
95.17932255603375 286.7037030869988 1685.1124721193905 0.10019981278972602
95.18149702956795 286.7025234704383 1685.072151001704 0.10544011019398697
95.18692623656688 286.69777359500546 1685.060182093369 0.09938584332802104
95.19107290101233 286.695747497137 1685.106963709819 0.08338082315770577
95.19334351342366 286.69627867849914 1685.0957145042178 0.08300377042517111
95.19995405426384 286.6978866431204 1685.067990260974 0.08959233352980249
95.20372586287806 286.7068910087348 1685.0725261423781 0.08287018859790773
95.20267966848658 286.7070168654963 1685.0853111074266 0.110203224241844
95.2001834883097 286.7050010831328 1685.1138369526732 0.08422724229214507
95.19645245491114 286.71580603664677 1685.1088228962888 0.0996310618958524
95.19959635305912 286.71368190884516 1685.097132573329 0.09939616368063835
95.19809264859617 286.7167488506446 1685.0645066603677 0.08330261792804526
95.18996249804718 286.71755494720026 1685.095961768638 0.0922897220104868
95.19326338999399 286.71772166305436 1685.053565740514 0.08464888056329095
95.18736674203542 286.71641594961375 1685.0844792313187 0.09885611387128262
95.18464274233345 286.71601124179705 1685.1210831578544 0.08059670548391754
95.18448455448814 286.7133342224563 1685.0628888012136 0.08987747580768567
95.17965668680267 286.71170421815634 1685.098920792172 0.08596968039306668
95.17937531969116 286.7070651383321 1685.0822618671145 0.09726610989706325
95.1871923201906 286.70189393633973 1685.0460247870406 0.08677769452055352
95.20722480858933 286.69965199322337 1684.9958319137731 0.08343863540079083
95.1954417165732 286.6957964073059 1685.0442447110643 0.10378891165854122
95.20591381116847 286.6959079818675 1685.0146848345585 0.09002790680830978
95.20007302888968 286.6968207128949 1685.0237364412585 0.10142464211673756
95.21667630739336 286.69555140590074 1684.9983947879227 0.0969261399011032
95.20882101089734 286.69707185319226 1685.0314007922168 0.08446820674636661
95.22010687037965 286.7000517411178 1685.0099355843624 0.09512068393673859
95.20445851559604 286.700211439271 1685.0519818944117 0.07855590135991646
95.21469089779848 286.7060269733642 1685.0298448215876 0.0861159260725448
95.2195272433088 286.7086271549897 1685.0170067310078 0.07715900624336175
95.21027923698085 286.71099541224726 1685.039158514281 0.09684966020297882
95.22574224188747 286.71252800090156 1684.996423133922 0.09071371372951945
95.20397736624342 286.71294144043435 1685.0534427571058 0.08168857217502923
95.19736519052776 286.7172357419661 1685.0373062682977 0.09619493312536764
95.20307958993124 286.71077543445546 1685.002554035149 0.09421352059730724
95.19013659817779 286.7075173499706 1685.0353971188283 0.09546937523881982
95.1967501086221 286.7076448012709 1685.0173984649748 0.09293699645847278
95.24024562936913 286.7009653390649 1684.9298022700327 0.07574022063419228
95.23869987641434 286.6965376483687 1684.9429149893235 0.08785321708369373
95.24280469557773 286.6968189472315 1684.9549991078043 0.08693238984867871
95.25132275613743 286.6967049382929 1684.9386549247843 0.08374971157904998
95.24117628123373 286.70041509311346 1684.9663519066712 0.09004719765521561
95.24504428670036 286.71517771416563 1684.9545096992167 0.08902675643630081
95.2220174363795 286.71773618920724 1684.9870115723697 0.08531726931940128
95.21672572628101 286.714018115997 1684.976215450108 0.09736631250446641
95.21134286907358 286.713981746062 1684.9860947474479 0.0831274158892665
95.22660655884926 286.71022726431795 1684.9534708140968 0.08140312705936055
95.26546710648309 286.70099412928806 1684.8884966937292 0.09717511338765107
95.26168983741314 286.697300469062 1684.9007197955996 0.08632965472589284
95.26348733870951 286.69566410638674 1684.913260339862 0.08763537254941889
95.27743618072373 286.6955639834466 1684.8870000114325 0.08791163640168456
95.28721321939628 286.6963844960973 1684.878644224633 0.09935754626101356
95.29710436486671 286.7028588008215 1684.8740496522203 0.08995079188962514
95.28158461536594 286.70619103772776 1684.9002070915083 0.10290932921652024
95.28759224513334 286.70782581619784 1684.8904549294873 0.09631554856135757
95.2713068387316 286.70914687351285 1684.9163773364298 0.08392702009957057
95.29240257061693 286.7114162758611 1684.8808803466836 0.08859489804243863
95.28086407924124 286.71604184104666 1684.8922669052586 0.11294932257896723
95.29044988715515 286.71721534524505 1684.8716173163043 0.09855249582646643
95.2622961533423 286.71764164077746 1684.9079217088615 0.09059497502452653
95.25269252769372 286.7159559379577 1684.91484014243 0.0863573155152852
95.25933590699569 286.70982173539903 1684.8965009101598 0.0833544703687911
95.27020070102098 286.7053080875652 1684.878351261413 0.09582875517225864
95.28674891527842 286.7009611796655 1684.8551727795925 0.08571346146217364
95.30629043716766 286.69807713063415 1684.8312999388074 0.08367735570048468
95.30494490136542 286.6956360803741 1684.8464566587254 0.08174470775206931
95.30011224101312 286.6962092223438 1684.8583771756257 0.08292004594749262
95.31935657843283 286.69997925939714 1684.83902673376 0.08468374071271201
95.30586923935778 286.7044725665093 1684.8621525481362 0.08207684519575048
95.32239425830666 286.71106844937236 1684.8367610824284 0.07384463725227736
95.33647398625692 286.7123538470563 1684.8152698013205 0.09703890132621554
95.31107313307719 286.71569700197745 1684.8469247938751 0.07469451880489328
95.32433959027193 286.71766217997754 1684.816328300134 0.10342741769711743
95.3012802438476 286.71597190126835 1684.8398735534713 0.08974226567139978
95.30585213284297 286.7127333198915 1684.8277996162976 0.08735605140032951
95.31342501006748 286.7133728566764 1684.8178352780137 0.0927416260259434
95.31964396932418 286.7079093476045 1684.8048611102035 0.09589437887922687
95.29903896401032 286.7059922907889 1684.8348608467718 0.06340243556554619
95.35003214992544 286.7034460643106 1684.7674206603228 0.08438131741521052
95.363932156253 286.70364987419947 1684.750158168134 0.10014917572547274
95.3356309701128 286.69848206237845 1684.7901782701742 0.08383982659804251
95.3613484395823 286.6961650216597 1684.7644573173668 0.09372455608975272
95.34902799591273 286.6955694337595 1684.7843191442566 0.08428436344533498
95.37330474752673 286.6956836964588 1684.756556429043 0.0850234317612055
95.33703771580089 286.69575738086587 1684.8037191914636 0.09532867738153471
95.34707602529694 286.69706485215715 1684.7958984009629 0.07566763632241669
95.3720812222224 286.699408340379 1684.769002382457 0.09579510591753877
95.36124982620083 286.700380309244 1684.7837724497351 0.08398364825188584
95.34504068706785 286.70553046360664 1684.8069384641562 0.09282486479896558
95.3666845992678 286.71066606149776 1684.7788418435525 0.09275816057561768
95.3763950955236 286.71588236123114 1684.7601638545204 0.08260666100004785
95.36508428823615 286.7176435952569 1684.767553596994 0.09947920544008948
95.357284027184 286.71755848650383 1684.7776899258665 0.08463324979226722
95.35110197890518 286.71637972740905 1684.7907358886177 0.08047505959128962
95.34070996376501 286.71651428340834 1684.802943405053 0.09761088699077557
95.32718356176773 286.71604453727514 1684.8027862486151 0.09439201362708727
95.35708606481741 286.70924151040145 1684.7585725222043 0.0835612156435674
95.33014608208303 286.70901508099985 1684.7916226446887 0.09347611779212886
95.34177688293136 286.7055444150851 1684.7770866869146 0.07334787696465163
95.38221945415926 286.6987409851815 1684.7387339614545 0.08990022770185634
95.40654176028096 286.69562955325273 1684.732142412556 0.09745786206014517
95.38385170072955 286.69891984631204 1684.7566014743243 0.08287803462738637
95.4281207408282 286.6996910980414 1684.7324270973195 0.1061182077873732
95.41735364103255 286.70024132824784 1684.7363763807307 0.082264582235484
95.38676661705563 286.7108793337096 1684.7573843386206 0.08270616554188166
95.4249626268248 286.7093530281623 1684.7355987705755 0.10667744477069048
95.39152719554595 286.7171083735859 1684.745313045791 0.0857654590223481
95.40160266884335 286.7149035002609 1684.742460085101 0.11367783332095477
95.4214580937965 286.717745693524 1684.7272173229812 0.09367475296084031
95.3993839192357 286.70908282296915 1684.7226339195192 0.10054780406272078
95.43149329085983 286.6959795713242 1684.720952592122 0.0903644054796956
95.46872599058946 286.69694753758495 1684.7465975322193 0.09365892864654618
95.45424566153699 286.71158875005005 1684.736310848566 0.08444366963154233
95.44454827325228 286.71603532690744 1684.7305173678778 0.08649165705074008
95.43586307968174 286.71641880302826 1684.719262160141 0.10433144557272944
95.44885977899253 286.7159532148616 1684.7202698138412 0.08756851328456722
95.46561896981058 286.71376630647507 1684.7251513589842 0.06438644302232457
95.5050431478073 286.7061685119542 1684.796693201069 0.08277315404638579
95.48600929438922 286.6965854290826 1684.7576754846427 0.0697117894940506
95.49348783488287 286.69622868263747 1684.7829499621976 0.0907621563181288
95.49745781977028 286.695487635067 1684.8044977564264 0.10105278157092208
95.48577763847862 286.69541174945033 1684.7691164696434 0.08511899308585918
95.4873524302215 286.6976224747128 1684.796640248599 0.08361963330349194
95.47385515854344 286.7014559194254 1684.7646313263763 0.08962207838550508
95.47841175449736 286.7026070600106 1684.7805356308377 0.09408984101980755
95.48135662576536 286.70518355838453 1684.7921536553254 0.09592448923527172
95.48585068568286 286.7073050825726 1684.8067468112652 0.08541583562088823
95.47994670599138 286.7135910655412 1684.7807230497438 0.08984520846046688
95.49089224314923 286.71674055679836 1684.8030852350387 0.09745314509435185
95.47933759351304 286.7171320048752 1684.7641036326413 0.08328521484516525
95.4907999954763 286.71776562608136 1684.7858334976968 0.08749996548231444
95.48779836235508 286.7175891553503 1684.7722203666603 0.08836909010997962
95.48289092526751 286.71721166984486 1684.7528814281627 0.0886790332808985
95.49909071413288 286.71593947415755 1684.7945105384981 0.09014095282796204
95.50526337498131 286.71457630399823 1684.8071938936039 0.09754252865542536
95.49333506275548 286.71098818573665 1684.764959372891 0.07795771417828405
95.49025303221175 286.70917881670914 1684.7544493304315 0.07219472294001889
95.50066414401125 286.7065205266683 1684.7837255813888 0.08093742669866573
95.51542833463937 286.70672529965475 1684.8552185998415 0.09157894893545512
95.50800300883041 286.69915883150037 1684.8165058977943 0.09025509381850491
95.51208093120849 286.6978599773616 1684.8644033078604 0.0950599088872314
95.50230717948995 286.6966688936855 1684.8801091011244 0.09515478590092481
95.4951906376958 286.70578916072617 1684.872523291555 0.0905723559580715
95.49075302561221 286.7063485604225 1684.834358109641 0.08804356703632195
95.49179218286426 286.7140291910086 1684.8196588317214 0.10180721619691917
95.50457811918712 286.71744755255645 1684.8370837943098 0.08450152439359941
95.509413947409 286.71243304744263 1684.8201008790975 0.07496785297630791
95.51694527253575 286.70999880982123 1684.8728928426783 0.09022341104530524
95.51886402148676 286.70595586069476 1684.9404869065474 0.08262645576462967
95.51582605985533 286.6991238538127 1684.923054411166 0.08192552746575964
95.5075172128709 286.6953902132604 1684.939493625627 0.09995706873143059
95.50389461844888 286.6960635587414 1684.9089009889767 0.10693545392887528
95.49827694531209 286.70077766167043 1684.931482173655 0.09388447718803042
95.49860139151812 286.70043095428167 1684.9517596479131 0.10010814598203492
95.4969294755278 286.7029835409288 1684.889063853097 0.09133083813400779
95.49666486388597 286.7045479407557 1684.9070806163656 0.10137734631946038
95.49924266064008 286.7140383714484 1684.9159121303876 0.08486670069852327
95.50383567911145 286.7172062845415 1684.948825889175 0.08940047472599398
95.50313331881608 286.71694149495045 1684.9056010674722 0.09148413409083499
95.50470367810149 286.7173609142858 1684.893363240019 0.09096689672002373
95.51486798592478 286.71499971099297 1684.9171093554096 0.0966389226500546
95.51480543372757 286.7150095620438 1684.8993220189209 0.09519102471355126
95.51831353363782 286.7104925721146 1684.9522260040023 0.10385975202515728
95.5156352338341 286.7012265049446 1684.9848800460268 0.10364504964793361
95.51460880660969 286.69848347841 1684.9692765164687 0.11739114605904756
95.51335596962281 286.7003743593355 1685.0136646128133 0.08859502428902044
95.51095825750448 286.6971244264634 1684.9947940648276 0.09619069322341063
95.50444231643623 286.6955464906155 1685.0229100438623 0.09996335601739278
95.49673915495453 286.701842920649 1684.9712998127343 0.09441986964456708
95.49387488512359 286.70393991399953 1685.007043106989 0.08415252525916286
95.4946424665565 286.7093933771449 1684.9945897661319 0.09137448329867444
95.49689415170891 286.70996622992476 1684.9582534189922 0.10645761358450175
95.4964258622908 286.71197296432285 1684.980803201026 0.10448829528145975
95.50499649481065 286.717630565156 1684.975550767018 0.10588356673377143
95.50545322219027 286.7175694681468 1684.9607887833865 0.11545129861137964
95.51531933430519 286.7143518978776 1684.965326849954 0.10887334198508213
95.5135802915019 286.71386345712403 1685.000295790972 0.09869821590084686
95.51688387190985 286.7106571501399 1684.9771755915676 0.10993617280337539
95.51383373396934 286.7029821246257 1685.0281544910158 0.08687204300591252
95.51109584840916 286.7041081864083 1685.057478238686 0.10552516093228104
95.50595706217896 286.69766134702036 1685.0646436259112 0.09924064331770603
95.50447991980661 286.697971658215 1685.0841573523767 0.09573825444876469
95.49462582464548 286.6958803853272 1685.0911009652737 0.0897645052735546
95.49638867544309 286.6978999657648 1685.0295040557633 0.08492239363250693
95.49400023172873 286.6966883079782 1685.0720101168058 0.09608102274701832
95.4920252992679 286.70122455225584 1685.04458195297 0.10290226802728544
95.48916262299073 286.70498167916867 1685.059240866742 0.1067940945686139
95.48631144596914 286.70763420276074 1685.0868335642908 0.08856267297003852
95.48811414417196 286.7092297844281 1685.0715232958005 0.0883726918072312
95.4929095880596 286.70983282378137 1685.0252127710037 0.0975753916685901
95.49145331634487 286.7119349977353 1685.0483833743824 0.10674893252318021
95.49443916782218 286.7146418776847 1685.0374834400154 0.10339587816849571
95.50236565803942 286.71753034203573 1685.0584539933182 0.1018597081756956
95.50613839135634 286.7171383512857 1685.0380554517376 0.0898672327448737
95.51001795899384 286.7087357606009 1685.0697606661688 0.10636653186106644
95.50915407210066 286.7072820130966 1685.0809882093122 0.10340543654985679
95.51288437244509 286.7077209786485 1685.042890754855 0.10015656156364304
95.49928760488775 286.7038736597435 1685.1606617672708 0.1804505920640445
95.50416067334407 286.7031372336779 1685.119968126339 0.08671693190868174
95.50640711740803 286.7027357322036 1685.1010626334505 0.09166036772500226
95.49768358784439 286.69694937072745 1685.1288766925268 0.10472570872547605
95.49163704438405 286.6958750038323 1685.1177365996216 0.09250463094189948
95.4883307714925 286.6958648263096 1685.1429620497959 0.15642021017632968
95.48798507161095 286.6981768530831 1685.1067536014393 0.09134536339323951
95.48411401936872 286.6987968140924 1685.1315443058004 0.1394733505748449
95.47873419945097 286.704532709984 1685.1510963709202 0.182302303501034
95.48318949097063 286.703694921338 1685.1164652289988 0.10775997180619212
95.48522015273988 286.70880925578786 1685.0989283626657 0.0986972647801444
95.48059760235981 286.71059675162655 1685.1394596793339 0.22084690914218122
95.48429121684717 286.7131273861768 1685.1217359628076 0.13413991538048647
95.49657742728934 286.7172348920963 1685.1237987819725 0.10481649258200858
95.5002814234694 286.7128589560965 1685.1392992616475 0.12057423007361304
95.5042479477363 286.71352707780784 1685.1032861858985 0.08819777229349789
95.5010929434672 286.70731435037925 1685.1493960051193 0.14079514144219332
95.49439170500614 286.7070155959862 1685.1999075135802 0.08836007679393436
95.48931223420999 286.7043775331114 1685.2353573162566 0.08557597449991276
95.49619392167713 286.7007098909421 1685.1730135646003 0.12006863813829881
95.48481045226279 286.6989852974075 1685.2463824998717 0.09797957819681932
95.47806642500694 286.69699350563775 1685.2773288049275 0.089258209071844
95.49243167438038 286.69830262740953 1685.1851038020861 0.10048439994236938
95.48916947111559 286.6979182942383 1685.2051952153015 0.09065116294796643
95.48340164981975 286.696031922316 1685.2207924680165 0.08009885058277379
95.48058576199539 286.6977419548979 1685.1707234924452 0.12993817299066798
95.47830874712345 286.69817916129347 1685.1816104204142 0.13071375281246062
95.46948336609793 286.70002895951365 1685.2352313074014 0.0738815431595261
95.47205957154311 286.703321475426 1685.2035280100126 0.12700446733538392
95.46999692200616 286.70407592384674 1685.2169398979513 0.0914433722353051
95.47565303378317 286.7074434319287 1685.1739800446448 0.20412954543280215
95.47463116536727 286.710444228017 1685.1854649820364 0.17424538732883282
95.46797724576538 286.71101906492083 1685.2367089482711 0.08182881355842206
95.4743455292886 286.7130070423201 1685.1978252531985 0.14750721067913822
95.48482529395847 286.717264931421 1685.1659519867 0.2402699822439444
95.49015068975494 286.71763601970923 1685.1376497959577 0.1819515904579601
95.48445946846867 286.7175884055441 1685.1768911564745 0.19523914106509574
95.4917241959478 286.71750093012014 1685.1515620813254 0.1840007729117175
95.48027179125984 286.7176132128262 1685.23278672669 0.07833066360548778
95.49070677291104 286.71566832407893 1685.1919913191452 0.17024405962219813
95.49501323128344 286.71418071531014 1685.1728585946917 0.13973287312246158
95.49132801001899 286.7101050851203 1685.2176407089669 0.08043303322530612
95.49631505481454 286.7088778134416 1685.1835808279757 0.13202242415463064
95.48152745941337 286.70637025906706 1685.2897216629856 0.09929428823552829
95.47989705466539 286.70804347964145 1685.3011275379693 0.0875450750521297
95.48410030372347 286.70467699199156 1685.2715950038973 0.08762011139464822
95.4840285899686 286.70056060371655 1685.2606128186262 0.11019242353114983
95.47133522730829 286.6957375349573 1685.2674932634789 0.0890845902807791
95.47409751310083 286.6957569471115 1685.249533043759 0.08374030994682044
95.46437225343003 286.70214734553804 1685.2609645445398 0.09813562147605567
95.46021680276358 286.7043087318381 1685.2840371207149 0.08698960287115902
95.46182863111343 286.7078402648761 1685.2723108800387 0.08829077241703359
95.46537591021715 286.70582648992774 1685.2476189419328 0.09071907858355738
95.46570198732661 286.7127877935962 1685.2581904199978 0.09680347270579791
95.47825903845957 286.7156355511348 1685.28211704216 0.08271317365592651
95.48653368408698 286.7127560614044 1685.2431935805457 0.08581134730434554
95.4859756565804 286.71023298172906 1685.2551875179154 0.08747255403270512
95.47532008614778 286.70762896765086 1685.3292703606899 0.09432461981177688
95.47767512139418 286.7064757436263 1685.3147813337027 0.08057236443556758
95.47030572449714 286.7014846762091 1685.3512863884966 0.08641059554398384
95.47338859632205 286.6971437265741 1685.3085342931724 0.08799104154161744
95.47155650199231 286.697567744462 1685.3227159108242 0.10313137056647392
95.46156961781375 286.69594809488524 1685.3621606439438 0.10695728495868359
95.47531145800039 286.696727995864 1685.292163006627 0.08722962902270152
95.46038643846413 286.6969179797159 1685.3200915409393 0.08842165401574895
95.45084709696538 286.70156321923076 1685.3483112926417 0.09236564614836089
95.44839714581477 286.70273931215917 1685.3605266039924 0.09044826223865163
95.45163054732922 286.7052900812335 1685.3363980683744 0.11800354028039726
95.45726861563975 286.70844836452125 1685.3032412140142 0.08134076018102646
95.45458252945744 286.70949470571793 1685.320499524478 0.10500297865705623
95.45597245723945 286.71613891400926 1685.3417531216646 0.09610948292118032
95.46506805023418 286.7170718685991 1685.3005551406188 0.10460926711008557
95.45632152307576 286.71763285418484 1685.3632249732866 0.08970304614746956
95.46170528797418 286.71738976322206 1685.3265003563556 0.1043300540129457
95.45368967199879 286.71739159279116 1685.3748468136348 0.09524018938260481
95.46769477811071 286.71571390147267 1685.3480263795395 0.09988286420022242
95.46545294615734 286.7133937268177 1685.3744544604958 0.09234805558576946
95.46896184616966 286.71250806589137 1685.3581011151869 0.09009664828537094
95.45490241997072 286.70509118817813 1685.445924727282 0.0814105483974435
95.46633701366879 286.7071282787086 1685.383320964126 0.07860009734223451
95.46344083988689 286.7043621683367 1685.3986473733182 0.08699271154866549
95.45784785491033 286.69843343301204 1685.409201663477 0.09377138774732965
95.45408821648685 286.6989504857102 1685.4331612870883 0.09881627252892013
95.459883052773 286.6967806761187 1685.38666476042 0.08353663127510516
95.44728971529139 286.695958072811 1685.4429693731652 0.09341741815141974
95.4607883787713 286.69565216415384 1685.3378263324703 0.0923120934376467
95.44753370835093 286.6956109996365 1685.4166496253615 0.0917139490227222
95.44761864763936 286.6973645769991 1685.3894621223335 0.10956861355808516
95.44361261565392 286.69951998024703 1685.399161013359 0.09828237903681852
95.43633867922486 286.7008014395787 1685.4327004973193 0.08365945021727407
95.43905570617817 286.7042304162192 1685.4104819602776 0.09896016614026105
95.44336340923935 286.70821241543456 1685.3860649963567 0.08928592171178491
95.4364722723432 286.7083014055496 1685.4239679854977 0.09177942843376777
95.43817146041218 286.71469808881477 1685.433971229726 0.09317601536690627
95.44464217800464 286.71512924313174 1685.4010733328228 0.09260241594909138
95.44384400311507 286.71663259931694 1685.417147761509 0.10727588194531945
95.45208684078223 286.7177150195168 1685.3892259926774 0.10003270589740174
95.4476653946333 286.71769995728846 1685.429613136866 0.09786209354631546
95.45387569996538 286.7170726075963 1685.4108724682042 0.09425710413952643
95.45779151982573 286.7162647398584 1685.399010157291 0.10216327703048533
95.4589607859625 286.7113836663809 1685.418218977533 0.09711392647611009
95.45679156323239 286.71072414893706 1685.431478499685 0.09575433493105416
95.44710547604768 286.70800247577114 1685.504434923893 0.0958664442915523
95.4468329700779 286.70089637073363 1685.4938972423292 0.10190238527553225
95.44596854680672 286.69838422246346 1685.483689842617 0.10206147644326449
95.44124138568415 286.6974523867044 1685.5116721027562 0.10540202771099348
95.43847673977295 286.6955856271787 1685.4998156261586 0.09578629418026192
95.43996003587696 286.69563432337765 1685.4559260501583 0.08866682178834878
95.43117956361574 286.7002759672784 1685.4700071878976 0.09108218280949834
95.42778225461669 286.70423107045974 1685.4821612341239 0.0947586361629146
95.42553315901091 286.70613779421535 1685.4970316482395 0.0836801213977017
95.42383191759012 286.70572017595504 1685.5096214176701 0.09586629906321067
95.43081503147278 286.7118631504117 1685.467711623705 0.09904001263327308
95.43350916385006 286.71163186612984 1685.4468841042408 0.09310163400515134
95.43160161481725 286.7160065713211 1685.4893639416696 0.10259136422712833
95.43201868799102 286.7169813611486 1685.500505607272 0.0973455851652983
95.44147867203864 286.7176864986849 1685.4779659343699 0.10276049342089151
95.43765870674416 286.71768057308725 1685.5099301450011 0.10011155126091786
95.44604618705429 286.71402583409224 1685.4903470623126 0.09695818191436503
95.45145657044037 286.71053827501856 1685.4655398280195 0.0840946963493826
95.44997677657899 286.7095084309686 1685.4795280144767 0.09404716370818515
95.29590872744814 286.696094191455 1685.2185398094232 0.09570884730315553
95.32384713895948 286.69883997711884 1685.2369175343613 0.10145954665221679
95.2992066256639 286.7083758960222 1685.2122018658195 0.09811534824931308
95.32084190505986 286.7093008076239 1685.2161875327747 0.10986110694109646
95.30719669430425 286.7138049845463 1685.2183824137276 0.09756856960543599
95.31544507423351 286.6975449967655 1685.219582256224 0.11046897965623328
95.30377198217242 286.69573710946736 1685.2269477768068 0.10148784980567009
95.30820813203817 286.7003778560461 1685.236558086695 0.10157026537861936
95.28392978417872 286.6958467451977 1685.2242695322184 0.10463727259191585
95.44398527533309 286.70524996731876 1685.5324647319571 0.09513291460514509
95.27471315516551 286.7009979349167 1685.2092135132962 0.08260340120828379
95.43820680036737 286.6985459039246 1685.565651601446 0.12226171302448494
95.4447401297141 286.7036196119902 1685.5196881040824 0.09737339070782755
95.428145385782 286.6958702296389 1685.5451191075213 0.08437557781245363
95.42813825195134 286.6970741033384 1685.5189049755613 0.08847511891025348
95.28466826512691 286.71018963814015 1685.2101557539245 0.10740808852126249
95.42246744202728 286.702891352622 1685.5296110702657 0.07978153757763994
95.42221550642152 286.7127881952799 1685.547934605047 0.08939615016232115
95.42308933942844 286.7124855445436 1685.5351347013116 0.071724217815204
95.43137997365662 286.7175732894344 1685.5190030290028 0.10844462204079336
95.42274441521454 286.70839299023015 1685.519907375253 0.08060121165797864
95.4185469635826 286.70633780133994 1685.5670772276135 0.14410172295905466
95.44032860318941 286.7105362216954 1685.5730017768738 0.1943355810160864
95.44056915521807 286.71544855820866 1685.5250134639891 0.09810468223646551
95.43846237467058 286.7146811164436 1685.5629500992854 0.1227617366329279
95.2809883536363 286.71743048248493 1685.223666222312 0.09632083726816207
95.29927612758284 286.706924069265 1685.237278887036 0.10094403353836458
95.22705730732721 286.6994173299689 1685.2015973939692 0.10326288803199027
95.25723946264425 286.69579091555045 1685.2098388488969 0.0883773020491552
95.25692475092075 286.71127447404814 1685.2006493152996 0.09206964348386407
95.23783465432493 286.71309795659613 1685.2112544192169 0.09307741551369152
95.263024706267 286.69901436648223 1685.2226970050087 0.08176567888028398
95.23446154415227 286.7023619558986 1685.2101542890705 0.0914543446365423
95.20821107262859 286.6990935782508 1685.1843059956745 0.09273918883143535
95.19203700119505 286.69646904876095 1685.1447401981977 0.07876334373441217
95.21489222619311 286.69612905754076 1685.1760114007996 0.08034565037643686
95.20235441117546 286.6971439328932 1685.150859659036 0.08845753483433037
95.1946046591945 286.6965376251366 1685.1250600971412 0.08996310024591364
95.20869364016625 286.70694508333264 1685.1528090786005 0.0900702509675705
95.19355019925362 286.71752925736604 1685.131486808309 0.08321758911052587
95.19533573746688 286.71561696902927 1685.1609138705223 0.076540221200619
95.19932036115773 286.7138415528052 1685.170739262742 0.07804875106228887
95.18042293570498 286.69942185524314 1685.0917739380916 0.10795718823832656
95.18901957458674 286.6955070590267 1685.0845177503134 0.0934373149366557
95.2106788499593 286.7164859002574 1685.0242772513259 0.09020544272187847
95.2128851900348 286.71771228929794 1685.0031502780748 0.09845496618367004
95.2051046170385 286.7170853037364 1685.0153355498967 0.08978512625582415
95.2195978137363 286.702910611797 1684.9664199312074 0.09270144264589426
95.21487956377837 286.6994398068936 1684.9792898562177 0.08740021406378878
95.22812269252266 286.69948600130635 1684.9545605331932 0.07940873923724644
95.23164201709594 286.69555164516674 1684.9659960472256 0.08547716037996937
95.22234743217952 286.6959759709421 1684.9886938458735 0.08655454662962613
95.23531477422252 286.700667510617 1684.9774273806113 0.08974727932877914
95.2392099709796 286.7101774575972 1684.9722230355408 0.08381152504424184
95.25816818438085 286.70973737210824 1684.9377478097508 0.08689704371380293
95.24480155777415 286.7177251351333 1684.9418765793414 0.09129033829294596
95.23154714816177 286.7177156412553 1684.9670205193681 0.1054888650697337
95.25263281098802 286.7177383591308 1684.9274712552613 0.09308167491166003
95.2418574462499 286.7139660341592 1684.9295535615302 0.07860954892552122
95.23206740161147 286.710524421315 1684.943564005082 0.08853205685011263
95.27749043532239 286.6993312581088 1684.8715391013359 0.10472178796768039
95.25038562295593 286.7000729382513 1684.9135090668474 0.08280577822305962
95.25320434621345 286.6955356103796 1684.9237556704059 0.08145226309838896
95.2659456981772 286.7041988996563 1684.9247569495224 0.07192842308722101
95.27287836072753 286.7170265671499 1684.900834191604 0.09989497706624521
95.27570245159234 286.71643168710386 1684.8801327749923 0.09779378956499976
95.26749832563131 286.7145813330861 1684.8887200544473 0.09857091965221135
95.27901842290142 286.7118423255629 1684.8662908898527 0.08838816744493616
95.31430637180401 286.70332321990054 1684.813454636767 0.09204863494173551
95.32590633774888 286.69653286104233 1684.8072775343862 0.09421797588222061
95.31960281016619 286.69552421476715 1684.821255978542 0.09623900757061941
95.33219486489902 286.69737327949247 1684.8159820919432 0.10451178744773927
95.3256708914053 286.6995371141815 1684.829155428615 0.08048584752386512
95.2978062035878 286.71669007195754 1684.8631805486875 0.08141156531519382
95.2942016741852 286.71661574458386 1684.8524687938416 0.08314761226553152
95.41075780001279 286.7038710940764 1684.7192280818535 0.09235708964957398
95.3906502147965 286.70348599869595 1684.7292514331402 0.10551994265070613
95.4204730375364 286.69822845374483 1684.7196117120911 0.11040364377161335
95.39459580782949 286.69964556853233 1684.749236918875 0.08196563901306743
95.40631466373345 286.70388278568555 1684.742695330999 0.09166478039589392
95.41445747343826 286.71487088410834 1684.7360890698383 0.0847331704989932
95.407249728578 286.7170973723329 1684.7272751377577 0.08700630621729748
95.38375087873648 286.71412217811195 1684.7372096504375 0.08690848402297299
95.37448480064798 286.71230045346186 1684.742580476602 0.08370419523118686
95.44583721049882 286.70005407691735 1684.7176113107362 0.08201557455066634
95.46898332060067 286.70019947490715 1684.7281664571005 0.0746041043539698
95.4758156682689 286.69818435163506 1684.7376885484616 0.08562190883695943
95.46146047952637 286.69640593290677 1684.7373312681111 0.08235124129694149
95.44766270157464 286.69857482467273 1684.7328888632146 0.09122803792024958
95.46697121927856 286.7120813610468 1684.750669187922 0.10841694948585019
95.47983181258766 286.7137576748328 1684.7401528004762 0.09707700075164825
95.43171114725058 286.706285498204 1684.7136190059935 0.10489379482197317
95.4746009379298 286.70984527986104 1684.7318339401759 0.09445184566128946
95.5122978827915 286.7027952001172 1684.8346598968028 0.0831743596142638
95.5102331093049 286.6982523069753 1684.8444305827384 0.10497817809749824
95.5024854845566 286.69558129522073 1684.8276452586838 0.08857388021660308
95.4995068936181 286.69626121738986 1684.8498548980579 0.08722511830608126
95.49470951785909 286.6968918503157 1684.8168636732362 0.09395718976913264
95.4966804689702 286.699078009725 1684.8599133970547 0.09083002555934692
95.49534348192914 286.7120076825252 1684.8606950404155 0.09258859817053232
95.4960308104308 286.7146776708727 1684.8503605120957 0.09385612660698466
95.50491622174366 286.7174367775957 1684.8818484439262 0.10230556090001625
95.50100158155131 286.7178015718923 1684.8267970748632 0.09623593158872588
95.5084982649737 286.71742559144553 1684.8699831136414 0.09655231406201208
95.50852140505613 286.7172206783758 1684.8586183159564 0.08874024695824395
95.51756175782546 286.7019710591776 1684.8970214428582 0.09199297764161232
95.51754950908536 286.70210106554225 1684.8839167434985 0.08421272222732194
95.5087034234035 286.69559413271503 1684.891762889081 0.09796704758840628
95.49880834914674 286.69985906739385 1684.9175361121052 0.0882451602403349
95.50071100365204 286.71530006503554 1684.9342246289302 0.08137000439839416
95.5143345823728 286.71538253912115 1684.9314366254448 0.08885191065419995
95.51433800854473 286.6977280253405 1684.9541191094672 0.09943889135406657
95.50461408895433 286.69589698633365 1684.9611728492823 0.10109801153707151
95.50009418198503 286.69682882505595 1684.9954930516512 0.09124452516544086
95.49974793424182 286.6976290973311 1684.9819545117002 0.1067694835141901
95.49819165382921 286.7159837315849 1685.0169389542682 0.0907098595815742
95.5060985886688 286.717679999207 1685.0065447932209 0.08791373547074806
95.51165943483504 286.71611206207217 1684.985525598468 0.10815863230031579
95.5007216815112 286.6956159460302 1685.0405494536128 0.10040467519834953
95.49727579808655 286.69601315138857 1685.05814610768 0.10218431318534477
95.49368501953619 286.71761462688454 1685.1068320683921 0.09422262293028229
95.50096690495755 286.7175418376088 1685.0701064845123 0.09641854144475036
95.50101778083284 286.7173313793413 1685.080642208925 0.12591912568045943
95.49801580623225 286.7175925768088 1685.093175785993 0.0993111550539967
95.49342427420046 286.6963114013736 1685.1535709535142 0.10160985942581463
95.47986884718226 286.69570214398783 1685.2098480923166 0.06940297559271545
95.47417053209271 286.71456955264387 1685.2085484227414 0.10550852413935437
95.4713192176214 286.71374127230933 1685.2229054315364 0.08660209994834317
95.47074389525108 286.71734651177786 1685.269578756106 0.0877784365369563
95.47249242499007 286.71692712030597 1685.247337226468 0.08295647547040133
95.48694275507384 286.71647501639717 1685.208985270672 0.0987806688563722
95.46576798861659 286.69595215517427 1685.2983847038754 0.08191752207432967
95.46738344873344 286.6963338409235 1685.2823029812516 0.09185701573748668
95.4645773110741 286.7150736267161 1685.2817835691508 0.09731736989699133
95.4717137016869 286.6996261916845 1685.3362385747794 0.09885824815646631
95.46351743437124 286.6979213524623 1685.3741194611766 0.08720504413626491
95.45993779562414 286.6955935252798 1685.350806799895 0.09932781824841969
95.46952534538374 286.71730702379796 1685.315110122139 0.0861331653584444
95.45166854247222 286.69656174610606 1685.375988760697 0.09243869609062115
95.446107659528 286.69684697114724 1685.469555575857 0.09720374953224947
95.43269372478923 286.69671137161555 1685.490846809878 0.09559150404815517
95.43568979337839 286.7159069508602 1685.4578724192568 0.10107304208849202
95.44225517159387 286.71772095111135 1685.4665018953317 0.08491682397898137
95.447259645971 286.71672070858807 1685.4527692752808 0.08188937523791183
95.3042852873205 286.7175720747062 1685.2295708303182 0.10389227416004984
95.33651124367167 286.71480264017106 1685.2375583609517 0.13010021992767795
95.3175852371637 286.7150115506849 1685.2356055963305 0.11433028086441313
95.43989068131833 286.7050633808069 1685.584641038748 0.16980642719769248
95.44270822083404 286.7040762817196 1685.5471741484196 0.08272377325008534
95.43718120405731 286.69617385905116 1685.5287956597504 0.09569753457768032
95.43548417669322 286.6961393252752 1685.5543775326678 0.09554060941392688
95.42658629749761 286.6956791309556 1685.5668287192245 0.13909282932525138
95.42609145608765 286.69543044440366 1685.5888570536904 0.2011905731522136
95.42316822130522 286.6983884864296 1685.5546184870586 0.09062407136922841
95.43217673897072 286.71788416867844 1685.5324756998082 0.09579100344699389
95.43601151944033 286.7168721147272 1685.5482483712112 0.09622151038324847
95.3787936559319 286.7234660367949 1685.9901448771518 0.17929294674379456
95.38819492418256 286.7004304473312 1685.9278191469764 0.07859179673666161
95.38764401760037 286.699729903543 1685.6210233651896 0.13275135238788136
95.38743551500914 286.6994647674931 1685.685759400028 0.060296567117924124
95.38727793926222 286.69926439103324 1685.532616739948 0.08909379754522813
95.38872096812389 286.70109937528986 1685.7430140689191 0.10732022469897379
95.38804720112643 286.7002425997493 1685.301253715839 0.09018582133704856
95.38860324123634 286.7009496714336 1685.3837019272578 0.08778553390999211
95.38847938714258 286.70079217609987 1685.6592900805085 0.06991146987520676
95.38803947298824 286.70023277249476 1685.4641727039052 0.10723837650758193
95.38869809503694 286.70107028941663 1685.492036197203 0.07406877924119533
95.38463451170188 286.6971262849368 1685.844992629462 0.09198743313238256
95.3850776088023 286.69744181050584 1685.5455297013734 0.08646398083379278
95.38601948011839 286.69811250883055 1685.9166290045541 0.09919009661434684
95.38441061289538 286.69696684855535 1685.7019278167818 0.06672523993940406
95.38463752079826 286.697128427688 1685.3930338270236 0.09357219505166431
95.385960675702 286.69807063472007 1685.7621132597437 0.12790933291593592
95.38494533407919 286.6973476188326 1685.638225127308 0.0663253905572939
95.38511195726801 286.6974662697478 1685.8339981615736 0.09890343860078538
95.38553748779984 286.697769286317 1685.7232862204605 0.07300838427562044
95.38656505611121 286.69850100872236 1685.5614912991405 0.14113261267211755
95.38527407156685 286.6975817099218 1685.4512578070335 0.09003080847102261
95.38537036623907 286.6976502805156 1685.329228273732 0.07727223501299466
95.38235448026501 286.6962038883255 1685.580554246434 0.19238001807210003
95.38147362661859 286.6958990021709 1685.4043083813094 0.08683093498348651
95.38183326663776 286.6960234828527 1685.9468463843018 0.14608707190085812
95.38328293335127 286.6965252498733 1685.7811593220504 0.10648536728363134
95.38196948877324 286.6960706328455 1685.903843056793 0.08692284438652526
95.3822735347691 286.69617587100265 1685.873703190329 0.09018630170115534
95.38342642262168 286.69657491520877 1685.6732835738294 0.07167114609117599
95.38219486317377 286.69614864073543 1685.3097288115905 0.08924637339322437
95.38396186246835 286.69676024474285 1685.858977903266 0.08685818545877722
95.38423447302375 286.69685460228374 1685.5067931779454 0.0833302467119842
95.38326220401581 286.6965180749159 1685.373778537968 0.10157561258004355
95.37884871073385 286.69572570921224 1685.4831727657563 0.08939400965137215
95.37929003216888 286.6957467206223 1685.7702585411675 0.1047751860170369
95.37924339934561 286.6957445004234 1685.820769246146 0.07218715607055977
95.37911444191815 286.6957383607321 1685.753060417206 0.09534576147351863
95.37869726585609 286.6957184988885 1685.5970842635943 0.1754659623584733
95.37869092400639 286.69571819695165 1685.5169667756916 0.0904671118098951
95.37995230022972 286.6957782513496 1685.4301094374744 0.09063410777250153
95.3810068890988 286.69582846055636 1685.286334225527 0.10121081217122577
95.3809775603482 286.6958270642081 1685.417041270177 0.10063382685377538
95.37593170009194 286.6962405403408 1685.533607384371 0.11148386367641377
95.37643408265163 286.6961186711533 1685.931140411939 0.09166195096106591
95.37603368408455 286.69621580081497 1685.567541402273 0.16995039426996253
95.3764354403829 286.6961183417915 1685.74107678829 0.08787115892334346
95.37526499925548 286.696402270257 1685.4576058148875 0.09766684483687191
95.37533079818338 286.6963863085925 1685.9575188155736 0.1646168472381807
95.37544659129387 286.69635821921713 1685.4396171275712 0.0974508389980614
95.37790635640806 286.69576152339187 1685.8092759232818 0.07378253835737884
95.3767247001396 286.6960481724537 1685.3420610242233 0.09060057957451123
95.37722071645427 286.69592784760545 1685.3845002207113 0.09510403609482748
95.37663750165598 286.6960693252747 1685.2968190193417 0.0912087973067627
95.37749407813207 286.69586153486233 1685.364716465687 0.09400641600826364
95.37363787722269 286.69730043175275 1685.8418258412994 0.08613597056923224
95.37290870688457 286.69772142610697 1685.6507505844863 0.0670384762802134
95.37360018701922 286.69732219259794 1685.9122820911948 0.07384793375321459
95.37396960248523 286.69710890659684 1685.5558989730266 0.11023976977873824
95.37511343656712 286.6964485016606 1685.682017257372 0.07714030061511848
95.3738120410268 286.69719987640315 1685.352260755434 0.106855054609106
95.37105294179506 286.69944210808745 1685.7287832296265 0.09722321876401989
95.37146327037176 286.699011779465 1685.8982055810839 0.07516598021600818
95.37203846496716 286.6984085490009 1685.3951989380016 0.09187287121954511
95.37052189947379 286.69999903422786 1685.3205072416376 0.0892117273537708
95.3719419091287 286.6985098111193 1685.6263211635428 0.10759376086909542
95.37214343074338 286.69829846703135 1685.6958134111242 0.0907732973462814
95.3716662487866 286.6987989075703 1685.3067468621118 0.09159149427677134
95.37000880980516 286.70076955160044 1685.94015287051 0.1182129160250593
95.36891228415382 286.7028965355489 1685.3612357795291 0.08809575031392491
95.36942940798971 286.7018934453823 1685.7616896494558 0.09065301296296523
95.36910715609591 286.70251853299845 1685.659840602501 0.0958535686487159
95.3690815198605 286.70256826084676 1685.6737545398908 0.09104805766095421
95.3697049621056 286.7013589397091 1685.281297237479 0.10030048154877076
95.37009383434025 286.70060462538913 1685.471782695994 0.08936914237454935
95.37014717921934 286.70050114974174 1685.8720289467835 0.08245929433609006
95.36950912022473 286.70173882369676 1685.5246897597942 0.10530646015790289
95.36974818993505 286.7012750885933 1685.7153413524375 0.09920640204562622
95.36837097901392 286.70545395828793 1685.705023226492 0.0890881301085112
95.36825773182353 286.70604153410113 1685.7442931795745 0.09394246272931941
95.3683522599404 286.7055510810052 1685.686072605999 0.0925145785283535
95.36827291286009 286.7059627682626 1685.5861296817493 0.1921166376719482
95.36853463250247 286.7046048526166 1685.9213699396616 0.08619879575078479
95.36862776239988 286.7041216540929 1685.8089322322007 0.09686580903499022
95.36844486586614 286.70507060107496 1685.9530698620727 0.152161513767044
95.36857201945125 286.70441087282114 1685.8548189358776 0.0905239532260298
95.36835007459804 286.70556241951437 1685.822948037424 0.11923666476205291
95.36841397102367 286.7052308969916 1685.7800312439956 0.07997426758081176
95.36866602948407 286.70392310777106 1685.507646681312 0.0827825531702476
95.36868622845401 286.70381830670584 1685.414941260361 0.10203236511434928
95.36870772457696 286.703706775445 1685.3735284899728 0.09706709571792535
95.3687330783558 286.7035752289831 1685.5379720901897 0.10602430699320209
95.36846944450834 286.7084979278702 1685.6431697455519 0.08559560605337847
95.36852663271316 286.7090968423168 1685.5496141857102 0.10462296537222755
95.36850242147017 286.70884328542957 1685.3986867233682 0.08993331983326862
95.36830590071611 286.70678518413024 1685.8361725319273 0.09767499127756259
95.36849927441983 286.7088103273412 1685.4828202503152 0.08560953891077125
95.3683574741738 286.7073252970604 1685.3513019790203 0.09915025118946832
