x y z curv
0.17468995474909055 0.21904697346622676 945.7740840056332 0.015354899996014826
0.15299808910631163 0.2407533206442906 945.7740840056331 0.015324547383774473
0.10402146365542525 0.16969069296315709 945.7740840056333 0.017632797133924943
0.1084818776825677 0.21021388070489203 945.7740840056332 0.01764513740685136
0.18499033529187886 0.12201590833234138 945.7740840056332 0.024733143540319722
0.1372199440223039 0.24487669892608654 945.7740840056332 0.014322432531281397
0.12605280258196971 0.24747000587729465 945.7740840056332 0.014406094423146037
0.11564481974533948 0.2572717890662965 945.7740840056332 0.011784655760897897
0.20021679978401805 0.1769806068255724 945.7740840056331 0.016061252417254538
0.16135455918109887 0.08019715777973427 945.7740840056332 0.016404715579200434
0.1343882756513863 0.04963431994383686 945.7740840056331 0.014121990748208453
0.18364252500698122 0.19630464452281934 945.7740840056331 0.017793844416763627
0.08651456404623765 0.2660688557988993 945.7740840056332 0.01190620613278427
0.140498513179998 0.17365008421397404 945.7740840056332 0.04855099891421042
0.20044252658650158 0.18951337017324055 945.7740840056331 0.01674546406770723
0.21324274961213738 0.24187452313951432 945.7740840056332 0.00882207409263915
0.11916242590731493 0.15795385709028348 945.7740840056332 0.06002056064243133
0.10857634661410864 0.15515350587522542 945.7740840056331 0.04034301898312889
0.16277602543364206 0.14885983017758714 945.7740840056332 0.08510588152444133
0.13450943370631258 0.2006545649933923 945.7740840056332 0.014660077529970424
0.2194276990474552 0.26690949814356907 945.7740840056332 0.011389829429709866
0.1962843254761248 0.20321019768385473 945.7740840056332 0.015639183829191387
0.09271965178922706 0.2403155295046243 945.7740840056333 0.016483201934558257
0.14365634779280823 0.19022055245674502 945.7740840056332 0.0336640843702922
0.10536195099017659 0.18874124481406998 945.7740840056332 0.013945077774073196
0.16057476830221243 0.1605401923572779 945.7740840056332 0.08115035726322394
0.1596087254081646 0.06567002644978864 945.7740840056332 0.016337228405665063
0.1388601536450445 0.14599651205786088 945.7740840056332 0.1327081241509299
0.18703906409953933 0.18537380184824415 945.7740840056333 0.016574079043425
0.16135067264322858 0.10974297921490997 945.7740840056333 0.03559698704726847
0.10490289769494487 0.2342528139956288 945.7740840056331 0.014166865971357075
0.1553981959657229 0.05248079320518432 945.7740840056332 0.014414225150969247
0.12357202046412208 0.12397263204053947 945.7740840056331 0.03832251960385261
0.16372666376599082 0.22481306350702268 945.7740840056332 0.015053090503127833
0.12736081934950205 0.1668439529444758 945.7740840056333 0.06084169644252699
0.13571242208616463 0.1566381130063602 945.7740840056333 0.07985065318904429
0.16792205404945584 0.264460183216652 945.7740840056332 0.011854817729236918
0.15525386832338375 0.18303908621599613 945.7740840056332 0.04141291807309429
0.155384383997757 0.20035497197547875 945.7740840056331 0.023959128908310385
0.12039854044991112 0.23495102813669233 945.7740840056332 0.01453986050979015
0.15176564465316186 0.2528209065016532 945.7740840056332 0.013557340105505555
0.17126909036412308 0.18506620094403475 945.7740840056332 0.03105405584048214
0.12003301894538673 0.20790285735895075 945.7740840056333 0.016762908825211035
0.10426669829411793 0.267608455597742 945.7740840056332 0.01078532185608261
0.18544798203697044 0.2559998320986666 945.7740840056331 0.012783516453351098
0.11657581389623053 0.18621181686471083 945.7740840056331 0.01673535181128404
0.2038682626051723 0.23557898893260415 945.7740840056332 0.016219287882679102
0.08343045056308628 0.06076367172853002 945.7740840056331 0.013424887568453052
0.08097974920588968 0.07470928780395886 945.7740840056332 0.016010955484072983
0.06689995941505421 0.18876419778949585 945.7740840056333 0.015768252420473212
0.07620537022665023 0.13751177732611036 945.7740840056332 0.01670826454458374
0.08596980616364891 0.02889336899269195 945.7740840056331 0.008531449925978245
0.09220369683722848 0.051559597952450714 945.7740840056333 0.013722707011943745
0.0838550039218489 0.0933369801498176 945.7740840056332 0.015628066903399268
0.07904186727901286 0.10229178025074417 945.7740840056332 0.016139809515714712
0.07836089691761466 0.1235342578487585 945.7740840056332 0.01779288998540356
0.051139930734970154 0.20085436287358446 945.7740839394226 0.013908834105396811
0.04799333951716373 0.15123015148857216 945.7740837123445 0.013889301710210496
0.05414990107167929 0.10659301024654695 945.7740839703961 0.013500842457077373
0.04280100578733296 0.12262153123313282 945.7740834076446 0.012893295671623676
0.25436611708065504 0.22979501118396023 945.7740840056332 0.009664530845671716
0.2575964154814494 0.14143067469541123 945.7740840056332 0.013803293569026898
0.2612631253563651 0.12343379163571465 945.7740840056333 0.013186889038407697
0.2605205332056521 0.15376200431010745 945.7740840056332 0.013450759255721955
0.25720282480583556 0.04793192670593858 945.7740840056332 0.00871467961168015
0.27927233240728044 0.16598533723234382 945.7740833897485 0.008619594622970163
0.27903962966039564 0.18774128540954158 945.7740829713806 0.0096173651857256
0.2648526685329813 0.1931920660043004 945.7740840053307 0.01062876426687646
0.2865668826494129 0.12179997037992119 945.774083426405 0.007942254820422637
0.2731372298877799 0.17476391205036415 945.7740836840621 0.009105015081808084
0.29378164798326883 0.11244331594738567 945.7740830703655 0.008475154258578218
0.28313199133903544 0.14700470717348232 945.774083359455 0.010864854143339377
0.2726136939211271 0.11337101459920813 945.7740840056331 0.012148346249253612
0.27046093690293127 0.14247376192542852 945.7740840056332 0.011944904429536293
0.2443650284598367 0.053785575117211076 945.7740840056331 0.008771746442851622
0.2438183016753828 0.1185405142823156 945.7740840056331 0.015720011323039736
0.24696638007709565 0.134990586797296 945.7740840056331 0.01633781732887017
0.2422558903348722 0.07968183587483 945.7740840056332 0.010086339866063563
0.23801203229928689 0.12894722882856915 945.7740840056331 0.0163840365248317
0.24856602921631865 0.09640854275275504 945.7740840056333 0.012543708904155642
0.24654809923580148 0.06715246438894533 945.7740840056333 0.00893689781162987
0.22958393942481836 0.06066988947853011 945.7740840056332 0.009382622294608912
0.23335012406267144 0.027657542334273047 945.7740840056331 0.007367158751584019
0.23677071040819536 0.1428207332864501 945.7740840056331 0.016656373147762003
0.23500503587424257 0.07162339671274182 945.7740840056333 0.010369530770975102
0.23079255569337787 0.04841421419728348 945.7740840056332 0.007508157143993012
0.2313426530492111 0.17497464621166361 945.7740840056331 0.015193430259135316
0.23339970580381042 0.20538005802008588 945.7740840056332 0.01626665911419451
0.23228828260075268 0.1551363812172191 945.7740840056333 0.01596146682996899
0.23737870957152085 0.1064355294469429 945.7740840056332 0.013292822728519699
0.2154947591526773 0.09487659354503407 945.7740840056331 0.016178126117239365
0.22933300170025628 0.19478311325601785 945.7740840056333 0.016325138922465822
0.20478354343683322 0.02177600360155349 945.7740840056331 0.011304685883587264
0.21610968917398576 0.02553718705880543 945.7740840056331 0.009188335266350208
0.21866559288790569 0.1314502351059965 945.7740840056332 0.015122891489753163
0.22575666998524052 0.1114942694039246 945.7740840056333 0.017365520970116278
0.21592371874676441 0.061730137457316786 945.7740840056331 0.010351138879069093
0.21888890236969522 0.07309119231933156 945.7740840056333 0.012564011930163477
0.22738496364467653 0.21854392816808854 945.7740840056333 0.013887634041772325
0.21432228904178824 0.11039646807475453 945.7740840056331 0.015893051221287553
0.22560031084483412 0.18466043692999806 945.7740840056333 0.015311752163442813
0.18409300618524171 0.006839862273499169 945.7740840056332 0.008507056485504564
0.2155108734928998 0.17073880790207976 945.7740840056332 0.016164723607958804
0.19883951372279285 0.10997404004744085 945.7740840056332 0.016973800716186403
0.2131765228840521 0.15836466777110228 945.7740840056331 0.01566634094391752
0.20430212635680878 0.07539163434374727 945.7740840056331 0.015949286196986
0.21629936384983817 0.19013923044095396 945.7740840056332 0.015820546677587727
0.21080348874838958 0.12316700020303883 945.7740840056333 0.014994735505609962
0.20559815424501457 0.1007200106107001 945.7740840056333 0.017636203977171472
0.19971394259784053 0.05909167392180876 945.7740840056331 0.012891653464899877
0.19992047537827065 0.08981968915321102 945.7740840056332 0.016678742798308742
0.19233897356771038 0.04698068750171983 945.7740840056333 0.01150990311221049
0.17040211864378174 0.04959607584455282 945.7740840056331 0.015509848786111832
0.17942988984542455 0.03296415448416347 945.7740840056332 0.011545246930086288
0.21075668908578757 0.20173127293392454 945.7740840056332 0.015416740123656668
0.20560954461628492 0.14676378353047959 945.7740840056331 0.015677068714767775
0.17707518878345796 0.022643964094435195 945.7740840056332 0.00963666090842004
0.1821427684826315 0.1057055777640133 945.7740840056333 0.016674466159018728
0.1796386001307752 0.09241043261426002 945.7740840056332 0.016616474343527296
0.1827134175278901 0.07029294275865201 945.7740840056332 0.016311433574834455
0.1997038666166494 0.1630481868608584 945.7740840056332 0.016208846746310894
0.17361534330508746 0.06028336158378712 945.7740840056331 0.015747679456688667
0.16556766100409276 0.03919299948048962 945.7740840056332 0.01233494647968899
0.1323688509060225 0.0008334307327013627 945.775996873904 0.00589089838322454
0.09852302923888255 0.00948105927300193 945.7742604963956 0.00983661969684726
0.0038899414738169658 0.11555161964930435 945.7756805634718 0.01130540998717865
0.05183148232981553 0.036819699323449764 945.7750205233186 0.007996160212916775
0.00017989811785012943 0.14540557140652738 945.7753329734078 0.007481130869312146
0.05975578922928406 0.26981791981286246 945.7752890815874 0.009571402568621467
0.13239134339091724 0.2988019161274109 945.7743010952811 0.008338688775979918
0.08627634933159535 0.014292414148714896 945.7747172516556 0.010383969443909475
0.01631597291082494 0.08223281086347733 945.7746860302173 0.004824104912978845
0.04036984814280463 0.04746883560473322 945.7750406705761 0.007497222442026682
0.07107682150278556 0.27537646173472313 945.7760848720446 0.00617715297644623
0.041491397200724145 0.24597802340303054 945.7760843946963 0.007846198226430097
0.030730946736940587 0.238079919859947 945.7760828824325 0.007670818241300302
0.021471046920403584 0.2191395130657598 945.7760825170161 0.009235024878826317
0.1710847015269114 0.29605084715143953 945.7760841552097 0.009147521874637504
0.2071908610510766 0.2747852093396656 945.7760841140017 0.010989953815334198
0.25323079159503514 0.2529250850507785 945.7760833552338 0.005685967013134902
0.2703020185498053 0.2364280535017834 945.7760840056333 0.0077037973943683705
0.27714216590830953 0.2281773882651308 945.7760843835717 0.009796056491700261
0.28512175187791433 0.177617139558708 945.7760841716447 0.008446645217813246
0.010107585482861186 0.15073856374269315 945.7760845411233 0.011926079742451605
0.014060819197053164 0.13987301489674445 945.7760840408225 0.01156159584150109
0.0119530624535606 0.10884707884130154 945.776082984286 0.007678287634051684
0.07412688589803945 0.021736533330000918 945.7760768261912 0.00849028125343751
0.051827538494072414 0.0472035498774995 945.7760840056333 0.007461460916124358
0.28921019836519607 0.10191490485294455 945.7760840056333 0.008061865104065145
0.2726886939942972 0.08849767053255662 945.7760841163098 0.010439644150242964
0.2690797756283829 0.059574216138531796 945.7760839020268 0.002963744176651303
0.16947797035841128 0.0026303066380394813 945.7760840056334 0.008921024082874337
0.22493767698493988 0.03572992511339512 945.7760843174163 0.008684464046787478
0.04635467901977816 0.25591047971631037 945.7760848442344 0.011298708909559096
0.12034777409988202 0.2953966720847244 945.776084194005 0.010112652902141857
0.11884602466610122 0.28433550415217745 945.7760840988767 0.011002623772612933
0.006833659721887338 0.1917221678697273 945.7760839501219 0.007073877134912641
0.22529556195674205 0.27823387595919885 945.7760872027 0.008893448411692815
0.24114650681859004 0.25335489394264576 945.7760850802844 0.011472890857554313
0.13941024117372872 0.01269497864152 945.7760842772592 0.010682368509237813
0.2776501501484674 0.07647707414106727 945.7760846563785 0.007237050148015194
0.16031987009040574 0.010424240041259115 945.7760840056333 0.00685147671584611
0.08502704211917403 0.280952820135131 945.7760846998153 0.008989094770523901
0.1055813022028783 0.2906458609677305 945.7760848042266 0.009179377681454439
0.09407636054729605 0.28855656622405745 945.7760849618214 0.00711783870748583
0.291973689358704 0.1970762391733356 945.7760849780072 0.006770553724286745
0.29922461503357634 0.15915611874593089 945.7760991037899 0.008039594514523922
0.2949374983217644 0.1862185218104363 945.7760868536172 0.009371627147921882
0.021647456907860015 0.07296885791692566 945.7760840056333 0.002231078500967792
0.029628311689432127 0.06322662907806231 945.7760840056333 0.0010859489480285688
0.04203186407324414 0.057784775374284336 945.7760840056333 0.01026502348126044
0.2555810375807519 0.05779207165802788 945.7760836807374 0.0072190361559013195
0.29520792046694677 0.13193447464276511 945.7760866593268 0.009161901455772788
0.2891286450739427 0.16104628058557885 945.7761036678311 0.009736073301573651
0.11639001605583588 0.005272454962382382 945.7760836428063 0.0070493437460787045
0.10981481457646737 0.01532153394172454 945.7760833088691 0.008629253948524786
0.1046285759593405 0.2591774415616749 945.7814636652522 0.011086992101283262
0.1347631341401574 0.25994381543815637 945.7814632564637 0.011449853956895491
0.12358460530108506 0.2564956749687347 945.7814629179268 0.010875769199179382
0.08287378167786535 0.2478883294579921 945.7814618145306 0.011939657867557105
0.09596219576594771 0.24870202755860127 945.7814621052221 0.013662685379806524
0.14659083147226584 0.2686510032042304 945.7814639891304 0.009936240104697255
0.09216361563976878 0.22554360165320184 945.781462764812 0.01527541860057604
0.050379757596183294 0.18972344046138406 945.7814628434371 0.01470328134738536
0.08146720117364437 0.21104735324869486 945.7814633965618 0.015816918188437036
0.06599688797274338 0.21928381675392516 945.7814609570532 0.014183189634181637
0.05152797977195741 0.21456997932467742 945.7814601012701 0.012059258111063802
0.1047116417507372 0.22587305296317461 945.7814639385653 0.015669683829354294
0.06056675701225095 0.19849912282523086 945.7814628193712 0.014724095576970029
0.0461046477445884 0.17878566937450233 945.781463686594 0.013698122979231113
0.04096990878501571 0.19513633640668418 945.781454413135 0.013783560826327559
0.07427118501206947 0.23939836147492044 945.7814610374123 0.012860881041876231
0.1736960156823005 0.07346667645275715 945.7814640105161 0.016144848714942324
0.17513655316679505 0.12151259476752954 945.781464010516 0.04743331600274275
0.20923607266529742 0.0904950727684873 945.781464010516 0.015596478846907288
0.186304269380609 0.11521220664442001 945.781464010516 0.023330376673117662
0.22224234197277593 0.1527006682521143 945.781464010516 0.016103075750769514
0.20886805625520796 0.13424904292771025 945.781464010516 0.015538852819487192
0.14884653374447582 0.15500531625814978 945.781464010516 0.14799138194028905
0.22732960853373188 0.1233915804993032 945.781464010516 0.017302282209003508
0.192750420778606 0.17784459991107515 945.781464010516 0.024685221288853178
0.17670178334849185 0.19173033935629397 945.781464010516 0.030450103365535403
0.22243469539103244 0.09987025405073696 945.781464010516 0.016214548602675884
0.1607743153790807 0.24459651022462436 945.781464010516 0.01428197925089749
0.17495846373135565 0.10941756952598046 945.7814640105161 0.029955118426612214
0.2563766969094281 0.1304933205947958 945.7814640105161 0.015382959760303593
0.1399143577615794 0.06736179872782708 945.781464010516 0.014802133700249543
0.14149260923549645 0.04492429446878356 945.781464010516 0.01365034203487756
0.16576325792990293 0.21575532989341356 945.781464010516 0.01653990540890731
0.212097878995263 0.18436678129402145 945.781464010516 0.017227920475040986
0.16521019424297406 0.05752743964633 945.781464010516 0.015264780734407044
0.2002736208536263 0.12310894134901598 945.781464010516 0.015698189235333282
0.16929638064121214 0.14202012903722824 945.781464010516 0.08769227871163626
0.18133440888194607 0.13334431579139985 945.781464010516 0.05076075845602348
0.18246147069657281 0.07997182101436705 945.7814640105161 0.015709520742438598
0.14623660355293505 0.05786515308670934 945.7814640105158 0.0150480010462605
0.23609318046636965 0.11351733593986554 945.781464010516 0.015640604437225234
0.23623640496952505 0.16331247298343524 945.781464010516 0.015272530452221813
0.16494663614287808 0.11863856352146425 945.781464010516 0.04953922593050941
0.17650979516911489 0.1661495607913791 945.781464010516 0.051353042671399264
0.1876710998270285 0.09877605142760179 945.781464010516 0.018090652977033918
0.1801493324719431 0.1783336609513633 945.781464010516 0.03739944675614758
0.15488036387025517 0.23219593695676094 945.7814640105158 0.015212481853960475
0.18809745894517266 0.22283625838407087 945.781464010516 0.013505861222566869
0.16527966781458875 0.09694678135779303 945.781464010516 0.016002121840362222
0.24845820083553774 0.14328195959965578 945.781464010516 0.01620897426730643
0.18293622567193618 0.23768808911267628 945.781464010516 0.014275322433532417
0.15809263795659956 0.12790617775547336 945.781464010516 0.09460688494193575
0.21965626611115774 0.1653198141882834 945.781464010516 0.01747071415250824
0.19059443636626275 0.08815087323906176 945.781464010516 0.015827705801093522
0.1736007464190475 0.08697297098469219 945.781464010516 0.015504680603957875
0.2283351078032316 0.14143820379370153 945.781464010516 0.016741856869618613
0.16700620139167904 0.17039844640899054 945.781464010516 0.08145826190276563
0.14907728237687293 0.10052302765335613 945.781464010516 0.023920479311337332
0.2057949836242694 0.17026582536111878 945.781464010516 0.01628584605866732
0.1832417358697056 0.14824545090518643 945.781464010516 0.04965850079832034
0.16356426995692316 0.20471675581949703 945.781464010516 0.016075085889044185
0.1993358479779185 0.142429439122448 945.781464010516 0.022034543981185345
0.24372827111668732 0.15549147933325197 945.781464010516 0.015349153082632227
0.19172548583666732 0.19073322044380728 945.781464010516 0.01621068699149485
0.21711550544894553 0.11664582981139966 945.7814640105158 0.017005259433675767
0.15317297859985538 0.19220341979797154 945.781464010516 0.03471722307258043
0.20595999378577293 0.15771273192418656 945.781464010516 0.01610194934899326
0.16650109216466522 0.1937429637868815 945.7814640105158 0.03399013452440005
0.19305512058511037 0.15717394576781682 945.781464010516 0.02983388746956532
0.08209540183429614 0.18934799550380213 945.781464010516 0.01576030328014939
0.1324290248615957 0.22354463472315492 945.781464010516 0.015456377404326037
0.12827171904013465 0.20991649950286478 945.7814640105158 0.014732830259353584
0.0408501657292594 0.1523154078637496 945.781464010516 0.013113087143241367
0.0888884432065184 0.20061831556863455 945.781464010516 0.016119728924271895
0.12592075475413395 0.19807089449977713 945.781464010516 0.01706239182057197
0.09630817007928842 0.09328634104139674 945.781464010516 0.016480781235957673
0.10102440098108173 0.13914038105234663 945.781464010516 0.020638399272493668
0.09141719852933902 0.11509110200808115 945.781464010516 0.0160287144968504
0.05622455421452144 0.14402972675818154 945.7814640105158 0.016505169191938833
0.13952735342684958 0.1187156942122228 945.781464010516 0.08084395786163906
0.07783870954810498 0.17813199476945338 945.781464010516 0.016577810024194024
0.1330731321689332 0.03580867044863375 945.7814640105158 0.009419623294039453
0.11401777283267137 0.1695324234585096 945.781464010516 0.04026409043297662
0.1429713259478731 0.22743589057322708 945.781464010516 0.015122016166254346
0.0802053011376753 0.11432325186005415 945.781464010516 0.015862591018776188
0.124050166975963 0.11696264942375331 945.781464010516 0.04176936843332437
0.12495321487785144 0.14462654714335021 945.781464010516 0.10377193094269813
0.08239156631382541 0.1525601458570785 945.781464010516 0.014983669672771614
0.04850114600010909 0.16017077648371741 945.7814640105158 0.014394120223375067
0.08802873809262007 0.1405616237593231 945.781464010516 0.01568424348628579
0.12305430415367581 0.0963999546308282 945.781464010516 0.0167653183611021
0.11395819848943628 0.15022830618176491 945.781464010516 0.06743297508579432
0.09884591176898289 0.1958480911532385 945.781464010516 0.016164901605937077
0.060064192536189484 0.1796166552903456 945.7814640105161 0.014819444450224777
0.07129099503229858 0.16314873324616247 945.7814640105161 0.015549234612789595
0.10436289606319954 0.18055151880246845 945.781464010516 0.017122000570008275
0.06819510607105372 0.1375363118587363 945.781464010516 0.01555488948383547
0.11461333956983275 0.19998510614036752 945.781464010516 0.01584226250842665
0.14572990357918703 0.18226609827075504 945.781464010516 0.08291912135472396
0.14660894782637574 0.2065151273602118 945.7814640105161 0.01594888870639802
0.1210862734335276 0.13382050747349947 945.781464010516 0.09857079675799478
0.11694813104969223 0.08106924909396014 945.781464010516 0.015449966731924277
0.11827636225926023 0.0578758553848026 945.781464010516 0.014525024742100524
0.10946279183727725 0.09678763987490617 945.781464010516 0.013948246063771139
0.07182379266106317 0.14971320982363984 945.781464010516 0.015438522197774073
0.13620465015455677 0.08616969582091599 945.781464010516 0.01684842210004777
0.06138154180226085 0.15753184997031983 945.781464010516 0.014707787252168432
0.1388154310969914 0.10778726292866253 945.781464010516 0.03794370131357364
0.0970473972894621 0.1711357903675123 945.781464010516 0.01673182328592879
0.11234786200361921 0.12569831101450732 945.781464010516 0.03580198451527218
0.11740588766213951 0.2246546143159314 945.781464010516 0.015547147743383383
0.13087604376524378 0.12705119239580387 945.781464010516 0.10454823902964976
0.13815117378770475 0.09754127892077993 945.781464010516 0.016298483689361595
0.12917997300198014 0.07289176041138815 945.781464010516 0.015000135254389087
0.2538019707118039 0.18769971218692189 945.7814632177083 0.01294227987047329
0.2656614008478809 0.16327614333602747 945.7814636895232 0.012396904763533792
0.2218420345882469 0.2375844860051471 945.781462876035 0.009743078421216704
0.24854287538735104 0.19856321765642893 945.781463006566 0.014429713284119253
0.23972676780537663 0.21524674707971003 945.7814627417554 0.012188687000961838
0.22659905592083424 0.22738313244516725 945.7814630889003 0.01397463326158977
0.19368635385457825 0.2606182481182089 945.7814637528074 0.010704051030243902
0.20412485024443613 0.2442103788950476 945.7814631792495 0.014115505588582766
0.20384084202129255 0.2557786854881132 945.7814630355073 0.008818500938513123
0.21507153745078528 0.22032988975307122 945.781463426388 0.014003724813657496
0.25462612076954516 0.1742510147941739 945.7814638150321 0.013547840720091964
0.19226310861473886 0.24811790732077973 945.7814631870126 0.015833391803648372
0.03646881192999933 0.1342908520844984 945.781464010516 0.01089297169438893
0.04994072354703515 0.0958361408940242 945.7814640105158 0.011072067928279349
0.09579063819716674 0.06081172187038686 945.781464010516 0.014976901591359327
0.09494851025892267 0.04486247809824566 945.781464010516 0.012476697511663382
0.08218810602922261 0.08397823165009907 945.781464010516 0.014342904362607952
0.08903153303071182 0.06940947728521912 945.781464010516 0.015567692539502949
0.06800414227364027 0.09757471347528748 945.781464010516 0.013555128757627748
0.10644456062959388 0.05458111227797432 945.781464010516 0.013909610515566842
0.12049430355165663 0.04487641222554896 945.781464010516 0.01400906675180893
0.25240310502305796 0.11957393941480379 945.7814639270757 0.016333713926761004
0.1807405159523735 0.05667236744243652 945.781463721977 0.014814660142259092
0.23642374481301767 0.0964439662250387 945.7814636067715 0.012727861971805693
0.19311848412863294 0.06484282099717069 945.7814636761469 0.015191147515871849
0.26669540283815985 0.13238785854149612 945.7814639760903 0.012225367649586889
0.19930546206969327 0.07974486395640022 945.7814639795027 0.016572839259973517
0.25209775369345383 0.10785151775733595 945.7814635807495 0.014239522417123047
0.22423314934711064 0.08798995868510003 945.781463639626 0.014532753058529213
0.23455772399966604 0.18382358688666348 945.7814636527528 0.014479179757728253
0.2516147715637547 0.16237883869876066 945.7814638328066 0.014457751367541514
0.2059627982969726 0.2269747350136896 945.7814633476303 0.01456780411269913
0.17103377394210328 0.03363785710797977 945.781464010516 0.010871165545518655
0.18481951907676464 0.03875588039702203 945.781464010516 0.010753919874800951
0.14994226756542944 0.0360349836629369 945.7814640745063 0.011890955639450336
0.22790173373720263 0.07396691035761196 945.7814635385959 0.010858746016526057
0.20155751787457113 0.047035221563950916 945.7814647833029 0.010695242961503298
0.056723939662775946 0.12366626429847055 945.781464010516 0.014519154168016827
0.10520649876725847 0.06803135716362005 945.781464010516 0.0169152138673547
0.06926860860668102 0.11554923198347579 945.7814640105161 0.01540857072776345
0.0935198740529367 0.08093550899775935 945.781464010516 0.014931553608951813
0.048636598046137916 0.13267774249584985 945.781464010516 0.014537683015333223
0.19870626993258667 0.21905339697187226 945.7814639971457 0.015198222937032347
0.1955405134125498 0.23516281945773648 945.7814634134756 0.014264747225321207
0.21469021395035653 0.20930281191498176 945.7814635403544 0.01531879942132962
0.16884358241141606 0.25682368838932124 945.7814639208508 0.012460496643156497
0.17621086851754408 0.24847881831435578 945.7814638933968 0.014506548330738356
0.18016404247682652 0.260517523319279 945.7814630933482 0.01229326982235248
0.2228534129060077 0.19838161811871086 945.781463589567 0.015008460740472495
0.2365167620566579 0.272529582098784 945.774684586214 0.008555612998161833
0.2998611272447247 0.1424790047795514 945.7742516324885 0.007992955618952162
0.1985275451911937 0.008246349819785868 945.7749753350848 0.007849114556515272
0.18369133595777526 0.2960537178910709 945.7747284777085 0.006835979853838067
0.2852913817646244 0.08531364639672355 945.7746267511637 0.009150754278079248
0.24602261178315893 0.035472913125396875 945.7756740177875 0.006627963891743082
0.2135254741748226 0.28598882933117015 945.7754689072523 0.004982554544301798
0.28684537249369296 0.2106898533315132 945.7757164535977 0.008554065803931544
0.21450845729420337 0.015026908998925096 945.7740888869969 0.00910781449190776
0.05424679565429713 0.47440117811287774 944.558543402667 0.24921277167635272
0.05424679565429713 0.4704605111084178 944.5361276957665 0.25943867107812724
0.018246795654296655 0.4404633641670094 944.5359436917789 0.13001290470033963
0.01712089031211584 0.44022918039713493 944.5519056931307 0.11815344166703647
0.013246795654296761 0.4627935362427963 944.5397671620503 0.23541769251263803
0.013246795654296761 0.46293962360325347 944.5513555733822 0.18943431916738543
0.013246795654296761 0.47379804719764756 944.5438802928727 0.1885016142592672
0.013246795654296761 0.47315811447140294 944.5330437790012 0.20490046669465958
0.014904999965200767 0.4857510993069063 944.5395972196784 0.14397596124938494
0.04813604287289038 0.46334301215309764 944.5608232427514 0.1826751482062898
0.05114353713249971 0.45414617974467847 944.5569057594009 0.18395515512881155
0.027253963059246447 0.455052924458697 944.5578337174802 0.18773934034034856
0.027791393285645814 0.44750547568300325 944.5347832508353 0.2330811273096207
0.04746861197053228 0.44661269678580395 944.5451366071832 0.20146817904707223
0.025125009359137467 0.4466573584591525 944.5453009369048 0.25299217423258497
0.036944907498616696 0.4705549614777589 944.5607012271207 0.15796300594718732
0.04319937055474468 0.47907112897275733 944.556499277375 0.20152603171926387
0.020615704366264042 0.4771186973415871 944.5580335698903 0.17463369836719134
0.0378667856994704 0.48531350351685265 944.5357786012365 0.1986285671337804
0.023953939913809813 0.4846262441533792 944.5336561140914 0.19255632804415937
0.05088752157341622 0.4842921449035575 944.5331414983713 0.2280020479807222
0.038489774873774266 0.47863031321401533 944.5258895097122 0.19506987794363256
0.028939867692557103 0.4620417931922607 944.5220038441427 0.18212293439586624
0.04545541849678729 0.4715957337582446 944.522318963053 0.2095213248953641
0.023325600755123677 0.4663992320378983 944.5613596728465 0.16759908843664453
0.031036782165933096 0.4800370433864145 944.5557827573615 0.18046976308095858
0.01927548910367368 0.47637574785053 944.5241738352365 0.15813511914403172
0.017287800809103797 0.4638961074820251 944.5215516661531 0.13034976564721737
0.017185582864663443 0.45323339703504434 944.5246192541249 0.16448500713174183
0.041548952480233235 0.44904763458033625 944.5309042595155 0.19327341646740764
0.04750096724980998 0.4569811009917156 944.5235258918309 0.18091692992452085
0.15253807945622508 0.46404177061508517 944.511260148683 0.1459307026066033
0.14221446641644625 0.46685701504694876 944.5118884130104 0.16101889594420624
0.16069689559604056 0.47142526903345894 944.511421616013 0.1786337027311339
0.13823564792542078 0.47693129961636505 944.5189866146068 0.20939729302042914
0.1468796219853829 0.48404708939870433 944.5092974551114 0.1785974299891677
0.1520292911213947 0.4858670321467172 944.5213726065549 0.172841594924669
0.15372558647213014 0.32437100260197377 945.3097346682603 0.14095603025416925
0.1492185056090433 0.31588486970257246 945.3246230142865 0.16701674267859928
0.1431233883940714 0.30860769545802175 945.3318075669782 0.1660848774521176
0.1311233261818371 0.295712731982376 945.331706861559 0.13554363926671323
0.12563613974563714 0.3003052400196651 945.3442428909865 0.1583778330829327
0.10305666026412252 0.2945681925880904 945.3435456824153 0.20527116364697634
0.08690968568720274 0.29720114458332025 945.3416851093401 0.15667676048022258
0.08401539682638129 0.2912206737947677 945.3321226754847 0.14454354417791523
0.07115006142154816 0.29892278931894334 945.3283509863446 0.13799212579354375
0.05577166777685162 0.3241441271475062 945.3186446776317 0.17610965207216317
0.05447278340768323 0.3364622637589895 945.3118953016938 0.1587713517058795
0.06279097598672378 0.3058849984442155 945.3215663458573 0.108728159806554
0.06001710870588126 0.3543588403012868 945.3035363113563 0.21007117092603894
0.07700980291898138 0.3639310841043938 945.2851947826391 0.16536850875122316
0.12188583480881844 0.3721107047635327 945.2873977385817 0.13109978838387104
0.13071543711844147 0.36720083632324596 945.2878034654163 0.14922041550037474
0.14753228163393667 0.35050485146780774 945.2935041223171 0.13668259992938425
0.12505443016922002 0.3644475453489724 945.2779236664527 0.13848037505469313
0.15198703438571862 0.34284695448068403 945.3013358420195 0.14287233929028972
0.06615629408353955 0.35870110394730853 945.2930245032485 0.21119706514282005
0.09871758386010401 0.4280566154945288 945.2138535673987 0.14780447345823552
0.09611502228557693 0.4377439029734095 945.203594446264 0.12407262122173829
0.09262095186030818 0.42254714780586256 945.2294892685379 0.15784071501714086
0.09092244442750319 0.44561915701510224 945.2152696333028 0.15461844352711177
0.09165032359193717 0.43939688174023606 945.2279292233707 0.14304782325193527
0.0951890429882626 0.4372310555431756 945.2391970633064 0.15114955736958702
0.10562831275093798 0.4519651343887483 945.177109916048 0.1627390613059039
0.1029317261080028 0.4405102836203603 945.1951281134932 0.13480343671694672
0.09870513096488708 0.4469525985202254 945.1869189557061 0.14373343952585477
0.09049525372791375 0.4541567418425535 945.1982150519364 0.14040068258640565
0.09097981121512186 0.4626939154962055 945.1900191469988 0.14354269982033427
0.10582336384164584 0.40234194238135 945.2410692206425 0.15105397153265968
0.10273904699971548 0.3832222561254005 945.2601421458237 0.1266811316142735
0.09707508447535235 0.4122971437916483 945.2335855362209 0.13168308054609418
0.0947294449452589 0.40112392502008554 945.2476194051925 0.15409420086976444
0.09133837260052735 0.3980266132706664 945.2591228840777 0.12902594610735188
0.10662538765142994 0.413656120847133 945.2297856036437 0.1325813056805578
0.09561445625503812 0.47231999475810815 945.1906063809894 0.17274389908105367
0.09577725266648447 0.46124658952135655 945.2082112080643 0.12420541076780339
0.0907925713942932 0.4106522128693417 945.254092341027 0.14263867895669022
0.09053416693003333 0.42316202256997765 945.2401262376618 0.1441021060346004
0.09411530777631742 0.42137678462145634 945.2538439353735 0.15188652210862738
0.09495928570009625 0.39900168003041847 945.2776050530958 0.13674970913906542
0.09202130083047232 0.3884522912181606 945.264843598084 0.13634782977502824
0.0917013520921943 0.41143236433787156 945.2436709890537 0.149570118063601
0.10140255692132795 0.4444702203765409 945.2355843617546 0.1349352360319316
0.09201299592681307 0.4057730135926638 945.2658555304408 0.14261230303383232
0.1030230349460147 0.4262271614656187 945.2567534408915 0.14140532639525963
0.10367689531801526 0.41819254088157254 945.265113410615 0.12942571730704192
0.0974865051807302 0.4500885202719238 945.2255349622409 0.1403409070089166
0.11343540075645918 0.4498459349752594 945.2236014485758 0.12985361772928564
0.11410750521880088 0.4407200725318051 945.2339814447546 0.13437219654843988
0.11832732152342958 0.4313580308270467 945.2311678691736 0.14607688591554954
0.11722289001060165 0.442260637182197 945.2078402503568 0.12377691584984186
0.11750402784713022 0.4360898904197719 945.2175395981318 0.142197563564515
0.1116062321523055 0.4237131860638568 945.2204897907069 0.1341022030245135
0.11170996479749193 0.43351196972510175 945.2080802464241 0.13734920858990285
0.10568575160932328 0.46848604696326157 945.2023717050275 0.13173727428678222
0.10955241867478044 0.457286413323394 945.217885925283 0.1270522681536646
0.11827549536765425 0.4524841059214281 945.2032514624251 0.11764199356288792
0.1174009364160486 0.467491915105734 945.186337160542 0.17358678851285186
0.1154915956652916 0.4651258404196462 945.1970420683585 0.15236216239129227
0.11391841337333622 0.4604868029517545 945.2076644947173 0.11661974256952175
0.1054715814431608 0.40127045164892833 945.280498199475 0.13415789518015983
0.11451460046392414 0.42068053097768304 945.2549739708342 0.15492893164331475
0.1108690869662815 0.40911021338486586 945.2706508913848 0.14762206970967287
0.1101215215287314 0.4310114085783294 945.2492794036799 0.15318303675439013
0.11742192874023434 0.3962475843109179 945.2723262109062 0.12962937604343386
0.11770434984868028 0.40964336495034637 945.2573388018022 0.14070979153214744
0.11486695300369668 0.44769140845922073 945.1925443079153 0.14043363376514492
0.11570381989362337 0.4543326360873026 945.1840022306121 0.16469162676485818
0.11717537806959306 0.4205404029157116 945.2344688094475 0.1496321940816724
0.11625538088095613 0.4108043990428438 945.241380786577 0.1575896465523231
0.10878641239877247 0.3909668738935621 945.2527980952344 0.13552135277103555
0.11762448344446898 0.3980280315707493 945.2595121467843 0.1324131629859304
0.09794059628654014 0.37586794852210875 945.2732646998656 0.13359114132324892
0.09860076413795964 0.3880250420145528 945.2854549466254 0.13016276864973655
0.09484309838237337 0.3715877594573264 945.2931889566352 0.12772748809600418
0.09381270768053238 0.3856047868291818 945.2763097077147 0.13173094328751214
0.10616853923969752 0.3756487596900446 945.29688110166 0.12801866144518778
0.1095123698312725 0.35151363897024174 945.3118252999677 0.14707617011305107
0.11316680579122536 0.37521207832960246 945.2765011568413 0.12230325268683412
0.1111442522669595 0.3911561836763038 945.2824985684256 0.12833599550054584
0.11267433378603428 0.3819595996254113 945.2871607274382 0.1454283380366282
0.10340329415281285 0.3664778791226095 945.3038605548138 0.14507951007891673
0.09115082066366591 0.33606113161565476 945.3224783639653 0.1606194334932015
0.08040303604540756 0.3525646950921447 945.3089727751682 0.15449471009453633
0.09066043109650528 0.35623485653547426 945.3066786746936 0.15439826394459324
0.07369229661603308 0.3669666702013097 945.2955303871744 0.18116868392223964
0.07188331874007578 0.3572245761557432 945.3039934706218 0.17014615812201112
0.0644875634962636 0.32554216148908555 945.327013529839 0.1503765898088075
0.07459025210240379 0.31945315916123296 945.3324269388141 0.1634900722221957
0.09235349287364181 0.34542760932774613 945.3156252127471 0.14697160927873595
0.1078979439250135 0.3412911122406419 945.3191082082225 0.16657586087263998
0.07110655598126818 0.3468631818908112 945.3125120246024 0.15420324137015642
0.09484527752613531 0.3069839844183243 945.3413635982959 0.16249591228867705
0.06649968970553809 0.31135079029661555 945.3362668837694 0.20660807066746495
0.08468861827384548 0.3152587398825716 945.3359301505942 0.18967378031466198
0.10118756657263053 0.3176880639287252 945.3349851122487 0.15766523070240132
0.08728341415736582 0.32651985361769315 945.3288748862994 0.14682072605804242
0.0818346906060936 0.3433232376547681 945.316425590728 0.14870738595945707
0.06889705303062647 0.33658334363386766 945.3198505828418 0.15904219987270163
0.07609304597474204 0.32862803884557545 945.326268236642 0.15667514782437514
0.08388653631054957 0.3717187357753864 945.2920795304718 0.13963753077149985
0.14675493946817603 0.32856473183359886 945.32456784877 0.16394865556012198
0.1457404341532623 0.33929797544280116 945.3170879307094 0.16599225548263072
0.14202946158835872 0.35829405677101434 945.3023312365326 0.16278776980404114
0.13288084705832393 0.3351606603376418 945.321843316661 0.15366096436727908
0.12865685646300784 0.3460743092706038 945.3140876367692 0.14540097219003645
0.11644773233094348 0.3586704498909286 945.3048131152705 0.13699556210484337
0.12229419824959166 0.32798092837391407 945.327778493075 0.1561440986477816
0.11129973587487337 0.30336234180752725 945.3433623832277 0.17379152971062786
0.11273219501744242 0.3143453521241895 945.336791737373 0.15155704061023378
0.14288343390782748 0.3485077943912216 945.3103701887621 0.16029481264666093
0.13021292266691542 0.3634784331641483 945.2992101720179 0.1477873826594072
0.1150660875039273 0.3688005038346093 945.2956097150816 0.13892136635371938
0.13775701286633607 0.3238859286820187 945.3291698426597 0.16272303850464942
0.1089226157265274 0.32976151105665663 945.3273114321464 0.1537244436939605
0.13190491042722086 0.3132511127564922 945.3362219526199 0.16165345176023072
0.11327871764020864 0.3855149505036064 945.2632728562767 0.12459675113205525
0.14258796341650393 0.3074995566298213 945.3196885673931 0.12711478416941535
0.1188310536458937 0.28988560502949845 945.3326715992328 0.1334333514815494
0.11011487032576087 0.3655089590158389 945.2770585942733 0.13532838869644034
0.05966349807858812 0.3270933245772308 945.305226551423 0.15523382785394893
0.11871129077442645 0.335905971847963 945.2987262366331 0.1269443189548306
0.09422512991462893 0.34103389295468767 945.2949438071344 0.1410912975424796
0.11693572259930549 0.32746451731747905 945.3049527910572 0.1271543673904453
0.12876099452004117 0.32765625417299377 945.3048113588293 0.126147685984109
0.0971486750301987 0.31695031561605225 945.3127082435356 0.12138877635945783
0.124285263466895 0.35466349829388616 945.2848815875914 0.11135718451269247
0.10266665240235742 0.288811108505826 945.333464169284 0.12645363502638896
0.18979711609114247 0.4819812630665633 945.3890397345232 0.1420900593123334
0.16876624851479716 0.47552738395505484 945.3923678073078 0.16750628726814557
0.15031512403126646 0.4619917487372051 945.4015162108999 0.17465195725854654
0.15146957849712084 0.46225524557514264 945.3428512229369 0.11238315522622988
0.15784906610852867 0.464808733786641 945.3736381111108 0.10068793246776589
0.159301578644595 0.4659670717357579 945.3846866851007 0.13142468250470432
0.16156038000099351 0.4684462660613071 945.3590352893789 0.10604801902276928
0.161857479538354 0.4689412756797527 945.3996430705206 0.15870936252433188
0.16274968317941324 0.4811697844248677 945.3987284300786 0.24337351961625356
0.16195009414469208 0.4823922073730402 945.4112020690773 0.19177674434079398
0.15863446261258743 0.48670129234649223 945.3853991515724 0.20798272554205358
0.15863190900271468 0.4864612203339225 945.3569874976099 0.13502730539530278
0.15523979389956924 0.4886692046137217 945.3445540505159 0.11076852288896871
0.15828254274003473 0.49621567031189245 945.4044598040324 0.1838861529090433
0.15681313299291716 0.5142678223526013 945.406772570178 0.09441990324829518
0.149002660285143 0.5025585238779591 945.4102393082558 0.1020282202490342
0.14123895852981258 0.507086916282843 945.4035090235684 0.10125962006229305
0.1431104784968425 0.5000870365978204 945.3956249779034 0.12952082621801952
0.15097601208265288 0.5122709588766184 945.3924989681057 0.11167032258123394
0.15488089608064864 0.500218615375909 945.3939753115159 0.187978517692959
0.14844140389947746 0.4805409386012317 945.3423727019222 0.10472714742335565
0.15101755380158302 0.4780234850774254 945.4163727019222 0.19069455108905767
0.15306850920050813 0.48846674259398026 945.4163727019222 0.15566069908611876
0.14287935873613852 0.48793225068978024 945.359329239503 0.13944614054406482
0.1418262365385643 0.48698787317604036 945.3471901642887 0.12348852320269393
0.1361978082656865 0.4767194260779918 945.3581183215434 0.13942747423907137
0.1361978082656865 0.47764300674003 945.4119343102584 0.1272549418140735
0.1361978082656865 0.474377637445995 945.377549702891 0.15416334203642948
0.1375369633755933 0.481780936470646 945.3675324955454 0.14643676089483418
0.13781762957243088 0.4823637457590007 945.3874355522552 0.1485310220392496
0.14582701804954612 0.4628023470637814 945.4127426182131 0.13688976134179784
0.14804928501785156 0.4622951288611403 945.3730591446026 0.11301773941894867
0.13797156111949055 0.4690863214804549 945.4039628233304 0.14398833319964552
0.13901133139411168 0.4670681307991754 945.3678331470185 0.12427194767219038
0.14012060567453027 0.46618351693030863 945.3529703626125 0.12602034871265286
0.13983846597731295 0.4664085151057123 945.3430555594273 0.11030056630058968
0.13937373664218927 0.4850996587329459 945.4026428496211 0.13674085985559054
0.1710525148887194 0.4814838083909804 945.3795225383465 0.16383617090132302
0.16569753528880418 0.47323537230354046 945.3777923774618 0.1384912324769173
0.1795476627437425 0.47330065884911254 945.3893116697561 0.16890439400133897
0.18042955728537832 0.47548796026625795 945.3773536658002 0.1304314731327403
0.19124795258652064 0.469857647417203 945.3804455976333 0.11011701298747881
0.1895631019549288 0.4767795772838356 945.4128746589935 0.06480430973330517
0.18987531389924467 0.47351839358524633 945.3968254615904 0.1363714266110511
0.14401468228370476 0.519062793742131 945.4081930401061 0.11615386956289828
0.1623350176907227 0.47032934752564487 945.3459334259514 0.11416526329079209
0.1628360107509474 0.47138315062728414 945.4152374452575 0.14680917133736907
0.09303341091491672 0.4934597715691934 945.1720242966035 0.12088850873170512
0.10490093538977527 0.4912210394526022 945.175760146989 0.174558158176644
0.11542059776168351 0.49168523811329107 945.1749855224896 0.17764357934310795
0.11912982155818808 0.49213742251136966 945.1516853884369 0.19117036919227157
0.12981538079577937 0.49010297449221896 945.149387315075 0.1472580493603052
0.10678309295944836 0.4953438151092822 945.1654225577402 0.17173019797317166
0.12809501806278278 0.4952722114548236 945.1659055895807 0.1507239347142206
0.11822945698385712 0.4785468742312478 945.1434756311132 0.20301290708468256
0.114661481522142 0.46685025225724597 945.1454176053373 0.18065667298058335
0.10258998895340486 0.4699807470363908 945.1443335446993 0.16456712494594206
0.12034025742770632 0.45648973302418805 945.1597661866322 0.16814801085450484
0.10979936799873631 0.4560026638483514 945.1623356274768 0.17285831138819524
0.09272515940134816 0.4567000940136315 945.1585593681791 0.12452641491493296
0.1222531836275125 0.45834809733799164 945.1727037991193 0.17753716165809477
0.12151809698275345 0.47643399553453425 945.1831119034505 0.16128913642905043
0.10298871083603217 0.4602240245630904 945.1509597840235 0.15399830193697403
0.1298467979431157 0.47738660514353237 945.1646431955949 0.18181565631265637
0.09244680023193386 0.4661921405498993 945.1464153254846 0.1395756599026755
0.11383058968852397 0.46821561116550714 945.1652970217198 0.19767820184297558
0.10194053055328567 0.4793427578212329 945.1782297053242 0.20697306019412842
0.09244680023193386 0.4900396592686196 945.1582973933193 0.1634057384934016
0.09244680023193386 0.4809964601911988 945.1815657009562 0.1620674130868153
0.16171773691117367 0.542704667518057 945.4063193683799 0.28884776783043026
0.15575355018939654 0.5267520360102244 945.4125952232223 0.1362529082482389
0.15284435637444155 0.5482164506098846 945.4139962512552 0.2765459007320788
0.15205544634133195 0.5364398146493587 945.4140467131527 0.24985148876935215
0.1380465586986507 0.540827568090583 945.4066290719724 0.2131614213993935
0.138509892265682 0.5282131105536592 945.4074841748723 0.1476695733932254
0.17964316407644587 0.5507347956898955 945.4013204494385 0.21012799423884201
0.17743952050702932 0.5525193233818706 945.4123348771108 0.19585738221387383
0.14606783357882103 0.550425945568075 945.4307751971979 0.18405013795108568
0.15147177445704113 0.5602013116239407 945.4307578281982 0.17783021574750224
0.1319567265870153 0.5508242949408009 945.4252334126502 0.19042810897480011
0.1388570985827667 0.5582513371609451 945.4288869508005 0.2111444689935374
0.13044470671645522 0.561716859408288 945.3813587094592 0.19920627741810823
0.12891875749807835 0.5617248516082753 945.3978025821797 0.2024343404632031
0.1382838173240031 0.5617248516082753 945.3881658803078 0.19839452436803348
0.14337898836188692 0.5617248516082753 945.3772096149465 0.18610031724395185
0.12488665009791426 0.5617248516082753 945.4088829946104 0.15510902572262772
0.13710426542197002 0.5617245708485143 945.4088873108977 0.21160949823367187
0.15286020279951165 0.5617244445424696 945.3881547211374 0.16469017163047167
0.16101603344826215 0.5617238838973863 945.4038632378015 0.12937575606770174
0.15496690639936628 0.56172409011478 945.412274797028 0.15183808749227012
0.14564458499603578 0.5617242461637433 945.3965317409703 0.17031569532686205
0.14733062803051655 0.5617236856107295 945.4209857022903 0.17783761208263751
0.17252265410130926 0.5617245914763479 945.4018128975354 0.1448413069399434
0.16566144904819594 0.561723832445427 945.387406105224 0.15278592861314116
0.1716361192816444 0.5617245341815831 945.4202605689452 0.16882728872035174
0.12268467752442129 0.5612337010365802 945.389933601997 0.1424982534080942
0.15194283833058772 0.5525296224555383 945.3719646985107 0.14956064299099098
0.16310804690197794 0.5575625295162144 945.3750963463185 0.17871149967952213
0.1677238758718869 0.5504248863395654 945.3939300745607 0.22566915807253393
0.1710472860213077 0.5504254751271243 945.3831492249544 0.17022355497476757
0.14488377421043103 0.5504243211789419 945.3815911312396 0.18794268254048332
0.16083689188590047 0.5504235102487698 945.4272898643407 0.1580489250796712
0.13883466729392968 0.550424795675539 945.3926303650721 0.21915234853857807
0.1259147028536905 0.550425749668522 945.3920869049879 0.21930122814089154
