x y z curv
168.1177893326672 0.24998119222790027 1011.9639040796027 0.07288869710911774
168.10552730548514 0.25335998754269995 1011.9641167146365 0.06961008067370465
168.11451047153804 0.26248179619372614 1011.9639609381252 0.0845756943836066
167.99658073450217 0.20407682622612258 1011.9661935068489 0.08342137347480268
167.98588215502696 0.19633260013578074 1011.9664915924998 0.09764655553543185
167.9972279464416 0.19161870878976414 1011.9666730365012 0.10510106352988918
167.99616168787625 0.1741921716576696 1011.9673438072925 0.13258012734087726
167.97485022510088 0.19637232586974093 1011.966490063403 0.10322209572681959
167.98661551041005 0.17944588374171946 1011.9671416127783 0.14126808049165912
167.97424626321322 0.16691645465613508 1011.9676244898308 0.17656580151169535
167.98928043766543 0.1648229472713482 1011.9677047536097 0.18237343847201956
167.9670349032407 0.17788352450841893 1011.9672022669689 0.1252976201469985
168.09271390759022 0.17783406998899762 1011.9652064460711 0.0787864368311424
168.09241646071678 0.2047848159389659 1011.9646963045835 0.07529448016243376
168.09227525252896 0.19331526363248486 1011.9649212453871 0.07115850707292402
168.10482858938005 0.1999506209604061 1011.9644261038337 0.08644591499717698
167.85743954629731 0.10728664448466738 1011.964549689051 0.09740632114927421
167.8525454345356 0.12147167623343727 1011.9643030561618 0.08596742626503118
167.8448910575838 0.09788410022866496 1011.9639173236744 0.09393103181732752
167.86450754196918 0.11626206387618557 1011.9649058717902 0.08607408323820288
167.84510640759646 0.11146214860072592 1011.9639281757773 0.09140924971734933
167.8818207406651 0.11450470327237249 1011.9656376408426 0.08098287947379174
167.86470429784993 0.0966874544240884 1011.9647637871085 0.08904153851184717
167.87476065802724 0.10464410907272527 1011.9652315246872 0.08939015148261954
167.8539297633954 0.09135730150632644 1011.9643207469932 0.08898894927847893
167.87939468076564 0.08635224960168277 1011.9650477152443 0.07538656856106354
167.85142711742947 0.051568204315620064 1011.9640921818923 0.08048937912789503
167.8627265143287 0.08207388604449495 1011.9644510839535 0.08147733671749324
167.86404792077076 0.06459858602626956 1011.9644930557065 0.0789978428276569
167.84992624255756 0.06483898890075557 1011.9640445096943 0.07380666192264841
167.8441202517744 0.07513138792003939 1011.9638600943599 0.08768276712568798
167.87731206422734 0.06447696799985717 1011.9647278124784 0.07345720440513644
167.86793182018243 0.05387063338341827 1011.9644155580295 0.076825938925446
167.98204131939679 0.09093290384759983 1011.9666885995487 0.10189207176939762
167.9672492058427 0.08474584218765696 1011.9664658149853 0.09819777382603016
167.99606834735346 0.10171569204482861 1011.9670768676618 0.11645252502878349
167.9949727304987 0.08864444862078164 1011.9666061965395 0.10285869737024818
167.9646922125397 0.11691555229803756 1011.9676241863103 0.15595664952439398
167.9687506728681 0.10102152972059632 1011.9670518721699 0.12684229654441329
167.98701181714725 0.11967878655480005 1011.9677236852277 0.17020827857160759
167.9847055132908 0.10521886040990151 1011.9672030102279 0.14046637208401863
167.97678353559007 0.11290322815511142 1011.9674797099934 0.17353018481125881
167.85973473003867 0.03325535647122345 1011.964095099516 0.08031331644530876
167.84532285337562 0.039414275200933886 1011.9638638765692 0.09650269595434159
167.87439136082145 0.03817715278383034 1011.9643302492774 0.0638364223551843
167.90305243129612 0.02193357887020213 1011.9641826280599 0.0699254772127146
167.91385745520205 0.030387293299490952 1011.9645181360129 0.07143834054139425
167.91871865509114 0.01537112349934376 1011.9641820750387 0.08048621977162526
167.89641736839778 0.009287517127945972 1011.9639723037427 0.07553359341472432
167.91042688223067 0.007529713316525114 1011.9639451338783 0.07919903863785428
167.86946780708848 0.002519583438197936 1011.9638676937515 0.09930817504994889
167.89187734979004 0.025339344335558595 1011.9642204121878 0.06993593894801861
167.87613543378592 0.026505931906940644 1011.9642384437941 0.06198352318931615
167.8696681349334 0.014707775794773732 1011.9640560831115 0.08329792448455614
167.84944284033963 0.00903588132284858 1011.9638767428107 0.12570780588501154
167.85923983744811 0.02033234694448131 1011.9640661329374 0.09527807874631461
168.01784428017817 0.012284099090892954 1011.9642111038202 0.0782033222654607
168.00649736930362 0.03474687766286574 1011.9649102796659 0.07684187295725121
167.96625491503505 0.013226624272746939 1011.9642404408337 0.0794069773519455
168.00493701750042 0.0010174914261904186 1011.9638604196907 0.09035273816517403
168.003796569748 0.01757871216440688 1011.9643759038051 0.07251494274695928
167.95286072112347 0.014005215726149775 1011.9642646752504 0.08278513601108063
167.98780339099991 0.009857876425022014 1011.9641355852781 0.07704599742895288
167.99213575778285 0.03141396191619038 1011.9648065394194 0.07435326905960606
167.92547745421803 0.0005277702407764784 1011.9638451766422 0.0843032779431002
168.01552281585938 0.025710886660411686 1011.9646290256513 0.07596436316022206
168.02061685159572 0.1439447429205843 1011.9674818639596 0.13049314360163572
168.02121962717388 0.13227415637452206 1011.967505728981 0.1254329332714086
168.00883820335284 0.13850806097198753 1011.9676955758048 0.16359645988720778
168.00427994641726 0.15953232804188805 1011.9677109181877 0.1773752746100122
168.02689071332952 0.15727365282075045 1011.967346239527 0.11449308119974212
168.01690271529304 0.16282622116204498 1011.9674956060089 0.12736299293615977
168.03519593388722 0.14105646272512143 1011.96725030663 0.10514715498895201
168.09971159045267 0.10217886226443113 1011.9648910918863 0.0777778650239634
168.09822192488312 0.08941236078251556 1011.9647064379205 0.0787579474943876
168.0836800785266 0.08975386572931605 1011.9651795500075 0.07750974924438137
168.112323094728 0.0960126446614175 1011.9643231206362 0.08466008372797673
168.0950819084662 0.11330771560243222 1011.9651919562145 0.07132682383471364
168.10916288670504 0.11051318967839564 1011.9644823730869 0.08343481411172153
168.02690556007684 0.020728824647672308 1011.9644492564344 0.07958521875150132
168.0351952838232 0.01021746664979551 1011.9641323714322 0.08246253121782805
168.03801807598785 0.02477155447548495 1011.9644936957088 0.07824743490557907
168.0651293533101 0.040386219207671506 1011.9646383813296 0.07698828839330098
168.0748876860108 0.007682518664108097 1011.9640272016613 0.08245534658203926
168.08131218581394 0.038631009197083004 1011.96443729989 0.0668987375212912
168.0756725017347 0.019425591608666047 1011.9642005717177 0.07529789057175929
168.0531315423018 0.03905039420052044 1011.9647466339294 0.07233576464773929
168.06788765602468 0.027955539185948564 1011.9644162900113 0.0714581959370085
168.0628457349884 0.005509702824231002 1011.9639713212568 0.08426333992327821
168.05300304660722 0.017041456041016013 1011.9642697229865 0.0758230104867771
168.0497392078116 0.000801178937695857 1011.9638494810088 0.09490268274079725
168.1040286367821 0.07972234662433264 1011.9643536145611 0.08006404456590814
168.09069513838392 0.08076132274786005 1011.9647966492576 0.07882770590041323
168.08581778280393 0.06034615069177129 1011.9646436047825 0.07183472241975121
168.11142381747038 0.044565067069256385 1011.9640007659152 0.08456845028835387
168.11687819294963 0.07178182383662951 1011.9639131581424 0.08869025264258609
168.0987750413138 0.05229528086225718 1011.9642039296166 0.07423695629304401
168.11087497353003 0.06005344267399558 1011.9640095814059 0.07718804979345593
168.0931835955982 0.04093015798934476 1011.9642937390013 0.0728983276376176
168.11502942803298 0.025522318066664752 1011.9639428528668 0.08379925880668584
168.10498754553646 0.035170274124814445 1011.964104144836 0.07327447341747848
167.91271638299494 0.2676293006248122 1011.9642524918472 0.08254194679413904
167.90798689648764 0.2512313660392555 1011.9646519688752 0.07528566901925728
167.89987746608728 0.25910708405438365 1011.9643405339033 0.07548556744362866
167.9187466134743 0.2566968154712333 1011.9646246000141 0.06738378125020596
167.85364174171605 0.21108296936755966 1011.9640617352825 0.09154006404633507
167.8807905100282 0.23643194349138555 1011.964561880767 0.07721125916551108
167.87071545152767 0.2174055403979398 1011.9644877157109 0.0751852466500641
167.87822976105906 0.20625315005619213 1011.9648366348719 0.07952877702691752
167.87082354843227 0.2287951680211289 1011.9643589245097 0.08043313767567087
168.06586833264026 0.2606960104499332 1011.9642914707287 0.08049242980864568
168.04999290430177 0.24818159726060013 1011.9648204794187 0.07988232793010885
168.05298892442647 0.2650165072237408 1011.9643199756551 0.07462354983970353
168.06493464097272 0.24562967727884696 1011.9647192975076 0.0792730361916181
167.9721036203893 0.037610251509918716 1011.9649994049639 0.07507471420703385
167.97071441334714 0.025985075731825548 1011.9646375600531 0.07066809699946623
167.9403089716216 0.010937657761164184 1011.9641691945232 0.0766214361704358
167.9598089104506 0.03515169023474191 1011.9649228798512 0.07439975423308225
167.94341357293084 0.028764783536251965 1011.96468453245 0.06843438640630276
167.93214821608993 0.021071221275600863 1011.9644244518597 0.07066253375408763
167.9336181082861 0.039138952484953034 1011.9648999514038 0.07262483772353093
168.08998016826274 0.028295294418165706 1011.9642369199244 0.0686306914917808
168.09342184741564 0.00907120918026228 1011.9639259241897 0.09233878889748594
168.10584415464194 0.013626109506457233 1011.963948177359 0.09500014597953332
167.96915440291565 5.6486389044829644e-05 1011.9582033544907 0.07669077563181882
167.84385218221306 0.1791178905736301 1011.9638638869551 0.10785279936774056
167.84692248656194 0.19395924664635164 1011.9640139812036 0.09372350859269542
167.85405127939606 0.1394468697442662 1011.9643624772459 0.09301859647581805
167.8434612582185 0.16504517061541696 1011.9638447762431 0.1066474652905435
167.86897305124103 0.16429023315083002 1011.9650919394992 0.0814622616063413
167.8570245959038 0.1604312946969761 1011.9645078302133 0.08734144502036252
167.84840790991493 0.15295964286424163 1011.9640865969621 0.09621511944812625
167.85655160503353 0.18197626275597015 1011.9644847078465 0.08225046835009513
167.873790472743 0.12397504792680215 1011.9653729402937 0.07464075320446079
167.87817559445688 0.14714948200572886 1011.9655596434176 0.07564970060505145
167.86533523299195 0.14194040059876106 1011.9649204503582 0.07692985471146935
168.0872547942537 0.16038420465746694 1011.965533817704 0.07805726769117205
168.09853519004 0.16760189147200605 1011.9649823666869 0.075069383949355
168.12143776805033 0.14879104257419515 1011.9638627561538 0.10531345581308106
168.11410001676506 0.1708540212221739 1011.9642214678945 0.08539378660698196
168.12061363152708 0.13296915454609082 1011.9639030447157 0.08489017257180256
168.10098108059387 0.15666926955480032 1011.9648627974038 0.08642714362037043
168.1120866909455 0.15735557473006154 1011.9643198909102 0.09961523839684698
168.11581577602718 0.184988587258856 1011.9641375916542 0.07803040888633436
168.0873928794207 0.12479931764765329 1011.9655774191465 0.07150609761115229
168.10721702296718 0.12920178723169495 1011.964572214494 0.0768157240390354
168.09108867223475 0.13827181749379075 1011.9653713410216 0.06957090539269369
168.11749855734863 0.1395795722931478 1011.9504033357798 0.09174574218348844
167.96044821300777 0.0056432203483361195 1011.9498856587683 0.07220817213565918
167.84908647027612 0.039367179594928796 1011.9497306874596 0.0889729348751308
167.8487371396811 0.02814090894133935 1011.9499091485278 0.0943577110377137
167.78050096581194 0.502249886087566 1010.9695428834962 0.07204294123028167
167.78244197437053 0.5740310389425205 1010.9695428834962 0.06837051480216173
167.78510864120472 0.518946228050257 1010.9695428834963 0.0626775484792699
167.77231472676897 0.5359631672041247 1010.9695428834962 0.07799768457089337
167.78514884485037 0.609256686102306 1010.9695428834962 0.07729094501076482
167.77579535387204 0.5887056723887982 1010.9695428834962 0.052557726577007184
167.7752114895727 0.562494123697331 1010.9695428834962 0.0842165794764474
168.02860913727005 0.5349394364134659 1010.9695428834962 0.06882894313433198
168.0233471551502 0.5106413946062985 1010.9695428834964 0.0779951841351675
168.02537139092016 0.5996061273639305 1010.9695428834962 0.08378172226790735
168.02655670417553 0.5776280009667198 1010.9695428834962 0.08205313226835759
168.02255452367467 0.5600527474468133 1010.9695428834962 0.06446687016455746
168.00273814706026 0.5366080783105082 1010.9695428834962 0.030919238417475604
167.8847463646232 0.48859015017553087 1010.969542883496 0.07872932558890487
167.9436229420917 0.5679729462986367 1010.9695428834963 0.03999332069627926
167.9680870913548 0.5502707989687852 1010.9695428834962 0.0904995896720605
167.94078572433938 0.5246433077947348 1010.9695428834962 -7.695541262626842e-07
167.99366967783232 0.5854077184940905 1010.9695428834962 0.12034744685150219
167.9601289356696 0.5334471200857608 1010.9695428834962 0.018241261034026495
167.95461710944508 0.49600698177973696 1010.9695428834962 0.07914791201602626
167.9821601278859 0.556713771696417 1010.9695428834962 0.17879924053702476
167.9969550444076 0.5127399277093906 1010.9695428834962 0.016309550500485263
167.97616202628052 0.5089156744890992 1010.9695428834962 0.04079652742573278
168.01018060577394 0.4956746971486691 1010.9695428834963 0.06848262819510194
167.93935275850075 0.49182901597984724 1010.9695428834962 0.08386397445589318
167.93098776174952 0.545147377198146 1010.9695428834962 -5.546455869775136e-07
167.91777420110816 0.5478224347653703 1010.9695428834962 -6.312384682401669e-07
167.98236482155923 0.572128891049977 1010.9695428834962 0.21417372060005213
168.0164130957026 0.6092266950493422 1010.9695428834962 0.09558658322913932
168.01533504119004 0.5385988479355134 1010.9695428834962 0.04391918826844136
167.87534695166522 0.5231411645650272 1010.9695428834962 -7.490966988367652e-07
167.98213037220637 0.49564425252889 1010.969542883496 0.07469240466785583
167.90389974807258 0.530304431822183 1010.9695428834962 -8.012763385282986e-07
167.93420637653705 0.5140513618789144 1010.9695428834962 0.022217032718666437
167.81638766035022 0.4891814925767101 1010.9695428834962 0.0954684704501781
167.99651018870082 0.49632236219698084 1010.9695428834963 0.05116835627369946
167.95004552622208 0.5070443284257394 1010.9695428834962 0.03045475829839314
167.89114934887877 0.49975679465028866 1010.9695428834962 0.0767226017142633
167.86455486740533 0.5072625205109431 1010.9695428834962 0.043910527426119145
167.92426089526367 0.5054297451928387 1010.9695428834962 0.052449338024313265
168.01150318157227 0.5563278084917255 1010.9695428834962 0.06878835876725403
167.91505910783616 0.5200783991731905 1010.9695428834962 0.0010385088343412136
167.90184632964812 0.5058993156476491 1010.9695428834962 0.05028588931161241
167.9984362367976 0.5240706939374564 1010.9695428834962 0.0006508712454333174
168.0094230694813 0.5116446237690234 1010.969542883496 0.04922524374772559
167.91573715840025 0.497147254224244 1010.9695428834962 0.07735518359264476
168.01240314392808 0.5784608743832669 1010.9695428834962 0.07499955918715813
167.9257483015417 0.4877386341394427 1010.969542883496 0.07557421912455188
167.98598303882682 0.5168789722687558 1010.9695428834962 0.0015122263724114246
167.92190012018432 0.5365413509647398 1010.9695428834962 -5.754164523208018e-07
167.86090504886047 0.492035852071435 1010.9695428834962 0.06403446020160442
167.93948813361823 0.5372029620404032 1010.9695428834962 -5.594282525388132e-07
168.00183055960923 0.5629987351596021 1010.9695428834962 0.07838702623290596
167.98279155418638 0.5288652478605925 1010.9695428834962 0.006694676607528482
168.01159056074397 0.5270661814937438 1010.9695428834962 0.03698265460145786
167.987078503299 0.5956310403554601 1010.9695428834962 0.0664557641804188
168.00109944195825 0.5759900844347725 1010.9695428834962 0.11583082029925428
167.97131574135457 0.49132774936172563 1010.9695428834962 0.09669546081160338
167.87335819910987 0.4891700170944615 1010.9695428834962 0.08711778037240005
167.90798812273488 0.5413240734695199 1010.9695428834962 -5.518853748986368e-07
168.01005763858242 0.5900156246246611 1010.9695428834962 0.05841487945452125
167.97346210794126 0.5383357966785335 1010.9695428834962 0.05209043536343168
167.96447774655647 0.5033069267328646 1010.9695428834962 0.04010729789063466
167.8280647460287 0.4975701781031156 1010.969542883496 0.05853505890820047
167.84327463889775 0.5009171728440425 1010.9695428834962 0.05659010269842031
167.95849808958621 0.5700097889291114 1010.9695428834962 0.1287237821365447
167.96793125718895 0.5179475349587896 1010.9695428834962 0.012103609089254948
167.95750815506636 0.5589457799659662 1010.9695428834962 0.09730508651392508
167.9504352907976 0.5814343166741225 1010.9695428834963 0.05020578129587931
168.00455875254846 0.605817982930173 1010.9695428834962 0.05743507838893279
167.86696662701218 0.5326945800266861 1010.9695428834962 -2.8137530144505207e-07
167.9533742102697 0.5228256100056575 1010.9695428834962 3.730236637701775e-05
167.87448919402897 0.5008111512276818 1010.969542883496 0.08730471944304885
167.90278811764404 0.49328399907385234 1010.9695428834962 0.06203762835295696
167.89145709651825 0.5425240839606862 1010.9695428834962 -5.694607307231054e-07
167.96927933800947 0.5799196488583224 1010.9695428834962 0.16620204594577115
167.8528743608749 0.5161863050035154 1010.969542883496 0.0027301165632441057
167.88964811790223 0.518095920738294 1010.9695428834962 0.004015369573009536
167.94148657706646 0.5553801802903764 1010.9695428834962 0.020612178141930296
167.891554144511 0.5300794726055357 1010.9695428834962 -5.95634268946328e-07
167.98295698422527 0.5449895760789749 1010.9695428834962 0.06365847496654328
167.9971341696567 0.5484283643154515 1010.9695428834962 0.06529147699196397
167.9551474453752 0.5926453120363459 1010.969542883496 0.04602671226976327
167.79587141534853 0.5879501314997466 1010.9695428834962 0.032225541082867286
167.82917911849916 0.5624373511009403 1010.9695428834962 -5.81926450885119e-07
167.81706826747433 0.5152566138761456 1010.969542883496 0.013346032479977602
167.8094454852493 0.5964042007168922 1010.9695428834962 0.028220918115168303
167.9396620512505 0.5839672313831347 1010.9695428834962 0.029588544398221027
167.84329250082524 0.5412500158046203 1010.9695428834962 -5.794953688511821e-07
167.88515778285253 0.5973785879661859 1010.9695428834963 0.017967891347435243
167.82816246513653 0.5130106572832321 1010.9695428834962 0.020974414369817444
167.8095472307446 0.5302655548178958 1010.9695428834962 -5.679957504324814e-07
167.99468886426922 0.6112306074762066 1010.9695428834962 0.07114601496780049
167.84582592568682 0.5838284471193632 1010.9695428834962 -7.698583765097022e-07
167.8477867331977 0.6190430755038892 1010.9695428834963 0.06924172401563357
167.78783940462495 0.5607350658811405 1010.9695428834962 0.04239532939569518
167.8896167372425 0.6154331096237252 1010.9695428834962 0.06559009313721864
167.96241823219742 0.6202324705448053 1010.9695428834963 0.060239716549937435
167.91082123057853 0.5789924792796115 1010.9695428834962 -5.000580245295463e-07
167.79535961471316 0.5262490553052039 1010.969542883496 0.02605562211282681
167.9082683545055 0.5577890532160286 1010.9695428834962 -5.724522088955423e-07
167.87032017053212 0.5961280426100883 1010.9695428834962 0.016627144717798418
167.7890285767293 0.5458711651788541 1010.9695428834962 0.05780203562512849
167.93761297928432 0.6035549673418553 1010.969542883496 0.056723713367236174
167.85836134772563 0.5976172709617806 1010.9695428834962 0.024361512906091946
167.8309274454934 0.5336833528241524 1010.9695428834963 -8.346287168970849e-07
167.92892589134271 0.5922778666084891 1010.9695428834962 0.016235091757615516
167.821827203071 0.5902042755686318 1010.9695428834962 0.008337615232345807
167.7933725911887 0.5008743381122387 1010.9695428834962 0.06957205165610823
167.84231825278147 0.6003396132783534 1010.9695428834962 0.02824312779945267
167.87719794595068 0.608636739240407 1010.9695428834962 0.07191754015530089
167.8063679727341 0.5783843788493392 1010.969542883496 -8.164014432252727e-07
167.87689470635132 0.5554402839018813 1010.9695428834962 -5.852760902111087e-07
167.80068459210463 0.5577743798650854 1010.9695428834962 0.011014513206495845
167.86047058631056 0.5614996832618558 1010.9695428834962 -6.073161986936478e-07
167.8300355143786 0.5754615540688777 1010.9695428834963 -8.198425326434019e-07
167.79564229844695 0.6124911353767958 1010.9695428834962 0.07656779665319913
167.81691447062317 0.6153660254007579 1010.969542883496 0.0790865677782711
167.881231428808 0.5755265785631877 1010.9695428834962 -6.082243635476139e-07
167.84040335045322 0.5222134246799871 1010.9695428834962 4.0138791003093015e-06
167.87400949335046 0.5660637027585832 1010.9695428834962 -5.943542756072281e-07
167.79828207845523 0.5988906775469731 1010.9695428834963 0.039312843873639175
167.8946171488707 0.5691359820371534 1010.9695428834962 -6.180195016831482e-07
167.88888763478744 0.5594375733877659 1010.9695428834962 -6.003966554168602e-07
167.9190220833331 0.6032706741645438 1010.9695428834962 0.04018666429341708
167.79496748739126 0.5734260585632664 1010.9695428834962 0.03233944670013362
167.9316378538207 0.6132277006641268 1010.9695428834963 0.07242312351567573
167.96997728545287 0.6111654514700829 1010.9695428834963 0.059939898036116185
167.90732709691247 0.6101448087715762 1010.9695428834963 0.05622059838204007
167.85630791680683 0.5502523382901361 1010.9695428834962 -5.677057070711326e-07
167.86597525209845 0.5767296118867121 1010.9695428834962 -6.192266252510033e-07
167.84652971604453 0.5578567620489523 1010.9695428834962 -6.415457303934587e-07
167.94964397478535 0.6058819272217515 1010.9695428834962 0.06093536116540803
167.9072532979676 0.596830249691643 1010.9695428834962 0.018770843424173296
167.85667609498608 0.6095415494179992 1010.969542883496 0.054381427988039965
167.80249847611228 0.5410611188739674 1010.9695428834962 0.0032241926560785104
167.92066417637997 0.6165892893259602 1010.9695428834962 0.0878399461364981
167.81702489468057 0.5479334536225935 1010.969542883496 -8.443195841808109e-07
167.80617138061197 0.6079590379399283 1010.9695428834962 0.07119064016972146
167.96753390656397 0.5977333853740477 1010.969542883496 0.05524020362786155
167.8148900628224 0.5606974200819732 1010.9695428834962 -8.387990937288593e-07
167.81298831138434 0.502742071375857 1010.9695428834962 0.05439159314816772
167.828807999234 0.5487363501695934 1010.9695428834962 -5.87624120904284e-07
167.89917736325896 0.581433878515097 1010.9695428834962 -5.654523072678771e-07
167.8307990316425 0.6058288835958568 1010.9695428834962 0.05652499275690394
167.81624633151202 0.5735000884228988 1010.9695428834962 -8.710407419675888e-07
167.8477741241131 0.530104784229565 1010.9695428834962 -5.324445841332643e-07
167.92374810964117 0.5687017239466619 1010.9695428834962 -5.362972030137998e-07
167.80440176571798 0.5166320797167424 1010.9695428834962 0.009601296414872493
167.84937272434243 0.5687732010688564 1010.9695428834962 -5.686452963132668e-07
167.9064413135273 0.48199999999999926 1010.9231547122554 0.06819192787396014
168.01069547652992 0.4819999999999994 1010.9308438824592 0.04826040958592977
167.96761254002953 0.4819999999999993 1010.9520652491334 0.08191699279615479
167.81729639391529 0.48199999999999926 1010.9231046664917 0.19602009029553652
167.88141415757147 0.4819999999999993 1010.9364575125296 0.1299401751768346
168.00570515998896 0.4819999999999993 1010.9406477692605 0.05430017312437543
167.9423816581894 0.4819999999999993 1010.936862740563 0.06284859828422656
168.01591436636903 0.4819999999999993 1010.9582072548329 0.08305618281916126
167.9991864803513 0.48199999999999926 1010.9231109213775 0.054256756228086386
167.95511522523304 0.4819999999999993 1010.9365810218112 0.06646089428724837
167.88871202263252 0.4819999999999994 1010.9260597902223 0.09129742663646308
167.8613441149083 0.48199999999999926 1010.9264093735792 0.2359725198619435
167.9127134586479 0.4819999999999993 1010.9400704508398 0.09971460939472103
167.92628312577318 0.4819999999999993 1010.9364878272248 0.06749250439512526
167.80555878392377 0.48199999999999926 1010.9192108203918 0.19387889948445144
167.91779026659702 0.48199999999999926 1010.9260900915303 0.0737190478867616
167.93454523598575 0.4819999999999993 1010.9471555434164 0.07213049330855383
167.83723692867505 0.4819999999999993 1010.9511225080059 0.23251929489616116
167.89371056303648 0.4819999999999993 1010.9467671863256 0.058643206006771115
167.79914960774647 0.4819999999999993 1010.9596435055477 0.11694403123306384
167.851343735145 0.4819999999999993 1010.9410333164618 0.21113073131583532
167.9303522983487 0.48199999999999926 1010.9579382983222 0.06427376513066113
167.87095739166887 0.4819999999999993 1010.9406162418609 0.15702676211085395
167.9550207457794 0.4819999999999993 1010.9554565983613 0.05158475727407399
167.91024074757223 0.4819999999999993 1010.9513186842223 0.0614119853527093
167.88866603992992 0.4819999999999993 1010.9601433545122 0.07619754324609641
167.7941775791282 0.4819999999999993 1010.9349340593755 0.11825997533615669
167.86946723363033 0.4819999999999993 1010.9540465848418 0.10638956030184933
167.98243870296403 0.4819999999999993 1010.9641251684187 0.08136283524689007
167.91740330520176 0.4819999999999993 1010.9645062600734 0.08629688196384007
167.85904199460202 0.4819999999999994 1010.9624954704617 0.12971327809706693
167.861345033519 0.583790598948981 1010.9138286043215 5.257410412906555e-06
167.98576158362525 0.5880657996335129 1010.9138286043213 0.014608846775775062
167.82650855679685 0.5906943656647556 1010.9138286043213 0.009558898942623708
167.876357797152 0.5921431353407045 1010.9138286043213 0.01411177767059048
167.90384168646295 0.5806248924700299 1010.9138286043213 1.3899150368320995e-07
167.8186437378293 0.5800803588607815 1010.9138286043213 1.4799696633502637e-07
167.86504411498618 0.598323986088898 1010.9138286043212 0.03259315493728295
167.97699364678797 0.6004969171282194 1010.9138286043215 0.04327315234443822
167.78170799147006 0.5168868570777404 1010.9138286043213 0.07299667288001133
167.84182729843013 0.5583903675788654 1010.9138286043212 2.798967290162461e-07
167.87237485704392 0.5799207848440842 1010.9138286043212 1.5017216872827493e-07
167.9209945771498 0.5768566045447938 1010.9138286043213 2.694968320795641e-07
167.88900693901434 0.5540889367098762 1010.9138286043213 -1.4648263163290343e-07
167.83161210931834 0.5530342587900043 1010.9138286043212 1.5092634270253255e-07
167.93116107338167 0.5669820262848881 1010.9138286043212 1.4939113217332935e-07
167.80143996406085 0.593868686489897 1010.9138286043213 0.021164249019556054
167.8988757040773 0.6010779009905656 1010.9138286043215 0.04223726569541207
167.7856796645749 0.5494661564856032 1010.9138286043213 0.05692899886876251
167.81306696597545 0.5952977630009136 1010.9138286043213 0.026202516319515482
167.7993311475575 0.5290683496545773 1010.9138286043213 0.018621914248978133
167.85900957129712 0.5702872577522471 1010.9138286043213 3.040335884441868e-07
167.96947174584253 0.5842615484944625 1010.9138286043213 0.023859455927939574
167.9931285851838 0.5976698353895977 1010.9138286043213 0.026167313451736906
167.87913576988083 0.6030560215360973 1010.9138286043215 0.051943175030142286
167.935421203312 0.595856038175322 1010.9138286043213 0.010321645782776459
167.7792920059845 0.6015807558990249 1010.9138286043215 0.08499751625999591
167.85631073684632 0.5404938226470384 1010.9138286043212 2.736792363125772e-07
167.78377876230698 0.5377146115332947 1010.9138286043215 0.07967672685696757
167.83546828431707 0.6050553353448546 1010.9138286043213 0.051618300309041555
167.80418673059066 0.541763705124804 1010.9138286043213 0.0061551666465924255
167.82182751107476 0.5234633570662365 1010.9138286043213 1.4845127369463578e-07
167.91107204315017 0.5930059875784237 1010.9138286043213 0.01630584011299119
167.870941659775 0.5529330300166548 1010.9138286043215 4.604815074450036e-07
167.81521311109134 0.5624793651435007 1010.9138286043212 1.4869473632987234e-07
167.90091300155532 0.5652048774647267 1010.9138286043213 1.3623923947576308e-07
167.8704939500981 0.5671305221394207 1010.9138286043215 1.521558563009429e-07
168.00390596998378 0.6052165185852146 1010.9138286043212 0.05048345815194767
167.85187770150208 0.5937865935137947 1010.9138286043215 0.009453323672562351
167.84486487209497 0.5433627461356397 1010.9138286043212 1.4647379533525592e-07
167.78927184040734 0.5813646416048567 1010.9138286043213 0.06868181269558322
167.92927033452838 0.5841752720086053 1010.9138286043213 8.615308318157429e-06
167.91329432998094 0.5683546420258094 1010.9138286043212 1.6622621703154532e-07
167.9422710086732 0.5807176559796206 1010.9138286043215 2.8507717829276544e-07
167.84774469820326 0.5681800567785648 1010.9138286043215 2.862956685082955e-07
167.83351568573048 0.5350160750744439 1010.9138286043215 1.441914720809322e-07
167.9231893606488 0.5952308601956282 1010.9138286043212 0.021483999001088785
167.8851722062608 0.5670397934967246 1010.9138286043213 2.7588626780387284e-07
167.7725452660513 0.5417665040500628 1010.9138286043213 0.07522868500501471
167.80682143358754 0.5535298131083737 1010.9138286043213 2.0360926524794094e-05
167.82853911795786 0.564656276655777 1010.9138286043212 2.8491510744795366e-07
167.9562088527843 0.5842940633233474 1010.9138286043213 0.0047161637693864805
167.82447828446263 0.5425571046530538 1010.9138286043213 5.283906384357482e-07
167.80173891710683 0.5648469472961216 1010.9138286043213 0.00041498470075873063
167.88659573012944 0.5784739273914092 1010.9138286043212 1.4945484292216034e-07
167.86002905507945 0.5528394277707793 1010.9138286043213 1.5420886896916874e-07
167.84058061460448 0.5949422377257872 1010.9138286043215 0.022908166982078298
167.78574658707274 0.5686256487671238 1010.9138286043213 0.0786975889530121
167.77559894083436 0.5793976535888553 1010.9138286043212 0.07680526657615343
167.79615205752998 0.5163889062449545 1010.9138286043212 0.028123219251499743
167.83564464531784 0.57537528916162 1010.9138286043212 2.851867312855573e-07
167.8075812233502 0.5770716195562869 1010.9138286043213 1.416676973343801e-07
167.95389755963046 0.6035933614438966 1010.9138286043212 0.04692147253691349
167.81088770529837 0.5301897553415053 1010.9138286043215 2.501720263941411e-07
168.00044786877203 0.5049445890115043 1010.9138286043215 0.04795141132905863
167.94874343992075 0.5450982599698749 1010.9138286043213 0.0537083483964254
167.99260676027455 0.5771260052717053 1010.9138286043215 0.029935270807496986
167.8404255388526 0.5124984842048532 1010.9138286043213 0.01235486586316646
167.96107491534858 0.5212824003474116 1010.9138286043213 0.01865833785988153
167.9952032736735 0.5294114308513267 1010.9138286043213 0.08338847240932412
168.01184753094182 0.506574107539659 1010.9138286043213 0.06298152303377354
167.95496681918405 0.5631020573489991 1010.9138286043213 0.05573776172099272
167.949969037705 0.5242524816764138 1010.9138286043212 0.019545086922232578
168.01043455185157 0.5531434286698774 1010.9138286043213 0.08127025145684019
167.9714947469276 0.5128759972422318 1010.9138286043215 0.028479930179766695
167.80727180990473 0.5161454273196153 1010.9138286043212 0.004040990061471484
167.9602229378223 0.5065736943229281 1010.9138286043212 0.04435541973002696
167.81495811222388 0.5055345495660262 1010.9138286043213 0.04230127464681941
168.01931523756647 0.562169806475862 1010.9138286043213 0.062305048231628114
167.92892196078614 0.526359587347392 1010.9138286043212 1.4106330740121987e-07
167.96234785057771 0.5715818684011748 1010.9138286043215 0.02859673611090204
167.9821578416868 0.5650325762933626 1010.9138286043212 0.14629610037242702
167.9746428780997 0.5450853527956692 1010.9138286043212 0.14191740132291952
167.88750364172762 0.5373884118253083 1010.9138286043213 1.5622977568280366e-07
167.89476693561673 0.5166265721522526 1010.9138286043215 0.007973115581807
167.9264075190901 0.515086294925901 1010.9138286043212 0.007778552987685863
167.84948784754772 0.5024037522304299 1010.9138286043215 0.05765365559933798
167.91238320063377 0.521215373732656 1010.9138286043215 1.648343905339441e-06
167.84217176146333 0.5247611630532387 1010.9138286043215 -1.5103185229055784e-07
167.97154469158792 0.5332818499117853 1010.9138286043213 0.1238168768754032
167.90706887879665 0.5114032714395644 1010.9138286043213 0.03337267931695041
168.0055571000861 0.5397078711771186 1010.9138286043213 0.07202503996322371
167.88337545822537 0.512202437268564 1010.9138286043215 0.025035153394585136
167.99046868847196 0.517417257239606 1010.9138286043213 0.02726846082562152
167.89731539311947 0.5304034372773183 1010.9138286043215 -1.4161684710626665e-07
167.91722035725306 0.5035895656998118 1010.9138286043215 0.04280296393235957
168.02471338910533 0.597054941341946 1010.9138286043212 0.07539529371407254
167.9629623782157 0.5431242617804725 1010.9138286043212 0.07126988498905616
167.99915794961402 0.5497148008521741 1010.9138286043213 0.1439645130788496
167.93238575369443 0.5054450759226019 1010.9138286043213 0.0421504494182115
167.93778133352197 0.5498934764963053 1010.9138286043213 0.012329144124309353
167.87034425395385 0.5213486959644855 1010.9138286043213 4.047047079300626e-07
167.9153796664024 0.5385480237460564 1010.9138286043215 1.3401239526477617e-07
167.9418350250391 0.5667657885373565 1010.9138286043213 0.018513235014306708
167.92408488689443 0.5558137467876744 1010.9138286043213 1.4427314068756604e-07
167.7910978960034 0.5052008202652263 1010.9138286043213 0.07228396656723647
167.8971577892389 0.5023653258040437 1010.9138286043213 0.060027903635341204
168.00647722122434 0.5670946473690628 1010.9138286043213 0.041194705948577805
167.86654330668176 0.5100389136092671 1010.9138286043213 0.03633098759426088
167.94220628398773 0.5350261990645817 1010.9138286043213 0.020177558117232236
167.9704185791467 0.5620792146928935 1010.9138286043213 0.1033976315653663
168.01211719528123 0.519011956215241 1010.9138286043215 0.05809906940240636
168.00865582436148 0.5782982951548855 1010.9138286043212 0.0383549399235388
168.02171340790008 0.5381407621176238 1010.9138286043212 0.0705450533641973
167.90199265179882 0.5430479797886055 1010.9138286043213 3.735146699432687e-07
168.02378006692427 0.5134660559320621 1010.9138286043215 0.08821412134256602
167.98102361825173 0.5243207265412919 1010.9138286043215 0.0697752520332882
167.85735274804932 0.5229821398337163 1010.9138286043212 1.3385308107551715e-07
168.0160035061587 0.588293201394109 1010.9138286043212 0.05860590381885874
167.94319319851496 0.5100776463583979 1010.9138286043212 0.043463113146934816
167.87540255966024 0.5422088961208062 1010.9138286043215 1.4243289783231555e-07
167.80166710153668 0.5017441846452253 1010.9138286043213 0.04134044614442309
167.8205271100023 0.48985636639201774 1010.9138286043213 0.14955621632725974
167.95381559089074 0.4972985755982558 1010.9138286043211 0.051368969791418945
167.82824078668247 0.5018390146715969 1010.9138286043212 0.036554884967476636
167.8207881999275 0.6150024414893991 1010.9138286043213 0.07222938616268264
167.79898025023542 0.6075693643098289 1010.9138286043212 0.0635311312184633
167.78799391945776 0.6140704518192908 1010.9138286043215 0.07041982754707925
167.83286074951894 0.616812367180902 1010.9138286043215 0.05578566526034172
167.88933970387305 0.6135139883883307 1010.9138286043213 0.04921019552017084
167.99543177221395 0.6200895311150341 1010.9138286043213 0.07596888970031211
167.9281627281922 0.6154463668665477 1010.9138286043211 0.05891543889816305
167.91270141514607 0.6170302385476208 1010.9138286043215 0.06586204622372452
167.7934486663324 0.4873723640232609 1010.9138286043213 0.07200159580690547
167.97955181864893 0.49306008388292716 1010.9138286043213 0.07556757651469702
167.85820863183397 0.4903770985092122 1010.9138286043212 0.07206622093449527
167.91110823185915 0.4932587954100343 1010.9138286043212 0.0819982428645881
167.87521071656423 0.49032982859529955 1010.9138286043213 0.07439778295066667
167.93527019940365 0.4927969847274989 1010.9138286043215 0.06546603202410803
168.00798794351164 0.4953541816215515 1010.9138286043212 0.07714286146575566
167.99161768165004 0.49691041664138214 1010.9138286043212 0.06802402730809118
167.96687109362713 0.49206802627918506 1010.9138286043213 0.08596076114317946
168.02161098979605 0.4986266353555057 1010.9138286043213 0.0887791634383656
168.01682364875694 0.48846566537611924 1010.9138286043215 0.07503095749067616
168.01593519101078 0.6094318305680501 1010.9138286043213 0.07743280876298722
167.86124415683847 0.6095813778029371 1010.9138286043212 0.06590964008916872
167.94050994954915 0.6111475545720532 1010.9138286043212 0.059078014152822926
167.97827891976195 0.6152845242978041 1010.9138286043213 0.07797579461545728
167.9659137295583 0.6084961732418626 1010.9138286043212 0.05659381558278948
167.92122713454847 0.6071219858058277 1010.9138286043213 0.05798113634854565
168.0071169790259 0.617441631141567 1010.9138286043215 0.07807391483841293
167.99147429355097 0.609784333142532 1010.9138286043213 0.08590013706735188
167.7709541317208 0.6115192647211614 1010.9141693711551 0.07095788949451143
167.86985315701915 0.6253716645879653 1010.9170323121629 0.06967773144539154
167.9589056510432 0.6256815808013345 1010.9186570978344 0.05414699179800108
167.9729734716425 0.624624993098016 1010.9158642178027 0.07066299714472853
167.90475293354302 0.6247052376302032 1010.9159863826046 0.0560718657228946
167.85319630700985 0.6223797524541923 1010.9141462800915 0.05896023832549993
167.79565171312163 0.6236424868938567 1010.9148941319709 0.0467634561707397
167.93900991004338 0.6226745128988848 1010.9142583175876 0.06958085355174076
168.01966846525454 0.6225725016035135 1010.9145715752311 0.0667757500956573
168.03557325293207 0.6096250546879638 1010.9170834867194 0.05357122658700442
168.03208067740331 0.5695330655333424 1010.9139139171011 0.08457171899160953
168.0346194938199 0.5827238669092113 1010.9149321660672 0.08383693755027886
168.0343987387296 0.5457885648573579 1010.9147871584167 0.0781972308593765
168.03533685932862 0.5587365826280535 1010.9155487493832 0.07857174199592913
168.03589069757382 0.5119097789653213 1010.9163919310521 0.07018322742428575
168.0357124675833 0.49873842192821394 1010.9171233102122 0.08540970198359112
167.92633643818584 0.4859981151074292 1010.9140197049417 0.06168369736679746
167.98930085874133 0.48417919146823185 1010.9148235997556 0.058815874891622356
167.95619156257743 0.4845126321100228 1010.9146045722173 0.08108466184336632
167.97565118552149 0.4820951587770994 1010.9183297631033 0.06808748550251383
167.83791410468592 0.48284049958829434 1010.9162430395826 0.18165229179823725
167.88452684900378 0.4831399680462193 1010.9157871251424 0.060497315652502506
167.94324656629172 0.4825899423802385 1010.9166244909386 0.0494616916808317
167.76942323823872 0.4948341277823671 1010.9155547732053 0.08031731265411794
167.77967549689342 0.4839121371768878 1010.9166320972911 0.064099292996107
167.77143952627222 0.506262037995982 1010.9138655854096 0.08718532541788568
167.77130647634604 0.5259118244650969 1010.913890963498 0.0861816194346284
167.7692713050375 0.5541119673092243 1010.914522288871 0.08383650294026394
167.76724322837137 0.5990996693483345 1010.9165942452798 0.06130747670902126
167.767012678634 0.5680186612962587 1010.916945241828 0.062316632125266745
167.7781973325943 0.6237535705523862 1010.9374715967899 0.06176556699360583
167.78035134503338 0.6246205409081276 1010.9511026637481 0.07195941073034874
167.77018068260358 0.6170120066915478 1010.9328541326863 0.06025367730255827
167.7702859057241 0.6171415386781434 1010.9458052306309 0.0669613826220128
167.9463644436488 0.6257142944336067 1010.9249751110764 0.06643292601216351
167.9907842861948 0.6257142944336067 1010.9239787781021 0.07333804744018113
167.95779405636844 0.6257142944336067 1010.9298395254684 0.04949364502599519
167.98619717525492 0.6257142944336067 1010.9582168528905 0.06723597706126337
168.01622827856613 0.6257142944336067 1010.9567649964107 0.07362468569041725
167.9810395656154 0.6257142944336067 1010.9467512814422 0.07730152645042089
167.81795317054073 0.6257142944336067 1010.9189123160356 0.08356664717022387
167.88731916282643 0.6257142944336067 1010.924090879316 0.07833186984579628
167.87336167814044 0.6257142944336067 1010.9311699649811 0.07821855582383372
167.9277335399521 0.6257142944336066 1010.9424215527142 0.05891857186955958
167.91713606977092 0.6257142944336067 1010.9335295156775 0.08180753338216022
167.99312425612084 0.6257142944336066 1010.935208419735 0.058255394736999117
168.009024826824 0.6257142944336067 1010.9408621245773 0.060189495844960854
167.93199142617078 0.6257142944336067 1010.9278258933487 0.08075519515520614
167.97494365819276 0.6257142944336067 1010.935875055929 0.06370951019795225
167.99526756793927 0.6257142944336067 1010.947653377658 0.05748927550135356
168.00343705152457 0.6257142944336067 1010.9211264834771 0.062032383403289516
167.8547799958356 0.6257142944336067 1010.9278891232336 0.06626270868283979
167.9476591188222 0.6257142944336067 1010.9383505848107 0.07220915060624654
167.897679226486 0.6257142944336067 1010.9408428763659 0.059664959594450305
167.96555197638784 0.6257142944336067 1010.9409853189733 0.06853992359727111
167.83396225433358 0.6257142944336067 1010.9235655364828 0.08250216946934606
167.92228889319858 0.6257142944336067 1010.9191127811257 0.06952384263465787
167.85194348806306 0.6257142944336067 1010.9599829772209 0.06116317336821012
167.82260244246663 0.6257142944336067 1010.9292587404321 0.07187922833447591
167.83660099655546 0.6257142944336067 1010.9365084977834 0.06988174591616943
167.9679923447888 0.6257142944336067 1010.9549833437536 0.07673947542730902
167.86409861756465 0.6257142944336067 1010.9598105087398 0.07105138402375913
167.86035585862737 0.6257142944336067 1010.9394182924949 0.060650284425004794
167.8529162521824 0.6257142944336067 1010.9486959223617 0.07073666825120926
167.80209737800627 0.6257142944336068 1010.9257837774849 0.05389887010031438
167.8126886011887 0.6257142944336067 1010.9369305359005 0.07913858209805918
167.92295458513792 0.6257142944336067 1010.9528014095143 0.07574263744953337
167.82104765800557 0.6257142944336067 1010.9440324637246 0.04948658179791969
167.92781529955366 0.6257142944336067 1010.9631319132098 0.08438062332968806
167.8845014337923 0.6257142944336067 1010.9397358507217 0.06082581856123527
167.87591945201268 0.6257142944336067 1010.9555694232804 0.08174924070903958
167.93895810624417 0.6257142944336067 1010.9581330439664 0.07946153902148713
167.80025752223116 0.6257142944336067 1010.9577161396417 0.0693543035703936
167.78891426781283 0.6257142944336067 1010.932612347143 0.06880669751798936
167.81651618615282 0.6257142944336067 1010.9551673730912 0.06697635642481838
167.95469576154085 0.6257142944336067 1010.9572949180597 0.06842015565259639
167.79158493998247 0.6257142944336067 1010.9499688160602 0.06847435629805375
167.88800565862806 0.6257142944336067 1010.9538128443758 0.06770672206179716
167.83133147361238 0.6257142944336067 1010.9532206857494 0.04113354082440343
167.80650310246162 0.6257142944336066 1010.9482985113056 0.07606246168410981
167.798768287424 0.6257142944336066 1010.9383614413618 0.0496135689568512
168.01713349410932 0.6256684132499924 1010.9283051510199 0.08087474732243066
168.02715972976802 0.6226706907212215 1010.9532757743365 0.0851798429816564
168.02189089410368 0.6249151319774777 1010.939750937079 0.07572247922790452
168.02896198132987 0.6213296268392691 1010.9299874331791 0.07044534618057063
168.03577892720534 0.6111641971429767 1010.9596556736706 0.08243727177620298
168.03136419311198 0.6191317516260011 1010.943403588367 0.07805350908972768
168.03663340734687 0.506065575688598 1010.9355455229992 0.07395815139569269
168.03663340734687 0.5145336012045334 1010.9442013405001 0.08672986993063334
168.03663340734687 0.5538121423914979 1010.9255162938973 0.09220287036194029
168.03663340734687 0.5377661764388465 1010.9475801220719 0.06287443766188841
168.0366334073469 0.5326783691865957 1010.9239760063467 0.057592721821418384
168.03663340734687 0.5184132109977617 1010.9328594998285 0.05900191649304759
168.03663340734687 0.5388363483974511 1010.935635098965 0.06307417807148487
168.03663340734687 0.5769404356680201 1010.9262993351769 0.08080893632491211
168.0366334073469 0.5081589449817808 1010.9601307044593 0.06610665119387864
168.03663340734687 0.5951653560384481 1010.9188745780782 0.057819992676643665
168.03663340734687 0.5265994347274168 1010.9490123132754 0.07289386257242886
168.03663340734687 0.5558970123217664 1010.961117371527 0.08911880566451943
168.03663340734687 0.5868900416637558 1010.9327175908361 0.05813826368329801
168.03663340734687 0.574710673975952 1010.9405701311105 0.07302965967448093
168.03663340734687 0.604869929777613 1010.9369366077215 0.0525641959095254
168.03663340734687 0.5682651260400284 1010.9515799879127 0.07483525064444538
168.03663340734687 0.5763684825416786 1010.9603021376136 0.09343583685149565
168.03663340734687 0.5841585878073142 1010.9494065660107 0.057036181652378004
168.03663340734687 0.5943229982377479 1010.941919693975 0.06195522339925826
168.03663340734687 0.5587095329356887 1010.9413162079535 0.06739298468715665
168.03663340734687 0.6039326128945035 1010.9503044264452 0.07057412419239227
168.02389901029557 0.4833766073494101 1010.950465677744 0.07917287888520871
168.02153324449978 0.48269635071135436 1010.9380549328332 0.07133051680003911
168.03110320283247 0.48826128460955837 1010.9220355763996 0.08164972649871935
168.0327857391302 0.49033250142848306 1010.957492615734 0.08969439351580714
168.0353592407802 0.4950903856832978 1010.9310455719236 0.06991928698183966
168.0364007224034 0.4994638891813139 1010.9457211170044 0.07937925901896577
167.78603926412808 0.4820545105633621 1010.9452183596502 0.07801123545678998
167.78063456742203 0.483012359985065 1010.9578659169914 0.07996154514401038
167.78255119122088 0.48246125046096366 1010.9280771245151 0.07318261299614141
167.7684538822875 0.4938345994075203 1010.9302198403152 0.08118369363563425
167.76958893525028 0.491643695594037 1010.9425636722985 0.07234026854079911
167.7669527843321 0.49851900654169534 1010.9534524785997 0.07020224523833209
167.77117149548974 0.48948258849341614 1010.9602425864173 0.07221270640278182
167.7666334073469 0.5161916889304761 1010.9195442081432 0.06633382606172572
167.7666334073469 0.5488406864095084 1010.9308623837494 0.03309272402534828
167.7666334073469 0.5163769849554445 1010.9567061706309 0.07860488231875307
167.7666334073469 0.511166719207794 1010.9328784951604 0.05278883070665561
167.7666334073469 0.5109835103998854 1010.9442192980578 0.0665985892269499
167.7666334073469 0.5694588717338788 1010.9345056918434 0.05255092751540333
167.7666334073469 0.5374754510013312 1010.9257772386782 0.08546572687913707
167.7666334073469 0.5401321837907069 1010.9416656678106 0.05817434263236515
167.7666334073469 0.5259120298892876 1010.9329342579678 0.07059066116463736
167.7666334073469 0.52962274827965 1010.9457895913915 0.06223419150805686
167.7666334073469 0.5843012818078238 1010.9296594506054 0.05674876285935259
167.7666334073469 0.5895815330299956 1010.9589218771755 0.058597815353109595
167.7666334073469 0.6056449370466611 1010.9342518839876 0.06625404329099539
167.7666334073469 0.5547889669398596 1010.9535301676347 0.06668180236748973
167.7666334073469 0.5941902846709397 1010.9415803959893 0.0542930746298867
167.76663340734692 0.6024220656297339 1010.9532631015206 0.0817127535254242
167.76663340734686 0.5779801541722884 1010.9583603429321 0.07010754670354646
