x y z curv
26.609049122301457 0.5037553379609548 688.1969492385462 0.147955584287707
26.608885350183215 0.5035247840540497 687.7633077144628 0.0653634026183292
26.608512005418824 0.5029991995102409 687.9904256883402 0.07832601933691588
26.610160593023522 0.5094169400936529 687.8119924570273 0.08241455793467489
26.610041129395633 0.5100018880572665 687.7977803379038 0.07197730090201757
26.610306373537114 0.5087031327527087 687.7061149283797 0.0734798606689437
26.609687921705387 0.5117313526884422 688.1546422793359 0.0823311488933411
26.609693213759034 0.5117054403998491 687.9810592570541 0.06890277645866083
26.6097371234475 0.5114904387018139 688.1211325619772 0.0720878407114074
26.596883219774178 0.4986258908941483 687.7273138868384 0.0715386011728562
26.597165411983283 0.4985599534507994 687.9769105523973 0.06004309343574158
26.598337359489072 0.4982861144865188 687.7500602369371 0.07809730568891766
26.597659811957353 0.49844443123144233 687.5761043830161 0.17524523340162798
26.59820421452388 0.49831722533336836 687.9383930091151 0.0814679371992904
26.599914604499233 0.4979175731159665 687.8662549310923 0.06674548666502259
26.59783853617764 0.49840267026933943 688.15398550241 0.08583834016771398
26.60004508882228 0.4978870839586439 687.7995420280907 0.07299143447698415
26.59095233521981 0.5040773902491179 687.8581447613548 0.06734044749932304
26.59128375147644 0.5036108287554838 687.6589612998702 0.0806190374963815
26.59227847973755 0.5022104692559631 687.7394949642254 0.07143698721390795
26.59083163318572 0.5042473122737162 687.8960370620879 0.06330310006942802
26.592794151839577 0.5014845158926733 687.6373528088089 0.0742534045409849
26.592249449109488 0.5022513380212101 687.6252239584637 0.08694862903127926
26.592315518687286 0.5021583265280016 687.9911970729229 0.07117019669609677
26.59232004234241 0.5021519582124745 687.9495884860693 0.08163292336956403
26.592433530002864 0.5019921924456738 688.0622179765505 0.087241445433218
26.593089457763494 0.5010687898376431 687.6132003712474 0.07205342536420818
26.592100896603345 0.5024604674098931 688.1343392302896 0.08261731367327783
26.592307422385804 0.5021697243470176 687.8201367686027 0.07310043439803587
26.59236912782668 0.5020828566026501 687.7913955118566 0.0729289060074555
26.592993892123165 0.5012033253258635 688.0022905654579 0.07845335602515441
26.592578987269206 0.5017874204766262 688.182644698696 0.10262108555833785
26.5942767893818 0.5002260450077468 687.710231422963 0.08042518771919632
26.594447684607275 0.5001052249073727 687.926683820732 0.07952636967963446
26.594145168723138 0.5003190986384017 687.8090191838213 0.06953323989894229
26.594105355998963 0.5003472455764884 687.8465111239005 0.07994658988298249
26.594065922259183 0.5003751245788732 688.0749369970981 0.0750186198824959
26.594650685523824 0.49996170661394745 688.051396868673 0.06876251250468438
26.59591144690476 0.49907036915163 688.0363683769705 0.07536891441987911
26.594414761983828 0.5001285006581061 688.0893067636109 0.06577498380688633
26.595849789630947 0.49911395982533424 687.678686121679 0.07847916883716022
26.59535408746011 0.499464413068671 687.8338493347483 0.08106946855954436
26.590541427744192 0.5117270623979611 687.9754555604951 0.07689932435929285
26.590534177193405 0.5116915610078578 687.749715227113 0.07921390425975038
26.590557382946002 0.5118051849930839 687.7246792146645 0.07698964598882645
26.59050564919277 0.5115518773191483 687.8402730689693 0.07883732695069844
26.590438571428983 0.511223439669506 687.8026557717619 0.07891187792164492
26.590369010756937 0.5108828447786959 687.7623785909523 0.07477721854112594
26.59019914216273 0.5100511050384517 687.871693019566 0.07265037957121491
26.589873565920826 0.5084569628126154 687.580778168737 0.12625966981542397
26.590081338141722 0.5094742927896365 687.7015957790234 0.07187549868121978
26.590205488103166 0.5100821771202221 688.1225912705853 0.06526633992095378
26.590498903442914 0.5115188476219105 688.1639018277665 0.06653418023003642
26.59019998548821 0.5100552342732741 687.9165310194048 0.08138590674293597
26.58988905566543 0.5085328063563578 687.6734066224283 0.07842452123286196
26.590142366017602 0.5097731079406354 688.083229769896 0.07368882154354198
26.59022903064095 0.5101974501308153 687.9415209496402 0.08537627843690004
26.595444346338354 0.5172150131625082 687.6648785536848 0.07959467918654436
26.595217942087977 0.5170554743349332 687.95056088987 0.07161664302690114
26.593133399265373 0.5155865729455046 687.8999992853409 0.07573584981483812
26.593092342175 0.515557641509587 687.8566139384424 0.06351455850251132
26.595183095488743 0.5170309192058761 688.0682849401123 0.07649108461330527
26.593515110593035 0.515855551012776 688.1895234857195 0.13066271354318862
26.594339455941018 0.5164364371494803 688.0109420853667 0.0806489644353004
26.59397330052959 0.5161784207696954 687.999828058588 0.08536439872283201
26.594173599079554 0.5163195638611928 688.0409323179674 0.07239688555193087
26.599811007322867 0.518412930565338 687.6381325560635 0.06021521165380102
26.598279538492413 0.5181218912472075 687.7747897742172 0.07254993018045414
26.59953841876075 0.5183611280162616 688.0801053469816 0.0740204944249458
26.59853801775263 0.5181710124739345 687.6773152078565 0.07906210969953137
26.598798800079265 0.5182205713738705 687.7555921657564 0.07794591565604415
26.598810758219045 0.5182228438908016 687.7151220356257 0.0772868041952457
26.597638934771165 0.5180001513420156 687.5861357564095 0.10384431559855949
26.59639400065215 0.517763564889905 687.8880687929974 0.07190802049342891
26.597892981707304 0.5180484302528219 688.1560364432854 0.08274493850241542
26.597450147335394 0.5179642743032633 688.1769591132553 0.08185119067051579
26.598061880062488 0.5180805275839251 688.1159211821576 0.07291890790075874
26.59157227636689 0.5134746995524053 687.8289648453813 0.06924377546821263
26.59257292049591 0.5149704647143631 688.1026697203682 0.07323182984132366
26.591544167040087 0.5134326816655891 687.6304170216295 0.07219481359273305
26.590986063363196 0.5125984269965821 687.6507639491371 0.06178712671289694
26.592196961853325 0.514408480864555 687.9881110267954 0.07494161897583919
26.592126124634618 0.5143025932259447 688.0573524396266 0.0687355127909517
26.592459876247133 0.5148014859094358 688.1380170467601 0.07984037438360408
26.590926515773024 0.512509415120852 687.9297143115629 0.0930951754161709
26.59210720171216 0.5142743071976245 688.0242384375493 0.07593026868050487
26.59010387998454 0.5069968872230499 687.7802437257953 0.08906702266043684
26.590076794309418 0.5071069916874887 687.6898795838429 0.07362670312056793
26.590464509679656 0.5055309116005895 687.5965210642711 0.07398613895446024
26.590557771639883 0.5051517976173451 687.9608102470303 0.07707454796710961
26.590521551137172 0.5052990355589976 688.1469662842488 0.08673765913292047
26.59046456426612 0.5055306897042012 688.1127011702088 0.07244754426145383
26.59037433429547 0.5058974785160586 688.015527318038 0.0831837055432908
26.601880034864692 0.49828312325974866 687.8773623841803 0.07222270890877655
26.602380994217718 0.49840017700943096 687.655646764242 0.07155948161060283
26.60015500222312 0.49788005355398696 687.891374405363 0.06916004045356375
26.60261649412992 0.49845520372488616 687.6318085610952 0.06372442479304535
26.6026955013744 0.4984736644925378 687.7739697110592 0.07946789565331398
26.603541248800845 0.4986712811393806 687.8179926424423 0.08377045733073754
26.60276090704206 0.4984889471269549 687.9135246632742 0.08038522107143552
26.602298561429983 0.498380915832167 687.9576842464005 0.07385174841640182
26.600443865959335 0.4979475492165935 688.1745747955724 0.09881118532315325
26.650197879977476 0.49772157460389294 688.2443054275939 0.10394669425475675
26.64801798512606 0.5165818471124272 688.2424364210696 0.1028575602494107
26.64707258407904 0.5147979967521948 688.2298505742774 0.11302853297206089
26.651319592270752 0.5167192102565707 688.2190914489188 0.10435507369214694
26.66114641513787 0.5180623043609607 688.2398691944009 0.11195110101101684
26.667877457683115 0.508190143851692 688.2507241822099 0.11709871348517402
26.659373726454568 0.49933980944753453 688.2202387904597 0.12389322283206484
26.660428446653746 0.4988471081550088 688.2322883448272 0.10292133996034486
26.661348810721666 0.49821755202515716 688.2462602284006 0.11860603163829923
26.66576371096995 0.509232200579728 688.2284354480558 0.13544339458146545
26.653710231663702 0.5103936100571889 688.2530555633004 0.11462729267017313
26.608554214530297 0.5111479486419634 687.3093340667793 0.03035137094189288
26.813593212397638 0.5090086824335783 687.1930513786976 0.023320973444758482
26.809308934710884 0.5115513310948571 687.3428307620318 0.03213588631486436
26.734587462368292 0.5121517297982825 687.688674838552 0.027152703389239564
26.747830010646346 0.5135194817505239 687.6271741821945 0.032341349656820506
26.744635220645883 0.5113033301062306 687.6480568093456 0.03408428528514212
26.693988067042834 0.5118761006466741 687.894419140213 0.024850742665349933
26.681475542969395 0.5137706927664486 687.9629119009281 0.0368213696129916
26.676791430652077 0.5134396031350209 687.999371444305 0.03188646416279988
26.600875385234414 0.5133187151468378 687.3817001989112 0.027647230555480865
26.60117867277303 0.5125361509017121 687.3688069905498 0.034814753981593255
26.78351876765663 0.5140172915165423 687.1427112189187 0.026007816842923866
26.812343665220947 0.5129744585545535 687.3122209528508 0.03019076606098927
26.665890314364443 0.5134503404513733 688.1010971964861 0.02922577185016258
26.66768805529142 0.5130611605410218 688.0887051940784 0.05004448173433641
26.790613398776294 0.5151001538030588 687.1546747191002 0.030788582728187158
26.79752092262912 0.5148889788409605 687.168207800629 0.037829999534909536
26.776303996471206 0.5150894148257378 687.4898610546938 0.031365080779555826
26.74203877391001 0.5148793450913896 687.6367153675542 0.03373524398884825
26.733968349554765 0.5146380005967807 687.6749044811907 0.017988007289083476
26.747656486608452 0.5150232014747799 687.6105854868264 0.023512747002053563
26.709647287463103 0.5145443685971407 687.7898285224717 0.02048955747219068
26.69782211008738 0.5147952473204713 687.8466357571612 0.03333703482586923
26.600705135732934 0.5151812365812771 687.4090600572142 0.045573502450841005
26.644698070117244 0.5148038831464666 687.2094369523951 0.0307054367536828
26.67428120534725 0.5149782231488369 687.1575151276577 0.029053130255776282
26.806394669628762 0.5145038122924819 687.3033472284259 0.024291345440168473
26.656963534830282 0.5146697880915855 688.1321172354117 0.027241932291322577
26.660231392480867 0.5150921066458414 688.119629542969 0.027532859402199298
26.731946051332173 0.5140185711705091 687.6629334046227 0.020144437901618975
26.7085400760268 0.513421682743919 687.7667561021394 0.015484186966816742
26.688482918972667 0.5147584124323354 687.8807844956351 0.023734599683598912
26.669210178708084 0.5124303188245777 687.9840741896171 0.03498846141321736
26.65836035707855 0.5126026385195821 688.07995005385 0.024483243210653077
26.656150095683184 0.5128649391111022 688.1071628209413 0.02986340806313702
26.65320955523255 0.5135063337537131 688.1643073005844 0.04134750815194967
26.61074986540869 0.5123499499153683 687.3760342947752 0.03232429366572954
26.628313319248967 0.5128139923686941 687.2687557556063 0.03064110466483905
26.724381155972985 0.5134000889803905 687.1299024275816 0.03752420590906338
26.80069695596951 0.5132036645386799 687.1892350367688 0.022180760369525435
26.80396714706178 0.5119586805019556 687.2900812443097 0.03177047671632407
26.798315977781954 0.5126175789747935 687.3444958251471 0.029454696251312463
26.775967960851034 0.5101708417022215 687.4538854207844 0.039888017205110836
26.652341173911424 0.5108353816869762 688.1434218532293 0.031353536290909145
26.65060993632028 0.5124519147572455 688.190573853153 0.07013626386642506
26.651982224466014 0.5074825769447247 687.1765664132741 0.03429439406197042
26.594498228868396 0.5105812950472114 687.4497040669576 0.05509714504490592
26.69842329718908 0.5105022499082223 687.1286122851213 0.03737406646685375
26.71475271330994 0.5096307087674248 687.1205079812701 0.033413988343948854
26.81593600910312 0.5099108035002008 687.2970448546462 0.03589294460247417
26.7906663754087 0.5083176470192874 687.4513497649257 0.031198790162208577
26.797564585871008 0.5098381197157714 687.4138652700078 0.028819382848936544
26.701721376961576 0.5067960049799471 687.8585972441584 0.024914629511698656
26.72011292271075 0.5099044447474467 687.7638899836863 0.015528490847906406
26.712378511383108 0.5091286893631197 687.8026230585809 0.02137305414558878
26.717504591119713 0.5096214793296371 687.7769962216653 0.021990162482529912
26.693076631920313 0.5071428832997743 687.9078170247209 0.03078814306014203
26.68715466373306 0.5072229900957526 687.9435459110402 0.03575412272003495
26.767705570547463 0.5108811005010458 687.5494896110498 0.027318034191762715
26.783411719179462 0.5106640344618514 687.4807418375309 0.04666293706024363
26.761458409092207 0.5102947259674443 687.5777217004652 0.025898960052282344
26.670173475125452 0.5071186596235091 688.0776027714405 0.03509920017931171
26.665130230972256 0.5108434126823632 688.1405995807604 0.03072405176402253
26.682052558892465 0.509864538200737 687.9802703026949 0.03369130179482142
26.661064601248686 0.5120115316706334 688.2131664993913 0.11598014157542277
26.66135037196902 0.51219217062766 688.1993794317452 0.07307298163548973
26.598295171953005 0.5142886988493737 687.4370711107076 0.025735542203458004
26.604841797570927 0.5139115307264115 687.4197260823858 0.029341743180616428
26.665079754261452 0.5090286633113676 687.1811377333206 0.03158194834559295
26.60787094124977 0.5087904445041536 687.4374832387675 0.026801763253542787
26.804753413090687 0.5068248569695971 687.2681500112143 0.0291771847561405
26.788454589157112 0.5085357313183133 687.3920005185031 0.025539106367214296
26.798361596678554 0.5083355622428147 687.3319177404055 0.027851010260586742
26.60917972031909 0.5120753037017053 687.3991678146389 0.02883331817884797
26.79243294253922 0.5067284737758881 687.3672808982814 0.03343222374888496
26.711339042873064 0.5090703765515465 687.7385711724788 0.022139411049145637
26.686448509781876 0.5100417012164087 687.8667935398855 0.028194967081032724
26.656122380523687 0.5110798008683841 688.0923845305853 0.040573567359153885
26.67135163095095 0.5082498163175456 687.9571600418187 0.03671619234184448
26.656669994817655 0.515276879251786 688.1801335062219 0.02617560652969485
26.65075882108952 0.5131324199678792 688.2060877523729 0.08828979366749344
26.715692202309814 0.5112419059620682 687.7203400634731 0.027574077775704118
26.73671587379833 0.5088074188880161 687.6254064728585 0.0323197080083781
26.70282754554062 0.5098838691590795 687.7819772282778 0.027382554505509436
26.69365625035383 0.5115172462381794 687.8300474265491 0.017332709459754857
26.70014466603807 0.510145690376359 687.7958215329576 0.022080409429317143
26.67985470170403 0.508117597157759 687.9028260272711 0.03304266319385422
26.67780302510522 0.5079387862086957 687.9153272166925 0.03327322097210317
26.663556357397333 0.5109791927484992 688.0187976246765 0.03377357878594974
26.62219332470064 0.5050992196258185 687.2995334515953 0.0335321414009456
26.650099253469307 0.5053018153576392 687.2105118010643 0.031334355186303356
26.63272431202844 0.5014512314284271 687.2438866884474 0.031022518408942542
26.679400628519033 0.5025641769142913 687.1593857235018 0.026493264001043387
26.74702329459544 0.5056012875244814 687.1324684785443 0.032278705987397883
26.793743412020625 0.5053566070671197 687.1727228394615 0.033128997655931754
26.806482629282446 0.5040115050858754 687.2562712354 0.030601269870313107
26.80342386138087 0.5033339291101745 687.3069852279066 0.025997427533993128
26.796044541026752 0.5046080013859248 687.3527703192885 0.03734415586494787
26.66221994521165 0.5042525272808638 688.0365444393547 0.034961930588919714
26.666062390556625 0.5067503378378835 687.9950821680966 0.0309596818581102
26.730640431242147 0.5015031574894696 687.673603447058 0.022436584915015788
26.733731149239176 0.5031539972405499 687.6499565203753 0.026756222581178702
26.73636617951481 0.503730917564672 687.6348995353895 0.03724983559047055
26.728044448440876 0.5016091971949977 687.6842931108522 0.02974146794887097
26.74207277802849 0.5041625528977665 687.6073163190574 0.03620745724903844
26.70784365510594 0.5029836909316655 687.7698050079857 0.017755054754559563
26.69962662160205 0.5035060864813491 687.8076345323992 0.022725224948335856
26.697860680848777 0.5028536749079632 687.8207615620638 0.01646549680078592
26.6052977748247 0.5013117699388734 687.3687168466389 0.04389381424851487
26.682383679613395 0.5013013229301391 687.1461130464858 0.036809472428677936
26.807459634327948 0.5014334524174692 687.2182540853759 0.03474402987977876
26.80786890099705 0.5019064224833467 687.2423657470238 0.030916837489228913
26.788022960695752 0.5019159643537335 687.4162034778872 0.03717835431117874
26.78506900413646 0.5018935507527444 687.4308044876799 0.029704750774142377
26.674369677977662 0.5015526390624987 687.9754658551183 0.03483051649534477
26.665634631329045 0.5021921633104108 688.0248928601457 0.03223774438342726
26.676841614533004 0.5019670387409316 687.9475724610251 0.03314915126859358
26.658844174003665 0.5018154094234691 688.1087813209882 0.02244347350074905
26.610742303206308 0.5018462137296876 687.3177138930284 0.02756332662570342
26.62554843266842 0.5018199629922524 687.2551791750965 0.030177901957381098
26.638670948382618 0.5019017130742682 687.2171732006525 0.04048294899837598
26.72410870592046 0.5013179441113573 687.1253451003536 0.03570194102875243
26.778084466742836 0.501115318697382 687.1430062822101 0.02400071929466926
26.675666961951457 0.5017275262327149 687.990025444967 0.03182498706140294
26.66387151210955 0.5016326002420087 688.0886360044965 0.03444861687485456
26.601259762290038 0.5021971457871692 687.3860997527034 0.027852605021532542
26.81483566483209 0.5037201197796893 687.2879209658089 0.033876065658179404
26.664184869295905 0.5032329121737595 688.1328456474855 0.03452496772862621
26.64590177268489 0.5034295597295368 687.1913867107082 0.03052135814219861
26.640392270191683 0.5042813137533739 687.2035176513705 0.04434488508451319
26.75372672776338 0.5053461980968488 687.1211163288285 0.027991274656795823
26.809236221466932 0.5045428058466646 687.1828460556035 0.027549260074830016
26.779814442865252 0.5044489301545522 687.4946796761013 0.02787327841870245
26.772291764173566 0.5046123657965997 687.5277934503572 0.0286031119725925
26.756058120023173 0.503450905268346 687.593862166266 0.025820438464333767
26.713945423194996 0.5042149222998555 687.7866562867703 0.020499844386124736
26.68764960124645 0.5026336697187783 687.922185327195 0.02391720370401555
26.64482615636999 0.5085391743093242 687.224027479423 0.026634880126948646
26.620026382931755 0.5072386498701467 687.3146766148511 0.02785455805718163
26.778567293923764 0.5083694425629012 687.4399709495547 0.032193496791872646
26.607277601949594 0.5084502957332 687.4549760101469 0.0555325482902447
26.61494889083888 0.5085688331453688 687.3481524322125 0.02821974897470718
26.615857505726904 0.5041714219637422 687.3378158327541 0.031819066383021746
26.63305105414451 0.5096534632904836 687.2571418917254 0.02662324551292536
26.60634917470673 0.503280540158515 687.4275275818127 0.031813703214950854
26.800906026223416 0.5076765966220853 687.1998981062807 0.029060817139673616
26.688857808661734 0.5059485978949178 687.8532122949057 0.03179698060585753
26.74743282488491 0.5076125845830122 687.5796288957413 0.027722565935174266
26.7539586296836 0.5090338607911405 687.5496685786317 0.03354261968248564
26.7440914794347 0.5063381515540258 687.5955570836484 0.030153257946276216
26.707976540128204 0.5058913072741066 687.7570919509742 0.016917394648815837
26.682518790037783 0.5069036439127805 687.8880468417512 0.030039413533798482
26.675440548996043 0.50712638601432 687.9293488885345 0.03429746120065197
26.652762164793145 0.503721856788658 688.1529863344945 0.021007692670322924
26.65718922152617 0.501156647228828 688.1856629817612 0.047483399529093535
26.653187605472674 0.5024987778952917 688.1693495206971 0.02493556732561428
26.650899330520183 0.5033839493146279 688.2132571801434 0.11871087684244809
26.60412621773735 0.508439156260017 687.3281473149841 0.03188972638679847
26.597112711264575 0.5062374950704039 687.3960593121828 0.036240783804306544
26.59501091135347 0.5065237879166098 687.424009251569 0.0301039598840615
26.8172221845267 0.505301959677475 687.2745910830165 0.02774611750203725
26.670766824167817 0.5079174522351222 687.1503077373673 0.040171846261965835
26.812424234105215 0.5070450798413767 687.3281165427394 0.028199422210527864
26.80523390044184 0.5060599431396298 687.1693782693844 0.04527626120132902
26.799613937213092 0.5075442841038436 687.1577257375542 0.027676693928224756
26.72269221363043 0.5056189426645108 687.7507811736555 0.018906096746433506
26.675342207903107 0.505976087609595 688.0332489490944 0.030495083625988555
26.663834106297415 0.5091259000726478 688.1697548860064 0.02946740201673509
26.732789810274763 0.5093574089967322 687.7048123505045 0.02983098359426148
26.742446470673336 0.5076874457727577 687.6615164647169 0.021752985007069948
26.752373377109485 0.5068212122449258 687.6176772588994 0.029761340306542858
26.7054527045651 0.50694826729643 687.8397732680969 0.024636588561556462
26.610256430755726 0.5104423139633554 687.2965271362943 0.03315453677176515
26.621443100111545 0.5129580743137054 687.2576744931628 0.023910654479853292
26.62533371876693 0.5128220331598028 687.2426294118139 0.0270413774079874
26.632260069796285 0.5123236933401472 687.2249294678711 0.032607645464913154
26.663184364107085 0.5132331703041216 687.1680328782911 0.04063314645450698
26.681181088952222 0.5107135273574517 687.1399908580468 0.037892234620102584
26.776843198602318 0.5114901302016157 687.1341123989571 0.034780159105868395
26.817207720911416 0.5115627287081093 687.2474563010724 0.02541113061853095
26.81648856258027 0.5102044285087307 687.2218523072114 0.04487379374098995
26.79231427410311 0.5117242860747135 687.436602856021 0.03229065716333913
26.80713522069029 0.5087553079457151 687.3658527176318 0.035164313075522334
26.72480810771511 0.5105680084509836 687.7394789662095 0.02254565919253636
26.70746186987908 0.5112455712348873 687.8241231217062 0.022830830715150664
26.67096806867386 0.5118339595272541 688.0618737102284 0.02184529305663694
26.610254555736468 0.5151339101776771 687.3220770527865 0.026385972407057468
26.732097357624436 0.5133752856782496 687.1193832589697 0.027303063002989323
26.772639401149128 0.5140337113943966 687.5135590855916 0.03204380388911769
26.782945792250914 0.5147978615122426 687.4626497375734 0.03401969323144544
26.776792586528444 0.512974358175356 687.5021406187182 0.02645952083830102
26.79848799945818 0.5142875401822166 687.3900349462027 0.03778526683837397
26.727220440822936 0.5142225054852065 687.7138546238269 0.030817972451249804
26.696254769301785 0.5141341748778079 687.8704423896106 0.024489351701283118
26.68342372272513 0.5145719830893076 687.9360765714844 0.03601631887965937
26.686112789798983 0.5148618276849407 687.911021309839 0.023087887950876528
26.60730622419794 0.5149794618841564 687.3554326641357 0.04162914860619452
26.6187766772535 0.5148976983278865 687.287800397001 0.031165973654247697
26.654125830106324 0.514834089370484 687.1869880011996 0.028881024503333883
26.71228778249526 0.5141837137211963 687.1317916490375 0.037365553412685514
26.811406918848892 0.5150173316767991 687.2343491006053 0.04228172436036386
26.809639847503043 0.514785663005023 687.2792276239757 0.03101934762940935
26.810446036381215 0.5146644321279206 687.2632562125443 0.038301605476654295
26.7989404987736 0.5148702178738154 687.3577959210511 0.03097925513190199
26.775546915217358 0.5142515193737912 687.4716817662882 0.0383005532752549
26.766131378621218 0.5148679621402341 687.5228246228652 0.030899068566922216
26.762622962443324 0.5148434745578785 687.5369309885671 0.028949525062676573
26.72545378489582 0.514935901768715 687.6983469128137 0.02992036546569391
26.67764060543142 0.5150420663544748 687.9512801415044 0.03381734000734971
26.66487629725573 0.5138139113809317 688.0318502269987 0.022578492453579995
26.70051159508283 0.5101750452606091 687.1424588160014 0.04208270758081954
26.690537751281916 0.5122334969801619 687.1478726019866 0.03691343372896071
26.740063065768574 0.513279532285851 687.1281899314714 0.03415484730466248
26.8049157690336 0.5130667485815826 687.2198391580426 0.03814856897071448
26.80501171716827 0.5140146770774987 687.2091120533918 0.04094680615344855
26.782976934414577 0.5130914831688576 687.4295746124905 0.032514544750055656
26.78618730224978 0.5131592522868195 687.4141541069764 0.0323862214509004
26.79509193866393 0.5144843829459113 687.3769987777748 0.03368677914632318
26.766314816102803 0.5103353900538692 687.4974778010065 0.018214680329713077
26.75109594631749 0.5117711412154705 687.5677862432519 0.03422480634841545
26.606769567871957 0.5031309782113718 687.4147848910014 0.04196962519894909
26.763585695268436 0.5057245091822687 687.1379436582084 0.03741791291723716
26.805249235043128 0.5038859777432523 687.2799880564891 0.03520126523023562
26.802023179429135 0.5033850478645424 687.320761009376 0.0322957032410589
26.658492762960638 0.505158302418251 688.0688049854755 0.021143964549727622
26.661728375017447 0.5032659967150814 688.0491193529615 0.024487108906408532
26.77197147765696 0.5024091128448898 687.4851667863878 0.03909610540002951
26.715259105920644 0.5036196735505085 687.7290334620955 0.024884741256093808
26.606003737064007 0.5022517139293621 687.4028585475305 0.034321579147960427
26.609721878678258 0.5023169326028174 687.3579093049523 0.0421798032623025
26.714649311075714 0.5020721543322911 687.131073985835 0.034864519657921575
26.80506772326237 0.5012421358570203 687.3373910397349 0.02620871466597439
26.79662472987884 0.5012298070033521 687.3912771553307 0.03745532954654199
26.798899180789867 0.5012551188932011 687.3793725252121 0.027254775314562524
26.791109242606023 0.501843383226286 687.4032513309496 0.03322668560019526
26.778589504302406 0.5013213666744045 687.4745402297491 0.042211348605498404
26.759297560741146 0.5011865365982309 687.5569189666426 0.023241492198402103
26.766779713849175 0.5015878904048459 687.5168529700554 0.03520635762290496
26.621952326207992 0.5015644338440868 687.2771414398028 0.026956210585269067
26.619877660815984 0.5014902360878402 687.2889152786958 0.03172466613283848
26.636181151589653 0.5015191554866095 687.2293841436608 0.033129632508586505
26.79002617256203 0.502219023806345 687.1487098670825 0.025679034554831184
26.812585531171337 0.5016621991313928 687.2305421099495 0.03089752240684668
26.724773101218783 0.5014210378425249 687.7098698015054 0.029914037832260616
26.695096944509533 0.5020548362406246 687.873909014483 0.020196261498030905
26.675450424899907 0.502181655360591 688.003608003492 0.04007914577176802
26.673331781114747 0.5019620300012192 688.0153129544244 0.0283287806636262
26.603262608515053 0.5035569171626122 687.3480514611958 0.025105097581233974
26.76627102408055 0.5019172905710987 687.53926105407 0.037412749615639736
26.760109099348533 0.5020969015556901 687.5678671447901 0.03284500897701223
26.746538694125796 0.5022287647940484 687.629084587831 0.027731774801042813
26.784242448291323 0.5027015647665185 687.4646693437285 0.031413978581632404
26.61884465953988 0.5038910970102212 687.2663301777 0.031940668700590646
26.666631358375515 0.502060373374457 687.1647346844707 0.036193872856625856
26.69070994561336 0.5038074660872791 687.1356504922098 0.03848068169389035
26.76701773057646 0.5072098432496831 687.1241964757728 0.03411265874032662
26.815030996328947 0.5054200066481035 687.2096963072993 0.044557739231950444
26.727351393729407 0.5049543202152265 687.7267468369232 0.021256649857877365
26.684259173913908 0.5045787597451589 687.9552942164158 0.04387746516557142
26.67346579105626 0.5057650619095424 688.0480763153458 0.02843995475971818
26.664177912252896 0.50457384864835 688.1536860925326 0.03444491907325601
26.66611350337863 0.5045740621371266 688.1207493227193 0.035664902984132975
26.503840945179878 0.45730704647532805 687.5107175553679 0.1523562760976973
26.513646207524047 0.44896156317986924 687.5213880063206 0.25110724613601065
26.51847219937388 0.4581573421237026 687.5156855915143 0.2281156723668626
26.552267698596278 0.45254675663767324 687.5044270977169 0.185395024264292
26.54426764412237 0.4578156564687432 687.5485512362013 0.1170371079314516
26.541430962804224 0.45640683684340855 687.5372623022804 0.2007855680011259
26.504158058721657 0.4517692265940265 687.5519308892603 0.11374658825581886
26.510778907810252 0.45340154178900127 687.5353570129435 0.20949361711326508
26.530615655613936 0.4481034986155754 687.5141029874266 0.2699103289452978
26.538355613724043 0.4562237744395419 687.5222535119349 0.24506854365668446
26.53785743885002 0.4449726003752148 687.5234000920066 0.26458070731124245
26.51184034529142 0.4475033636847481 687.5047231553339 0.17264517518402814
26.541929467875352 0.44649630329748113 687.5044272466669 0.20606294723853547
26.54590061093608 0.45125649582485905 687.5145488169244 0.2742178501712232
26.548792318213096 0.4488905433427478 687.5397792859333 0.08118982748852012
26.52145822977936 0.45236673161196383 687.5404937553507 0.22180561256687176
26.680541738988104 0.44113431297379285 687.5203168355465 0.20797813382558164
26.669956229023548 0.44054562377930045 687.532537542848 0.23065967768510187
26.644525041992598 0.4968816596402691 688.2999513601435 0.11654870804987845
26.64769467840684 0.49794787724597134 688.3304153234097 0.10174178887159041
26.650751010725507 0.49821216761554543 688.3478831526334 0.10094197252734732
26.641854731264985 0.5035887820142825 688.3154814566317 0.09213102103217376
26.644762935476905 0.5101292805140538 688.353673961007 0.16021304657505137
26.64865820560467 0.5202031821410336 688.317013849359 0.11904423840283622
26.64714758461638 0.5176730122472395 688.3318956287549 0.09772380129379092
26.642986549138833 0.5183462588574534 688.2927934924638 0.14090544832114546
26.642054864304832 0.5150861593550125 688.3044995111547 0.11812889871379594
26.645090644702908 0.5136062070791004 688.3432823211094 0.11877331572076719
26.654197161978942 0.5191662860167922 688.3476752910613 0.09109046523138928
26.642891092059127 0.5018855911837046 688.2743137682133 0.09456269022010436
26.643206694793225 0.49900113916454125 688.2850962936088 0.14409226196724848
26.652778189414285 0.4959378421609207 688.2637153860596 0.11888075657012025
26.64319476113869 0.5059979849499785 688.2616387532537 0.10279335623308031
26.642596344741985 0.5149229520786002 688.2793554162624 0.10043418740133195
26.649567670891884 0.5187229735160401 688.2607672492715 0.11213931723940931
26.658541539653974 0.5197321502416029 688.3358358640844 0.09901623200976803
26.65874416513787 0.522932125475512 688.2991201148754 0.14295629314384228
26.659507344184988 0.5213676155405274 688.315206374934 0.13716752831630682
26.66771654929706 0.5151264752270095 688.3086834659534 0.1378352465170769
26.668456983577364 0.5164315291389339 688.2932235054276 0.15584488385070747
26.66448294453761 0.5136879180210112 688.3491173912508 0.08501143502698703
26.6655659183641 0.5157034513279068 688.3258269425946 0.12510569950636294
26.667116225572332 0.5133766633329581 688.268884784712 0.11839625833577803
26.66712806717168 0.509158316294209 688.3369460557167 0.1078966156486241
26.658721041024222 0.5226969351622659 688.2856641516331 0.13120556767661334
26.65892207842672 0.5203465000770575 688.2671674399617 0.1266127309572629
26.670084847970536 0.5055005606061255 688.3002373971142 0.14512972653571632
26.668235962193446 0.504645702214641 688.3193493494778 0.12389159868397769
26.66330855511323 0.49570339184004997 688.3037832959355 0.1462038251752013
26.662385408916705 0.4981246718132157 688.3330806742149 0.10951777602248543
26.663529104071348 0.5004409287714138 688.3456071738358 0.0947809411198304
26.658097787485616 0.4949564467785678 688.3204178718122 0.11862901113202376
26.66996047598178 0.5043858969743873 688.2874984783236 0.14566014110108919
26.659853396101305 0.4936725564128393 688.285501976121 0.1272086680847232
26.657713608992502 0.49468811897094395 688.2741122681675 0.14774793174572431
26.664764889000367 0.5006232464954004 688.2623973880782 0.11988498790111933
26.668015344721073 0.5024341357826432 688.2764705357455 0.15912264910041682
26.593125743328027 0.5054936620961177 687.4605054340304 0.058815925508410485
26.597653148643396 0.5152011228378687 687.4625920270231 0.0541586766775866
26.607415329300387 0.5092181040625317 687.4673467043044 0.10760812688216863
26.59708512201432 0.49724868099082137 687.4856589143199 0.2027288562967909
26.59617950878737 0.497421420786265 687.5017374784819 0.2298602583608755
26.590521106730357 0.5022651722690744 687.4760795984024 0.13726972151366942
26.589985435041132 0.5132607700365803 687.4721761381962 0.09880371509971639
26.590283416184825 0.5137144182155082 687.4909389276095 0.23331423371332558
26.60453356405516 0.5187415383765508 687.4863794260402 0.1914145151969608
26.611403035563203 0.5092825546477306 687.4880650696188 0.2296393352482498
26.60639771401428 0.4988243929881428 687.4805412628132 0.13950872935361908
26.604174799364632 0.5188963711539033 687.4989873360939 0.21789345090630535
26.68903361179885 0.48827201119699737 687.5255947725036 0.14353791235611552
26.688204148392483 0.5050529378449415 687.5213097695025 0.15867127696761685
26.6757857773051 0.4980454839032346 687.5123289473544 0.12273286330092686
26.680890452667327 0.4846777370786338 687.5137071725451 0.15558072301364484
26.682621357879356 0.5160644924141846 687.5148441253107 0.1635100172804292
26.683991839554405 0.473833250429458 687.5157443322773 0.1945530417650292
26.663506684164055 0.4754390302916442 687.5175157513055 0.15618050464671335
26.660573804419997 0.4878853789591018 687.5239672383448 0.12020215753507779
26.66607251654486 0.5151799442195164 687.5149854501157 0.1358552926604903
26.66090120023064 0.46886518801814847 687.5312066874751 0.20978942097319497
26.6656902531735 0.49713220448992923 687.5381616515679 0.11433621837623247
26.671116134341737 0.5066392717058733 687.540631022285 0.12706075822212345
26.670597261130805 0.47921092255949405 687.5405320501653 0.15226153839333778
26.68424429108147 0.5159368904487962 687.5375071137623 0.15736757443221192
26.684582151212624 0.4889999124660735 687.537285189553 0.15629638804138113
26.681294026555406 0.4733168493283687 687.5394450018468 0.16438027001421662
26.676348340788284 0.49623537954502334 687.5409810155218 0.12905793118897776
26.674847438647475 0.5216366888479608 687.5412673036789 0.16487921697336597
26.689179019944508 0.5145759050798752 687.5270601757754 0.16121332724508178
26.688569729194242 0.47536598718298756 687.5302544562303 0.1682511571670595
26.6749834651925 0.5260343780517616 687.5217643190877 0.20240547367110126
26.670286006668544 0.4660892257690393 687.5386779869981 0.18741865011001502
26.51212936204289 0.5148780662794374 687.5262424866062 0.1606284891260474
26.514573324990096 0.4719456667725404 687.5190399302603 0.18873160778243786
26.514377218254488 0.4901547796191736 687.5193384850306 0.16541093299006757
26.5158644786935 0.5198318258548442 687.517074265511 0.18697866436043697
26.523636225699207 0.47770608347599525 687.5126845898801 0.14771592157370073
26.52299296141173 0.491257221556065 687.5128072875754 0.13892574811020328
26.53011544501817 0.5142022798810493 687.5127757621498 0.14449417538978176
26.5361493042865 0.46677356781984625 687.5158498892041 0.2124865394435559
26.5171890740813 0.5033046702572332 687.515813701343 0.1264255662675672
26.537881756396295 0.4832920974781657 687.5175677941093 0.11746510155034698
26.540552518730422 0.47143709595305455 687.5303790424805 0.18343536067712155
26.536197253554036 0.4912425871212684 687.5377091704408 0.12742291083596452
26.532440911092806 0.46810800028103455 687.5400123716422 0.19440658556031679
26.51645646169369 0.49100377413895047 687.5371223501475 0.13667026374515298
26.525843608578427 0.4983856725226716 687.5411537204818 0.13053244952473564
26.523540292404697 0.48073209361925895 687.54071437662 0.16822423924820065
26.522952898821934 0.5227316369067572 687.5406023347875 0.1964492421419256
26.52309968900004 0.5087870452385506 687.540630334141 0.14316261646060616
26.51346221679626 0.5035215202665666 687.5326857765515 0.1343563565318214
26.51291529518487 0.47973993306032336 687.5312951310118 0.19568350075647337
26.5127353907674 0.4666088857981711 687.530351960343 0.1950526517680995
26.539052174794882 0.5254334777748366 687.5338760085665 0.1656460757808971
26.524770152971897 0.4660892257690392 687.5280819302654 0.22085699748754467
26.614980997677247 0.4832765275065578 687.5199179269777 0.15497090372558467
26.56545900263106 0.4978608013463881 687.5345308559932 0.19945857127447153
26.579692671949125 0.4948301553355612 687.529634624967 0.20108293402960864
26.569316597532982 0.49602004288429435 687.5205672749427 0.16686496676047316
26.553186059604087 0.4957724666195606 687.5238149693504 0.15312087740666935
26.563809180618584 0.5043176412169679 687.5137296013103 0.1966288765466095
26.540732490506972 0.49707372222549 687.5210042511736 0.12723682442457077
26.541519193205442 0.5066138268193554 687.5140881378315 0.1344077608327056
26.555679627518405 0.5112118772736554 687.5138974396302 0.13675627400115417
26.566406771110408 0.5191788151497255 687.519167551249 0.18418893489473392
26.5763452301696 0.5216125972065048 687.5244561504464 0.21871844665922388
26.543153135977803 0.5180770640947245 687.5191814969733 0.1403384032941176
26.556290288757758 0.5209829591594877 687.5271002087395 0.1668811784766387
26.553286811090736 0.5138959793388236 687.537616935845 0.12378454227265989
26.56506775832436 0.514982299982965 687.5374953184651 0.19873257156755808
26.53885877866393 0.5130303348121448 687.5375190060913 0.1306381269626614
26.582642848662854 0.49423003372274704 687.5076462785082 0.12465515361363473
26.599517276561045 0.48534953971227285 687.5019577087112 0.1490035004557392
26.592148073524296 0.4869120309573394 687.511877328121 0.13195729365618628
26.608518592117335 0.4866421742944685 687.5103930868806 0.14465212568673033
26.578082116925856 0.5045514392377695 687.5463638098124 0.12724478593064134
26.58644430299668 0.490168838893253 687.5427730899476 0.2451757287417298
26.614365373673788 0.48984758811247103 687.5400399331218 0.13714769054175965
26.592440441067737 0.4866798356589963 687.5548398085983 0.1236365775668353
26.603457219325946 0.4855521222760939 687.5508667835575 0.10030046017980856
26.623226128404053 0.5109235980332414 687.5041106822187 0.13173230959262075
26.621483028876856 0.4985246445398506 687.5094783504431 0.14289789037229622
26.610963505944692 0.5283744679480913 687.5437150714818 0.09690046625607202
26.6156091927949 0.5253229262032582 687.5029249335404 0.07941906109408194
26.614885441789934 0.5257983255307943 687.531500840575 0.11352267278845718
26.612158073320742 0.5275898106234445 687.5178860059248 0.09810788185981865
26.602318715687698 0.5308822655661467 687.5528659563039 0.08811357253257754
26.603344353000246 0.5306866322938721 687.5288713251213 0.07786139974365036
26.58860776430477 0.5272477968452586 687.5525210388175 0.10829237234338727
26.585345934999374 0.5251052485825659 687.5368346740553 0.09612976460398939
26.587582756402917 0.5265745154765094 687.5233471506012 0.1012004658638801
26.580945263283652 0.5194148293583987 687.5051612257398 0.1299832000836826
26.59396117620952 0.5299272853390973 687.5408092195427 0.09025752309791012
26.5965326579649 0.5304177778204484 687.5065595735559 0.08690142539047281
26.600561090591036 0.5311861736726118 687.5177114007355 0.07625725775869314
26.617887086600494 0.49323020539189966 687.5529707529104 0.09705972654440842
26.5918719570875 0.5181232052488146 687.5017687258076 0.19208884683225347
26.578891315913513 0.5055237021067407 687.5017687258077 0.1453403147537323
26.61375318153872 0.5044901229612183 687.5017687258076 0.1867734302136602
26.61203582700721 0.49286556039854257 687.5017687258076 0.13001016811289573
26.61386606968646 0.5218895627521419 687.5561971048664 0.12362214797338408
26.620759817025665 0.505992860325599 687.5561971048664 0.13427716192586786
26.622863645909586 0.4983512859211089 687.5361701345009 0.1783135842032754
26.63730277366257 0.49762043547635915 687.5340530905848 0.17815786984604678
26.653713883524997 0.5021408330645607 687.5372127858218 0.12579424481449536
26.64746963595619 0.4952502809650812 687.5263983466933 0.1488892528773259
26.63882924131073 0.4996202489520817 687.5163575621918 0.17301057684748478
26.627593047287515 0.4945068914848868 687.5267831539203 0.19925196330607933
26.66197190916313 0.499120805600571 687.5181208053219 0.10469972915680921
26.623052877603335 0.5149600996055514 687.5144322875799 0.18721604236431288
26.632791278604863 0.5215278885576611 687.5269155588473 0.22009415109752545
26.635385002916095 0.516308370003971 687.5366600692669 0.21412998464789
26.624629893056284 0.5107807776833546 687.5396143276953 0.2016884439843749
26.6444371043687 0.5205923692476664 687.5233411572283 0.15051198313455402
26.658627887374607 0.5196587294235623 687.5305205659308 0.1443237365319611
26.650021212921583 0.5136981047283001 687.5149623389862 0.13209250407224055
26.63851913125029 0.5116861566259969 687.5137145955897 0.15375948472834852
26.613134601283495 0.5133112098942492 687.5669069805198 0.150178936766471
26.587597515614693 0.5140844157554304 687.5586307255707 0.16598420631754074
26.589423674046852 0.4994768911927884 687.5666352672564 0.16891802157997127
26.59914407668875 0.4943559489167253 687.5635097446254 0.17267780301649993
26.59594540885303 0.520941520177143 687.5684678148579 0.186537334813862
26.527739289192695 0.4405456237793004 687.5317836080383 0.14750248527754303
26.52478530979227 0.4405456237793004 687.5194784297132 0.19661287276318867
26.58264624512987 0.1262358343137641 688.5598309821214 0.052753068906419856
26.592630307891522 0.09440692443436519 688.5622858845936 0.13697123708386152
26.581881767886173 0.11469691858599808 688.5613212612541 0.07732341753000468
26.61973384534518 0.09762640955937554 688.5605240531347 0.06232480286394326
26.606998676835747 0.09255340863424522 688.5619636212423 0.14550571714156124
26.621148028212893 0.11034287406916123 688.5608153013678 0.09545763976994129
26.604401042506826 0.1270062522494744 688.5612817447711 0.09332972310887044
26.617929064528028 0.20986034938142464 688.498897765572 0.09730875628315881
26.631586105443986 0.20678202951231872 688.498897765572 0.17235431992481606
26.69401349981114 0.14891648545715566 688.4988977655719 0.12077275722085234
26.68120663350836 0.17469219423174862 688.4988977655721 0.13863300102725348
26.70142873601994 0.1392803287980988 688.498897765572 0.14009684599637265
26.595173580523824 0.144149236519718 688.498897765572 -1.4828096575639265e-07
26.64444485543511 0.16020405621565734 688.498897765572 0.16433737397542922
26.635268840276957 0.14958711574536038 688.498897765572 -7.831562688685619e-08
26.59257640716486 0.12785591137020025 688.498897765572 -2.2899656424253735e-07
26.621077326058593 0.1684689528903605 688.498897765572 0.14072617279218239
26.596874870514355 0.19977611688207142 688.498897765572 0.16854907774565656
26.57492567601046 0.13257840421997066 688.4988977655721 0.0
26.62113533343097 0.17965727143223653 688.4988977655719 0.14156503496853673
26.62619545466388 0.14118869313532642 688.4988977655721 -2.743768077786466e-07
26.627264595987302 0.19301644170457774 688.498897765572 0.15545963386812536
26.604115634602174 0.1139775570423977 688.4988977655719 -1.9662761228816275e-07
26.565471859227927 0.09749289468036745 688.498897765572 -1.5756817946220165e-07
26.54726811987122 0.06230908396444852 688.498897765572 0.14078681795657122
26.580119995296492 0.14363337057939626 688.498897765572 -2.2870293532286644e-07
26.631030031804325 0.16163634883622166 688.4988977655721 0.13956771976630697
26.575671590691854 0.08798028033033044 688.498897765572 -7.062122040566243e-08
26.58345795012177 0.17018211460521962 688.498897765572 0.11244067976610164
26.63905283565434 0.19236675897257197 688.498897765572 0.1652695538987188
26.672043628997177 0.18645477279908584 688.498897765572 0.15008869511999745
26.60790928079628 0.19220303205552283 688.498897765572 0.14902399049646642
26.609250378291154 0.16125688373141647 688.498897765572 -1.4095098697429505e-07
26.599727051659183 0.17172161358222227 688.498897765572 0.11829373957847686
26.591320386144638 0.18917374975060064 688.498897765572 0.17446374758111216
26.655570020459184 0.17539294075837902 688.4988977655721 0.14370478003897508
26.583093771423727 0.11222641338491057 688.498897765572 -3.324485644965627e-07
26.565375352035982 0.07708359168925173 688.498897765572 -1.9208992555780525e-07
26.555719071464814 0.08321584139039784 688.498897765572 -6.817395536938046e-08
26.604786036581324 0.1251524576148011 688.498897765572 6.970306905312462e-08
26.638232072938504 0.1709809381187106 688.4988977655721 0.14328907450157233
26.593723885141607 0.1607041339055062 688.4988977655719 6.288642504180794e-08
26.61313954526221 0.1453991616798551 688.498897765572 -2.0280356473856395e-07
26.56980616897248 0.11200607259423516 688.498897765572 -3.3860166049429885e-07
26.650459365954045 0.1866532983341873 688.498897765572 0.1672816671190255
26.579845021741725 0.21147940055051712 688.4988977655721 0.08386614648479829
26.544066038193836 0.16343064191046144 688.498897765572 0.16276939316128433
26.55566462497164 0.1803878493546891 688.498897765572 0.19257002180672847
26.56931106280777 0.1833911719681409 688.4988977655721 0.21741173559392385
26.538458795854844 0.09880945093367136 688.4988977655719 0.14073315908730058
26.544868386355933 0.08813833991963671 688.4988977655719 0.12416776038729162
26.564456133738357 0.16359768012630319 688.498897765572 0.12328604603010185
26.56538451865235 0.1409275471988557 688.498897765572 -1.5808059932972526e-07
26.552361813840186 0.1300141521170601 688.498897765572 -2.1438007399584366e-07
26.550659798538472 0.11218811111083157 688.498897765572 -1.5124405535821996e-07
26.53445507336659 0.13367207100776074 688.498897765572 0.19584671716829538
26.580876268133196 0.19935227473058564 688.4988977655719 0.17923074757594784
26.54088093601677 0.11881254686301373 688.4988977655721 0.16639726290729834
26.529167682896333 0.049314091139567716 688.498897765572 0.16309233711122462
26.544214251313416 0.17748345180094308 688.4988977655719 0.1695789634507212
26.55243544537108 0.14139735465292808 688.498897765572 0.13958662898201396
26.53334277582431 0.18210206192705714 688.498897765572 0.16699237203417094
26.52831343928022 0.1572305901593962 688.4988977655721 0.1609535668145771
26.53218571747259 0.06925416509000883 688.498897765572 0.20130838625481612
26.534979365434925 0.08252511471391162 688.4988977655719 0.167249708222325
26.529063002824252 0.11856150841696489 688.498897765572 0.21422230917452834
26.55523394342284 0.15312425982952887 688.4988977655721 0.19948366429862735
26.568815123235595 0.19589101237780698 688.498897765572 0.12682048374428387
26.513431371863348 0.16834792844507826 688.4988977655721 0.10000468296414579
26.505502609851778 0.15774091905978993 688.498897765572 0.1358022047867256
26.496653276341704 0.13023983534621256 688.498897765572 0.13016363170557357
26.649850641723887 0.09818065360763592 688.4988977655721 -2.6739628604635917e-07
26.60034998875689 0.07447877565674973 688.498897765572 -3.366197349530414e-17
26.671526675919388 0.14460837001376792 688.498897765572 0.1675297581273411
26.615204472353795 0.10577918657337657 688.4988977655721 -1.422147314594524e-07
26.525569721453614 0.03354269745312343 688.4988977655721 0.10917053546390863
