x y z curv
0.1694734306335448 0.4349827755862137 793.0637118336813 0.2134680454208182
0.1694734306335448 0.44620483706715663 793.0396593211071 0.17876096456452467
0.1694734306335448 0.4461758356614347 793.0148116211915 0.1537037408062947
0.1694734306335448 0.45163996164426523 792.9205100037263 0.18551819797440539
0.1694734306335448 0.4416733647469938 792.9990751130238 0.17486124351718435
0.1694734306335448 0.44190800424860305 792.9892808492862 0.17797404005418813
0.1694734306335448 0.4583078968613525 792.9355706748764 0.17688340454277776
0.1694734306335448 0.45596837295460046 793.0568496675935 0.17412652215069155
0.16033205353436175 0.45849998092650424 792.9424045552674 0.15944094505546882
0.14344341947390898 0.45849998092650424 792.8605503619834 0.13472942843710076
0.16389555352480023 0.45849998092650424 792.9126224311383 0.16738829781184636
0.15067228027420632 0.45849998092650424 792.8792836653033 0.12946710526401312
0.15198794850315173 0.45849998092650424 792.8895392528204 0.15370383547172617
0.16705885151162722 0.4584999809265042 792.8957604267379 0.17003446681798706
0.16828173930526347 0.45849998092650424 792.9980259755649 0.15613461189837805
0.1613931355099989 0.45849998092650424 792.9844804703453 0.18243073005480737
0.1609802105653717 0.45849998092650424 792.9240119061756 0.18135776427945557
0.1618894064188606 0.45849998092650424 792.9688963062224 0.164932310859336
0.16292398757569687 0.4584999809265042 792.9540478656728 0.16350988604697178
0.15990769755774725 0.4584999809265042 792.8632220872896 0.1735325432296032
0.1626781280541086 0.45849998092650424 792.8739509218179 0.17050388094724694
0.1655441818447464 0.4584999809265043 793.0175653836454 0.16227020662698735
0.14965550578648973 0.45849998092650424 792.8687716839819 0.15013751687945165
0.155584939705125 0.4584999809265043 792.998717881811 0.19227396708879976
0.15130009049309542 0.45849998092650424 792.9725491187753 0.14322787146016117
0.1466478283476661 0.45849998092650424 792.984801695513 0.13914157028248794
0.1532641359069496 0.45849998092650424 793.0109558475774 0.16924639253897783
0.1594486717599046 0.45849998092650424 793.0496816980409 0.1967753851445454
0.16355781586872511 0.45849998092650424 793.0319327500983 0.1637323523251854
0.14895850038039618 0.45849998092650424 792.9348108791979 0.13024319617326777
0.15059514470728588 0.4584999809265043 793.0255676598956 0.15599326499376628
0.15392519437166666 0.45849998092650424 793.0392302081731 0.17377381355866775
0.14884321715004695 0.45849998092650424 793.056475767173 0.15784711990115685
0.14248411071149836 0.4584999809265043 793.0663965862339 0.10948488135871147
0.14704855990079868 0.45849998092650424 792.9141881449575 0.16051894093411198
0.14286019830445618 0.45849998092650424 792.8975674502663 0.11423907324413435
0.16141134270300053 0.45849998092650424 793.0644446550843 0.22288841607509757
0.14847131605536176 0.45849998092650424 792.9246052465718 0.14043611799226724
0.1424734334945672 0.4555377394598888 792.9606998264662 0.12214918973914884
0.1424734334945672 0.44797664532555614 792.9015735834308 0.1191560824945967
0.1424734334945672 0.4447050058669699 792.8802664734881 0.11477031442968702
0.1424734334945672 0.4561596415207503 792.9459343423254 0.12190096179339203
0.1424734334945672 0.44873704502369904 792.980936341256 0.1331489074736527
0.1424734334945672 0.45306752743610956 792.8897575567919 0.11547221424535137
0.1424734334945672 0.44534647450478015 792.9398034655472 0.12775070427480145
0.1424734334945672 0.4449330511242562 792.8617850618743 0.12750927178161153
0.1424734334945672 0.4564519889621294 793.0057336361115 0.12113312245569287
0.1424734334945672 0.4460404636165425 792.9282913658978 0.12679452901344332
0.1424734334945672 0.4414005905474617 792.9114621870274 0.13062152207846547
0.1424734334945672 0.45574990010892535 793.0314704652905 0.12029836142802086
0.1424734334945672 0.4560246416063796 792.9954433052399 0.1311138461380602
0.1424734334945672 0.4500174030827396 792.917190991406 0.130520238555105
0.1424734334945672 0.43993653668967037 793.0298854481499 0.12102064361092486
0.1424734334945672 0.4318765544379766 793.0468203990876 0.11472168545280276
0.1424734334945672 0.43995014011174766 792.9927738925217 0.1284009771031211
0.1424734334945672 0.4539144777085258 793.0427821119621 0.1279731116366091
0.1424734334945672 0.43228302406007874 792.8717005299516 0.12204494151980191
0.1424734334945672 0.4357163034391285 792.9213817746742 0.12804853056938023
0.1424734334945672 0.4344677864435406 793.0034635020615 0.12309438327285668
0.1424734334945672 0.4452340550766087 792.9714505830354 0.11543154273225247
0.1424734334945672 0.4453962848728264 793.067028483727 0.12556060052268436
0.1424734334945672 0.4469211591410144 793.0556937659526 0.12824653827624324
0.1424734334945672 0.4455225523822521 793.0113391810729 0.12141451926034653
0.1424734334945672 0.43452873887869853 792.9680233449116 0.12616806425639235
0.1424734334945672 0.4429527870152705 792.9519651338583 0.12664220930506465
0.1424734334945672 0.4445845899013621 793.0427374055589 0.12278204206087752
0.14247343349456723 0.4334979379993181 793.0647288092922 0.11792012166489296
0.15204587734624542 0.4386696531335528 793.0673033802123 0.16982899731794587
0.1566480664703897 0.4505250611834158 793.0673033802123 0.29492242583549727
0.16572343063354467 0.43277861268043716 793.0177778046768 0.1820942431089934
0.16572796108913587 0.44804765571311334 792.8333391206896 0.18110368620494374
0.1656067267810432 0.4410924678996191 792.8425429513969 0.17396766291305724
0.16684666101706705 0.44356687637495323 792.8527334990922 0.19288768507457388
0.14954592532964922 0.43718202215374813 792.8345112636007 0.14017035148382886
0.14528770514037073 0.44681742959274995 792.8512824039666 0.1373763058660849
0.15482310980822184 0.4554410420416546 792.8458874524056 0.15517011344166037
0.15238793876625223 0.4394303435315952 792.8572983753294 0.14415180347134968
0.15158609451545796 0.44835172549872643 792.8288034107297 0.15263353484259773
0.11163893542081824 0.4599999809265114 792.3995046598993 0.16879620042215998
0.09929486410779759 0.4599999809265114 792.3983449676041 0.16749299646710258
0.09250795507666633 0.4512491553236022 792.3998549902456 0.158225921017459
0.09142101644575656 0.44063344354136713 792.4021230187394 0.16275925778376263
0.1124563100554038 0.42999998474120105 792.391205228171 0.16396423252283876
0.0980293645137758 0.429999984741201 792.3942882660001 0.17174042737769607
0.11391085241630791 0.429999984741201 792.4049724101853 0.13924488439119043
0.12264714823458064 0.44345176854423957 792.3940306516101 0.1847690507751888
0.11352227815831517 0.45178599824207943 792.3905533802122 0.20638022626703276
0.10151764387231979 0.4486059021231993 792.390553380212 0.21860810762113175
0.10173456039356485 0.43129450071303455 792.4055533802123 0.1601967160299756
0.10132453220630402 0.4438422986546961 792.4055533802123 0.13862602130208748
0.11514959539206027 0.4504061485997178 792.4055533802123 0.14033889114180903
0.26604352461799924 0.4041138256199077 792.3486111676792 0.11033602506291079
0.26510153415755044 0.4148716954227185 792.3486120689988 0.1889577254015895
0.26349106523606747 0.4200935378462428 792.3584549804127 0.19913555606430405
0.26427557267215723 0.40582693276531284 792.3345560096209 0.13766312130497094
0.2482126077866947 0.46495852845126623 792.3345520430553 0.12747772010905928
0.2548040484470932 0.42758391258217904 792.3345545477812 0.17292216017096212
0.25706379592709827 0.4539734382445018 792.3345527811734 0.15003766293474255
0.24461961030454488 0.439868928984667 792.334553728838 0.1495786144908774
0.26370949194768833 0.4180025455449948 792.3345551913789 0.16360351147876773
0.26421481570960925 0.4317885108534269 792.3345542665131 0.17176373802640874
0.2646314567029887 0.3960365598703095 792.3745566715816 0.07535527099530959
0.26440312147252737 0.40694915846339685 792.3745559399653 0.13276371474595677
0.2631168518354344 0.451230762370313 792.3745529664318 0.1823294043432976
0.25473948649387923 0.4385027777521293 792.3745538228789 0.181735691993577
0.2432851380860727 0.45424573249091654 792.3745527648776 0.1655345373598204
0.24832217352342562 0.4633231761373854 792.3745521534033 0.1691369022946406
0.26222050476074177 0.3852181387420304 792.3373270171012 0.008717885976320776
0.26222050476074177 0.3972947101685709 792.3582286503885 0.10708377820808862
0.26222050476074177 0.39504755195113306 792.3442718445805 0.10068621637677219
0.2622205047607417 0.40783614056529194 792.3616103272612 0.17591791797754663
0.26712049865722604 0.4239004701163179 792.3435005636712 0.18812037166864623
0.267120498657226 0.46197204781048473 792.3354315262277 0.14039559058291295
0.267120498657226 0.43889781303758213 792.3426470762095 0.18555000800935761
0.267120498657226 0.45049733021087934 792.3401230532996 0.17044396528174577
0.267120498657226 0.44692705143857175 792.3511819930392 0.24369937172618164
0.267120498657226 0.4300691278348717 792.3563030207341 0.1731693686156649
0.267120498657226 0.46479644700394407 792.3449500683862 0.19502886803222858
0.267120498657226 0.45606593076058644 792.3622470304723 0.20095356412729948
0.267120498657226 0.44396161690261193 792.3667630463395 0.21489243824279258
0.267120498657226 0.3853860652621536 792.3741496073516 0.00676633727097694
0.267120498657226 0.4350663712949808 792.3712127084351 0.14554462717501357
0.267120498657226 0.42623476176990266 792.3669669074422 0.18573999606170374
0.2411423871467618 0.42509915599821696 792.3424609652718 0.21031667057017134
0.2415394606840401 0.425100172515848 792.3576015369455 0.2364213565518033
0.24332380596837327 0.42510120696036846 792.3730091215507 0.1577593554213438
0.25623441105886285 0.4250998280973544 792.3524715788144 0.23421172023843573
0.25635822150038245 0.42510104866850623 792.3706514356513 0.2153562488747602
0.26478664553749354 0.3850999780411929 792.3551587393993 0.006293746748767838
0.26639030034870864 0.4651012231560996 792.373079298002 0.13840454538741453
0.26422498448558956 0.46510024501355773 792.3585309746462 0.1944086650112075
0.2562095490511494 0.4651006183824978 792.364084247137 0.21892426325107206
0.24676687349264365 0.46211637085701956 792.3574362487695 0.2350466029236867
0.2431626485524352 0.45417031364605676 792.3387917135849 0.2275157255099842
0.23882050323486315 0.43620734931242156 792.3736632872001 0.18798040113885253
0.1009649879722253 0.4799071975008715 793.2338170092276 0.2024897703595395
0.09676781178022706 0.48303130125345906 793.2226840282963 0.19338880285083462
0.09632458219374919 0.46950658528446937 793.2250077200335 0.13554167571326206
0.10169076779739429 0.4746030395169646 793.2168130384406 0.1552876007794674
0.10472785766803136 0.48868757254856715 793.2158381048346 0.25890507228278514
0.11035802508583578 0.4702526962015881 793.216555421767 0.11660149783947177
0.11427771773718556 0.48212757864849465 793.2199836008697 0.22637422322773368
0.11595419503244513 0.4734054146872646 793.2241572312389 0.12903219368618782
0.11459885257239442 0.4838245709308929 793.2306341965896 0.21848608128801125
0.11027561796016849 0.472904516323453 793.2346055139869 0.15414684572904916
0.01754097032787729 0.47553354578839946 792.3571403039858 0.22182518117013278
0.021162342361431618 0.47762804591293523 792.3447971062757 0.2103601575632053
0.02958350526094817 0.4729903509502601 792.3398929159034 0.23562737417468588
0.040647179370545086 0.47365282452492213 792.3422822047619 0.26477957215673675
0.045863917940430314 0.48020335622721 792.3492450429476 0.267618736743474
0.04675955168643498 0.4721277779353973 792.3571244344265 0.27097986928147366
0.040634334169994034 0.4714801253714014 792.366805281594 0.2562405810785198
0.02923063593139541 0.4729095542326079 792.3690737161821 0.22625672435889754
0.03197493175802035 0.4809999809265122 792.3609471684326 0.254346592460401
0.029300303849348057 0.46499998092650685 792.3458248079892 0.22170171609619682
0.04232771509141785 0.4649999809265069 792.3494135696378 0.2548017391171341
0.19119498905956167 0.49675100677329415 792.3544633657528 0.2506351597892621
0.1842249449539411 0.4967511034494745 792.3632131029124 0.2720689772240736
0.17494064405800686 0.49675145046806546 792.3578096416004 0.27448082334716795
0.1684472190151309 0.485340561496738 792.3446307626831 0.25725565900580155
0.1773549069579015 0.49046687938229305 792.3397594292458 0.23007257277020682
0.18784027508377604 0.4856114147080434 792.3417001532863 0.22022094853419388
0.19550557170885172 0.48770051506276585 792.352779982361 0.24401810243977146
0.19127823394959736 0.48824956030053834 792.3657638151743 0.25364807895645375
0.18004983588631154 0.481652093372125 792.3616973997428 0.27050794120356575
0.1668941693597445 0.4835259816764336 792.3616635306815 0.2596976716263159
0.12029477232834357 0.4355336865715971 792.3846777988701 0.19144598050989942
0.10448624650104436 0.42801025658021374 792.3829562785234 0.16358247932688383
0.09060458733951621 0.43788069517692463 792.3879940880965 0.211384901924643
0.09007410823227617 0.4511554518238946 792.3780335467209 0.25529941699055153
0.09393787482523075 0.457193877163551 792.3853692902653 0.1871984357771611
0.10790586825633434 0.46199901691304535 792.3865419077679 0.17514061325563612
0.12230938790134407 0.45139919489998603 792.3836644510834 0.217036011640087
0.11034446764350125 0.44234876187245153 792.3905925953002 0.22468448043590375
0.09002499884372059 0.44835252162605777 792.3905925953002 0.20031970416959421
0.10689944427684743 0.44234673224440924 792.374553384027 0.27033935523096725
0.10063205158362623 0.43222155818610747 792.374553384027 0.19834621410986222
0.10449077384890645 0.45447895025755014 792.374553384027 0.2678823812905143
0.09927565928837177 0.11434498845208454 793.4822733353176 0.2520881847119894
0.09184202945233616 0.10671518994062988 793.4848790294219 0.2106050731776075
0.0904923346468983 0.09903573300994414 793.4769850180347 0.215288599641822
0.09920142546122818 0.0858126944034899 793.4800293490329 0.26685838483792257
0.11950000782777051 0.09166463949600501 793.4736415765561 0.22277012955548456
0.11681666134700382 0.1117679340212307 793.4769666090975 0.2571844424252026
0.11742699919537736 0.08881679241969112 793.4840747845725 0.23473932304630682
0.12183264024263014 0.10223694977366161 793.4811307856214 0.24340983465412167
0.106069120662252 0.10401794798236967 793.4864510848408 0.18156617837524883
0.10804161834411566 0.08580321505948393 793.4864390345311 0.20882349697608657
0.1537205009460445 0.44723230100926636 792.4397965654513 0.2262226935812916
0.1537205009460445 0.43808190128284097 792.4456570699155 0.1548368746481981
0.13577893192556129 0.4481416349847487 792.4475534031004 0.15861505448372681
0.14987271863928425 0.45289322583648217 792.4475534031003 0.1952180142485955
0.1431314767862189 0.4396914037768608 792.4475534031003 0.17672666172043827
0.13084712010408694 0.43809712454720523 792.4475534031004 0.13812991917704182
0.1296272031416871 0.45499998092651595 792.4441917411466 0.14552320165806715
0.13827319898179907 0.45499998092651595 792.4354784338566 0.15639503662419452
0.15075500270164746 0.44215238673854435 792.4275534031003 0.16502395538061929
0.1322173607536464 0.4500072926517905 792.4275534031003 0.1487390503745468
0.14831515407226598 0.4533766582473545 792.4275534031003 0.13383481876842163
0.1418232248867337 0.4349999847412107 792.4320782619773 0.15590369042258925
0.13124556511018198 0.4349999847412107 792.4283150003586 0.1320038342944687
0.10599025192707018 0.10272804648522707 793.4719533435912 0.23279669879934742
0.10529373844429175 0.09179286532625204 793.4719533435912 0.27400654073070246
0.0886134636370697 0.1066284448674668 793.467953343591 0.14203797631961873
0.11441454699752823 0.08430199969672153 793.467953343591 0.1718964256488967
0.1657175970348484 0.45851285373869805 792.8268034107297 0.1756066602745367
0.1423152895005853 0.45801409625552514 792.8268034107298 0.12523664822125632
0.14608992609616997 0.45889997100829305 792.8500831165572 0.14838254952771926
0.14576424357312825 0.45889997100829305 792.8362922522115 0.14441454381199093
0.16699849206353293 0.458899971008293 792.8407227017514 0.19139750540968714
0.15815137628317244 0.45889997100829305 792.8357291099694 0.16826080189835446
0.13922050189971905 0.44614606169829707 792.8278389454302 0.12760953410182896
0.13922050189971902 0.43258533417007883 792.8278383973161 0.11918327345163904
0.1578141345855387 0.43109997558593705 792.828220121978 0.1620959943486791
0.15783756513160085 0.4310999755859371 792.8421629976772 0.17319255265177186
0.16524663338450385 0.43109997558593705 792.85260544973 0.171341877037727
0.1425335913903015 0.43109997558593705 792.841126041538 0.1377554194323337
0.13969956934294697 0.4374543744672713 792.8543033802123 0.13150147702619178
0.16722050094604501 0.4557537478022571 792.8517334490462 0.19049543839875763
0.16663002815505407 0.4366259764926409 792.8298976326769 0.16023379302185767
0.14950642047321802 0.4358961746384472 792.8471907738932 0.1483648455282384
0.1450499756013763 0.4459639211560386 792.8397561614814 0.14445923785775747
0.1758842721105687 0.4741454358373473 792.367865731248 0.2334136340831788
0.16812504627919603 0.47570141501648167 792.3505383614034 0.24395436719648175
0.172093740062566 0.4665617296206397 792.3439234540854 0.22089884976746643
0.1789401298795053 0.47362021004466237 792.3400559723341 0.2262692480584765
0.18709679355163122 0.4677010646477763 792.3407484957763 0.23217003281939014
0.19480950406176778 0.4751524567277244 792.346832791226 0.25958149625204935
0.19385685510093825 0.47464614553031415 792.3635093663487 0.27537942445818214
0.18133231112293602 0.4809999809265122 792.3500869976037 0.2512247936225136
0.17798997218355853 0.4649999809265069 792.3609929123711 0.25343578000250405
0.1951632624034294 0.5244954006686926 792.3649237709236 0.19673596665523385
0.18439034792101092 0.5213656034573988 792.358101730405 0.18006245326396247
0.18687442862976036 0.523044452032367 792.3471544716947 0.2046968978271195
0.183809996686668 0.5313947098725241 792.3555079797202 0.12415486443249507
0.197324033058983 0.5159681559027032 792.3447132732263 0.2602514332602434
0.1970186984656259 0.5277079042912323 792.3445319063522 0.1837045117612739
0.2044676102377568 0.5176844472094199 792.3529280560056 0.24424903536251122
0.1890594150674615 0.513612714588632 792.3527307294402 0.21661106248426812
0.20454348804427186 0.5317076746589575 792.3524848769712 0.19480765267713618
0.20027846840092586 0.5333634956075599 792.3610314313235 0.15771392258784225
0.05793303569873165 0.5135999734997654 792.3426969867103 0.2086047091294671
0.03328887071212111 0.5135999734997654 792.3642051928488 0.20877583158597687
0.01597835360307894 0.5135999734997654 792.3755437797124 0.19512559981886346
0.042985330520888834 0.5135999734997654 792.3550127894028 0.2231119015438895
0.02333916742300053 0.5135999734997654 792.3608036328455 0.20361903541013424
0.03904548404867075 0.5135999734997654 792.372664720855 0.22081341783850697
0.033440924863983854 0.5135999734997654 792.3495774694359 0.19604891865115162
0.04138459855308319 0.5135999734997654 792.3270149082016 0.18157219169848254
0.031677098527709224 0.5135999734997654 792.3347842015546 0.20673689032772444
0.018557426368650997 0.5135999734997654 792.3270223481645 0.16987805509501455
0.02309765604417138 0.5135999734997654 792.3411138606735 0.22272965920595833
0.006148530509133256 0.5135999734997654 792.3388384165751 0.17393251526473505
0.01368954220789173 0.5135999734997654 792.3611863963725 0.2049859057569346
0.012767736817470334 0.5135999734997654 792.3484811035129 0.21437638380545015
0.024561569540391927 0.5135999734997654 792.3842720691825 0.15286184417854945
0.043099353852386016 0.5116811891446374 792.384151806384 0.2119609952361796
0.0490023660506059 0.5002210797019406 792.3816572011877 0.1705283145972806
0.051777538530709634 0.512770394038057 792.3790820304953 0.17363615389963333
0.062464581859970655 0.5091221448779335 792.3644983917535 0.1710623701606169
0.06408846317867897 0.5059916327242392 792.3532417426514 0.15233044615596575
0.06205134635210034 0.5038274824143406 792.3435335291447 0.1531724750376004
0.058307645269025835 0.502253187399935 792.3728551201737 0.14993761711071482
0.053791490028623976 0.5046926393818572 792.3310800936165 0.16807962488553518
0.04046666466573987 0.504121794496906 792.3235742339206 0.17810131427193485
0.031008738866224385 0.5007029443835994 792.322505392596 0.1673620767776022
0.021883315469437815 0.5038477037981088 792.3244977826407 0.19188368265439612
0.010621867005098578 0.504017646219528 792.331237270862 0.15037876639765896
0.003231826587655427 0.5011297714042311 792.3414340654848 0.19028373086446865
0.000382930601617627 0.5076086149302333 792.3559222158876 0.1881618079273304
0.0024777429199304072 0.5121789329710629 792.3649590557329 0.16514299652942113
0.017065439559330646 0.5002340737635331 792.3825482312112 0.18576276371962583
0.032731459845086845 0.5068708146907474 792.3862995262458 0.20395653849687784
0.008759810556023897 0.5012890387243363 792.376027906301 0.19038105514369214
0.040436829015392084 0.49640005076950766 792.3381593738864 0.23213373855322367
0.058248742674811615 0.4963997109836079 792.3550381402089 0.2020768986571447
0.05198726497431211 0.49639956081874004 792.3380627431616 0.1977983499283891
0.04864294733814217 0.49640002069277545 792.3501420000568 0.23575470496228834
0.026657506333511403 0.4963999984030083 792.3324265414308 0.19578387319241236
0.016171248917302535 0.49639997332383506 792.3470662515049 0.24345621519683075
0.01946403491357619 0.49640002496211844 792.3564771923391 0.2560950414392265
0.006664462647315237 0.4964000314354937 792.3521920512235 0.17540056811423305
0.04653178129109893 0.4964000007048617 792.3614591457781 0.2268110210512185
0.0358425581885154 0.4963995865214633 792.3734692382955 0.2290499094776876
0.025204453237161348 0.49639907900658986 792.3792397382766 0.1857451312106198
0.046946667474786215 0.4963996313491846 792.3724141684334 0.2242781727840557
0.0027817459328500875 0.49640002577070536 792.360858066084 0.17086461450791937
0.017157995795934633 0.49639996768312583 792.3688127017354 0.22286133301839692
0.03703913693781853 0.49681679504408616 792.3846960425658 0.19151625327828434
0.04806435631445338 0.49690607185557195 792.3281997453228 0.14905282110152082
0.08902050018310526 0.44131607333705236 792.838193900217 0.14497761537874715
0.08314529769042751 0.4949999828338605 793.2134425032428 0.21409163889883714
0.08130859572508685 0.49499998283386054 793.2460010180251 0.15330594795975905
0.11948780024509288 0.49499998283386043 793.2399662585293 0.25170802253160013
0.107430401929571 0.4949999828338605 793.2431435745317 0.2706941990691035
0.08608990110980885 0.49499998283386043 793.2375947748011 0.24629046757088938
0.10922753764852819 0.4949999828338605 793.2319428564463 0.3203888411610374
0.09702827560961734 0.49499998283386054 793.2503122145279 0.15865414046888718
0.09618437466148336 0.4949999828338605 793.2362934520667 0.27018856559944915
0.08522851656005008 0.4949999828338605 793.2006344165155 0.18738051500243164
0.12135233793388822 0.49499998283386043 793.2142424201037 0.27643256990819054
0.11280999536671593 0.4949999828338605 793.2213433881745 0.30010573466190216
0.12077307910112478 0.4949999828338605 793.2010355779875 0.21178727427778063
0.12479124349281887 0.49499998283386043 793.225670161584 0.25731671343463813
0.09259513076381132 0.4949999828338605 793.2096683104251 0.2581710219144457
0.11079169910660763 0.4949999828338605 793.21004699661 0.30747138540629376
0.08122050094604472 0.49766283623624696 793.2256249968568 0.21616788472423545
0.12162608290233076 0.5049999828338514 793.2418601735086 0.21786605524658317
0.11431202723662867 0.5049999828338514 793.234990579952 0.18301693789138368
0.10266142878919034 0.5049999828338514 793.231581603683 0.19597525280335695
0.09341848747922668 0.5049999828338514 793.2400324954749 0.20046109549955482
0.11405619639603709 0.5049999828338514 793.2240028618173 0.20473502353914144
0.13067669117099445 0.5049999828338514 793.2267531060581 0.20426626616152896
0.10520796806663826 0.5049999828338514 793.2452336590519 0.17453465273729662
0.0907744274256969 0.5049999828338514 793.2500542341777 0.14669478776638473
0.08220902956499923 0.5049999828338514 793.2170882894939 0.21455828043087924
0.11501143987319157 0.5049999828338514 793.2014488898692 0.21304528572728307
0.08654754817937349 0.5049999828338514 793.2300193993742 0.18413086706567183
0.11317967216455252 0.5049999828338514 793.2120341456671 0.20637541619426877
0.10384136717065298 0.5049999828338514 793.2083915012839 0.23369729654506963
0.09364289311733894 0.5049999828338514 793.2167125087184 0.19736262419163966
0.09048763805223682 0.5049999828338513 793.2034539502021 0.16532143561621726
0.1291323785501249 0.49814028188850346 793.2505533802123 0.1506713836355594
0.11429468870819605 0.4997806100237019 793.2505533802122 0.21044631724088786
0.13122050166129995 0.4976094161792822 793.2411750628613 0.21115294099660936
0.13122050166129995 0.5026384096729625 793.2139755017777 0.2086291006359401
0.12765938445935837 0.5033892180986518 793.2005533802122 0.22953660813134225
0.10542108681987879 0.49802927560331084 793.2005533802122 0.21367011344454034
0.014220504760741548 0.42643435989833867 792.336487528753 0.09332928619474215
0.014220504760741548 0.43624316244328265 792.346216193264 0.17441669515554745
0.014220504760741548 0.4307087014005494 792.3563247616225 0.17610817364650153
0.014220504760741548 0.4267487381132266 792.3683945859548 0.13143109499413635
0.014220504760741548 0.4394200123509646 792.360713655017 0.19178406883802815
0.014220504760741548 0.4637097036690743 792.3374152556521 0.129668889409017
0.014220504760741548 0.4464451966983274 792.369427840824 0.13166104835472206
0.014220504760741548 0.4622065749287808 792.3471569887946 0.1496367389623513
0.014220504760741546 0.4647802221029298 792.3656271520985 0.18414240636018847
0.014220504760741548 0.4509916641608349 792.3541989140341 0.16411090449172716
0.12482864257963468 0.46499998092650685 792.3636082290241 0.08212202358912206
0.04845423027302756 0.46499998092650685 792.3735125942948 0.184742905501414
0.08876858351671878 0.46499998092650685 792.3712994608088 0.11290538106311233
0.06384728060693692 0.4649999809265068 792.3634765857448 0.2193033835825779
0.033362743484661214 0.46499998092650685 792.3595644651616 0.2395805647145383
0.11725999257893772 0.46499998092650685 792.3708097977154 0.09531251432522214
0.10622932099997179 0.46499998092650685 792.367141183553 0.11287512948062273
0.07578440915349559 0.46499998092650685 792.355798609973 0.15239419978935195
0.05638555033138315 0.4649999809265069 792.3475819206654 0.240628193917211
0.09837848794178902 0.46499998092650685 792.3606455316567 0.11734622063321831
0.022383965824543314 0.46499998092650685 792.360020012152 0.20910962174327757
0.16525379260811415 0.46499998092650685 792.3694437561018 0.22199822784974804
0.15008353790096599 0.46499998092650685 792.3684788065576 0.17344772747713869
0.10557108758592605 0.46499998092650685 792.351308867657 0.11224344919166344
0.08441201361681436 0.46499998092650685 792.3623295560826 0.1424876370466845
0.08912632672200098 0.46499998092650685 792.3518207222401 0.11304040836235597
0.059643562750187666 0.46499998092650685 792.374533776403 0.12367402121634333
0.16772308555885476 0.46499998092650685 792.3536035366209 0.25034013655825366
0.09762256367143096 0.46499998092650685 792.3455497897735 0.12215339437295977
0.125457056091311 0.46499998092650685 792.3376619481379 0.07039143558383514
0.15798161881056297 0.46499998092650685 792.3547957258859 0.22800530413910958
0.13940827362573674 0.46499998092650685 792.3432186462005 0.1987128667885539
0.224816809070964 0.46499998092650685 792.3627126715209 0.21816579446845646
0.1608853090886059 0.46499998092650685 792.3406088898375 0.21769800289684688
0.18947129318491418 0.46499998092650685 792.3529700691386 0.2534772365969637
0.1436226971541937 0.46499998092650685 792.356787752277 0.21012145816761651
0.12851512754996333 0.46499998092650685 792.353198028407 0.11652699577023394
0.2203365595732646 0.46499998092650685 792.3509160634993 0.19771256170966145
0.20343713604990007 0.46499998092650685 792.3516928204756 0.23279278222350325
0.1889607641150113 0.4649999809265068 792.3651657581215 0.24796879902661054
0.07113922887109156 0.46499998092650685 792.3439860796935 0.18718873968357
0.21640823822004626 0.4649999809265068 792.3710609570551 0.1656383119337446
0.11676822694962019 0.46499998092650685 792.3493063428543 0.1199210284062095
0.20547329651977744 0.46499998092650685 792.3648299492554 0.22622851952189635
0.07670159324185044 0.42826887324920904 792.3745533840271 0.1453632663743762
0.047093481663554905 0.4546053693230573 792.374553384027 0.09758851700332681
0.026038352569284003 0.4403172228853378 792.3745533840271 0.12256923485375665
0.14825644693270915 0.4257203506201531 792.374553384027 0.1036217995145959
0.060891917461158226 0.4380459627577781 792.374553384027 0.1329038071446214
0.08982110344819702 0.4419168344027038 792.3745533840271 0.2423769673218434
0.1346938203789766 0.44072407997861784 792.374553384027 0.22158027078468182
0.051095731252934574 0.42815429810150574 792.3745533840271 0.08919070645846984
0.11927620148522862 0.4352365859694033 792.374553384027 0.23271725971384125
0.09076375316201371 0.43107160260189076 792.3745533840271 0.17968760450970905
0.14755620576002623 0.43740007958458893 792.374553384027 0.15339926923367384
0.16891824392136445 0.43035066715949644 792.374553384027 0.10205976640403631
0.01705691405001839 0.4350221196122198 792.374553384027 0.10638437060716882
0.1209650698584317 0.4452063689641688 792.374553384027 0.24431438475993028
0.06521483634676051 0.4284168347466973 792.374553384027 0.11005143869376974
0.04939792140341709 0.4437697832925077 792.374553384027 0.10909288324838178
0.018158484316881985 0.46236558513731696 792.374553384027 0.1305756894424758
0.03003140176827715 0.4280839733947443 792.3745533840269 0.1079325608547219
0.03866511423687824 0.4413326006302141 792.374553384027 0.11947596239686774
0.11696749199035407 0.42506717036948494 792.3745533840269 0.1171234178456588
0.15741644849698636 0.4280951040697869 792.374553384027 0.09140151856686494
0.07663871858592766 0.4430074006884873 792.374553384027 0.22030844731887442
0.18577062987024243 0.43319412027569926 792.374553384027 0.10337897624151264
0.03493998987944254 0.4532127825649724 792.374553384027 0.11799482803149185
0.06295742915907279 0.4527848225827377 792.3745533840271 0.13574828516163295
0.1659791125769028 0.4423732106353784 792.374553384027 0.1395881965042228
0.20500504212282628 0.43359571181039985 792.374553384027 0.11277735285474265
0.16251693792715272 0.4516237397607501 792.374553384027 0.12195751331640896
0.13212776780158408 0.4509643545914955 792.374553384027 0.21081635281619712
0.18758202460927192 0.45521951905123104 792.374553384027 0.09174200982061102
0.17795685279308315 0.46113974052566803 792.374553384027 0.1164322478257701
0.03861707881789542 0.4646084759329397 792.374553384027 0.16287319275024129
0.12380769478770556 0.45685916012845507 792.374553384027 0.18517832415359847
0.22827169958760243 0.437803662830856 792.374553384027 0.16723705818064308
0.07898169873119107 0.4560302170017426 792.374553384027 0.17899280439149892
0.1777803746103372 0.4403362731645012 792.3745533840271 0.12289785279979447
0.19649471556708245 0.4618902426285731 792.374553384027 0.10069610047508405
0.21481863805632953 0.42948738209600623 792.374553384027 0.1026632487897089
0.23169587499216882 0.4622172362592483 792.374553384027 0.14676022822101886
0.21922742839880632 0.45119475158926226 792.3745533840271 0.10785387899551187
0.2309450614737889 0.4504678120226917 792.374553384027 0.16210942303953546
0.18856459781431392 0.4443136467009137 792.374553384027 0.11885191161636917
0.14804676376395812 0.45087671628167214 792.374553384027 0.14805678427989283
0.14023245611668372 0.46061973751140894 792.374553384027 0.1337404107288257
0.2038552374645131 0.44406996498836104 792.374553384027 0.11312129034407628
0.20728208130878997 0.45455852449141454 792.374553384027 0.08845657924660372
0.23035756953237685 0.42637808931236176 792.3745533840271 0.15286304394990718
0.02746836049839822 0.4249999847412056 792.3601837264781 0.12789731119040887
0.12776781849132968 0.4249999847412056 792.3356473309591 0.0838816636934318
0.05786909337917116 0.4249999847412056 792.3359227317054 0.08566790579616189
0.05395977945232673 0.4249999847412056 792.3578866729188 0.11215516512280725
0.09754000258958578 0.42499998474120554 792.3354772771131 0.09673187332844096
0.19929450147031635 0.4249999847412056 792.334827469914 0.06472285166008539
0.03637543442384292 0.4249999847412056 792.3496251002407 0.11804078657708834
0.07975310437191284 0.4249999847412056 792.3586690094007 0.11787109378536996
0.15415729792583563 0.4249999847412056 792.34830793522 0.11707092772867228
0.11670251502454071 0.4249999847412056 792.3351873501642 0.0886982114969504
0.13346447792942115 0.4249999847412056 792.3501379830544 0.12055622168979062
0.040648683973383684 0.4249999847412056 792.3679287154735 0.09110976400236004
0.16575233064995423 0.4249999847412056 792.339691348438 0.10813885252825599
0.08182057713342639 0.4249999847412056 792.3439571523413 0.14047111774696064
0.12328978313809481 0.4249999847412056 792.347627258511 0.1305299773888651
0.09172593699654209 0.4249999847412056 792.3524413799906 0.11157367502389755
0.0672319686623196 0.42499998474120565 792.3570004224122 0.09827974561600952
0.07169397051595768 0.4249999847412056 792.3457175162425 0.0799677588608241
0.05026646965044476 0.4249999847412056 792.3443325660315 0.1181285122023906
0.10959136396416955 0.4249999847412056 792.3495233141759 0.14043210190763397
0.016807779823642274 0.4249999847412056 792.3482518791583 0.1369741622700391
0.2287719050470493 0.42499998474120554 792.3558854444876 0.18146846711838507
0.1892359888880709 0.42499998474120565 792.3636002021994 0.13156958099852156
0.19600989944328578 0.4249999847412056 792.3452013443132 0.12546521611772601
0.12197869506422984 0.4249999847412056 792.3590802869451 0.11588634209538812
0.16630708775020395 0.42499998474120565 792.3526563876158 0.11519974454337406
0.05967012527382548 0.4249999847412056 792.3676530520252 0.0877382286689266
0.09183746146906205 0.4249999847412056 792.3654215732254 0.09359646525250245
0.19430723489618482 0.42499998474120554 792.3554334491956 0.14390245136273747
0.1637761695183706 0.4249999847412056 792.3627862633066 0.10195430774861998
0.1035231021124504 0.4249999847412056 792.359831263481 0.10964123647585344
0.17834145583531927 0.4249999847412056 792.3472379930251 0.10893258433725174
0.20445767341767343 0.4249999847412056 792.362119446735 0.11746606327700525
0.12491268560200783 0.4249999847412056 792.3686459438557 0.10745172470406361
0.22099751380251825 0.4249999847412056 792.3427507796864 0.11426198660633598
0.2139596325776035 0.4249999847412056 792.3554497890341 0.12075110629097696
0.17834880542026696 0.42499998474120565 792.3700242238953 0.09294219061873787
0.2104979483721662 0.4249999847412056 792.3442022211602 0.11752590724220283
0.19725169037745877 0.4249999847412056 792.3715333941749 0.08964406787346874
0.10639777101575379 0.4249999847412056 792.3688108440277 0.09902672247737956
0.13583883973568642 0.4249999847412056 792.3722113536035 0.0936070149158544
0.15192483450566363 0.4249999847412056 792.3628874113735 0.120490505679041
0.14527789138702182 0.4249999847412056 792.3508040477644 0.1342987294464008
0.14906915505430268 0.4643843626249171 792.3345533840269 0.1362504561525121
0.201320288264234 0.46168956594924526 792.3345533840269 0.1347929105673864
0.05307179339968755 0.4471712843504744 792.3345533840269 0.09912602707761466
0.21268060347069165 0.4632620703427466 792.3345533840269 0.12016577201555721
0.04436690800255587 0.462045371757521 792.334553384027 0.14350593792874944
0.11478080121734707 0.4611270707610348 792.334553384027 0.13247857962948506
0.08736787721501174 0.4528638686448804 792.3345533840268 0.14198090177087316
0.14536774958245735 0.4522314065906643 792.334553384027 0.12376466125344801
0.033267601348980796 0.4598760033183336 792.3345533840268 0.11640091246162156
0.135342864292429 0.46342050582669586 792.3345533840268 0.06421945968909215
0.11566064728635635 0.44828894273619824 792.334553384027 0.13476239471302798
0.09325158682526627 0.46194252765549015 792.3345533840269 0.09907875125843289
0.0637037133784873 0.4378517338929524 792.3345533840269 0.12369452454990819
0.103253919584514 0.4556966618074654 792.3345533840269 0.13373573217192306
0.0201635646222896 0.43419337034137423 792.3345533840269 0.10484012039141868
0.06048488950008617 0.46196985194651874 792.3345533840269 0.10600820138240775
0.01972678113318344 0.4500699877964305 792.3345533840269 0.09710462024404397
0.08075981913745929 0.46347800094712166 792.3345533840269 0.09341501661408076
0.04329993608539032 0.4368214673112373 792.3345533840269 0.1302497024843722
0.15783279410119236 0.45480496275650817 792.3345533840269 0.11489299511685765
0.0272148886852114 0.4429411287405566 792.334553384027 0.1257225693294823
0.031108860301742435 0.4293803613821423 792.3345533840269 0.11729868117921147
0.09865248117558181 0.4451034414700936 792.334553384027 0.1476561005508809
0.07803969122400964 0.43979604396089605 792.334553384027 0.12386833289787325
0.17809752366108678 0.4592809952044452 792.3345533840269 0.13466442631711883
0.04026109287008596 0.44833587942075176 792.334553384027 0.10443075079150958
0.13226560690153102 0.45281676067752963 792.3345533840269 0.10890745062436553
0.1864334949202945 0.44248013701057276 792.334553384027 0.11729956859727592
0.22844447626344253 0.46003842433722697 792.3345533840269 0.1474873283512795
0.14114526698558205 0.42504573281387475 792.334553384027 0.06986747253346517
0.19822575683359667 0.4433036585449524 792.3345533840269 0.13449130886333735
0.043837808733258044 0.4255939850040862 792.334553384027 0.07292390389135812
0.20816236692711554 0.4464603211072453 792.3345533840269 0.12195753398432924
0.17266135343533598 0.4481460267097656 792.334553384027 0.10922946322683348
0.09337052256117424 0.43475125625911604 792.3345533840268 0.13393033630731657
0.2253868112061438 0.44165464701173845 792.334553384027 0.13154980358381488
0.10564776699224446 0.4379902190121454 792.3345533840269 0.1317527425226542
0.19276201495207532 0.4541034603424126 792.334553384027 0.10482581870609911
0.1366174469223676 0.43911606068055775 792.3345533840269 0.11410642452717944
0.17761479105413117 0.4329313135458454 792.3345533840269 0.11643295234404658
0.21928876740945713 0.4527433112788211 792.3345533840269 0.13255877746365893
0.15091608957678482 0.43392584354154273 792.3345533840269 0.10446920029510678
0.23092171345698 0.4285659853159584 792.3345533840269 0.11899035809965966
0.08682213264668104 0.42512846527798037 792.3345533840269 0.08624043749643097
0.11888882350409845 0.43741151626482383 792.3345533840268 0.1204574119218343
0.19036086470397778 0.43178126468823985 792.334553384027 0.10820574825811502
0.20861474264181787 0.43393478022067394 792.334553384027 0.10738550818597084
0.16657890356613544 0.439571293285833 792.334553384027 0.11073800439798918
0.15317809502201946 0.44477819565643867 792.3345533840269 0.12088420816390463
0.07254284371964798 0.4290430047804872 792.3345533840269 0.09749136216116636
0.2342205047607422 0.45132441291289405 792.3644985174438 0.25394773649142455
0.23422050476074222 0.45363131447089144 792.3517720033968 0.250593675512222
0.2342205047607422 0.4648340693276762 792.3554904518517 0.17847201421035652
0.2342205047607422 0.445199304418499 792.335292103825 0.18414258014189513
0.08285193466293386 0.445022083275054 792.8535533802121 0.14040187686355848
0.07255170505274607 0.4320693691503585 792.853553380212 0.16663992492446575
0.07147147518082297 0.44283696372382786 792.8535533802121 0.20657269677318227
0.07006416470134023 0.4553268838495117 792.853553380212 0.15739905016472702
0.0847392815194879 0.4579999809265161 792.853376483944 0.12428315027172768
0.08812778845680827 0.45799998092651606 792.8300616559138 0.13553716539856356
0.0824174315254674 0.4579999809265161 792.8383418225062 0.14261418142397767
0.06233299364505012 0.4579999809265161 792.8450547112361 0.18596498158873312
0.0682896324634361 0.4579999809265161 792.8308934308188 0.15043694944956768
0.07200572858683767 0.4437866992689189 792.8275534107297 0.166909422957756
0.06901404712586989 0.433823438653357 792.8275534107297 0.19024192470503834
0.08390835593539525 0.4481116179004603 792.8275534107297 0.1421857569268724
0.06300482904318808 0.43199998474121054 792.8368415312748 0.2036829153886499
0.0793647315255533 0.4319999847412106 792.8304381685543 0.14918735813559653
0.08614912762481344 0.4319999847412106 792.8455096924938 0.14351118981477168
0.06102050018310479 0.44097971060257857 792.8430780838655 0.2668636857248763
0.061020500183104794 0.43354736339829975 792.8501262351294 0.2005013843697126
0.06102050018310479 0.4488780772361002 792.8531407765013 0.2100862470107276
0.06102050018310479 0.4411222774690513 792.8306613743705 0.22553559270581536
0.06102050018310479 0.44984067486052615 792.8385074240132 0.2074751844355706
0.20342050170898407 0.13004253880475072 793.4675650638023 0.047356066698024724
0.022057128245289645 0.19719998168945096 793.4677462609608 0.06715153634272109
0.009020500183105185 0.04981017216288291 793.4673727608368 0.0499390525818296
0.04516638711021563 0.14064228702162127 793.4664533435912 0.035252802563747215
0.04828773765906899 0.04694044371382772 793.4664533435911 0.035651227342762444
0.06539722782215228 0.08545844012183076 793.4664533435912 0.050520512773200375
0.08825582544300235 0.07588561786277771 793.4664533435912 0.101847668214468
0.014711443451182318 0.1660708252196878 793.4664533435912 0.04161544174056096
0.17572837659146698 0.02505799225854878 793.4664533435911 0.036193056642921786
0.04960674137942266 0.07460703828555595 793.4664533435912 0.035404359736420206
0.02587349082819536 0.12728178052845976 793.4664533435912 0.038753158520932085
0.17457340717654368 0.011723969207294602 793.4664533435912 0.04114889079513522
0.0503073055495446 0.014674141647666464 793.4664533435913 0.04263255732387246
0.16316109634792808 0.02714062051800838 793.4664533435912 0.03630262799581473
0.013726819143921465 0.03843299769776193 793.4664533435912 0.046398089349821155
0.1553803565242665 0.006444788754103103 793.4664533435911 0.0467496199107611
0.06707548487229346 0.012929854475634269 793.4664533435912 0.04296608950689504
0.016138169872468716 0.1879120968103025 793.4664533435912 0.05781466836516168
0.02095103515183961 0.17772693995512978 793.4664533435913 0.04813322189546253
0.13871562259272072 0.06168686232806606 793.4664533435913 0.04387402616931605
0.024495574820526094 0.035130801000895426 793.4664533435912 0.0411898082530058
0.12721390937892932 0.013257272340950995 793.4664533435911 0.04526891309848682
0.07517933023758216 0.08090682397511634 793.4664533435912 0.07276194588238313
0.0349495151520308 0.04092811023290173 793.4664533435912 0.04072973158911021
0.11365706525579024 0.02651422472654976 793.4664533435912 0.037040083568483345
0.034392383561979184 0.053204946555998826 793.4664533435912 0.03596786733436406
0.08348699132925466 0.09628748284465037 793.4664533435912 0.12185635432372947
0.020124896478017077 0.01712350442105894 793.4664533435912 0.05095227829478074
0.09498461811890717 0.09721955701675175 793.4664533435912 0.15653721671173404
0.0501178317028209 0.12335689647401431 793.4664533435912 0.037127004606335445
0.01566424459339005 0.14608868948672019 793.4664533435911 0.04434085976428137
0.04023923884867794 0.0808969199878346 793.4664533435912 0.03344217434877452
0.027023408459646424 0.14360017121437732 793.4664533435912 0.03847866868941532
0.10190393347107264 0.01994182639015876 793.4664533435912 0.03857699921315432
0.06621684926885775 0.1214776979215109 793.4664533435912 0.04938041297480535
0.024274673872895496 0.05771658991510668 793.4664533435912 0.04042684443283399
0.0664691497248923 0.10729975044064122 793.4664533435912 0.05145519069012076
0.1369652234827171 0.0338999205429578 793.4664533435911 0.03745153476567831
0.02983417314362171 0.08604617382444268 793.4664533435912 0.03874070980268686
0.02637701797272521 0.1665387572856346 793.4664533435912 0.03569158877770815
0.030478613512234902 0.07208654357681829 793.4664533435912 0.036484904613918484
0.0698479747289075 0.07260632249331762 793.4664533435912 0.0440267473027603
0.055938070330070776 0.14060218462188334 793.4664533435912 0.0343877635718942
0.06569125541341193 0.032116735469250174 793.4664533435912 0.036810702175559665
0.1932768321319152 0.06387471378071126 793.4664533435912 0.04185042949704553
0.2031960197885975 0.14175866579165047 793.4664533435912 0.04539170520336349
0.15799460364077023 0.09861380030949607 793.4664533435912 0.045012123528367344
0.19160478930893596 0.17522870504912577 793.4664533435912 0.048484321365275244
0.19553307351081411 0.1541131474173984 793.4664533435912 0.039884208274167963
0.16189804482535086 0.15480480396461832 793.4664533435913 0.03499545365804068
0.19295706392436895 0.12232836237682673 793.4664533435912 0.0433183783011565
0.1453077198114358 0.14694796865739088 793.4664533435912 0.03405591614021616
0.11154450039653675 0.14081427713515274 793.4664533435912 0.0471669897241704
0.16996016052116303 0.18440444939025105 793.4664533435912 0.04116767748449672
0.13931406271531221 0.15495061070560115 793.4664533435912 0.033495710455062756
0.16215688573966539 0.06709825623759236 793.4664533435912 0.03611561528363076
0.1642447068039511 0.16444380190572358 793.4664533435912 0.036573753077992606
0.12241153830147566 0.11726334722264331 793.4664533435912 0.12422324547964916
0.03310231968448536 0.18777467140663165 793.4664533435911 0.04514428456824823
0.19191694443764679 0.11101577505143163 793.4664533435912 0.04465059356184608
0.050779983646589234 0.17342424442019744 793.4664533435912 0.035737490187388074
0.15001611607441911 0.1270253135741241 793.4664533435912 0.03856791289799834
0.18067151138257742 0.1660401947996942 793.4664533435911 0.038809013451169626
0.0375125537217108 0.1694185416767936 793.4664533435912 0.03515155984469262
0.12067471336584949 0.1565724266323453 793.4664533435912 0.03564181108745447
0.12860755517600167 0.08818792460576787 793.4664533435912 0.11889382468995652
0.15114214317272553 0.13678730651809415 793.4664533435912 0.0346963879958875
0.1822292448346416 0.119120439835216 793.4664533435912 0.039620363280901315
0.15381790536664025 0.0765907424301939 793.4664533435912 0.03883614216657787
0.12462737038037444 0.12840817897685053 793.4664533435912 0.0695430873298741
0.10924550802606246 0.11255734093571344 793.4664533435912 0.15291918108994776
0.1264141348519832 0.138764016965438 793.4664533435912 0.05039937808423555
0.11313078465807322 0.16416240927938397 793.4664533435912 0.03471352500087765
0.043415806562558855 0.18365274440260526 793.4664533435913 0.03975250626509619
0.1922130914794038 0.05185141204018354 793.4664533435912 0.041094610692535456
0.07166911203198169 0.13712870592403625 793.4664533435913 0.040980336342111255
0.14770144856471176 0.17201905697614533 793.4664533435912 0.03477253285980709
0.13849458948044607 0.1786852430746252 793.4664533435911 0.03937774082766289
0.14593547912643612 0.09886915988431383 793.4664533435912 0.060927946755723786
0.05273650997335476 0.18851855754515 793.4664533435912 0.04450333574315618
0.10523628666420531 0.12248794277080013 793.4664533435912 0.10710094099760833
0.06225497692072389 0.18238454572139262 793.4664533435911 0.039562279619831976
0.09936098857026336 0.07342221990890606 793.467953343591 0.11880338239079027
0.13638336123690298 0.007334243068432234 793.467953343591 0.047569650422137365
0.021920690820476037 0.07804323433071221 793.4679533435909 0.04041441698140281
0.04271808136525573 0.021194287737727704 793.467953343591 0.04230575667497585
0.01735359161765794 0.004509045714503163 793.467953343591 0.06826920298166538
0.03486827339580873 0.09889460984966254 793.4679533435911 0.036090752355840756
