x y z curv
0.09719415337295975 0.03860340808597268 751.8542731398009 0.2507453806598886
0.0839174475744875 0.024071197767801977 751.8595624147781 0.24729414349619652
0.09201977052991049 0.012749015649536514 751.8636833593091 0.20829386078669068
0.10706260835512718 0.013374852297615836 751.8634555821978 0.2034996319496919
0.07547793229508168 0.15191721343994402 751.9273349062709 0.20033118581110468
0.1033623401291397 0.06405508234003962 751.0625619055495 0.19600307484120505
0.09237011997291297 0.0659328308105529 751.0425993733652 0.18469703018849112
0.0801300497473846 0.0659328308105529 751.0427837797967 0.19793978973790216
0.09858907133446192 0.0659328308105529 751.0295931762446 0.1938071505252345
0.10569900944303168 0.06405499267578563 751.0490625745988 0.19445367094863547
0.08759215972372736 0.0028249409460586656 751.8610401318622 0.13969188319994538
0.11736646564981484 0.007402182589240324 751.8593742049662 0.16936348405350243
0.07194235049102544 0.023536910035202058 751.8540507162902 0.16656217035089527
0.09379006364996076 0.04677633605368696 751.8897385028839 0.20766095618233132
0.0841892691163941 0.04166482728402477 751.891598887021 0.17054842854374916
0.09728968658626397 0.034906569518847796 751.8940587322713 0.2013667977528809
0.11984456700687166 0.03064606053953118 751.877114363092 0.18025947849886997
0.11392364537418641 0.02046663930782803 751.8806259252299 0.15723688740358177
0.1055487137374102 0.015564007087271866 751.8823832427886 0.15967018364689897
0.0946541370293823 0.018375087219164633 751.8864995501049 0.14718426490644682
0.07489651861177798 0.027871519516124786 751.8744085367097 0.14727115113799225
0.07804951666507173 0.03763117953838512 751.8805031673913 0.17095486892493417
0.10958030080030531 0.05387301277228856 751.8682592336871 0.13641550323222337
0.11819982515224141 0.04239912761167197 751.8759260289443 0.14281550037394397
0.12222694426493799 0.022054839173248915 751.8687624326136 0.1840228049619692
0.11510265154815524 0.012969507872702214 751.8718507124615 0.15991174287809007
0.10498640453205194 0.006014683231197849 751.8711524102237 0.1697286070854538
0.09391873830057564 0.009888038507914391 751.8774127596157 0.13439954611693972
0.08366182080569722 0.014940776834451002 751.8773439067713 0.1448479613607572
0.07178436372111405 0.023618067917065128 751.8648582675916 0.16378906896547804
0.07308798238985771 0.03725451054910322 751.8676440020494 0.14109125439005377
0.07544007822664735 0.0451346955359867 751.859742050722 0.14461864020679338
0.08366737006303673 0.0528856765125332 751.8632067778663 0.1429121142179332
0.10001068740027118 0.057120551374675095 751.86291629724 0.14984578801119577
0.11069385584555985 0.0536856096186994 751.8559772703119 0.14216809122692078
0.1194833770568682 0.04566881583388585 751.8650280550222 0.13870272948143275
0.12335624165526923 0.036731796226971467 751.8661610983685 0.1699606814562189
0.11269331336970015 0.0316402625847616 751.8876321267611 0.1549156402457952
0.12660576454340994 0.027693533630170086 751.8545911973073 0.1414878614476767
0.08447155438426197 0.02992393794011173 751.8883328844404 0.14392278988403473
0.08575009141299184 0.050856211240048306 751.8788263255029 0.14953581638315225
0.09449598488956928 0.05525386481011719 751.8767654913061 0.14531256072166174
0.10299596927739595 0.0004802084420156727 751.8620022494208 0.11895130607417316
0.07896498783819812 0.011542665360871552 751.8676413921655 0.1496973153666305
0.07280003796786266 0.014476801138983258 751.8576117391876 0.15695261318047138
0.12336833086748551 0.014542135092744643 751.8571033213336 0.13853155187339156
0.07121384873885672 0.037028860190568946 751.8555943421327 0.14691256394487817
0.08526396992909313 0.051811956203267284 751.8444182116793 0.12927596077236506
0.12361250655123536 0.040162299729839285 751.8559168379797 0.14247802753309052
0.11816666698002083 0.04765507138755922 751.8507315369643 0.13882402263426477
0.0990441586496962 0.055293733657685466 751.8464130002062 0.13962304588997868
0.10387628477912172 0.04419169412900486 751.9118130618666 0.1820831042826855
0.0927605462037139 0.049867383993132286 751.9056403237537 0.17478725869070477
0.08751186735365357 0.117537563927807 751.9365970338471 0.15880048893959328
0.08724275761695471 0.116828807976594 751.926100144786 0.1422149450077066
0.11003681702784152 0.12256777631232435 751.919261790984 0.13912902526965387
0.10751606282944642 0.11297917376820449 751.9279713846563 0.1273438278205276
0.10938415490230254 0.11964295722243809 751.936216644759 0.1501613468599422
0.09725823453311445 0.14472719384239022 751.9416396598655 0.23651749894850838
0.1012878939846718 0.11466299625243243 751.9190107577884 0.11054044702288712
0.09820073537425972 0.1404514068437473 751.9166396598655 0.20859947382000846
0.09999409564636368 0.1504460381937662 751.9166396598655 0.2342555918137307
0.11130102323487417 0.15367268887466856 751.9199058005576 0.2072554846074691
0.08587484648345212 0.12762016788780872 751.9400257080658 0.16952096090517943
0.08784722886622766 0.14905795486310125 751.941512297499 0.24258254572723525
0.10573975741286788 0.1385556317618795 751.9416396598655 0.19724306112856854
0.11048743070192076 0.1306707765360115 751.9267594110752 0.15779090735012502
0.11048742599106705 0.14324439828812627 751.9338744248155 0.2149643418497804
0.11048743113551802 0.1295135617993675 751.9384576421812 0.1824043384761636
0.10986076141712611 0.1429635874372004 751.917895235033 0.17982487468585712
0.0883977621892529 0.14510520723348125 751.9166579354719 0.21825593583806857
0.08548743343353271 0.1491801159962538 751.9308644807122 0.2347608022876241
0.08548743343353271 0.1393903278328324 751.9384626349039 0.22118034992995214
0.08548743343353271 0.13818305345951512 751.9273028072206 0.19155797724818727
0.08548743343353271 0.12577441346509793 751.9213796602176 0.15316210452567305
0.0981348587573893 0.06466460453939393 751.916974273114 0.13078216889720007
0.10137044851206756 0.060632311652184134 751.9077754065376 0.1462642696001132
0.0928908772475775 0.03906922963949569 751.9140064175191 0.1683545813075801
0.0862966326168962 0.0466103513869454 751.9218562652713 0.15368364199418125
0.08538598621740633 0.05320545135469284 751.9326848849096 0.1191326673870049
0.08619468414678401 0.05672235198674221 751.917264046357 0.13511044659602922
0.11062277650190835 0.05783223283656548 751.9272699546809 0.1272589978144536
0.11011461335012224 0.04754761620096958 751.9214513864517 0.17555331290951276
0.1066942319009852 0.047278648184260794 751.9353418032359 0.14121230135347565
0.10345573017737641 0.039874521398933535 751.9212331387755 0.19334720984801715
0.10911387007158457 0.0580542885756787 751.9174152263935 0.15589966245559467
0.09501178887872791 0.04143879691405207 751.9280942504483 0.157045295556046
0.08834220585258676 0.06276643494855683 751.9247752779559 0.10938384160714525
0.0983491486363266 0.05309606622098075 751.9381133924348 0.13171475574086616
0.09362610194671811 0.08935640243324294 751.9369408716695 0.06572986189471244
0.09803532565173995 0.06784285606531895 751.9381303836524 0.11715593210560576
0.0965397018824276 0.09912846615132175 751.937930325621 0.10310802823947703
0.08924935946840529 0.10634991410595357 751.9307673846549 0.1289879614291941
0.10050964943619403 0.10965274673183281 751.9376885553585 0.1366574116037861
0.1047699650453421 0.07948460941396723 751.9349949600369 0.08587093601701487
0.10648824819169286 0.06967856520254696 751.9262423550983 0.1137280710575957
0.10673236662686847 0.10099574035913053 751.9309569007089 0.10182423060134749
0.0891044437292825 0.08897811227475491 751.9281121060401 0.08690600524426007
0.10629555116260894 0.08793954360380536 751.9256909335983 0.0846893919316427
0.08926958050499378 0.07624735633695168 751.9312666040698 0.09808767123198335
0.09443745143897722 0.07356664555766648 751.9209091655878 0.11462312502580173
0.09287802539649409 0.10164686698318205 751.9217484942685 0.09480594803441963
0.1159702420153273 0.15537995606861807 751.9383284168539 0.19445974353580356
0.11296670604263405 0.16039637223137648 751.9039447724695 0.16213872439909682
0.10194635824889724 0.16161904122268755 751.8997455798261 0.1667361132715749
0.0690318685118668 0.15937443479588173 751.9312550541539 0.17837520054893502
0.06914891759646916 0.1621717004124219 751.9217796636104 0.1621666876658814
0.10905793220800145 0.15574742892357124 751.9527941277743 0.1901583473243322
0.1213732364028252 0.15553075679573986 751.9180931458886 0.1869369360163707
0.08075321768704057 0.15538001346588712 751.9481170023898 0.20818687108271858
0.09452091431760701 0.15537997903655232 751.9507395506516 0.21684429546108192
0.08184707721659051 0.15537984775332014 751.9120060985002 0.17206876366411264
0.0919845767100447 0.15537999589147386 751.9057811592575 0.20020199258118307
0.1043257453817685 0.15537999757484838 751.9082108947193 0.21871111379035782
0.09903602655290072 0.15838001537323265 751.9389520358412 0.2935728588553639
0.08779983451652981 0.15838001537323265 751.9349582148297 0.2722201259682057
0.08378460683738742 0.1653800155847591 751.9054116741818 0.15935313774917673
0.1228014124291346 0.16538001558475912 751.9146308592371 0.14742932242975318
0.08232256368162355 0.16538001558475912 751.9540562960317 0.16043917530327437
0.10211905670815696 0.16538001558475912 751.9567741195444 0.18176767987660747
0.11369866258024991 0.16538001558475912 751.9537437146003 0.16393812953121573
0.07043188704974249 0.16445746256420368 751.9408877303654 0.12087430518214794
0.12787925302722322 0.1638398112647646 751.9275678418303 0.13764718448977983
0.12574884480943543 0.1615652974008433 751.9393747671755 0.16371119024965838
0.07363740943116132 0.16202318080991407 751.9121082109665 0.15825127494251384
0.09676478359408236 0.096477637173635 751.0229007383949 0.16649664470947814
0.11512614922911066 0.09936862693399973 751.0272280324681 0.1813625761507338
0.12129916603877003 0.09800310055960863 751.0390419715925 0.21779448953494215
0.12393160691338952 0.10359918354404986 751.0481707056671 0.2150237611542596
0.12035153590362559 0.0964798805639411 751.0554221332917 0.19414468505962973
0.11582772247140682 0.10923179200874678 751.0629697509569 0.1516644464924126
0.1209632483144383 0.10936886442555382 751.0402461592153 0.19571721119532948
0.09665947530405963 0.09590501403808815 751.0430967150867 0.2744609423872232
0.10201408395462705 0.09590501403808814 751.0315084418241 0.2098351299026148
0.0794740271968289 0.09590501403808814 751.0338414998744 0.18788958738733705
0.09031772328693832 0.09590501403808817 751.0337651326058 0.2194539888875248
0.08796891312386479 0.09590501403808815 751.0530489672202 0.2747439257204041
0.11202631769650655 0.09590501403808815 751.0501532315201 0.24021941777638536
0.11065403117214459 0.10141617841844362 751.0680558993654 0.18751081117383897
0.07475634376765146 0.108957189478488 751.0547208326574 0.17335057215237043
0.09997824284795825 0.10990501403809104 751.0376897193809 0.30239228461707046
0.1032285937108085 0.10990501403809107 751.0564027392431 0.24989915888059658
0.09076019617464016 0.10990501403809107 751.052222231594 0.24360451251952617
0.09481775435564589 0.10990501403809105 751.0245633805132 0.17278908826403191
0.11591755083352193 0.10990501403809105 751.0518497627529 0.20465482099481982
0.09852267218724667 0.10504943295685956 751.0727496948081 0.20390025522253027
0.07855729013269987 0.100335350486814 751.0638971383815 0.16835691048783222
0.07232064673151395 0.10440512884563892 751.0447274294606 0.20316111599420514
0.08655692679270771 0.101655608054232 751.02500002479 0.19190847430697733
0.10540441395298328 0.1023653624258011 751.0233375948249 0.17061178760018417
0.08846170374855594 0.16048356212633266 751.5131202192832 0.17961618475782917
0.1279007776697897 0.16166205793857993 751.5357806936125 0.21072029244807777
0.06510535525248197 0.16442362510881942 751.5321722450019 0.21510497762353153
0.08117541143407224 0.1646678412375002 751.5429544481087 0.179399590634313
0.1053015512396262 0.16453143977889273 751.5475802546589 0.1707135711425743
0.11766349608523176 0.16441052412682822 751.5414648674608 0.21278072544568244
0.07452310620851808 0.1603829541206423 751.5359134019226 0.2675500728638876
0.07823551513228397 0.16538295437302963 751.5179533453233 0.18185698098598171
0.09550384322788552 0.16142009803991994 751.5479220808945 0.15731505266907622
0.12859777192417146 0.16407657745320944 751.5241759564627 0.2344181232379095
0.07120966531712054 0.16076938535746046 751.5238703592764 0.2634072168441725
0.11136225829282262 0.162946161552222 751.513544070239 0.19539048526763658
0.11722604023807962 0.1603829541206423 751.5274160287105 0.24168035798541315
0.10141333502967058 0.16992246885180765 751.938502805067 0.3020332389812993
0.09172944488413202 0.17461095837914928 751.936919589102 0.2639629673134004
0.08807507538585435 0.18282220780290895 751.9306946338392 0.23089463435966298
0.08864019984607673 0.1674941637486511 751.9254698021678 0.29579064411937445
0.09224146255100592 0.17822413527245096 751.9207488336006 0.2667162236678936
0.09912063739536275 0.1900506855483373 751.9191767990737 0.18237053161630573
0.10327936547237646 0.17643491225270203 751.9204383274847 0.27529038943798734
0.10719152911217898 0.1894549357799433 751.9251718170084 0.17052502131137465
0.10685494098246263 0.16751377284679334 751.9240250796495 0.30688989971303193
0.10735692433680322 0.17926764253635252 751.9327174333205 0.2415139594611483
0.10147415866798298 0.19138001251221226 751.9354625864953 0.15326686806347473
0.0906206830903853 0.19138001251221226 751.9241892629792 0.19502391785413703
0.12494749744827066 0.12138624324924072 751.0510489526412 0.16364847938395297
0.11796618718262256 0.1322967218325591 751.0605882163542 0.17806671285422726
0.12534439696570887 0.14068622757322496 751.0571668976648 0.20698627738140443
0.06104487345385878 0.14617598415488187 751.0458670842258 0.16609727376024197
0.06106189310050268 0.12110289695031266 751.0505204983599 0.1638287595131313
0.13671142342380865 0.14375882575707982 751.0553259322614 0.15493879009675976
0.0529874038696289 0.13095507492024355 751.0505967936249 0.12552326081468368
0.05574681697638028 0.12120722880579808 751.0411267903237 0.1431738734530253
0.07482174988679549 0.11906687452551337 751.0451941330703 0.2306250890494895
0.09512580751523297 0.1263369882308331 751.0239725080962 0.09846627154727797
0.11507109890530735 0.11791380279613073 751.0311619141373 0.165949693890109
0.10565998439124073 0.1277777253331835 751.024869280707 0.11281125462073349
0.11724233230491257 0.12087556330031501 751.0597626763958 0.1568191699362841
0.0987139657009148 0.13283709684520612 751.0696666881087 0.25993591248275066
0.08039582609119014 0.11690857106534525 751.0618231982714 0.15336727388893776
0.11379593481957942 0.14822416819354314 751.0316473023084 0.18290342395480652
0.11898511239757806 0.16162967306478218 751.0452651200559 0.1728614576724735
0.11963019161716401 0.1504155525829398 751.0507832988797 0.22993518468412516
0.11195816636532711 0.13602238291441993 751.0285638852286 0.11777456058923451
0.11598138435957261 0.1601261165971755 751.0352703356771 0.16953723598121573
0.11646695416331934 0.16441371699776736 751.0561146784539 0.13714530734303093
0.11426405397014477 0.14311061738940545 751.0619862017646 0.16287527014120198
0.11419551016013375 0.15405575065948926 751.0609525029907 0.14750843938230554
0.09395566667612851 0.1638301259103589 751.0673754964122 0.10301387722028446
0.10273147175324626 0.14442005288642495 751.0685321529704 0.2017804413410848
0.10174314467289301 0.1558451247397914 751.0680700359871 0.1464104367522059
0.08534024981977266 0.1510977585445426 751.0647523247236 0.14267323550639316
0.08280114386068091 0.14431215704526973 751.0302403075616 0.138203747717275
0.0837249390113061 0.16400507650642143 751.062009305422 0.11271508369769807
0.07753471278384731 0.16206328573468434 751.0520320433216 0.16845086126337888
0.07783592195168149 0.16372556761860801 751.0413613631343 0.1583176157395937
0.07776661640040186 0.14955007642243542 751.0388562983209 0.19345514847826561
0.08275004584669185 0.15476692931684896 751.0313109213611 0.15080347978355443
0.0935271292383509 0.1589360576591143 751.0260151313647 0.09014396932957987
0.09559292456893638 0.14510621608132926 751.024561114816 0.10216877165664108
0.0873852504395781 0.13363012723018908 751.0264070345391 0.10634038533528681
0.08696384693870325 0.11038001251220919 751.066176013568 0.1591061186195717
0.08229748080898536 0.10238001251221363 751.0461325783681 0.26039566337460984
0.10939264739237148 0.10238001251221363 751.0412702401148 0.2619474341569481
0.09367769285745414 0.10238001251221363 751.0605855722299 0.2792384112968771
0.12398402381270415 0.14487175003815106 751.0412396822426 0.228673067332042
0.13208291344542666 0.13341841679735134 751.0351549873221 0.1302418613168689
0.12086936710006412 0.12922970495720576 751.034082359353 0.14788971777865467
0.07470595529176115 0.14618760515114615 751.0495387162441 0.20543122262658636
0.0786187721793181 0.13883968525336926 751.0596319209735 0.17016558958241024
0.0706210457767443 0.13016574765086147 751.0590531661536 0.17278856931024308
0.07264654455119764 0.13824800568764747 751.0347239991289 0.16366795160184855
0.07754569866334021 0.12640165520257846 751.034979005133 0.18695177993766154
0.10716023574036011 0.16538001506295788 751.033567903076 0.10950551846373661
0.10900521754950354 0.16538001506295785 751.0462190456321 0.15601704154566093
0.09509956739870913 0.16538001506295785 751.0358575297475 0.16093870728110932
0.08852458491939509 0.16538001506295785 751.0492342825113 0.15037986775098378
0.09992064745396548 0.16538001506295785 751.0578980719438 0.1402694732855543
0.10752947393608439 0.16538001506295785 751.0650291446373 0.09500092156752858
0.1293066359973201 0.1309130327606839 751.0585649501018 0.16185268160978697
0.07712423894190593 0.11247104632156102 751.0367260771832 0.18683799935666603
0.12048137400987696 0.11959265809359954 751.0410839333149 0.19958172016255105
0.10774153785579782 0.15723788255859958 751.027862473326 0.09682868454581257
0.06639218765147634 0.14061676310728205 751.056338580413 0.17385980028866566
0.14948918566429756 0.13411797651966234 751.047642755537 0.11580329080294519
0.13962230975145978 0.14930535607655715 751.0471554653327 0.14167514186911168
0.14000216894603898 0.11732770210573751 751.0467937550286 0.14090546791445005
0.14207969620610963 0.12537257955392503 751.0611624083207 0.13361095138986082
0.1494874503068498 0.1461205537586568 751.0430704338935 0.13728923637045226
0.1364874726187206 0.13412281450862476 751.0504737994779 0.15529324676617975
0.14215088926418984 0.12837894000940894 751.0322839906047 0.1253147751689734
0.14237048173423175 0.14014210579482117 751.0322840263891 0.1261099231890447
0.14777374892859785 0.12063471616872384 751.0398595404004 0.12262234812390665
0.14928137291647503 0.14545556106196064 751.054868357806 0.11469632081019698
0.14692939791178633 0.13589521432851168 751.0612839480189 0.11590109670988306
0.10725425005387562 0.027951115180101342 751.856350779735 0.240166942504661
0.10067042066228422 0.01856153950375336 751.8555924745315 0.16613702220715165
0.09911752551987547 0.12642635039739206 751.944042135681 0.17155029454466791
0.11973603183157909 0.15191721343994402 751.9279167491508 0.2045245570362032
0.0968335240216318 0.14815480355939217 751.0847830772238 0.15585982248128372
0.1093366466069981 0.13859411567803365 751.0977825202781 0.11947774032152576
0.09688576740627886 0.14731710998695535 751.0977825202781 0.11768513228829808
0.11169188853908255 0.1279725419491049 751.0977825202781 0.10723206306609749
0.08732014464933235 0.14327925462183425 751.0971145017659 0.12000827167279758
0.08544146509651354 0.12573999978449912 751.0932479930914 0.12886049849687042
0.09795039299538864 0.11874901464176417 751.0958253142793 0.11206642379052964
0.10626116535541362 0.12035311416218188 751.0895165801232 0.13873622252081722
0.10746060293546433 0.14584392760915957 751.0916278973389 0.13405442853542276
0.014854722235968891 0.1492100622797229 751.0444178436136 0.2166155751887045
0.024232984353313863 0.13269209279753402 751.0572070875621 0.1321038063152204
0.032808988121308905 0.14007111522309942 751.0548197499643 0.14922321477643552
0.025599528604979042 0.12339627911470381 751.0435907511794 0.16318152944562755
0.0327318517313708 0.1288177958065949 751.037407978887 0.15108047183189666
0.024304675472833236 0.14707377393060925 751.0572018878543 0.17692110225067864
0.01626875006983241 0.1422997914408632 751.0524837639014 0.18031281717468275
0.015147948263470835 0.1383154891125155 751.0432104507881 0.1697154409475999
0.035511993065529275 0.14606244434778587 751.0467423697025 0.1557004513057518
0.022683454093719066 0.1345111561687265 751.0365641785856 0.13529369306108505
0.030819608922617613 0.14923071844626912 751.0380526315776 0.15850915747062944
0.02200276317832044 0.15938001537323032 751.0458428101313 0.2016253726615033
0.015006689521384583 0.12524067506999098 751.0474267865391 0.14035668217056632
0.09402382789321168 0.15838001537323265 751.9199234718317 0.27028272591061275
0.10848740291595457 0.15840583018252302 751.9293877820282 0.25543799814242985
0.10204628476323727 0.14128196363798248 751.2002192899329 0.06306799213921535
0.10162518890895396 0.14150264061480708 751.2596257116256 0.05505740088797008
0.10126382507492315 0.14169201478607119 751.6857964818006 0.058486078346836085
0.10102735634836939 0.1418159371737144 751.6599737836083 0.06187651311452318
0.1012332369051778 0.14170804463950562 751.8925733904987 0.17371122877129674
0.10256458034318838 0.14101034875381363 751.86429881249 0.05919034740131364
0.10321484752461305 0.14066957362087085 751.3487297138442 0.06031039712045425
0.10307336343564501 0.14074371892699217 751.44742702807 0.058676499311468795
0.10320927787967316 0.14067249241571256 751.6756244368512 0.06673018961965667
0.09896595995295332 0.14222528767217094 751.1797763732272 0.0698990260717077
0.09854648389056125 0.14229666509064728 751.109013301718 0.1105148022338751
0.09895920003293593 0.14222643793003592 751.2881564394975 0.05800549869158394
0.09877924497800014 0.14225705881264325 751.7083391246315 0.06479135602763363
0.09847011684601123 0.1423096595925637 751.2144879170909 0.06917940080716287
0.09828572005997352 0.1423410362734824 751.2301277631955 0.059126719812492824
0.09850684051065792 0.14230341074879294 751.5833063404987 0.04868990519502625
0.09877617900003292 0.14225758051486187 751.3265081094914 0.0693248738594807
0.10066092218449091 0.14193687543760344 751.4569332491161 0.06946429174659681
0.10071862673748058 0.14192705651729784 751.8446895464739 0.05204363179924292
0.10046657235987988 0.1419699457126579 751.6461545691435 0.05666603783777689
0.10038606846034125 0.14198364413562292 751.4353450989115 0.06885168334666726
0.1005659762230871 0.1419530313001838 751.6278629740367 0.0607243090090832
0.09906567242558838 0.14220832074717885 751.8816265273281 0.09232087298457482
0.09985784334194714 0.14207352613058188 751.5618207020209 0.10359632117821964
0.09637112928393665 0.14212311810714895 751.3790637915805 0.06332621279904058
0.0963166115604083 0.14211512324040526 751.61496245738 0.05914525566846198
0.09538646964235781 0.14197872061376854 751.5504784480174 0.13754313704997087
0.09660488432815398 0.14215739760945073 751.5271094923265 0.24672835403928023
0.09671556170522519 0.1421736281272339 751.4699476301055 0.06389779524658702
0.09665830392916287 0.14216523143969761 751.1685750603867 0.07150751054275996
0.09560452932177477 0.1420106984361404 751.7558312143187 0.07306152785269222
0.09773588354256993 0.1423232553786541 751.7923832758128 0.05710010707052299
0.0977348840131047 0.14232310880054402 751.399340949115 0.05762224125813692
0.09754947409716036 0.14229591897171412 751.7272106821193 0.056204428809212933
0.09378791457892478 0.14121634437540534 751.1906432236826 0.06812415895830026
0.09284646710902802 0.14075017006607313 751.3081777885509 0.05964065448664361
0.09406068815464778 0.14135141301952278 751.2431492550779 0.07255925013615669
0.09340430318919642 0.1410263924339782 751.5721127200298 0.07081177644134669
0.092960979988365 0.1408068731367611 751.7666124862546 0.06653355699266607
0.09442333971422721 0.14153098633159905 751.5003861704397 0.12045878506217647
0.0932953277420062 0.14097243132042434 751.905508399481 0.20305968387220402
0.09332762828504947 0.14098842550366422 751.8356024959712 0.04839249252693003
0.09462508252215988 0.14163088283900702 751.7398226040515 0.06271049598471737
0.09504741416465777 0.1418400077961033 751.7785864804082 0.0661088164634386
0.09093355469498604 0.13891236596289963 751.274401104638 0.06310654802653577
0.09090327624937919 0.13888277411175415 751.6298943900147 0.058906825299019444
0.09098604290228304 0.1389636639468646 751.3500189538305 0.07018646504030907
0.09145652390913268 0.13942347631974006 751.2212166371131 0.0625875161551604
0.09226305335036876 0.14021171688794465 751.1390091662353 0.05508246328398819
0.0907794307016113 0.13876173688738133 751.8492390165707 0.05690747491786075
0.09192907710014518 0.13988531388790088 751.8689790154433 0.059234785001177404
0.09228066728991463 0.14022893141354795 751.6904819344387 0.060705618982750044
0.09237962786445753 0.14032564795670102 751.3609309433675 0.06110625173434808
0.09202318750440795 0.13997729024330383 751.426494850142 0.06425943991803307
0.09265250616094205 0.14059233846107 751.4889641494269 0.07624522790383294
0.08971123238654041 0.13673411851753794 751.6080169047502 0.06401688653978096
0.09040718258320897 0.13806213187081828 751.2552394296916 0.06514981519569561
0.09023397650458147 0.1377316197359159 751.2011997441207 0.06112718618330409
0.09054028052426641 0.13831610958914425 751.1758146884591 0.056632309639377876
0.08999707441640525 0.13727956276686265 751.436394827152 0.0641480206884075
0.09050373757296207 0.13824637826708597 751.1222528957154 0.09312485281628657
0.0901065279788522 0.1374884222415628 751.1505194399205 0.06771244364858175
0.08985771168790256 0.13701363057043958 751.5974195521704 0.05807316708842095
0.08950615341675833 0.13634278647732695 751.8783213521657 0.06241254609505276
0.09000914439086631 0.13730259471273284 751.1067775046674 0.11343254598556196
0.09009578294584808 0.1374679185512424 751.8144394431097 0.06136167800659323
0.09031028026717058 0.13787722270594013 751.4116233509718 0.055635212152189285
0.09066348168391733 0.13855120225229636 751.7159788988897 0.06792947628212301
0.09045407505092579 0.13815161215776164 751.6438649539641 0.07036442350579288
0.09002740731450538 0.13733744405479603 751.8961838875579 0.1357514879257253
0.09045043757190914 0.13814467111409284 751.3354959066868 0.06406239355484873
0.08990181364073019 0.13709778599210795 751.6697734444442 0.05635417121259968
0.09068932952268209 0.1386005251423499 751.4481959785807 0.060927046646251384
0.08907430969888386 0.13398192166683348 751.548184293524 0.1091579847739836
0.08902774551292567 0.13370827317150497 751.7329781163156 0.07256884586533668
0.08912716360899028 0.13429253362482702 751.2963739937051 0.05319350964790001
0.08907623886863933 0.13399325901526882 751.3761610088874 0.058807730501293225
0.08924387080491544 0.1349783986926198 751.916087293004 0.18856297682252002
0.08938758600955107 0.13582298447663155 751.4771977243776 0.06555179255784502
0.0892996209299119 0.13530603113170836 751.5602466120995 0.0896269409737182
0.08939183200686972 0.1358479373616333 751.7477241560099 0.06996028636583995
0.08936146831959368 0.13566949598732964 751.5809624987023 0.0556925974124897
0.0892618033189042 0.13508378452444525 751.7056837500431 0.06509427231266025
0.08943663768505158 0.13611125145516545 751.7984560116813 0.06173544901910715
0.08921551510052986 0.13194167033001516 751.394090754959 0.05775792499696757
0.08937046147199053 0.13088510525959302 751.5013640880943 0.07576005300593294
0.08899233374279487 0.1334635235023691 751.6562188675448 0.06431755115757166
0.0891963921102153 0.13207206824393802 751.685473509342 0.06409468791372218
0.08901952708682727 0.13327809458795348 751.6190097602212 0.057047226370099284
0.08913395978084343 0.13249778856160374 751.759508097231 0.0651726085096719
0.09061994352526806 0.1282304938686371 751.1377666971272 0.05095667965259418
0.0899921611111948 0.12949831836888262 751.2286058692997 0.059211136268806225
0.09043386988419515 0.12860627489676668 751.4704937676008 0.05833884718445564
0.0897485326544682 0.1299903329896664 751.3185990025482 0.06191943924890089
0.09008519693753447 0.12931042986262656 751.2839065071433 0.07279978851558204
0.09060968906539098 0.12825120304299034 751.2005720337287 0.06285625569762655
0.0899610244965511 0.129561199650701 751.168120422667 0.061412110876893064
0.09011111496931766 0.12925808765781766 751.2391474267833 0.061107735669523336
0.08943863481862696 0.1306161805127013 751.8286557531478 0.06520643455492833
0.08944086722865699 0.13061167209693936 751.4187059788483 0.07586526545742409
0.0895372417980608 0.13041704090378758 751.211824744215 0.0673852133130356
0.08961265582853829 0.1302647401171484 751.3077529918326 0.06628486781001448
0.08991447883737329 0.12965519993768396 751.535490610428 0.1074471166511367
0.08967994727021417 0.13012884313038833 751.84289939989 0.053360059483902655
0.0913885421986408 0.12741744165434166 751.179131550639 0.0671648262300712
0.0925599727122717 0.12621883318178104 751.7826154463069 0.06311620559736164
0.0925042068784917 0.12627589281960877 751.7687112814174 0.05811185497372117
0.09238454220816553 0.12639833378904755 751.6640058126409 0.07085007439473297
0.09166271382741449 0.12713690906332584 751.3340865001662 0.06077618067897225
0.09242383705509745 0.12635812727580367 751.80781100256 0.057414548083977536
0.09081254531818533 0.12800680204153397 751.485192368545 0.06344961921136501
0.09105310493451269 0.12776066128377603 751.5886493217647 0.05259405420275815
0.09071391852286606 0.128107717043419 751.4567137810504 0.06555457481235397
0.09110182490148833 0.1277108109815 751.8607640326567 0.05812828597688267
0.0908368179591561 0.1279819662593169 751.5688053809663 0.06521816174574872
0.09155331864425723 0.1272488422867342 751.8867528314491 0.08535008102653578
0.09173688777929741 0.12706101422693933 751.601651071805 0.06291760893490758
0.09119900101642091 0.1276113803167415 751.8733218643205 0.07170819515358014
0.09139806896889899 0.12740769385674316 751.7213294851422 0.06030983975936324
0.09116736568947958 0.12764374960408964 751.6337303028131 0.05591617107222578
0.09441957186656333 0.12521745376159724 751.3689339190092 0.054157148875240826
0.09481790643790056 0.12500870533129588 751.738447085698 0.059786488340012336
0.0939828049159411 0.1254463427958677 751.510076348826 0.09296264607090775
0.09290657535194241 0.12601034413618437 751.1230968484674 0.10119090292547861
0.09451950495553912 0.12516508352572034 751.2935504677864 0.0640512857898725
0.09283987525618914 0.12604529852199806 751.1048922815464 0.10629804822686677
0.09282750439436349 0.12605178150934943 751.2616847002375 0.06551631051455536
0.09275768218732726 0.12608837204697224 751.7072803949007 0.06609758979702962
0.09286658931800144 0.12603129893754933 751.6767908880843 0.07481920146114777
0.09427777286703579 0.12529176395383165 751.898681590451 0.09400752415583573
0.09761879902930756 0.12442994656276196 751.7586941280706 0.059760228297898926
0.09761711781447771 0.12443023264155118 751.2711458530317 0.06207069246384847
0.09629904279277632 0.12465451885387249 751.35585840568 0.06202738185290813
0.09766711441483579 0.12442172512267809 751.7979139339386 0.06491682805117663
0.09688383602690576 0.12455500929841128 751.6138312736134 0.057561803927493445
0.09590018750816817 0.1247223888457745 751.4082444806709 0.05773186817044769
0.09647239263799934 0.12462502130665293 751.8214282180724 0.0567825689116395
0.09602791599789348 0.12470065431724284 751.5440976224133 0.10249143437120566
0.09605621694477463 0.12469583857301239 751.4475141135171 0.058723683326496676
0.09600987356718502 0.12470372445238545 751.6931371562575 0.05753558712309579
0.1003755485388105 0.124751143185464 751.4816899286272 0.05543359626244074
0.09916724852232518 0.1245739453011323 751.1131843364133 0.09096827504156287
0.09995017297499777 0.12468876161720642 751.6443801572315 0.0665999099484438
0.10029460824255282 0.12473927324500356 751.6270724082639 0.056477754886540964
0.10031617470515528 0.12474243597900465 751.430252423567 0.06663170605634898
0.09995917518918937 0.12469008179703533 751.3985073026173 0.06973241145113411
0.10045719536076152 0.12476311673831902 751.2814398948572 0.06258648877397104
0.10031499550380923 0.12474226304845688 751.5697158705375 0.06879698640604988
0.09829665320599573 0.12444627200306234 751.3245697503299 0.06897734124144751
0.09790521250103061 0.12438886700114662 751.3121919413051 0.07832503143098338
0.09832703970471135 0.12445072820037362 751.3797982462227 0.06350182073206426
0.09860849985377942 0.12449200449124351 751.3435638634004 0.05374450067773112
0.10246559981940757 0.12568496780999627 751.1502026162477 0.05638231383898356
0.10123181515989946 0.12507404225356436 751.2124033082855 0.07548799734176767
0.10243501169128669 0.12566982167485147 751.1320429534796 0.06483798967150124
0.10215137806904609 0.1255293765597702 751.5537750176929 0.0960614084763415
0.10316373015620457 0.12603065671217448 751.8840472093033 0.07216142085659144
0.10154992796531097 0.12523156021357174 751.193295704141 0.06716071926136064
0.10189279990345027 0.1254013380009501 751.6737416963983 0.06377356068376251
0.10093837636054243 0.124928741969277 751.5001223736253 0.08854756220912315
0.1012781217003024 0.12509697157817873 751.656442037453 0.06636113602508366
0.10286585357633725 0.12588315899942448 751.9099823190672 0.12335800903456763
0.10087979169335612 0.12489973296018994 751.183151543846 0.07801478446940054
0.1014233564554519 0.12516888657802833 751.8439345805689 0.04273927217298075
0.10250128089596659 0.1257026357890742 751.7197629450243 0.06036046702567277
0.1014938706947708 0.1252038026799269 751.7879660274222 0.06729366419750331
0.10436369874166125 0.12719185593065985 751.3710835124368 0.05103801494705781
0.1051859845420359 0.12799550003389534 751.8046910162194 0.056865843045447
0.10451250401156639 0.1273372876985867 751.2456541177816 0.06594240777354826
0.10465244564459493 0.1274740567734379 751.4399667932859 0.06046907787041422
0.10406823505908408 0.12690309058153768 751.2255868977254 0.05737162198505709
0.10491364026393292 0.12772932995890723 751.4698729445392 0.062079385686486695
0.10431545663312465 0.12714470749876985 751.7713452575044 0.06496312663135476
0.1044807050016798 0.12730620959074093 751.7029749716311 0.05887994023845228
0.10373866851639804 0.12658099550397137 751.5164457982953 0.11138297826135735
0.10320658858488749 0.12606097813383854 751.2598138569102 0.054296048276613634
0.10352000737532133 0.12636729153808385 751.3353120986347 0.06967903414711456
0.10620556428661121 0.12992758529363427 751.612027059663 0.06456717344284346
0.10598791282813397 0.12951226399794064 751.3589028568219 0.06250706696218039
0.10585147240539744 0.1292519091464162 751.1234509661151 0.08591087882605157
0.10609368712610055 0.12971410192170146 751.3127966010277 0.06740708657678676
0.10524847751483449 0.12810127766892754 751.1639358215259 0.06606722713969387
0.10587572216969424 0.12929818241101307 751.8951392458432 0.12281542190341478
0.10575997125073398 0.12907730715487356 751.5979793612003 0.06418500374570651
0.10596835162659941 0.1294749374225825 751.867850627145 0.0650035359238727
0.10594804941392985 0.12943619685392124 751.8290631149882 0.0571842141008483
0.10538057072235057 0.12835333718868328 751.7382464404468 0.06409346778763879
0.10680604385944166 0.13226092799229383 751.3258722489885 0.06291864466635325
0.1066205043497883 0.13117055125675586 751.1112372106727 0.08807241105190966
0.10661049401886835 0.13111172264407633 751.2010484242687 0.06886146475732322
0.10688958469319931 0.13275187992898355 751.2988996686927 0.05878844519948126
0.10695852566574342 0.13315703154724476 751.6505777536734 0.06058318684235462
0.10654009597308808 0.13069800811238685 751.4517593927101 0.06174959079732439
0.10653732625131682 0.1306817310391697 751.5853449234611 0.056902411147680625
0.10680315270810221 0.1322439373030043 751.6634351631207 0.060309062401573584
0.10679158444802651 0.13455437250424715 751.2544438530322 0.06624999348409215
0.10671782000176089 0.13505736686395153 751.3775493121677 0.05668938612947377
0.1067397175017859 0.13490804941412549 751.570124935573 0.06430962876859858
0.10676580383598065 0.13473016861070874 751.2120793944729 0.06796388874161051
0.10659141750541619 0.1359192962341657 751.5577060834257 0.11511822018807594
0.1069731215404614 0.13331648435901441 751.7816425698683 0.07246938568901921
0.10697806378933228 0.13328278352572467 751.6839097227006 0.06509966801879721
0.10693763266909531 0.1335584803751593 751.6248576714136 0.05406947645022724
0.10692769153283925 0.13362626825562202 751.5011272163925 0.08763383091827505
0.10694082903496444 0.13353668459026416 751.2866524202332 0.05987639184483017
0.1066888878884587 0.13525465282679755 751.6956926811897 0.06442465450199052
0.10691114786970002 0.13373907828361192 751.4858090495054 0.058642258937962065
0.10696170346377297 0.13339434338817702 751.7611447439201 0.06434697518830616
0.10686036849016795 0.13408533915571197 751.6387324968878 0.06674595607392814
0.10538946414933467 0.13844676012256665 751.8735213870333 0.054473237037028124
0.10549091044398631 0.1382418862806087 751.4056345746992 0.06179190338667973
0.10582286936406014 0.1375714852614164 751.4163547935292 0.057044253118464464
0.10550830446791834 0.13820675852633932 751.7160222883654 0.06924424329559668
0.10613479375557987 0.1369415445749627 751.2236838168599 0.058462221471564726
0.10592305495508772 0.13736915744832942 751.1894651272432 0.07741462415911333
0.10577042695465401 0.13767739428385495 751.1722438160524 0.06616338246327688
0.10618435400466586 0.13684145616194074 751.2355692921708 0.06099912677543716
0.10535049960799932 0.138525450185234 751.5099955716037 0.14801201331096211
0.10620875258371713 0.13679218249802116 751.3912453680222 0.05945957189302822
0.10551136684712195 0.13820057395946947 751.9077076540495 0.18063953485395715
0.10623071045197259 0.13674783792293196 751.7495963390218 0.06879346052122083
0.10651186000304627 0.13618004795198216 751.4264364925817 0.06903075662011227
0.10595312087359127 0.13730843842200152 751.8370519713308 0.0580721987979075
0.10649818252261607 0.13620767003491446 751.7295349765036 0.06313227258186442
0.10651691787971648 0.13616983341798528 751.8518459439094 0.06537795805577208
0.10549071238680481 0.1382422862630412 751.8217115545154 0.07216636488590199
0.10411527736505669 0.1398180140013316 751.161820128528 0.057510802814448876
0.10336380496485643 0.14058692032717493 751.3084077617502 0.06535675148706545
0.10435358833670817 0.1395741742893583 751.1201967363834 0.08981968268732222
0.10352343166258837 0.1404235903397704 751.2703469689988 0.06615219652008013
0.10454694751356902 0.13937632923981486 751.6025175365671 0.056345691338912915
0.10443193482342301 0.13949401018855223 751.4780331088494 0.068596492795708
0.10527460166637988 0.13863179373728227 751.8105900853852 0.06027384728635047
0.10411993722735735 0.13981324603167683 751.7738536823861 0.05960160765880278
0.10529701178700342 0.1386088637088398 751.1444493535482 0.05506812109046966
0.10513602044233616 0.1387735900025635 751.5458090562158 0.15741016328164484
0.10504682457240247 0.13886485518890018 751.3360814211791 0.06270793602504333
0.0958140333026289 0.1324586226203803 751.0957793311911 0.1173998349145884
0.10799429587539912 0.11186114344993488 751.0707299898165 0.14508132791099335
0.10720682818014546 0.14292379645986283 751.0771300002999 0.16211259344758075
0.10176385366412222 0.12270859680023152 751.0657417139014 0.2274418375758162
0.0860268517796044 0.1297278023097358 751.0658405632554 0.18452241310679504
0.08959420969365474 0.14170214118786323 751.0660731561843 0.17469995607536523
0.0890347008652234 0.14278382843089277 751.0806502340752 0.1748961704865229
0.10426103023368231 0.13608641263478904 751.0847839774924 0.16795944445989847
0.09664333695713141 0.12726507591722933 751.0847839774924 0.16734666037031634
0.09558743778513924 0.1157939390801972 751.0760093530081 0.17635620935104165
0.10734977669905185 0.12116743702145935 751.0790654416664 0.17169032126567568
0.0858806635434049 0.13219195604435321 751.0757518579181 0.1969181975972863
0.08589732026244604 0.12001881009949271 751.0727366396957 0.15866053860027937
0.11018792517408564 0.13158156286614012 751.0742829979456 0.190294542533664
0.0893196080199614 0.1489087518062019 751.5212462476019 0.2164974185927926
0.09177009224909932 0.1325089830431187 751.519253397732 0.1504717564247972
0.08809723025450981 0.14389610993762197 751.5355007084203 0.19641570115560178
0.09341353915962108 0.1550798018985749 751.5400833733222 0.2511016605410159
0.08654620301475291 0.15417766618088607 751.5317674260644 0.21771884659418625
0.08634415356732963 0.13624404373164226 751.5270248773387 0.16900135886256462
0.09780852562415802 0.14557332846186166 751.5410060811485 0.24579311357708497
0.10836437103772785 0.1334141146886337 751.53481841602 0.13713995094391757
0.10562250588352792 0.14725151995579927 751.5201419508047 0.2347721470315464
0.10120553707273064 0.15728572181497166 751.5178462624958 0.22683876468599076
0.10970284996842522 0.12393405215521029 751.5274650666287 0.14084949684502115
0.10983610885146139 0.1512997703178894 751.5294506580409 0.2394480453494346
0.10948575672583608 0.13829783562323894 751.5263857872047 0.16009586189530925
0.09894928279470391 0.16068351411819748 751.5294590065429 0.30415461266937316
0.10348337108916189 0.12240161850693199 751.5345399275352 0.1028200032171345
0.09119789390282947 0.12224938521662815 751.5268086259455 0.12328985133833012
0.17206751603173334 0.17563661202859973 751.0570405816917 0.26206351651220267
0.1695588450713919 0.1806595980339984 751.0365895890412 0.32599417216891646
0.1727066513149219 0.15938001537323032 751.0548429582316 0.17982039080811854
0.16458388523536327 0.15938001537323032 751.0400027383812 0.17034679774992795
0.17807052664881132 0.18838001251221217 751.0392116981127 0.23198632622532236
0.18039908328111684 0.18838001251221215 751.0507502646497 0.21988044475395188
0.17060085902921104 0.18838001251221215 751.0549641274326 0.2037865267711966
0.16313661693295967 0.17091829334810088 751.0400020933766 0.2162818570092922
0.16377278562409792 0.18807447588854403 751.0392320887926 0.2152641428692899
0.16301087877733833 0.1678037492810513 751.0533815248003 0.2052069616082741
0.16079674516013343 0.17936083455227392 751.0483535287179 0.2646375169455613
0.17968502899760097 0.16948844252966894 751.0522200758086 0.26206968989458573
0.1776991620417734 0.16941529350695173 751.0389328082659 0.2571498836400081
0.180850944422414 0.1781859296367676 751.0438500073994 0.31611155469804825
0.09039495659235022 0.0595665264131978 751.8981972976019 0.18912283799481902
0.10122513243089892 0.06081057907835776 751.8971574604208 0.1800820766162462
0.11296974816867128 0.05278921503739428 751.9026678837281 0.17529392520467094
0.10889815982637727 0.03533902927648211 751.9101589014476 0.16081721826711756
0.08140444784290377 0.044203064892365015 751.9028601363248 0.1769874454993524
0.09313266830253004 0.029804582230022122 751.9075752889876 0.15440266753808904
0.08404773585269969 0.053194641897265214 751.8926089174496 0.19560930996637088
0.11403691948638373 0.0375527727252923 751.9001149060384 0.17453780326332013
0.08628605661760194 0.03140476739759877 751.8998637466725 0.14969250743035628
0.11350550432692202 0.047040982916245956 751.8900430532841 0.1689484381096343
0.10297949759461283 0.05425990450220731 751.8870158442408 0.18266895919160192
0.10536103456567325 0.029485005676990552 751.8960331641504 0.17025377397171856
0.08826230156317715 0.16523912280441572 751.5236311952362 0.2978384063466928
0.10690927004732029 0.16471681908056182 751.5366234025379 0.24621776834388104
0.10577596257733823 0.1653835146629774 751.522704908489 0.22460308445420357
0.09022158109349653 0.1653835146629774 751.5350753578942 0.23533574031461799
0.07754022879748014 0.06972771753539066 751.0630161888107 0.2103496095663341
0.07148469207071237 0.08033998667365636 751.0606942643259 0.15582338272404042
0.06871685800929747 0.07173822973601622 751.0530603464189 0.15515882680925766
0.07204853760114503 0.08052511935673534 751.0443272832554 0.16531635138371414
0.07584714191700744 0.08435169698631544 751.0331952062342 0.18076164101929315
0.07700135375254094 0.06868186804111852 751.028948366037 0.17432743914264398
0.08516123761016645 0.07566793133226114 751.0201713801698 0.16783852830285795
0.09576833105780652 0.07542913861557393 751.020957991241 0.20494028375094292
0.10630114306704705 0.07861497536498901 751.0215674779381 0.16677197778003558
0.11860594800675192 0.07456327532118559 751.0250897711134 0.15740893765385153
0.11942160936414212 0.08270852618784413 751.0311476526645 0.15381808311122824
0.12138088316672932 0.0687911400057377 751.035606463092 0.17593684902911666
0.12743171858870173 0.07773286680453557 751.0523061727506 0.156984688741262
0.11980515717384171 0.07738992464775345 751.0619708562448 0.1658316530936235
0.11771204611397633 0.06727716988755963 751.0636935113569 0.15491805243373838
0.11067129796518194 0.08353735933773698 751.069286449161 0.15066495549005274
0.08642971452613588 0.07846889162016166 751.0698851054433 0.16738383966625206
0.09416829179880618 0.07589197829324656 751.0764634816331 0.15745186693293867
0.08975681796990705 0.0658143526497172 751.0689373021589 0.17909449269911787
0.10963372147645936 0.06732033225795087 751.0232886440258 0.1830355371832197
0.12401615758125109 0.0677914792704241 751.0539179691527 0.1492907800054492
0.10247741975267985 0.06828229933252433 751.0742693690459 0.17851875732378542
0.09353126516104429 0.06615370941162269 751.0569149546791 0.1977481331994527
0.10915997458503984 0.06615370941162269 751.0363862439211 0.18841701473082356
0.08195569210273101 0.06615370941162269 751.0533355316514 0.21331830449049205
0.11687620662781484 0.06492187405048921 751.0452293046841 0.18914430835390947
0.08634909554551218 0.06499034893711045 751.0318228303965 0.17057990076775292
0.09469999579373364 0.08605501556397144 751.0734918823254 0.1684021202263823
0.09911931982441056 0.08605501556397144 751.0554428005494 0.29294785464844214
0.09145810353117761 0.08605501556397144 751.0465314647355 0.3098494051565242
0.07744783519137355 0.08605501556397144 751.0537318431338 0.21296562530204755
0.12419030557520011 0.08605501556397144 751.047217197858 0.19146516861462043
0.10842105735761272 0.08605501556397144 751.0280950653226 0.2132440700179261
0.08228479092870668 0.08605501556397144 751.0245489033085 0.16349409158488717
0.03562257282417281 0.12407763758783921 751.0502597619943 0.13402554066057865
0.04365497387153171 0.13550830613693285 751.0370715255509 0.13066713634979912
0.17926530938010116 0.16072635214751474 751.0313814586317 0.18623507993526142
0.1522079270083166 0.16638001507521238 751.0628049040846 0.10940529428174954
0.14713624183265925 0.16638001507521238 751.0399463163624 0.14612899655428294
0.19111628854262208 0.16317060657188376 751.0352029149429 0.1503921195804707
0.16237864322105833 0.16357348334750899 751.0693154084076 0.13766331539439883
0.18222793969666037 0.16276095713323618 751.0660966991152 0.15443776710390925
0.1475617316097946 0.16515120338841727 751.0517812014142 0.15000017146936317
0.1752919949282657 0.16548073757463333 751.0232570080304 0.1589722497523147
0.1582955427300206 0.15984497131284137 751.0495476215152 0.14610205967599035
0.15535820051990495 0.16408797236401979 751.0301694523217 0.15215779002484897
0.18878417938522102 0.16196045013875954 751.0476747676342 0.19210775855382142
0.17244965505561513 0.1626820056412974 751.0662518186623 0.1671874671466444
0.19274018443413699 0.1652161338701752 751.0590516744485 0.15711228549571576
0.16448311509900093 0.166123851106291 751.0227370146633 0.13269781766692107
