x y z curv
66.49339977066927 0.1079507507630464 1136.0696622280145 0.030213361736999074
66.49863375758903 0.03970560754345495 1136.0696622280145 0.035960857478370974
66.47652576228452 0.050707587714858324 1136.0696622280147 0.030347140246669093
66.47959311381676 0.09605666225118546 1136.0696622280143 0.0343215091642583
66.50189713159989 0.02916323071477271 1136.0696622280145 0.0353174421474334
66.50724704004837 0.01502871467202535 1136.0696622280143 0.045597298357035715
66.48768652177438 0.04892411025687804 1136.0696622280143 0.032934274042776226
66.48080792109977 0.10986526437878966 1136.0696622280145 0.031249042836934124
66.46453003273248 0.053579812573543224 1136.0696622280145 0.040183921100575844
66.50964223657607 0.06758648255443701 1136.0696622280145 0.03715947783165852
66.4946068647127 0.08596134824668278 1136.0696622280145 0.031305665109895894
66.50604200550026 0.1170851010116843 1136.0696622280145 0.036686774948800634
66.4531533367704 0.07364393390375762 1136.0696622280145 0.07939863641254566
66.48278205840789 0.08048214724157664 1136.0696622280145 0.03297606959599391
66.46899991814958 0.08871905591989904 1136.0696622280145 0.03445614580007071
66.45212261363197 0.08800724789053492 1136.0696622280145 0.06831722149969904
66.47019409077875 0.03888055097190333 1136.0696622280145 0.030291367667013527
66.43769377794312 0.09802579421355045 1136.0696622280145 0.12189209216101221
66.46926975148158 0.11404696159239563 1136.0696622280145 0.030442697563597635
66.32285463365947 0.007200118939165033 1136.0696622280145 0.06040821610004803
66.35861931448383 0.03389532975278077 1136.0696622280145 0.031871378593122154
66.39421440498627 0.06036594857573793 1136.0696622280145 0.08775966903818276
66.37597264060825 0.037038075413089865 1136.0696622280145 0.04002132200430325
66.38360789588569 0.09389429798779406 1136.0696622280145 0.06631276817959146
66.34371348098725 0.12259861241543354 1136.0696622280145 0.035784975872909554
66.3898349953522 0.08473104314181226 1136.0696622280143 0.08830817826213525
66.3547692594533 0.11948242387093748 1136.0696622280145 0.03364810728844341
66.36344416672648 0.11266682213951229 1136.0696622280145 0.03205134238225369
66.37382918853775 0.10435134796317005 1136.0696622280145 0.04079015264649383
66.39456255882672 0.10153638297188919 1136.0696622280145 0.14132177619673109
66.41748324803602 0.034701525970851514 1136.0696622280145 0.07251357938656523
66.39356868124223 0.02856874425715461 1136.0696622280145 0.04404148479549479
66.43865463287248 0.00953612840602495 1136.0696622280145 0.038388847756577645
66.34986067493791 0.00014546706274972768 1136.0696622280145 0.04009856676812476
66.38203401417584 0.013130174252891952 1136.0696622280143 0.03494967665957571
66.40405486251116 0.02125609643742755 1136.0696622280145 0.047055550745042064
66.37488641402408 0.021109922655301133 1136.0696622280147 0.035215933633682764
66.35196241165364 0.012892398179992983 1136.0696622280145 0.037888627357931
66.45123219969187 0.026159523908929058 1136.0696622280147 0.03981316319969875
66.39698343717698 0.0400252915629982 1136.0696622280145 0.06685093405113827
66.47944653164134 0.008994506256291876 1136.0696622280145 0.038793980492750804
66.41145018455212 0.007452242922692119 1136.0696622280145 0.046048662395764016
66.4527083437713 0.003835717612550184 1136.0696622280143 0.03663498555405875
66.41750168213235 0.01907285913994681 1136.0696622280145 0.05031456292544245
66.40090561000798 0.009366568514533082 1136.0696622280145 0.04098833980912498
66.43638311715722 0.02223307213922384 1136.0696622280145 0.04127549054178613
66.33574679280767 0.006864674738238511 1136.0696622280145 0.045790378960122655
66.47053513924519 0.02359607116162264 1136.0696622280145 0.033003366152824
66.37118725502631 0.008157544563183227 1136.0696622280143 0.03893387404968304
66.49066211045871 0.014049622535891069 1136.0696622280145 0.037268913624998325
66.42929630424743 0.04630310739332469 1136.0696622280145 0.12126905276501267
66.4529955913763 0.043192748186140065 1136.0696622280145 0.046548752627204995
66.44704849272634 0.05341712892894887 1136.0696622280145 0.06933071367614387
66.43865440131476 0.0625792476925299 1136.0696622280145 0.12174048841695584
66.48889181835287 0.026816336168955637 1136.0696622280145 0.03179997421137141
66.46007579659344 0.10117608461476116 1136.0696622280145 0.04045370906575326
66.4403028896005 0.0859390908056206 1136.0696622280145 0.12173628221639493
66.38521346932833 0.10803128320622493 1136.0696622280145 0.03830154833514329
66.48344974109523 0.12549952992436117 1136.0696622280145 0.030297474734549825
66.39397056064414 0.12977089041790701 1136.0696622280145 0.09278245862276682
66.43436004528265 0.12540923179271818 1136.0696622280145 0.08957191799450889
66.37954081818987 0.11932291213442037 1136.0696622280145 0.03418823118255061
66.42460028628587 0.10969498694071614 1136.0696622280145 0.1509773107881007
66.40452995851547 0.10964316589469456 1136.0696622280143 0.1132409220062432
66.46976817747996 0.1363668091798601 1136.0696622280143 0.0368317195843632
66.32914616764657 0.1418690530311606 1136.0696622280145 0.0566998208917092
66.45295679185884 0.1102679819710916 1136.0696622280147 0.039355394929599385
66.37186595249774 0.13495850557829864 1136.0696622280145 0.04197908788226918
66.34193775793808 0.13397160411345535 1136.0696622280145 0.04696737003902819
66.35926417803502 0.13356361151917887 1136.0696622280143 0.03684290115646026
66.4343230946573 0.13609192136402753 1136.0696622280147 0.10815750891887829
66.4146802817747 0.10297389204778731 1136.0696622280145 0.19488456954444294
66.40401416616896 0.13747810572247518 1136.0696622280145 0.17319237263665432
66.45192910961487 0.12496351236869309 1136.0696622280145 0.03688458175583021
66.44805693912772 0.13564228801437092 1136.0696622280143 0.03819020966213595
66.42070216991948 0.13961381844459253 1136.0696622280145 0.16189522511303783
66.50479520290546 0.1417529190412869 1136.0696622280145 0.05061730502594864
66.41510298574931 0.12989557206595234 1136.0696622280145 0.20195375155573395
66.3933907430505 0.11909288142085545 1136.0696622280143 0.040092187159977734
66.49991338249852 0.12995485165019258 1136.0696622280145 0.03976176219053763
66.42597575246722 0.07497146876934606 1136.0966012729323 0.16548783645707799
66.42420177230234 0.06577963836376242 1136.0900036612966 0.18495660406557354
66.41277774036942 0.06260494793492155 1136.090847443209 0.17382050629619994
66.40619641244953 0.07396645195660284 1136.0903426601865 0.17135852693532178
66.41579763400776 0.08234680070644979 1136.0883441773285 0.19809529298568554
66.41604369234665 0.0629285188512622 1136.1068992885614 0.17445850863048373
66.41531876431186 0.07642996858577045 1136.1068992885614 0.14476798373135732
66.4020090643552 0.05983794444937635 1136.079731197741 0.19943674592606167
66.41421613253456 0.05436020430675132 1136.079731197741 0.2256882301190145
66.40309279014332 0.08609059345881714 1136.079731197741 0.2060351694196215
66.43184630623448 0.06452359165148937 1136.079731197741 0.20802057474295943
66.4304585912338 0.08139045980213291 1136.079731197741 0.2128313146422075
66.4111498648926 0.07193741790699328 1136.080425961287 0.2807332975067942
66.42027358772593 0.09235011145152797 1136.0736609043847 0.22667331455643727
66.39568981841538 0.07182090803343584 1136.0727029473608 0.1455352415783424
66.4263635027103 0.05464616986028961 1136.0793803533445 0.20997788460373307
66.43677336043007 0.3908150854474608 1135.082986304507 0.13963100232209325
66.43677336043007 0.39444695940363916 1135.052787429094 0.13896948253414929
66.43677336043007 0.40773609053426607 1135.0561616688958 0.13580910543591582
66.43677336043007 0.4081932658501428 1135.0752246873305 0.14987411351517316
66.43677336043007 0.4137861779797699 1135.0906525908024 0.13858367675390945
66.4262110950612 0.41499868869782114 1135.0581786475218 0.1272391972193751
66.39589557015228 0.4149986886978212 1135.0958937793753 0.12218101165942907
66.40389704660453 0.4149986886978212 1135.0720826651673 0.13639582663405983
66.41131577101636 0.4149986886978212 1135.0571218680327 0.13231247868072235
66.42722490174174 0.4149986886978212 1135.0695533014755 0.1286679515323159
66.4172202680148 0.4149986886978212 1135.073957712776 0.13034797287057298
66.42557392271041 0.4149986886978212 1135.0822246462183 0.14464588308375717
66.4199062274129 0.41499868869782125 1135.0944177500396 0.15483666377177335
66.40738162781257 0.4149986886978212 1135.0936061273633 0.14127689339811597
66.39548508947975 0.40381245891155004 1135.0719067058353 0.1404975449132546
66.39548508947975 0.41282295579199846 1135.0585296353836 0.1113282001438481
66.39548508947975 0.40017531615950275 1135.0917498638635 0.1267747070923675
66.39548508947975 0.41326264573783217 1135.0849271403395 0.14179892154737805
66.39548508947975 0.39041884835951585 1135.0862696166025 0.1370109355604705
66.39548508947975 0.39896340627318705 1135.0486449209993 0.1093812767206677
66.4350918244267 0.38940096985430595 1135.1001257595085 0.15160563354315393
66.46527539913929 0.4086876892973391 1135.0733086954458 0.22948820609282158
66.45511459824833 0.39998104430550563 1135.0756519526835 0.19350316490071146
66.45614520879818 0.39292287731978087 1135.066802018054 0.1470085289492959
66.46311124501156 0.4014312276089834 1135.05756531517 0.1607352067508671
66.45566587907722 0.4113368537521385 1135.0661354812723 0.1273395691358823
66.45134169401126 0.4055578574472165 1135.0580698486924 0.157924238275954
66.47362596727987 0.4102848390796391 1135.6740814135253 0.06230264623544567
66.46251321306698 0.4059538368425937 1135.6738281829014 0.08147577321900545
66.46217204464256 0.40523887273780457 1135.6566014995865 0.09100197069527297
66.45798345168402 0.39609450122595374 1135.6625735221835 0.09335398208869398
66.45043605765636 0.4077444315674399 1135.6664030922 0.11985256736431939
66.4296323489799 0.39074183654785344 1135.6648012034486 0.14298300769557792
66.40152985820035 0.39074183654785344 1135.6665868230402 0.1755946314692142
66.4178624439811 0.39074183654785344 1135.6663162912307 0.18931467346926273
66.41972562649958 0.39074183654785344 1135.6541840311636 0.17317523068867913
66.43677336043007 0.39926198305103644 1135.6574098792294 0.1491612939436567
66.43677336043007 0.39137274594366206 1135.6741523277358 0.1274247872460648
66.43677336043007 0.4051502541569738 1135.669951490106 0.12997972020613766
66.4302875727829 0.41345037460327205 1135.6626646024667 0.1480236519492879
66.40683293666956 0.41345037460327205 1135.6702879114018 0.20439162021851204
66.39548508947975 0.39722327992000844 1135.6528249042938 0.18027727618954228
66.39548508947975 0.4121403615446417 1135.6742148499268 0.19619767346172529
66.39548508947975 0.4011528084092627 1135.6636460956695 0.1913934623452122
66.39584929809632 0.3969224862225694 1135.6767293666862 0.16366703312484684
66.40894866166134 0.4073798211993872 1134.8861750453973 0.22162097040131468
66.43337507146498 0.41065187342630477 1134.8861750453973 0.11682672956225346
66.4222374906691 0.3989132376092291 1134.8861750453973 0.2085443756473884
66.4113807795485 0.39550028313670516 1134.8861750453973 0.18953188943607016
66.4277503952561 0.09092663068269558 1136.1053682827019 0.12452229195164688
66.42259252864935 0.10188064404644098 1136.1053682827019 0.11441086437481436
66.4146022095226 0.15116002517951468 1136.1053682827019 0.11559556930245776
66.41629400662325 0.1875514219812624 1136.1053682827019 0.07692202391435261
66.41517032636497 0.09285023417301791 1136.1053682827019 0.10916436037385834
66.42879810378261 0.22109779188288695 1136.1053682827019 0.06883430118967557
66.41161062802075 0.10461289867968848 1136.1053682827019 0.12288176576569264
66.42352411190272 0.15869553585917298 1136.1053682827019 0.07506303108305062
66.4267402452077 0.05372471181138308 1136.1053682827019 0.1621876665110926
66.41515671947968 0.13188737746576235 1136.1053682827019 0.10578836079378771
66.4241766964462 0.142266017016914 1136.1053682827019 0.11137469462148407
66.42081797413857 0.1159312682090813 1136.1053682827019 0.09727826161839803
66.42898311236144 0.26669714744863604 1136.1053682827019 0.07411966949556877
66.42450211447473 0.20988017459422473 1136.1053682827019 0.05847197471001778
66.42675094812923 0.1697891977402165 1136.1053682827019 0.07838519800356226
66.42476075593817 0.2820939217279067 1136.1053682827019 0.0731716732977761
66.41192451327493 0.17519285379704339 1136.1053682827019 0.07325735766722831
66.41882702576424 0.3509489237101917 1136.1053682827019 0.08515000181745216
66.41398675804223 0.23652081473120426 1136.1053682827019 0.07473134142406776
66.40688468829987 0.2915300587372967 1136.1053682827019 0.06776204817350791
66.40335102517265 0.13899972428917834 1136.1053682827016 0.10645707815279926
66.42018382160245 0.33661805487374213 1136.1053682827019 0.07883713196071404
66.41589438231578 0.24929286333635547 1136.1053682827019 0.07260226463652368
66.41287956764104 0.21106447037213158 1136.1053682827019 0.061101449350873104
66.40332866864006 0.15399715974399864 1136.1053682827019 0.12786933962060884
66.40385088076118 0.18797234656186246 1136.1053682827019 0.07966137463060377
66.40988888172288 0.3432391776938448 1136.1053682827019 0.08079574527963954
66.4219549215091 0.3147010868708745 1136.1053682827019 0.0707968219589509
66.41777985553415 0.26095729155517433 1136.1053682827019 0.07024520738146539
66.40330652216731 0.2559978141878976 1136.1053682827019 0.07253552351146783
66.41560765622842 0.2982772402516346 1136.1053682827019 0.06592619807401305
66.4110078202826 0.281155081462148 1136.1053682827019 0.0684019359960026
66.40849425590854 0.32746572256339285 1136.1053682827019 0.0699413725148486
66.40388325206284 0.052087707519532955 1136.1098570330673 0.12382004457369841
66.40996763810449 0.1025028016140314 1136.1208511928583 0.10916341920828151
66.40908071904865 0.16147912269748524 1136.1208511928583 0.0806338758483335
66.42369929239527 0.09879225881872619 1136.1208511928583 0.10471454738642173
66.4143604995707 0.0727102127362743 1136.1208511928585 0.16869488199818555
66.41551391759432 0.18194215449100423 1136.1208511928583 0.0751248652009748
66.42519634955629 0.06889370199987357 1136.1208511928583 0.17149497173708056
66.40757295588344 0.2616869474616779 1136.1208511928583 0.07199444140014848
66.41834482864228 0.11835567540695632 1136.1208511928583 0.07898915456014875
66.41104718380473 0.14200324948664156 1136.1208511928583 0.07164739385621276
66.41804463806945 0.1690227312547182 1136.1208511928583 0.07715210246225819
66.41594050159662 0.06035914858902867 1136.1208511928583 0.21675351060162912
66.42731775876044 0.05296552505635183 1136.1208511928583 0.21496093021745605
66.40367762360029 0.3495335942688492 1136.1208511928583 0.08959520988867445
66.40422710525868 0.11482214936788346 1136.1208511928583 0.08434389020973954
66.40723408625064 0.053270261481229646 1136.1208511928583 0.23437466307899704
66.4036675914234 0.08721629619814623 1136.1208511928583 0.12193466051607152
66.40412409482674 0.12678835703027236 1136.1208511928583 0.07246653563026359
66.41612889343503 0.08754453083766378 1136.1208511928583 0.12871365231689924
66.4196460268958 0.27533551997605155 1136.1208511928583 0.06571065981340131
66.42482639810427 0.2082221530607117 1136.1208511928583 0.06474897847617017
66.4246336935228 0.34831038475588116 1136.1208511928583 0.07518172770802148
66.4166352640997 0.2537842327878497 1136.1208511928583 0.07097085010572422
66.41389636108194 0.3065380397100996 1136.1208511928585 0.0741150040813962
66.42545265766438 0.14407451845931818 1136.1208511928583 0.07687010415952301
66.42213317587897 0.33414390658230964 1136.1208511928583 0.07890974485759
66.40863739379049 0.33793767241429074 1136.1208511928583 0.0893807706872139
66.4274006717441 0.1587673388328318 1136.1208511928583 0.07877729936532829
66.42867428467495 0.17377281952278686 1136.1208511928583 0.08168572858585613
66.41926844533089 0.22665528275844765 1136.1208511928583 0.057572625766317595
66.42401095003171 0.295047091560275 1136.1208511928583 0.06358417788690288
66.42454239115845 0.24158470907371687 1136.1208511928583 0.0701874146102909
66.42061058060648 0.19643850447284888 1136.1208511928583 0.07512728871419636
66.42810886228246 0.3123005110159754 1136.1208511928583 0.06540085498509193
66.41904791826656 0.3609644451108574 1136.1208511928583 0.0831996253884221
66.4044892706364 0.37435297511903276 1136.1161928922781 0.0874832335180482
66.41551888732047 0.3776299264736664 1136.114903271434 0.09390204045781093
66.41359328515955 0.3939657135403334 1136.1028284601016 0.08187792433493166
66.40404830575862 0.40165224598813404 1136.0948253938052 0.095462487044363
66.4083419037092 0.3870218330867049 1136.110058291759 0.1100377343043737
66.41882085356544 0.40282196782477675 1136.0921338240946 0.08079369085720066
66.42634283641063 0.4086986379164367 1136.0747262335215 0.0754073127741718
66.4205087358819 0.39286961492152556 1136.0743278833033 0.0937778249004845
66.42883305725373 0.39038381968632074 1136.081692936751 0.09059084327174571
66.40716073146467 0.3836452727140534 1136.0917846020504 0.11731215582341988
66.41797070357265 0.3871680182831606 1136.0881169403522 0.11760676744085984
66.42607711448287 0.3747746307960243 1136.0997406259087 0.10340622616978404
66.41414241868155 0.3752288234005571 1136.0995619100509 0.11731754156434046
66.40769405858026 0.36317854110768266 1136.1043034591503 0.10184822842813152
66.41056458141836 0.40983765506744874 1135.831393580639 0.07078057812788306
66.40542779348249 0.40983765506744874 1135.8748080474552 0.0708929946131128
66.41559774744711 0.40983765506744874 1135.7096926689492 0.10529626699509875
66.41660376926289 0.40983765506744874 1135.676852148207 0.18750349869726624
66.40506378347864 0.40983765506744874 1135.7381283513291 0.06783221158681914
66.41540871983747 0.40983765506744874 1135.7290503380173 0.07653587263081456
66.404249383993 0.40983765506744874 1135.841454043352 0.08379630573093426
66.41076786161514 0.40983765506744874 1135.79469990372 0.07521121616699385
66.41209265551731 0.40983765506744874 1135.81419635973 0.0744633843096046
66.41263311193194 0.40983765506744874 1135.7796573830533 0.07684452526164183
66.41429199574641 0.40983765506744874 1135.8667301167725 0.07365826278588933
66.4279855577766 0.40983765506744874 1135.6872228316086 0.1325657202438737
66.41298545896677 0.40983765506744874 1135.8899077644874 0.07312928107376832
66.42257856640205 0.40983765506744874 1135.7731391044679 0.06791122647501033
66.41142683144936 0.40983765506744874 1135.9073823894146 0.0812233617499004
66.40856909014661 0.4098376550674488 1135.7591907731487 0.06917657123197306
66.40369070422786 0.40983765506744874 1136.0579536791674 0.06788521655870416
66.40473863829318 0.40983765506744874 1136.0190115060461 0.06279891370041481
66.4243843213021 0.4098376550674487 1135.70269815422 0.09649565337956922
66.4068766257657 0.40983765506744874 1135.9873232015766 0.0737303265087679
66.40385883274726 0.40983765506744874 1135.9602145377548 0.07844048636989992
66.4033588720215 0.40983765506744874 1135.8593149789222 0.07574230025261615
66.41615498657279 0.40983765506744874 1136.0358552995012 0.05570737739690895
66.41959332382059 0.4098376550674487 1136.0163275980271 0.055155905487835305
66.42875114477455 0.40983765506744874 1135.7841496072735 0.05724535390526487
66.41193620576932 0.4098376550674487 1136.066394219394 0.06896942759536734
66.41418692375771 0.40983765506744874 1135.918312965102 0.08284881841662084
66.41811914869322 0.40983765506744874 1135.9353966368462 0.07064134234955498
66.42289339082276 0.40983765506744874 1135.853277979851 0.0570722561311075
66.41691071837401 0.40983765506744874 1135.963361605875 0.07136013219283628
66.42634952758226 0.40983765506744874 1135.867051372375 0.05313918021425803
66.42356446447329 0.40983765506744874 1135.8402249359751 0.06425982609389293
66.41505109189883 0.4098376550674487 1136.0521321536573 0.07054243085667833
66.41958962923482 0.40983765506744874 1135.8987590808974 0.07380763626674024
66.41705310952379 0.40983765506744874 1135.974942308718 0.07434540974485637
66.4272850445004 0.40983765506744874 1135.798677189475 0.05549717736767007
66.42686970733634 0.40983765506744874 1135.8142271182842 0.0560742607916921
66.4216501795412 0.40983765506744874 1135.9491361797611 0.08082354992129367
66.4173509424617 0.40983765506744874 1135.9941075928489 0.06335750745619584
66.42887590120185 0.40983765506744874 1135.9568964402893 0.08103894854225027
66.4035912428941 0.3943545551300076 1135.7134585368724 0.07685283917884406
66.40902610467978 0.3943545551300076 1135.7887731476098 0.08120773486654814
66.40520886259179 0.3943545551300076 1136.0598817648313 0.0869743516546949
66.4180968001603 0.3943545551300076 1135.9202590612338 0.08142137541954972
66.40484477688513 0.3943545551300076 1135.8997052945754 0.07287391025847885
66.41140841288632 0.3943545551300076 1135.9818366522009 0.07159034858584408
66.41881912628699 0.3943545551300076 1135.9914547702335 0.06788420525828096
66.42131715705192 0.3943545551300076 1136.0595402339925 0.07072631629769255
66.41292780213338 0.39435455513000756 1136.0007055425604 0.059858346266964915
66.41311662536455 0.3943545551300076 1135.9687709434031 0.0694272259212221
66.41670794190404 0.3943545551300076 1135.9078410310817 0.07934051604503721
66.40941452380189 0.39435455513000767 1136.0462884813905 0.0671932360762563
66.40364549964836 0.3943545551300076 1136.0225933250276 0.05859807853925985
66.4032601191221 0.39435455513000767 1135.752193548532 0.07189190339267128
66.41318990030192 0.3943545551300076 1135.9368357751932 0.07220818003277148
66.40678965280827 0.3943545551300076 1135.9490213309243 0.07452207485030876
66.41234793231192 0.3943545551300076 1135.8172771755726 0.07315209170007994
66.41971593099386 0.3943545551300076 1136.0348116398893 0.055366558054805656
66.4039674789912 0.3943545551300076 1135.919200261486 0.09683121272338635
66.4042074181717 0.3943545551300076 1135.8492864431887 0.0737356860408087
66.41483741738811 0.3943545551300076 1135.8559659193015 0.07441859047118776
66.41415224948715 0.3943545551300076 1135.8884070340891 0.07486610866818923
66.42434473516873 0.39435455513000756 1136.004557973383 0.0605090392501254
66.42108245976848 0.3943545551300076 1135.6909724760405 0.14141515602160568
66.42654396469193 0.3943545551300076 1135.8272227364232 0.05774527014857937
66.42903013655055 0.3943545551300076 1135.8538488796717 0.06624693817975964
66.4137188980446 0.3943545551300076 1135.8048802477488 0.07177863224455032
66.42013005652201 0.3943545551300076 1135.8397900647662 0.07067527905041075
66.4260274138319 0.3943545551300076 1135.952587394188 0.07559536125371062
66.42131298679483 0.39435455513000756 1135.7795163889468 0.06123142285948961
66.4165925855589 0.3943545551300076 1135.8695238223136 0.07638990770132949
66.41707086311692 0.3943545551300076 1135.7198877216827 0.0742389294675737
66.41717192342462 0.3943545551300076 1135.7037398303682 0.12514296713219766
66.42372309530198 0.3943545551300076 1135.933125853347 0.07466022807505548
66.41096637319002 0.3943545551300076 1135.7717736072575 0.07775593050097213
66.42766857005738 0.3943545551300076 1135.9030771929952 0.06722536304014312
66.42554233021507 0.3943545551300076 1135.8821450811415 0.055832872444152665
66.42859815408922 0.3943545551300076 1135.9666479775283 0.07287789625556117
66.42503166080452 0.3943545551300076 1135.729464140053 0.05297427920262906
66.40847701453798 0.3943545551300076 1135.6952040982742 0.14908078575175376
66.41642023676532 0.3943545551300076 1135.7537884071871 0.06414300520178502
66.41939758346197 0.3943545551300076 1135.6774223984705 0.18463407312836155
66.42642845394188 0.3943545551300076 1135.7677492855062 0.056362410662421404
66.42903180998451 0.1222175533424539 1136.1203185092152 0.0765070434563467
66.42903180998451 0.18861088074811674 1136.118281646907 0.07848120164486146
66.42903180998451 0.22025851516815767 1136.1184027558902 0.0724014326379378
66.42903180998451 0.24872945156117954 1136.112101107196 0.07106423014357223
66.42903180998451 0.2745697978740527 1136.1146928492171 0.07640606544258222
66.42903180998451 0.3007668657705506 1136.1096745808773 0.0686164265732033
66.42903180998451 0.26146062835246875 1136.1145205933703 0.07917728860109205
66.42903180998451 0.3236145640609105 1136.1194983758198 0.07829129713998033
66.42903180998451 0.10816927098530209 1136.12024120625 0.07664762348590112
66.42903180998451 0.3598156597428841 1136.1057303478124 0.07773855892075338
66.42903180998451 0.28519982886375095 1136.1179845944966 0.07506268292357884
66.42903180998451 0.3456229300634686 1136.1069199011654 0.08570195706634268
66.42903180998452 0.38280022304632 1136.1088671791847 0.0898964411523587
66.42903180998451 0.39679926308318986 1136.0982497261384 0.08272216421157659
66.42903180998451 0.38388625033123136 1136.094613883637 0.11838036516616844
66.42903180998451 0.401362982992603 1136.0356356856041 0.060222383013809326
66.42903180998451 0.4088967754128733 1135.7272493663954 0.05438942813871666
66.42903180998451 0.40624198335882145 1135.8798364229601 0.06296585531942268
66.42903180998451 0.40523933570904974 1135.831109452501 0.05630110942957357
66.42903180998451 0.40005510365594793 1135.978922103829 0.07950685440389427
66.42903180998451 0.39693020140084195 1136.0233561735567 0.061496532533772574
66.42903180998451 0.4051028259879855 1135.9050896164922 0.06724650169236392
66.42903180998451 0.40532961006252355 1135.999837076661 0.06178182687241089
66.42903180998451 0.4074202184925888 1135.7594064297289 0.05731049739138423
66.42903180998451 0.4035462556521519 1136.0145806086596 0.06875345997683648
66.42903180998451 0.3979567382896584 1136.0481526899928 0.0713639404859239
66.42903180998451 0.4031732417057859 1136.0617954540753 0.0713937257619071
66.42903180998451 0.4035020699662747 1135.9370893493542 0.07768949981386879
66.42903180998451 0.4085186599540653 1135.9705238984313 0.07648765723292283
66.42903180998451 0.40915615335526323 1135.9222809322277 0.08082684984059335
66.42903180998451 0.4082170518494058 1135.891181777615 0.060707883723852926
66.42903180998451 0.4083905748713953 1135.7468792379495 0.051717457326205
66.42903180998451 0.3960934803841605 1135.7533964537672 0.054327098090273335
66.42903180998451 0.3988380597688705 1135.7196571688492 0.0627444549899128
66.42903180998451 0.3957775435167814 1135.7422142795729 0.049072896406126984
66.42903180998451 0.39529675789122676 1135.871793198055 0.06049618848278493
66.42903180998451 0.3994307054756805 1135.703097315298 0.10385739701600587
66.42903180998451 0.39825006661674917 1135.7898738449246 0.057966026731100365
66.42903180998451 0.40049027018837213 1135.8439963195324 0.05913807992482755
66.42903180998451 0.39531365142849406 1135.8038755880202 0.05786488893735656
66.40322663992531 0.3219991628406627 1136.1135839110902 0.0835521662868367
66.40322663992531 0.24451304556171202 1136.1071655098897 0.07388017282768185
66.40322663992532 0.3612738093097227 1136.1187820291411 0.0955707714299434
66.40322663992531 0.30959784538314966 1136.1114244469186 0.08043287962495305
66.40322663992531 0.2679379306968233 1136.1055436755375 0.09067940719511976
66.40322663992531 0.2255496724943332 1136.1074563551083 0.07179765672608937
66.40322663992531 0.2082571282488696 1136.1118816027079 0.06964477307488803
66.40322663992531 0.07765167837909684 1136.1076580785102 0.1386372303157661
66.40322663992531 0.21980675286782506 1136.1180656364713 0.05887265302324221
66.40322663992531 0.06626079195440412 1136.1164156040945 0.15784750567850114
66.40322663992532 0.27226669048399516 1136.1198251861776 0.07050176041342623
66.40322663992531 0.19434220015916043 1136.120160539425 0.08347559197633006
66.40322663992531 0.12240778238055444 1136.1107592398357 0.07971618369419153
66.40322663992531 0.25198954813241775 1136.1182205732803 0.08693919136009584
66.40322663992531 0.29289549924728303 1136.1183079217649 0.07430077231066023
66.40322663992531 0.1810256179777256 1136.117428671746 0.08522001666788856
66.40322663992531 0.09189690356584904 1136.107474497197 0.11079176715672806
66.40322663992531 0.2397603784130729 1136.118065723447 0.07188734131557176
66.40322663992532 0.37680007038459384 1136.1036705193758 0.12396627414001705
66.40322663992531 0.4086795178184917 1136.0744443191568 0.09849482389392324
66.40322663992531 0.39819361556466976 1136.070326112768 0.10133665376635469
66.40322663992531 0.3930724571831139 1136.0837392334236 0.09175871364368142
66.40322663992531 0.3952658605556472 1135.9307060705025 0.07481969237196257
66.4032266399253 0.396417734034677 1135.7975392856388 0.08840427830765767
66.40322663992531 0.39907016267758844 1135.8305613158477 0.07643095764023926
66.40322663992531 0.39472741764154445 1135.7401928595154 0.07745090518080705
66.40322663992531 0.39618861067413713 1135.9950849893828 0.0672116871207213
66.40322663992531 0.3987441708116246 1135.8608036554867 0.07011280653678038
66.40322663992531 0.3965336858774554 1135.9608129971423 0.08264942087294525
66.40322663992531 0.4033933807618908 1135.682967694755 0.2061149016362188
66.40322663992531 0.4022668866287182 1135.76937328232 0.08457798653836217
66.4032266399253 0.4058377826517454 1135.7198350960657 0.08044158667188771
66.40322663992531 0.39770376431524773 1135.8130953983891 0.08337885072502187
66.40322663992531 0.39762775421107943 1135.7272267965104 0.08797858914872175
66.4174592529539 0.391774036407476 1135.5402410696518 0.10291421742734959
66.41030023382963 0.391774036407476 1135.490731249725 0.12222584248021232
66.42513167531258 0.391774036407476 1135.3875341559474 0.11456028422618926
66.43050785099406 0.391774036407476 1135.2377302738614 0.11266407307653532
66.43293069804531 0.391774036407476 1135.1878293211712 0.13962929590550988
66.42534859422949 0.391774036407476 1135.305030432814 0.10430615863389978
66.41503812126979 0.391774036407476 1135.6097437496453 0.1085754226854278
66.43209187612347 0.391774036407476 1135.629959008408 0.10905006555078851
66.42003630028182 0.391774036407476 1135.4812400978417 0.11353678939030915
66.41616827041796 0.391774036407476 1135.4623757932982 0.11753667776304894
66.42831470458073 0.391774036407476 1135.6427504773408 0.1456494680898456
66.42818881846256 0.391774036407476 1135.3615766117596 0.13063596826904655
66.40087334930546 0.391774036407476 1135.6450179791045 0.1637538402630535
66.40089866045905 0.39177403640747605 1135.6131403090496 0.11932656199226814
66.41622109439662 0.391774036407476 1135.4034369219771 0.1168054837208975
66.41790342108673 0.391774036407476 1135.5274066617485 0.10374482176270508
66.42577217086928 0.391774036407476 1135.4314933088683 0.10786181716677491
66.41345640130122 0.391774036407476 1135.4222380374006 0.109907451235695
66.42497159252616 0.391774036407476 1135.2551056011635 0.11723706184877666
66.40901189755408 0.391774036407476 1135.503119028318 0.12284904729336564
66.43205567700618 0.391774036407476 1135.2656874737897 0.12969870778838286
66.43119893321382 0.391774036407476 1135.4654782600496 0.10139048733720693
66.40907334478996 0.391774036407476 1135.6210372631467 0.1176145444001742
66.42950021523849 0.391774036407476 1135.503630355715 0.08807383619270338
66.4300189764261 0.391774036407476 1135.4873469893255 0.10647886151060651
66.41734830009567 0.391774036407476 1135.445144855832 0.11322363015911856
66.41608806912251 0.391774036407476 1135.5582557744422 0.10221563321729775
66.4290327606548 0.391774036407476 1135.5775312907274 0.09635593625148435
66.4183141533594 0.391774036407476 1135.633985799709 0.13835310203754864
66.42875394348454 0.391774036407476 1135.6146634975878 0.10580942722744537
66.42926757025248 0.391774036407476 1135.2248873682656 0.10927739339014855
66.41137873842746 0.391774036407476 1135.473572152639 0.1224518929297599
66.42523808609911 0.391774036407476 1135.3186252382322 0.13346647738248613
66.41834960474662 0.391774036407476 1135.375944843653 0.13071388081715038
66.42277421561698 0.391774036407476 1135.342548137782 0.12625388836164203
66.43253990784194 0.391774036407476 1135.5268810172995 0.08947737067169707
66.43193758816032 0.39177403640747593 1135.1986071718654 0.11783181099283047
66.43142377461409 0.39177403640747593 1135.1547460586482 0.12474769033873238
66.42365113352815 0.39177403640747605 1135.5664501674216 0.09879705511247971
66.41300481317077 0.391774036407476 1135.5881196176404 0.11967943195658515
66.4192088115464 0.391774036407476 1135.5125113483125 0.11737294620665112
66.40691888694825 0.391774036407476 1135.5984881713832 0.1155475399846854
66.43412426451593 0.39177403640747593 1135.3492906194194 0.11231529188364618
66.41306167486977 0.391774036407476 1135.5774372729975 0.11263745206712895
66.40171237399615 0.39177403640747593 1135.5177522454092 0.14493251735725057
66.4002337562176 0.391774036407476 1135.3195287899814 0.13879178791880334
66.42165924073666 0.391774036407476 1135.1592109709873 0.1367805245289735
66.41972440665268 0.391774036407476 1135.1326012843438 0.1307470057094937
66.4179464075403 0.391774036407476 1135.191572955721 0.10750683091086485
66.40246211530804 0.391774036407476 1135.4644117604262 0.11575467637990876
66.40037946992243 0.391774036407476 1135.4040116289327 0.1279505641614209
66.4085592364342 0.39177403640747605 1135.4530228206568 0.11556423787693876
66.41255403066567 0.391774036407476 1135.1799567152332 0.13421794198306145
66.40544042668898 0.391774036407476 1135.4337603573115 0.112616671279164
66.4082660357611 0.391774036407476 1135.294949816852 0.10744343445782242
66.4148020435575 0.391774036407476 1135.112260990308 0.14185787472947414
66.41058692169314 0.391774036407476 1135.2135675932932 0.11687843628555807
66.4198297747268 0.391774036407476 1135.284612574485 0.11350931897204007
66.4160526362946 0.391774036407476 1135.3633047689605 0.14079941315941882
66.40469876508877 0.39177403640747605 1135.387536631129 0.1219093193158661
66.41895494236414 0.391774036407476 1135.206513598549 0.1235585422524566
66.41227723358264 0.391774036407476 1135.1669252071838 0.1197230786745084
66.42593154355127 0.39177403640747605 1135.1766363782222 0.1343601453050234
66.41761495120797 0.391774036407476 1135.2352077333812 0.11682383497686204
66.40910388894262 0.391774036407476 1135.13013326999 0.1301701452642442
66.3991475932475 0.391774036407476 1135.2255587659115 0.11183087934830678
66.39848729720455 0.391774036407476 1135.2390135768374 0.1258688670464579
66.40099123932588 0.39177403640747605 1135.165093631409 0.1250840358056228
66.40862265709582 0.391774036407476 1135.1542440384812 0.11925014999670516
66.39911599894351 0.391774036407476 1135.288025454338 0.14306529594645181
66.41724165785823 0.391774036407476 1135.3286530194864 0.12776411909606747
66.41022026894467 0.391774036407476 1135.3420342018546 0.12588264676780847
66.40162428667777 0.391774036407476 1135.3335869106304 0.1338942365148329
66.41136275212327 0.391774036407476 1135.141148905524 0.11063903112430107
66.40914117947048 0.391774036407476 1135.3532179756035 0.1204655550521183
66.39952593622736 0.391774036407476 1135.1781193290399 0.1343360859948264
66.4074372083926 0.39177403640747593 1135.191410273768 0.1075104814789962
66.40852482610306 0.391774036407476 1135.2720657825619 0.11819600813988658
66.39985606791669 0.391774036407476 1135.2552371200327 0.13430085763423047
66.41240483833374 0.391774036407476 1135.2260439053364 0.11441430642320552
66.41365735068888 0.391774036407476 1135.2543487234216 0.11919951638063238
66.40768196671192 0.39177403640747593 1135.374949402822 0.12182793697103747
66.4010249725592 0.39177403640747593 1134.9245444188302 0.199976997677462
66.41515742665717 0.391774036407476 1134.9931916553578 0.1534896580023125
66.42618055228058 0.391774036407476 1135.0333571144774 0.11682131164912679
66.4149887875562 0.391774036407476 1135.0311793734352 0.12324489265145683
66.4014262468742 0.391774036407476 1135.0410308410605 0.11724569918314035
66.42241818166397 0.391774036407476 1135.0105495496723 0.10829980133366612
66.41368972252972 0.391774036407476 1134.9816704848085 0.19882760638178595
66.41184463349491 0.391774036407476 1135.0120957920176 0.11339075999488513
66.42161792254487 0.39177403640747605 1135.0466884849457 0.12329221927089723
66.40131297671125 0.391774036407476 1135.0036923033565 0.1115750054252759
66.41892488236473 0.39177403640747593 1134.9437994155546 0.18189036952703203
66.41767876721913 0.391774036407476 1134.970653812834 0.22673756506828122
66.4289971676092 0.391774036407476 1134.9219121517708 0.20145865970159313
66.43199715227827 0.391774036407476 1135.0217601707639 0.12151875420633866
66.4316267737053 0.391774036407476 1134.9528400533786 0.19846107279548653
66.43105022831529 0.391774036407476 1134.9980938837034 0.13889867778613305
66.43350266295978 0.391774036407476 1134.9854021051397 0.13931210064276858
66.43191280975105 0.391774036407476 1134.9718115721835 0.20224071606658928
66.43419283980019 0.40784503173425857 1135.1433228090293 0.12024989750132527
66.43419283980019 0.3967550248500346 1135.2793400794017 0.13433565120498703
66.43419283980019 0.3925283082032579 1135.24845951483 0.13818885273153683
66.43419283980019 0.3935658328289445 1135.3265634425607 0.1018892387751372
66.43419283980019 0.4045522925077338 1135.232008427081 0.12919589150200916
66.43419283980019 0.4046785812709367 1135.1684456586472 0.1449572503781937
66.43419283980019 0.39856042315230444 1135.3782311033526 0.0922728734650631
66.43419283980019 0.39184127336369234 1135.1200746584905 0.15940280625894632
66.43419283980019 0.40257973339634423 1135.1798087135971 0.15257025095635746
66.43419283980018 0.3996787029633476 1135.4157094536836 0.08650325258951394
66.43419283980019 0.39385389950170246 1135.2141695877506 0.12137937683758383
66.43419283980019 0.3969503391158696 1135.4036033075133 0.08412668792292581
66.43419283980019 0.4042228651629135 1135.1999218041315 0.12449309208602848
66.43419283980019 0.3958029170124924 1135.2929766830048 0.11817156167519147
66.43419283980019 0.40174739178268737 1135.2623722745864 0.13434740660882213
66.43419283980019 0.40269652674817036 1135.1045848300791 0.14997018158410902
66.43419283980019 0.403784681854968 1135.2460398527487 0.13887599502663267
66.43419283980019 0.3926253427635521 1135.5555589974315 0.08258141475398306
66.43419283980019 0.3932035905263145 1135.1341338299023 0.14383110267303365
66.43419283980019 0.40552285665622 1135.3044470066548 0.11840855307826605
66.43419283980019 0.41180383375586854 1135.5357929575212 0.08913913382698072
66.43419283980019 0.4117669637053642 1135.1230850087663 0.13613050775622795
66.4341928398002 0.4079527676098046 1135.2218506421923 0.11771937072042747
66.43419283980018 0.4118877154925562 1135.4225785190536 0.07848984645698542
66.43419283980019 0.3993025874659766 1135.4727732947845 0.0911639377442461
66.43419283980019 0.3986959705319472 1135.541508861623 0.07884262316435958
66.43419283980019 0.4087456890308056 1135.6233416892915 0.10519868619443583
66.43419283980019 0.4053477346352472 1135.316134555436 0.10187478028333952
66.43419283980019 0.4117665454370268 1135.5004116068012 0.0804117632778838
66.43419283980019 0.409823860690555 1135.2723853660343 0.11866337380700791
66.43419283980019 0.4105861860816899 1135.589222284378 0.08205352874085314
66.43419283980019 0.4084707442335052 1135.5569321937876 0.08099935070903003
66.43419283980019 0.40185965151990943 1135.4926171109487 0.09103589128625883
66.43419283980019 0.40826944583224756 1135.5139787976677 0.08938970077954846
66.43419283980019 0.40407270589203137 1135.5283527573492 0.08734560479127437
66.43419283980019 0.40468652931876525 1135.6373509986802 0.12033467861729161
66.43419283980019 0.4002078884048002 1135.6010206583278 0.0843202072219074
66.43419283980019 0.3941504740465441 1135.5912064657725 0.08057941665159098
66.43419283980019 0.40065366256699914 1135.4475238870532 0.08330899207477946
66.43419283980019 0.4114698887697969 1135.3351521353761 0.10808840317731898
66.43419283980019 0.40275670029766186 1135.461359309491 0.0811639634648904
66.43419283980019 0.4035136605824657 1135.3644867859875 0.10196687712707199
66.43419283980019 0.40177304084057663 1135.574553025283 0.0716612445962654
66.43419283980019 0.4109583858672114 1135.399896056397 0.08444351999877062
66.43419283980019 0.408647403306332 1135.6113040918397 0.08915677632503337
66.40057247231307 0.4124181747436566 1135.0260586114175 0.1298124314640891
66.40451336439705 0.4124181747436566 1134.9655296908209 0.14784460952114423
66.40907613736573 0.4124181747436566 1134.9506224357626 0.16112168523931747
66.41714096715398 0.4124181747436566 1134.9050496431805 0.22352443215930137
66.39902107184594 0.4124181747436566 1134.9841402761313 0.1084195333571928
66.40501769621623 0.41241817474365666 1134.8998620549157 0.16443233058999615
66.39976743288577 0.4124181747436566 1135.0138825327563 0.10667570699905722
66.42172277550274 0.4124181747436566 1134.9349123493985 0.15153541429076153
66.42992333511305 0.4124181747436566 1134.9006218642298 0.18155147001600075
66.41505184814498 0.4124181747436566 1134.8942050770581 0.2706248047348837
66.40917630957193 0.4124181747436566 1134.9342889568863 0.18721880305320981
66.39950960912759 0.4124181747436566 1134.941122650075 0.1755396852895662
66.41438487537927 0.4124181747436566 1134.919931379933 0.15921864844977543
66.41395277125868 0.4124181747436566 1135.024802043721 0.11025893381734779
66.40876003445126 0.41241817474365666 1135.0056085946321 0.114673148722434
66.4025917857219 0.4124181747436566 1135.0481416438847 0.13277647678626253
66.4250887306982 0.4124181747436566 1134.9616583871748 0.14067029853337878
66.41785584826782 0.41241817474365655 1135.0357825572773 0.11484097756443927
66.41583394839827 0.4124181747436566 1134.9772716170082 0.10022872271460315
66.4285622873823 0.41241817474365666 1135.039804869237 0.11229904604495271
66.4184851185534 0.4124181747436566 1135.0479045888014 0.12595923473241513
66.42883969406475 0.4124181747436566 1134.992817534228 0.11703464399753219
66.43367479572277 0.4124181747436566 1134.9719445306046 0.14223795605769926
66.41264471989787 0.4124181747436566 1134.990353960899 0.10282660289992605
66.432480827418 0.4124181747436566 1134.9212861227538 0.1481562677335865
66.42219383704781 0.41241817474365655 1135.0128796469028 0.10815221383707746
66.42238837387848 0.41241817474365655 1135.116509903473 0.1432522952786311
66.42708940948664 0.4124181747436566 1135.1591378846056 0.12699859395565635
66.39813910156994 0.4124181747436566 1135.3242529696474 0.1356595752671623
66.4103032213976 0.4124181747436566 1135.1035368627965 0.12991105892233376
66.42415735966671 0.4124181747436566 1135.1889498557498 0.12732610597980173
66.40248115577232 0.41241817474365666 1135.2249852002199 0.12456607424040729
66.41652847624992 0.4124181747436566 1135.1786998565285 0.12810811712939615
66.4179502396428 0.4124181747436566 1135.335490944277 0.12277701497564333
66.40563457091899 0.4124181747436566 1135.1551894355189 0.13129336914465617
66.41344119755459 0.4124181747436566 1135.3875584868192 0.11419594921682336
66.40915402811063 0.4124181747436566 1135.3731567669756 0.11517670796887804
66.40224776035389 0.4124181747436566 1135.362371921728 0.12096690965847101
66.40314963687374 0.4124181747436566 1135.1287192765017 0.13191518184886927
66.41471869162902 0.4124181747436566 1135.3473595647697 0.12505136755333046
66.41029435619214 0.4124181747436566 1135.4235055336558 0.09669282396792037
66.41776667871123 0.4124181747436566 1135.3194667585215 0.13485307474454541
66.41092246661148 0.4124181747436566 1135.1166025873829 0.12439099309413246
66.40109376008033 0.4124181747436566 1135.2140385729863 0.12474203084586011
66.41532147725098 0.4124181747436566 1135.3029254188668 0.11176387847047027
66.4087041810109 0.4124181747436566 1135.243643903484 0.11754752997028038
66.41044839984828 0.4124181747436566 1135.1390445069903 0.11936874433180795
66.42547792498941 0.4124181747436566 1135.1372014225415 0.12463703861037964
66.40832319710321 0.4124181747436566 1135.2546932094735 0.12036388805242064
66.40774511671025 0.4124181747436566 1135.2867804966027 0.10912035175854035
66.39883027680675 0.4124181747436566 1135.4710053005147 0.1353758476228046
66.41017456279812 0.41241817474365666 1135.1958796664587 0.11747017802434412
66.42312509209101 0.4124181747436566 1135.2225589369516 0.11091135929100755
66.41421430175555 0.4124181747436566 1135.233913629406 0.12032730605489166
66.39975968752651 0.4124181747436566 1135.606699001595 0.10958398224071055
66.4185747027507 0.4124181747436566 1135.261437478879 0.1179725552526289
66.43151624154626 0.41241817474365655 1135.1107251329038 0.14037878268319134
66.4065136348656 0.4124181747436566 1135.2689712879533 0.12348842472095423
66.40212521242466 0.4124181747436566 1135.3099987868472 0.11990705784170984
66.40605842113172 0.4124181747436566 1135.16930883691 0.13816529728480534
66.40706278464295 0.4124181747436566 1135.4418669242013 0.1096353853961484
66.40554392854222 0.4124181747436566 1135.3335822290637 0.13004889447360385
66.40600076174113 0.4124181747436566 1135.4867153099085 0.12289555298727624
66.40423970174814 0.4124181747436566 1135.1817244367392 0.1398695490639803
66.41746367369332 0.4124181747436566 1135.152286219367 0.11834314700542256
66.39863652842988 0.4124181747436566 1135.4303957760724 0.10473780181327463
66.40606624100477 0.4124181747436566 1135.5165302609764 0.12897053684166063
66.41907828151666 0.4124181747436566 1135.2016372270468 0.11028601198689841
66.42043193431084 0.4124181747436566 1135.2745550871587 0.1167910975847287
66.4204128975536 0.4124181747436566 1135.378988208391 0.12301406007640649
66.43159734633826 0.4124181747436566 1135.6460791916836 0.14117693884850915
66.42151069547899 0.4124181747436566 1135.3611661866134 0.13597844626372524
66.40997087091502 0.4124181747436567 1135.500159002563 0.11731526539400244
66.42332071500111 0.4124181747436566 1135.4239110613235 0.11027539528025335
66.40619885561027 0.4124181747436566 1135.6162127471591 0.11566872434023626
66.41581277370366 0.41241817474365655 1135.4486678222788 0.11110103178698358
66.43210890433957 0.41241817474365666 1135.5761184884861 0.09262239785553418
66.41748195165067 0.4124181747436566 1135.4018026148606 0.11979188450873471
66.43190726718701 0.4124181747436566 1135.454796782049 0.09246485398124901
66.43257879776239 0.4124181747436566 1135.5470633961381 0.08021388471790604
66.40904777179911 0.41241817474365655 1135.5659999557602 0.10547097685162085
66.41780385636535 0.4124181747436566 1135.512113891825 0.11291704718352691
66.42255078416294 0.4124181747436566 1135.5950936724355 0.12018956464579672
66.41253014334103 0.4124181747436566 1135.4728689053754 0.11142684248953796
66.42115793515003 0.4124181747436566 1135.4981346727432 0.1145538980470482
66.42147798774714 0.4124181747436566 1135.5638795881484 0.10279723276841625
66.42301746878502 0.4124181747436566 1135.6318482925046 0.14999140448310733
66.42715680084402 0.4124181747436566 1135.348332920488 0.1330597179727861
66.42663263832279 0.4124181747436566 1135.28800052189 0.1122394022461331
66.41313737844746 0.4124181747436566 1135.5476400000687 0.10259015110096031
66.4065045031394 0.4124181747436566 1135.5364401317793 0.11507691498185756
66.4065523563728 0.41241817474365655 1135.5801434301684 0.107585099342304
66.42672870625121 0.4124181747436566 1135.3889266979656 0.11144652032928451
66.43053250874854 0.4124181747436566 1135.2609840769524 0.11769640234201409
66.42557362180548 0.4124181747436566 1135.4690464424766 0.10487508822041663
66.41777678385483 0.4124181747436566 1135.4352496210229 0.10440132748448351
66.42422279404865 0.41241817474365655 1135.6205106239652 0.13366030316240696
66.40134588966376 0.4124181747436566 1135.63125816612 0.13916390300999965
66.42842081926999 0.4124181747436566 1135.5216942676475 0.08749961591384826
66.43383913821197 0.4124181747436566 1135.4846092441182 0.09009912009605966
66.40311570721508 0.41241817474365666 1135.5911182471723 0.11919279312840712
66.41822438696082 0.4124181747436566 1135.4863328759316 0.11885780254220189
66.41079277011022 0.4124181747436566 1135.4619154825386 0.12334114542228668
