x y z curv
10.156459397987685 0.18612875509546878 872.6768719253312 0.07972306053858916
10.153106844067327 0.2709229170757748 872.6735965301923 0.07958434916086349
10.15414706841804 0.24728942539593293 872.6751554538607 0.06723622497104675
10.153419714703922 0.2865332227786343 872.6741376959648 0.07704810718518222
10.152955653708206 0.20729270258304272 872.673156565757 0.08567830446903758
10.168900028226386 0.18356663254104924 872.6757112757856 0.07705043450599698
10.169939556505017 0.16372064602931088 872.6742990014473 0.07134779630014329
10.170191432725156 0.3035966306054798 872.6739568093881 0.0753850953041232
10.152125737598729 0.25971903171753485 872.6686778262249 0.06681692099870803
10.152248123577806 0.3142877987603738 872.6663258739508 0.08093780516872753
10.152107356544722 0.1953896517821326 872.6703221846835 0.08443943933844016
10.152721871729616 0.14531498356507064 872.6659666359058 0.06937809154352095
10.16527138831153 0.10120860405594033 872.6611446785037 0.10115482892954643
10.152530321448728 0.10077806504542584 872.6479361355664 0.08199778027261204
10.171363479251765 0.09859395980622902 872.6424111425181 0.0926950008243991
10.158127498441516 0.13398842373371192 872.6598318912323 0.07365706489908175
10.161538987093786 0.08936915740276147 872.6228398104244 0.0832054748190474
10.151376577684509 0.4144741897173245 871.3591251788358 0.17152362765902657
10.163992195689346 0.4098466341329864 871.3523773267522 0.15671684862388024
10.173595694189371 0.41551085794503984 871.3555555838254 0.17373538852895273
10.17214398571293 0.4339778595085308 871.3615123992352 0.1475163708210924
10.155309732564858 0.4367170171305432 871.3503182256393 0.126930322601565
10.149195604275812 0.4303562072241317 871.3595409388126 0.155638350693564
10.165473695942046 0.42147982801353556 871.3616703788362 0.15643902936880766
10.049983439219211 0.42298260663155013 871.3287966252569 0.24362240267590915
10.032259962734328 0.4384903142986268 871.3092037788319 0.13832392269073943
10.038916773078075 0.4219734046124041 871.303624253379 0.16246509929140887
10.032886382764666 0.41217418795079946 871.3074596565151 0.1576220556102961
10.040814133440982 0.4033458945852769 871.3222322546045 0.16152327077590675
10.029487135577684 0.4040210680887489 871.3190293525079 0.15372400074422957
10.047934021353866 0.4100203430582191 871.3400020145125 0.1545696797821891
10.037405001804416 0.4114945263147164 871.3411783639067 0.16151962268394776
10.031546227967747 0.40399150914264953 871.3299374433467 0.16390325859634342
10.019935505345464 0.4371805246471435 871.3221430104052 0.22500339324043928
10.019935405178366 0.4192023896888104 871.3210460343821 0.23198362969503875
10.019935284934885 0.42515972256627654 871.3106873011875 0.20335891709078244
10.019935510090678 0.4127853553182043 871.3307094743257 0.2060648081509361
10.019935740244602 0.40801341660745866 871.3148409106722 0.1534130136624559
10.020389594283262 0.4327423585741058 871.3430722909488 0.1542899943617297
10.020104667557185 0.43868319387529087 871.31055287456 0.15611012846971667
10.032976599381648 0.4300249906757723 871.3448110446571 0.17197603638755588
10.040501284458458 0.4441916799393832 871.3179276336909 0.1725558557590625
10.034730032864774 0.4451293677597322 871.3270383137722 0.18428267043109914
10.03614732584711 0.4404691681186761 871.3379460946423 0.18805954280636591
10.041623967745847 0.421724457158413 871.3454260560346 0.13942005526770695
10.021196427549453 0.4439780885642479 871.3317650581074 0.16807336634857203
10.150281719392746 0.4251301814386909 871.3068200454837 0.2170408994829493
10.154150928121211 0.415323411163449 871.3036085330017 0.20669658213272288
10.169127242517295 0.421862904310532 871.308554919394 0.22796394133581796
10.167908869356285 0.4327394137142891 871.308554919394 0.19965964537460923
10.158418216370613 0.4341110505106402 871.2987737334535 0.1430091023776924
10.155411930735115 0.41462578452487303 871.2902938175102 0.1155427670440808
10.165378941254842 0.4121547718393789 871.296423105535 0.1326794477741324
10.174094314286915 0.42151822600119315 871.2973328046469 0.2196308544200268
10.169725111728468 0.43362958656281236 871.288097094741 0.16303688534067118
10.151604068125517 0.42723602220627216 871.2873466788851 0.17675315617906778
10.165440500429057 0.2723948282091901 872.1424810826708 0.14168134292146736
10.166373258165814 0.2718627881725618 872.1286760087514 0.16752196926270008
10.161258300993357 0.2614219448269876 872.1483706710944 0.15087679755907515
10.156135163026986 0.2479206182336451 872.1446347044969 0.12648488651301207
10.151495598876087 0.24991517770178562 872.156391878696 0.1800714609761192
10.145833474843343 0.2401600832537481 872.151082429451 0.13979382876739624
10.132173862199302 0.24026169360636215 872.163142677668 0.14851256359528298
10.108043591870535 0.239588148365657 872.1652390455722 0.19373931763949143
10.096355656911019 0.2435320100523376 872.1642392170796 0.15520215291094136
10.101426869421983 0.23504230288264158 872.156350995915 0.17100810877460798
10.071827939721476 0.25534945458096625 872.1401748932528 0.14715596635908876
10.071653393707965 0.2629407092819488 872.149834365925 0.15824496136664004
10.067587948388507 0.2686804296169631 872.1379266258369 0.19516761365241625
10.066600447931624 0.2710496782780146 872.1267649793291 0.12198764527179527
10.119246065669408 0.23588499257816709 872.1617487813472 0.18900375395514316
10.079301126600978 0.24536034917819216 872.1457107230477 0.14188310943130475
10.090113687219821 0.23941499620105516 872.1535115389984 0.13609896545112984
10.068090676838064 0.28415786996740017 872.1282208904718 0.17438350091339086
10.075146118614098 0.2955883722348782 872.1115938024332 0.13932746987481817
10.089554489141426 0.3117468858102951 872.1105639191177 0.1518165955354243
10.100800608559465 0.313878935530263 872.1050802577466 0.13413340477076247
10.093246768844768 0.30599702980784077 872.0998201038697 0.12477361540557239
10.142253614505151 0.31434107029138797 872.1121876096702 0.1636612436365817
10.131273889529911 0.3172213653567073 872.1086766638439 0.14575169180961797
10.166191631808111 0.2842428670584986 872.1339225464744 0.17323363405458012
10.151152228582145 0.30642209410217364 872.1135371999211 0.14643915469223884
10.132801254923377 0.3090426599106708 872.0981410485763 0.12696188196341518
10.161026094623491 0.29221517838039 872.116838871541 0.1377331060466959
10.105412535822467 0.37298589451264447 872.0388992085485 0.1515518854139587
10.102724061855303 0.3853074555994351 872.034724531723 0.1374211418831967
10.10261834806538 0.37375889339883783 872.0519282398961 0.1360921733996786
10.104466425801856 0.3854168615741992 872.0474978481838 0.13247377277155015
10.111952135626328 0.3853049111057924 872.0576478341785 0.13193734698136272
10.11316808554239 0.3827929900444581 872.0166003903541 0.12738154173400887
10.109013694045546 0.3898076659302774 872.0090239536365 0.12087827044549415
10.103937227939245 0.3885087041300047 872.0219133042491 0.12485692456271852
10.1078547224941 0.3966529303895586 871.9997361720589 0.1376709959504067
10.102621342960004 0.4070262255091021 872.0048668111992 0.11211833556134831
10.11704844938944 0.3421591813372415 872.0644945078504 0.1428956352311642
10.11764383840542 0.365287156716013 872.0396834687613 0.15085163008806518
10.10882850788947 0.3477219118850998 872.0616320442047 0.14656247908044184
10.111267040590947 0.35935917929537065 872.0482765395208 0.14303310617901804
10.113736880727533 0.37288236014599213 872.0302385699713 0.15907959012872327
10.106140350522699 0.34102306760346024 872.072071057231 0.14346385515383941
10.108982558716656 0.4067278639562262 872.0259025302626 0.12765156908201822
10.10268663853997 0.36429737356816616 872.0625847328683 0.16239183386882092
10.1071635229913 0.3751667149162699 872.0648692045551 0.13423068681669242
10.106617286218693 0.3608357702007199 872.0782997737992 0.12419795409703402
10.103011256357913 0.34219176185894873 872.0865190368264 0.11330643562750388
10.10311432190609 0.3502481818803931 872.0790449388085 0.1482001298040869
10.114539259273679 0.3573140251229659 872.088603939366 0.1256102666006334
10.111686096213905 0.39857382430080507 872.040476086913 0.13478904419675136
10.122590234831389 0.39769536664979455 872.0407378725065 0.09635554799505082
10.127616592892743 0.37891743273308254 872.0576629765715 0.15151487743240866
10.129087819180551 0.38762983355679137 872.0430664517996 0.1097656942919625
10.1276865735233 0.37486401335987607 872.0365538860005 0.14847021194859647
10.127061632913412 0.3806992407594091 872.027923504594 0.13376717980177646
10.121857190117858 0.4070288667765518 872.02741916919 0.09540318776789103
10.130334667500286 0.3914508378779866 872.0299885331647 0.10064752011997939
10.12920454407541 0.40160431925654183 872.0225285026135 0.09934836369348471
10.126116321753653 0.41124761113511443 872.0155701639526 0.10716140052235035
10.129455145691828 0.40094757423061844 872.0049064999696 0.12423824195100781
10.12895998927946 0.3907687839646062 872.0171032097214 0.10930064989847457
10.119127963460123 0.3670898471342903 872.0784066134395 0.14181331774087547
10.125002724248827 0.37279991661195355 872.0687250590393 0.151795944423314
10.121811239793892 0.34587027696988615 872.0979342966363 0.11934912001379296
10.124832437837867 0.35893614133175095 872.0827396031297 0.129708992929268
10.129130830286147 0.36172360429086947 872.072231992176 0.1385988673587534
10.120917019306603 0.38804598948580254 872.0088021070306 0.11559444149323332
10.129097170929683 0.33741495794526877 872.0798842142747 0.13074438163657287
10.129030691171216 0.3529323185543013 872.0639935451151 0.1371256632414828
10.130561235584803 0.36799648371117616 872.0578906650749 0.1382733550823654
10.129729970827 0.3474472927884308 872.0734226817287 0.14613863255441978
10.12096395674612 0.38900271042909296 872.0531550923665 0.1468736668665923
10.122490125745701 0.35770493913010826 872.0505163513434 0.15293894662207697
10.112725875367467 0.3024496386516735 872.1277232827897 0.14824539144096424
10.10765560741142 0.3215277062232096 872.1093206311914 0.11469255005132863
10.106864952958947 0.3306091273216996 872.1000100951003 0.11618127113006711
10.120783752283732 0.3092403591926282 872.1230115168695 0.15882769129068866
10.119063162417854 0.3294902492528496 872.1087347066513 0.10184196146409329
10.119489120719289 0.3201929433047014 872.1157503886047 0.13688047818902424
10.114657867246788 0.2930785033129498 872.1339747440256 0.16642119524788776
10.123673093695283 0.29822177311301384 872.1282068676345 0.1422621441776917
10.122253571130942 0.32523109963968894 872.0869037113616 0.10856927499174127
10.127338208732073 0.323326369665039 872.0987643025048 0.11323771477454407
10.103673122551358 0.2851884980698981 872.1383709346172 0.16237051821597975
10.105883768306994 0.2735212555897298 872.1468010702697 0.14943405924629344
10.102534986701004 0.2940074176055424 872.1312186859276 0.15666045254997735
10.1019454721028 0.30601274023540503 872.1209118259 0.1560762971415884
10.075803885166694 0.3011817539221604 872.1221821037599 0.13582456413228583
10.07975467511673 0.2692422964047304 872.1472658842708 0.1741485995440862
10.115514370695104 0.2807202522403152 872.1419780568151 0.16753103092497262
10.076388575155065 0.28278229851567244 872.1370434117773 0.16000412869698832
10.107642676149409 0.2513782065921341 872.1608842391639 0.16832419962326434
10.081133238443503 0.25823173228542395 872.1545396496019 0.15033025146304776
10.092583497354306 0.26277120026330264 872.1532776018779 0.15100401972221913
10.096317163906905 0.25330762731667644 872.1589866030747 0.14601879016140779
10.117957165210806 0.26816646162192437 872.1506169663849 0.1369333514461881
10.093509736604355 0.2794270779852719 872.1415435778678 0.16043297569266005
10.09065224917275 0.28956826827545024 872.133888326146 0.15088912860266782
10.106914621242002 0.2614117013177497 872.1546031028789 0.1527874186234284
10.076097947869318 0.29178822190306525 872.1300564124222 0.16097132214164994
10.154412073361286 0.2771064227931334 872.1415848906713 0.15391503993569164
10.143292748864127 0.28168973971593614 872.1397103663827 0.12807473522903196
10.147175365412698 0.2987465747418926 872.1258805851695 0.16487209085383048
10.135210983622535 0.2968162742564383 872.1284895490123 0.1505467120069757
10.133080746101358 0.2775367219767711 872.143577444092 0.13845770129845053
10.118978309730451 0.24736326273249953 872.1630545413399 0.147207645389022
10.157978152203471 0.293776721612841 872.1282794146903 0.19228787502091635
10.153326525142306 0.2864722851762793 872.1349814333644 0.14942703644689445
10.13139612519343 0.30494078315301404 872.1218982710328 0.15335136261523133
10.148827769238167 0.26138214673648735 872.1529182498448 0.15734276854064572
10.124851989111864 0.28670919392460525 872.1374122342868 0.17610352775884786
10.140927054029868 0.25182924338835827 872.1593844077345 0.15536129433674528
10.132978839772184 0.2640371239416645 872.1528529484026 0.13367448501233709
10.12950850137689 0.2537443877281565 872.1590670169306 0.1411889072423335
10.103747476311732 0.3316177714346525 872.0870607192883 0.12932419992989005
10.128975336055523 0.33586800641487047 872.0919729395484 0.1252131913589759
10.113565109891402 0.3261913300376407 872.080765559321 0.11597790020940549
10.116685112940456 0.4089641916323129 872.0040468331606 0.12780552779431725
10.161586224190895 0.25476859550230774 872.1367697324279 0.137275148797091
10.126773291309394 0.2318073959762444 872.153703661201 0.13907694691034062
10.134063491868934 0.23796487254862364 872.1491618140778 0.1470981971588046
10.148412897668097 0.29963738443334015 872.1036695625904 0.12013931944632586
10.125638560676727 0.24681890901047904 872.1426309332655 0.1321546038029807
10.115758341122074 0.2870832835877211 872.1129312972902 0.1497259321568958
10.12816959699513 0.27919325386018246 872.1187511115829 0.14375412678054283
10.141201703302013 0.2595233652463756 872.1332599341413 0.12043152973005845
10.123398252472777 0.2713542880338151 872.1245332533407 0.15706274301963002
10.12677508229136 0.28895123290792346 872.1115534828723 0.12829776835305962
10.163011576409037 0.47614503288268395 872.1854921263667 0.22529872734889217
10.20138537336302 0.42944227777836647 872.1735229339226 0.14539424533486278
10.177459617860695 0.4203127421936322 872.1748322643086 0.1442722597069501
10.162885547584123 0.41026183019109574 872.1617222216659 0.11973180542989048
10.162622454226437 0.41020178082901215 872.1765802236205 0.12106330073621539
10.172187906640268 0.41476317254552014 872.1940665946735 0.16035856457532296
10.173413218318203 0.41607903785791156 872.146019718183 0.09550519229050249
10.175465527727898 0.4271906985074781 872.1475985334417 0.10973155199059324
10.173143412631163 0.41567960545584415 872.1624644152485 0.14120332770873997
10.17465754959478 0.42980274182185374 872.1794388128927 0.25752209041023877
10.167346596497698 0.4369156036162647 872.1536707273332 0.16954163717277895
10.17060548413098 0.4654442533451922 872.1864243834573 0.12486977867918646
10.160997038386675 0.46427898718121374 872.1935878995378 0.08325265663488811
10.153786110952973 0.4669670401541056 872.1808980505039 0.11373392265238358
10.153595578662683 0.4546541861855804 872.1815361450342 0.0941826819582093
10.160555414412725 0.44410703099149995 872.1759498415004 0.1361100392713134
10.162739837361269 0.4603694476651959 872.1758963832795 0.10204905843999003
10.169171167078826 0.4503702164641496 872.1797011275037 0.146244385838269
10.162876391878171 0.4323119535508538 872.125770445975 0.09888631829728052
10.172674360458352 0.4177439153311935 872.1257704459749 0.09742908941158097
10.155838337670716 0.43616773613037524 872.199770445975 0.09098039651249176
10.174449191177656 0.4259925265569915 872.1997704459749 0.14587833582473148
10.160408389171216 0.43779776041541857 872.141090966176 0.11114038415520448
10.148286726725315 0.42329049736157315 872.1569575753513 0.13451381264745677
10.148867205862425 0.42836570892010317 872.1915705204942 0.09849157275993575
10.148571725880524 0.4277521384940401 872.1784439090741 0.15136270091527457
10.15676570413527 0.4112250574235268 872.1373694957099 0.11782970971992247
10.14911682291268 0.41920602863233264 872.1291222884191 0.10857060514555601
10.151769298635411 0.41469476837156805 872.1657454350313 0.1630455419945363
10.152400850270988 0.41419112249497514 872.1776239694107 0.16929025310263066
10.15265468061266 0.41398869945031036 872.1498778456067 0.1352931128887803
10.155436538770932 0.4117702404807579 872.1929485067772 0.12560166399462264
10.180540152126289 0.42557505075608243 872.1609512806187 0.14981873378529106
10.191634537453764 0.4292882295787725 872.1641250380665 0.16074831972877318
10.202542762087857 0.4212033708572368 872.1613474152892 0.08142399070728859
10.195397507886659 0.4218248622277623 872.1855573391995 0.18194126088480037
10.201228710618032 0.4258115185089201 872.1962721549578 0.07675058342070915
10.186564499363154 0.42850842029877917 872.1740995125556 0.2435878154518987
10.175682597511734 0.42649665479302595 872.1345347866497 0.09217647536462373
10.168719382457294 0.44488056867277653 872.1904746900144 0.18726770085701192
10.15920245348492 0.4523364338039204 872.1933380271541 0.08343521751909934
10.191635683493223 0.4181157679672497 872.1657109035172 0.10016255714416418
10.152895723735957 0.437234263948654 872.18508963249 0.1266313140689844
10.107353432413666 0.44253336978830493 871.9819010799825 0.1263190075476408
10.118148410650065 0.44328597562272126 871.9789095467876 0.19072362207708884
10.139039986813057 0.4194260745219442 871.9553302845268 0.1921899707354523
10.129130551231697 0.41251074593522474 871.9585123428681 0.1837000309820221
10.12126093771805 0.4427687010898049 871.9681707121551 0.20261260795484942
10.130593617419413 0.44410041548119616 871.9730687727765 0.16555407217377718
10.10475539944173 0.4424124294617477 871.9680627538879 0.15810111094026472
10.131104758656404 0.405080186685614 871.9688647558537 0.18694547737233558
10.13267367348896 0.42273369066246447 871.9941220326851 0.18020661455663867
10.12185560524198 0.4367486415562119 871.9894402227385 0.17253406919013314
10.135216360807672 0.4376870914569251 871.9887209364672 0.18319464745446196
10.117023962196516 0.40751195215961245 871.9636985887546 0.1665838456002841
10.112920079897755 0.4042852630698173 871.9739860750569 0.17343995759168543
10.111599741896052 0.4311413979912087 871.9927309530758 0.15049274951640762
10.141935705912328 0.43717674143636054 871.9604122745468 0.19377916084451507
10.141935705912328 0.42626890675471885 871.9642895984109 0.1862591981287522
10.141935705912328 0.4299764446451982 871.9929840159831 0.1593909967278082
10.10453571583054 0.41936484532575935 871.9623821001819 0.1859634683489584
10.10453571583054 0.40965002958329705 871.9819603142995 0.1837290291584891
10.10453571583054 0.40813049271055735 871.9648467942583 0.12983115772619333
10.125649493931014 0.4125291910682213 871.9825021368016 0.19471993012333955
10.122065951351392 0.41548510572140995 871.970668732095 0.2030942934808405
10.124360270691188 0.42734247956163623 871.9839414280134 0.20252656505395858
10.12745743681689 0.4256635671176958 871.9722024826997 0.21019686827540737
10.049983439219211 0.42085521864803255 871.3146739033886 0.21528272233444518
10.084334396683612 0.44513225335811146 871.3087645637027 0.15577584582325515
10.080119096072146 0.45748255315277225 871.310333622999 0.22792530391882915
10.085058333505673 0.4552458448624517 871.3404225044679 0.20573985099584824
10.09596423792298 0.4494348536949949 871.3377440028808 0.21727720562560876
10.102928009866998 0.4585128932112099 871.3264642515016 0.22058810037449025
10.251856146110418 0.4561988769175286 871.3189892755495 0.2305474087043922
10.237862467207632 0.44241813041962724 871.3085496915974 0.17054829135963925
10.233150350904731 0.452465367815551 871.3089712150055 0.20505382333884184
10.22127470575392 0.4563789122250579 871.3213196312628 0.239133434164895
10.25373329065346 0.4446591422713854 871.3334861676324 0.21783092029919932
10.248557974214256 0.4464857982131621 871.3130115674318 0.166189078173436
10.124877076816638 0.40346039144500306 871.3224826609945 0.14833886620156506
10.085581513421086 0.40327332276844957 871.3245014867049 0.137733012643533
10.057328442529252 0.4034900765981353 871.3221623019078 0.16358405213612115
10.179845521153638 0.40615793263808164 871.3140137130908 0.14330476960227223
10.13108371360763 0.4062792369812067 871.3137701003573 0.12634305405826582
10.076529639270918 0.40519695535562217 871.3159436217538 0.15066067177775183
10.262778672364934 0.405993801774398 871.3143433333446 0.1646071912698088
10.142772576519029 0.40523037447928734 871.3158765068932 0.15044372715531576
10.246183952221843 0.405751123677746 871.314830698207 0.11058386793839763
10.209223316198559 0.40488094677319053 871.3165782545509 0.13728832077719935
10.104607741480159 0.40463372308243056 871.3171541797585 0.1099800048911579
10.220593494156752 0.40374778717320053 871.3202678998373 0.12751737067478483
10.194544204840337 0.4039612388707303 871.3195177001562 0.13080976399545322
10.190298559810316 0.411033986368431 871.30832443858 0.197417532447103
10.203674618923902 0.4114405821892961 871.3079537778306 0.1790354378281548
10.083094783920817 0.41152646732085185 871.307875483255 0.10247724561798927
10.235976817227108 0.4109119440980777 871.3084356947146 0.14309347687242832
10.117016061273082 0.4094627719571926 871.3097567885482 0.15682035878983366
10.254600578271889 0.4104762743816588 871.3088328597992 0.14176478542756699
10.223944756048962 0.4185176475856468 871.3043580496285 0.13870218865095138
10.060018676719599 0.4161567606374984 871.30527266347 0.11908099922817694
10.093416688528762 0.417317688569712 871.3048229169218 0.09701552150068642
10.139372776745875 0.4148493133459964 871.3057927431835 0.15658052140146428
10.103819151824679 0.4127661624068931 871.3070825767367 0.13699966128446273
10.125401520405704 0.41464130930278736 871.3059215339442 0.1382314815887584
10.214388599376694 0.41192892230031963 871.3076009743052 0.15006630636702115
10.065680739832928 0.407147077879479 871.312528837682 0.11516134784691168
10.052122667161631 0.4074783711225132 871.3120901351308 0.1446946159177245
10.09273979321809 0.4066464612233276 871.3131917603607 0.1206894804954594
10.161773502832292 0.406846825628708 871.3129264353727 0.1467562713210653
10.068083802841707 0.42501298559066014 871.30364449993 0.10219279375093554
10.079869465701613 0.4231963980873367 871.3036444999299 0.10959531113140265
10.262700376297053 0.42418210989827815 871.30364449993 0.14759177963234973
10.201961343701827 0.42405038762919534 871.30364449993 0.17600705146853815
10.230676531713636 0.4334453681245729 871.3056853938599 0.1513132400620891
10.105008202512987 0.43123262801426415 871.3048281743047 0.1202708791077292
10.115911669625344 0.4330466933103216 871.3055309465096 0.13630797728348867
10.21525180220253 0.43003519459963857 871.3043642864156 0.16995381546030788
10.241587092336768 0.4311786987080084 871.3048072819931 0.12452060289996368
10.135386902722733 0.4310526085702529 871.3047584344438 0.1853730242134778
10.271993981604812 0.4335586726021691 871.3057292882213 0.16221103810404947
10.253202355934766 0.43046137740813384 871.304529390413 0.10890818329769289
10.179812667930523 0.42915114037505697 871.3041950391264 0.18971151185034565
10.052687140658135 0.4270965846827016 871.3038109760095 0.10743461553460688
10.125954801586072 0.426837862148037 871.3037626123737 0.19139713516829004
10.193434734919858 0.43490578955834613 871.3065008474564 0.15851874746681097
10.092492143798895 0.434513319014179 871.3062720607509 0.11432814311516873
10.062281258059244 0.43433207887602937 871.3061664086588 0.1385158620588793
10.079143610178626 0.4344688401569665 871.3062461322542 0.14771762029534277
10.11336136567736 0.41961345099202274 871.3041524473139 0.15033072529873773
10.188031719322447 0.42068544666252355 871.3039520569444 0.1974257564011425
10.248057459438595 0.42006941250360197 871.3040672134847 0.1123886703401363
10.23527332376597 0.42128365663424583 871.3038402323164 0.09829184256929688
10.262430956435452 0.4382131127480875 871.3089182820395 0.13774808503199784
10.067728628880891 0.44145380577540805 871.3123744661707 0.1741825782255872
10.1284504543404 0.44211052539880236 871.3135050571017 0.1872310134510175
10.145897898039948 0.44064892991277915 871.3114178293953 0.13873630615684845
10.10338098052568 0.4406188503250535 871.3114329139987 0.18378296500558108
10.15311096123311 0.44461312499840916 871.3192587439985 0.1282187647153926
10.116972956250137 0.445050479880106 871.3216432437407 0.20942024707078435
10.183480602736255 0.4453173492760848 871.324475489532 0.1815975630004763
10.165065364781576 0.44528238634451645 871.3238342064144 0.09575910398354646
10.188200152712131 0.442936722870608 871.3149184521129 0.20472589758720436
10.203058789324356 0.4432176896470409 871.3154296974097 0.19763917871370437
10.215020712456516 0.43969992773760275 871.3102633539855 0.13804635536010185
10.175100207804169 0.4438515047346663 871.3170518675514 0.14778048462092724
10.266949814821281 0.44417341739936395 871.317945067273 0.1324982160356509
10.057756813936095 0.44369926547946126 871.3323885907528 0.21069384386642612
10.10558191053165 0.44245085765037273 871.3350281836848 0.2025072806925335
10.123845779511123 0.4426707898865271 871.3346060926887 0.2175099565895496
10.213318576642292 0.44152983683141384 871.336605167233 0.2091424707707476
10.194672194164326 0.4452708733025809 871.3246984395121 0.21751401547975244
10.132340605744643 0.44526407522860445 871.325662053247 0.20754427949342616
10.151803958056487 0.44453649717832433 871.3300024505565 0.14969758736715533
10.202846244214168 0.4440049491627358 871.3317376703903 0.18306202709340158
10.164639830647452 0.4427441123290997 871.3344348472473 0.15259635458199078
10.140921448882361 0.44204795557349214 871.3357396179318 0.1468835831489084
10.193210731556455 0.4402737441895864 871.3380893345101 0.20080107623483728
10.26481328835966 0.44436857251533834 871.3303935820437 0.2022069903287077
10.165528261885834 0.4350995709312969 871.3424956296378 0.17096530206806257
10.144163629474924 0.4345228342703632 871.3428319873005 0.20181763660562502
10.079808985496843 0.42946016656792674 871.3448570293813 0.1392549038042484
10.119106820239258 0.43289121073536174 871.343639122697 0.14613944577599222
10.238681636895626 0.4324115179897458 871.3438249565417 0.12645595233307377
10.273713463184537 0.43082622245337987 871.3444391029242 0.22057037520469489
10.219185316645461 0.432801061057827 871.3436740468464 0.1710434361515123
10.181818396589295 0.41625537960175096 871.3438753767508 0.2570714076347277
10.193729031360567 0.41724231781456955 871.344257719222 0.2239281339880125
10.246095623709127 0.41747039830877664 871.344346078208 0.1050348919792473
10.140412958486927 0.41733963657931916 871.3442954207686 0.22369679962903286
10.093817529969616 0.4101303992745614 871.339961670597 0.1211711889207749
10.268113153248803 0.41108593795214865 871.3408327571811 0.19430724660274357
10.257018849206428 0.4089733137486349 871.3389068502092 0.1572535651232185
10.154785172120764 0.40777017732897697 871.337406113795 0.1678356839399201
10.137584756780083 0.4087031100520726 871.3386415177278 0.1738985100450229
10.117180893321127 0.4130600837734705 871.3422092467971 0.1659578594468157
10.214882455155148 0.41194881223321744 871.3415211760038 0.18288309632404007
10.232821668560725 0.4131267848544442 871.3422505463931 0.1500920799342444
10.261757633412662 0.42297113597148756 871.3454653388582 0.15698586169100265
10.095077419107714 0.4260693696317226 871.3454653388583 0.1122946084141166
10.184199947386496 0.4039246770834033 871.3294636375815 0.15199491084650182
10.04999001667255 0.4042615567159603 871.3306476420742 0.18596816178396575
10.172503965877336 0.4040429844213895 871.3298794431279 0.13676768315335197
10.10040535338304 0.4046003497888619 871.3318383715857 0.12031097245270433
10.243291243843148 0.40442922780069407 871.3312369425197 0.12047101012680338
10.203796800770382 0.40447184907652556 871.3313867401839 0.19079021251018952
10.227184176707153 0.40456836969070237 871.3317259736364 0.15610079362834908
10.109534315339474 0.4202671749104236 871.3450795913728 0.14939879232240197
10.0780660203799 0.41870927074397457 871.3447883675625 0.10362346642758048
10.065736707972059 0.41894545760377516 871.3448325186976 0.15446696785830405
10.224669015443501 0.42083530549348513 871.3451857937675 0.12110507769858037
10.207218155808315 0.4212941855945129 871.345271573634 0.18262422811459958
10.129023129570674 0.42150287847516454 871.3453105852352 0.19190438962221526
10.068843854028623 0.40339617313169485 871.3259341390689 0.15746923954530043
10.136617767587186 0.4033396062019595 871.3253236752471 0.1323591728070513
10.155281487376744 0.4034885653659782 871.3269312254708 0.11015882159631592
10.26166220019085 0.4034026313219842 871.3260038351183 0.16146407441644253
10.073938960217415 0.4060030559008688 871.3347850862929 0.1405360017247208
10.126280212409746 0.40522857094121423 871.3332297127313 0.16514385453947308
10.114434676266738 0.4049089311440027 871.3325877902722 0.20993934047758978
10.060581713899278 0.40573329471235836 871.3342433334606 0.15172263877906542
10.19371444191691 0.40615388526390656 871.3350879921152 0.14482342628725534
10.089221803395558 0.4368998805661806 871.3413914498572 0.1779921716058428
10.180223757879727 0.43734027052941715 871.341007787051 0.15371334260768438
10.062260694720017 0.43609864870898063 871.3418602596995 0.15874587487318248
10.259938833117396 0.43551935671722664 871.3422238147455 0.1621688624007943
10.20458171612595 0.4362775914108172 871.3418116827504 0.14643506213009885
10.131927757772146 0.43667731969250506 871.341566391791 0.19716458176507717
10.273983552284855 0.4366759381195849 871.3252201328966 0.22188733968198596
10.273983439219212 0.41604397090685963 871.3276757533481 0.23765900608278795
10.273983439219212 0.41924679923402997 871.3063493226709 0.17789340943297186
10.240921850353162 0.45239631210246306 871.3401006945633 0.18063177520921508
10.051053671068424 0.437340568535404 871.3081904167261 0.13134320449824438
10.053649687890246 0.4446466506867053 871.319942039235 0.21839055047118033
10.049983439219211 0.4353146370853662 871.325663203027 0.22768120976312606
10.074493154048513 0.45409326032096176 871.3348334206025 0.23000760450436689
10.078054996868271 0.4421156564794576 871.3386959745533 0.22297820847758537
10.070317119708621 0.451416606075089 871.3224355817217 0.18795840121292237
10.224095009888883 0.44619892135835143 871.3138509247165 0.1910366948617565
10.10369535511714 0.45002356490886447 871.3206129868399 0.21710144663562
10.227219184248328 0.4413841941158102 871.3384802644387 0.18920538408430176
10.220159968399342 0.4482576224634292 871.3300396210229 0.23244148404780438
10.212922798877555 0.44514884809897276 871.3224016029751 0.22277530219264632
10.170279086400345 0.47512837458813906 872.1946357578327 0.16227006019959034
10.1710772894787 0.4901706589568424 872.19363485695 0.21277005447227768
10.159989795665169 0.4839236919629119 872.1974443961702 0.17154834449530654
10.149460211555345 0.48288815934331714 872.1870684232006 0.1779000093656647
10.150850227342923 0.49459297355519627 872.1911973094384 0.22671525041254023
10.170803431841923 0.49959308628944415 872.2128900801443 0.15757532790806128
10.161241261861429 0.5088676066481215 872.2140201253579 0.17367774052248242
10.145688819245464 0.5056678750249727 872.2093293777273 0.18666197849017122
10.133083512527824 0.5015626345627524 872.1919179059903 0.1590318038296834
10.15009337372404 0.5098845826843478 872.1617067000674 0.19622311936659254
10.145703718306143 0.5098850336074747 872.1907115438987 0.19433754361436054
10.142006092861212 0.5098850336074747 872.1715270304123 0.16406893090461525
10.138821860584281 0.5098850336074747 872.1993724817206 0.167728840602021
10.16312632278878 0.5098843959388013 872.1591623911015 0.18377059663855447
10.168098284267316 0.5098842039932047 872.1724608722636 0.1959522946857799
10.171846523072864 0.5098840821487242 872.2082836293998 0.19087049522958294
10.157064299927985 0.5098843550704906 872.1822409290708 0.17987957889656667
10.162521072209376 0.5098841233269642 872.1971756111038 0.18695026857976016
10.167663688494535 0.5098845808358914 872.1837944181414 0.17960693258653931
10.176672829739434 0.509883895834174 872.1626184703424 0.15447499457988012
10.180340942728941 0.5098843636441925 872.2003555601751 0.18147415176098347
10.189645514158602 0.5098896375466265 872.1836848979983 0.14919175724053324
10.133242455945442 0.5066980825501919 872.1773677747617 0.20227804845628028
10.161974381727353 0.4986777888097542 872.1554237137294 0.15702986751493603
10.173543209634742 0.4986888816776301 872.1579021650326 0.14236828203739074
10.190471849250821 0.49858772861644995 872.1851973375167 0.16064282911683048
10.180015501293536 0.49858531859512445 872.1870276694597 0.23852761564566952
10.14654454118643 0.4985842666315515 872.1600915784793 0.15216874591165555
10.176142410994572 0.4985849054738499 872.1750036717197 0.24657949821474945
10.186481449098215 0.4985856152308566 872.1969306247881 0.18821209243963552
10.152027775706669 0.4985849284806247 872.1728822829625 0.22984703257507932
10.14329549335321 0.4985849332091544 872.181027093796 0.22294766023049056
10.137763188287753 0.4985852378081581 872.1675940323789 0.17199243334894143
10.140168849907518 0.4985849249929864 872.2001060490647 0.14160522371032253
10.153409608075297 0.498584648042349 872.202417201538 0.21560530469233866
10.156260121992908 0.4880248415014119 872.1734365368552 0.24138993382773447
10.155163225284547 0.47513340963653844 872.1739647615298 0.15632230697364963
10.166831153687601 0.4916847393760754 872.1730608458092 0.2718134101394516
10.17170860293 0.4786938190860062 872.1766976330409 0.17520558727240873
10.188151498844872 0.5014871295342558 872.1712027964219 0.19861751904425376
10.163616434063426 0.49858482778681096 872.2012167353276 0.2282205229135068
10.155414563220432 0.09818645222653005 872.5652609244905 0.22612162818388531
10.17116242060017 0.10674849359094951 872.5652609244904 0.20878729501238952
10.160195522012824 0.09934983115904016 872.6038599235139 0.10211026470955376
10.17335395203272 0.1099887011077967 872.5770864410495 0.23436950133480744
10.163367777835502 0.11481125493576537 872.583629499872 0.2037555114595887
10.1776032585369 0.10091206747367157 872.5727039621162 0.19669444383079934
10.174739046372505 0.08966288973886687 872.5726773675536 0.19745731447106835
10.166083501268384 0.08375397989151347 872.5773543792783 0.18244927174860676
10.171079362331822 0.1024556635654083 872.5874341297312 0.1735151571137614
10.162572964348744 0.11044176705217054 872.6025788251479 0.1045412078333493
10.17257062495421 0.10352061174396762 872.5982547182064 0.13341980250357924
10.16237893525497 0.08751934713495671 872.6008831165734 0.1050062605207482
10.170826076974251 0.09176761103642012 872.5948184924537 0.13241743993713884
10.1512238718293 0.10330532758174943 872.598865735891 0.11911529997586535
10.156845066301361 0.10929549584100245 872.5915376687799 0.18842860114438784
10.161859177671777 0.08880013664710106 872.5880708582126 0.19496404899470987
10.148325150287208 0.09090582397107527 872.5809767195742 0.20483612292902179
10.14794602321 0.106585278873958 872.583339563027 0.24000356140888657
10.144627404310196 0.10414170581769965 872.5664365025207 0.13680386160112498
10.222789674642462 0.5140035507857845 871.3341370344099 0.1432196145788797
10.21620423441897 0.5145540507787368 871.3250706173667 0.10326885319654916
10.22612525445686 0.5122379982943902 871.3145348348369 0.11077118636049055
10.234715175894726 0.5148848943511904 871.3304877153181 0.04511390181067132
10.217514373133453 0.4986504313945659 871.3265120439121 0.23738879572124616
10.10900441887571 0.44199248609705666 871.9479294689169 0.13602406001431452
10.108736386519434 0.4604531475806203 871.9137128177426 0.0595712506847098
10.108590776300508 0.4456934796946192 871.9370866223559 0.060066915968279545
10.11538212786764 0.4509859127466381 871.9121561291356 0.059298778971772104
10.113474670541818 0.42580070636390427 871.9566904307435 0.19082722974603009
10.119794706739425 0.46498637553932537 871.8890924702587 0.08258934412098806
10.11291767609554 0.4454451769273702 871.9232391542715 0.04999225157511104
10.111195600335636 0.4597827082451032 871.9008215459783 0.0700515295753431
10.123631744236505 0.44186886728273556 871.9364194177404 0.08574498237013599
10.122860230215792 0.4468923660396946 871.9255185748893 0.04920678565006998
10.120116365794864 0.44519045589341605 871.9519765481563 0.15104762228081375
10.122556953108298 0.4611867525566514 871.9203559151506 0.05449890991425005
10.116785812398518 0.45364306427330103 871.9391066274948 0.05583171139779269
10.11030433123366 0.4562986744699201 871.9281636863577 0.05183261876985516
10.119058308844078 0.4679808957905049 871.9132813358415 0.06999956590876234
10.117596944942717 0.47390569061794663 871.9037181165161 0.10740727906282127
10.12402872409843 0.43255266530427783 871.9547831201585 0.1881761526521572
10.124112234640416 0.4636652918216148 871.9015929811275 0.06537919517984704
10.11266730150368 0.4725299703454542 871.8919217587866 0.09888354319450932
10.11626336847368 0.42011390512045493 872.0029477005718 0.12922975720294413
10.108637673938196 0.4204839383132644 871.994458473902 0.16989169487423866
10.111814082917792 0.4302661451838027 871.9809034595116 0.2177835344291454
10.106411824710577 0.4089246712862029 871.9934292967849 0.16410209447731436
10.106764646232183 0.421271512515401 871.9764711650328 0.24336294709934292
10.123502263604077 0.4040894474951131 871.9926627838521 0.13881426823239748
10.183853683855713 0.42366889406866753 871.9913315421664 0.19871374464453895
10.191526618826579 0.4216562010614888 872.0025344230257 0.1473098741190781
10.068950554915903 0.49901608383291046 871.3177546178697 0.215813932430626
10.085138300957517 0.5158347031708078 871.3196845414011 0.05865202575621917
10.086048044612074 0.5051515850010487 871.3270848936867 0.16686880673488005
10.076231716807108 0.5072942316944962 871.314528099937 0.1719428093864561
10.072837014233954 0.4986504313945659 871.3287603312034 0.2601588477267966
10.083098520535117 0.5180285985243634 871.330463960222 0.0656674830259912
10.06694779782966 0.5174700002522284 871.325588188192 0.07389665272413673
10.163963888026775 0.00022071026651432097 872.5596700706398 0.06749624213233282
10.197466271726771 0.006616445995371701 872.5558320187565 0.058783461223809265
10.175943374318996 6.704857876291888e-05 872.5537166322026 0.07398253054814331
10.230370376685773 0.02636587518544302 872.5595021107712 0.058502147658532906
10.24653632584174 0.04717473488532797 872.5544683561377 0.0601696628222597
10.256793262871712 0.07113925972305973 872.5548669637637 0.06485432979850306
10.252422247219673 0.058498790258996076 872.5595285648662 0.05955731570078269
10.260450170534465 0.08456502176297814 872.5536339945779 0.06654317981587567
10.260735991339759 0.09979397561618626 872.5540550776873 0.060009653655512696
10.256299107828925 0.1282173622045783 872.5533502779327 0.07196464726140007
10.253870920918832 0.1361970179302552 872.5645998341232 0.06265408027993043
10.234687436522135 0.16737577571640516 872.5565748684246 0.059038834889869496
10.24231996916477 0.15644485368814642 872.5627676649558 0.06091909994060048
10.212724137800365 0.18446312855950298 872.5607054368546 0.06675336299355518
10.226673329729326 0.17392293104185627 872.5538742731236 0.06890619542824676
10.222400911901723 0.17715122756327406 872.5652347786678 0.06606653462987037
10.188545033369671 0.19435088858564453 872.5563875118855 0.054844890888066204
10.203386554133397 0.1892187646686368 872.563770354761 0.057185760096864824
10.148893905632534 0.19807603403740362 872.5643474325116 0.06815794054986221
10.157008445979276 0.19792373033832358 872.5569650467849 0.0727740751146727
10.171020542245131 0.19766073403761358 872.5632639072294 0.059447779145607005
10.127431169113263 0.19178585880212146 872.5551210515848 0.06470249123663036
10.140444571841288 0.1957457862047816 872.5533940481924 0.06494106426436028
10.138296626303168 0.19509217480324473 872.5647408047344 0.06408483682283926
10.11359709884756 0.18575631196450662 872.5546017238303 0.06522721777374936
10.088658851891626 0.1659014562382884 872.5617344124048 0.05643797266235929
10.064356319459907 0.11907964006962692 872.5569613932546 0.06897071582781457
10.070079440072885 0.13563015932469671 872.5568091854989 0.06498852818252153
10.063255306094913 0.10468314069752711 872.5536768286926 0.06856596335023489
10.070155768284401 0.0613828068652637 872.5543342993209 0.07460722445626768
10.08747327545575 0.03316432872141081 872.553770569157 0.07197854608478628
10.073387117683597 0.05333772986635994 872.5641413897367 0.058434323179997735
10.1070356530917 0.016733795620259242 872.5652409378686 0.06850712762476657
10.125804037512255 0.0070319791960897675 872.554344216032 0.058993209615174395
10.119344296664163 0.009265744669581636 872.5647839914838 0.06233991137328896
10.161073513358417 0.06862076344066843 872.5532609244906 0.06702686394255623
10.162999023593114 0.025694461366126083 872.5532609244906 0.04555943256972482
10.163988116563626 0.05538005844865644 872.5532609244907 0.05080655675989081
10.15996517501478 0.03879497005943058 872.5532609244906 0.04047138223789581
10.152578715695043 0.0005468609707908302 872.5532609244906 0.06173099617177166
10.155936667965342 0.013122486264430492 872.5532609244906 0.05415646416007447
10.174681730121424 0.01991740120693258 872.5532609244906 0.04737301449999083
10.18407689288474 0.03085604178392891 872.5532609244906 0.04412296096828353
10.187603452465272 0.019588389958867965 872.5532609244906 0.04714698354624491
10.183815163125285 0.00937037539911345 872.5532609244907 0.055332497158827244
10.172284807133419 0.03257777946859084 872.5532609244906 0.04043422015326066
10.17159350565032 0.06561055282148842 872.5532609244906 0.05209160715931484
10.171639218210794 0.07686956254388952 872.5532609244906 0.09184539732691137
10.174616671151504 0.04608590913657341 872.5532609244906 0.04222367010779037
10.167159027789168 0.08853436275508395 872.5532609244906 0.11138470067768351
10.204681968801491 0.02332163551013407 872.5532609244906 0.049459182513547834
10.190342026587217 0.06674332452127356 872.5532609244906 0.05322084005984177
10.213540370561695 0.015433832573296124 872.5532609244906 0.06291200287379806
10.205966882828038 0.051957220231779795 872.5532609244906 0.04090994724632687
10.196755299535909 0.04213545280353223 872.5532609244906 0.04035851645337095
10.206211956018139 0.03402793016862265 872.5532609244906 0.04786871782082535
10.215654271979481 0.028548871424323066 872.5532609244906 0.05071294895537373
10.184124819487568 0.05706984186593689 872.5532609244906 0.04244786569782714
10.217781461553372 0.04259096488648083 872.5532609244906 0.04747287710711123
10.21994967771453 0.0668114206324154 872.5532609244906 0.0419473178146269
10.23195094825497 0.04817791084802785 872.5532609244906 0.04967674130389867
10.239042685263355 0.03883008919240639 872.5532609244906 0.05600319765874774
10.225669199315927 0.034331741003289756 872.5532609244906 0.057811259870706795
10.20906940891403 0.06344823723441911 872.5532609244906 0.041237832157049625
10.202403118606313 0.07474318702905759 872.5532609244907 0.047788227578500264
10.22992863673019 0.07995669171292216 872.5532609244906 0.039299926847486184
10.185431530663806 0.08831138280065047 872.5532609244906 0.08282426061188562
10.24306839087435 0.08444844576862635 872.5532609244906 0.045316624629782455
10.21296545709451 0.08399581853206571 872.5532609244906 0.041856521645042895
10.196681803426658 0.09015787197068478 872.5532609244907 0.0599735787021644
10.236297803865554 0.06081816546287514 872.5532609244906 0.04867288695276531
10.243911870960773 0.0679115987579667 872.5532609244906 0.04730526557032099
10.220638012363805 0.09535738120204607 872.5532609244906 0.041829270494618265
10.23282908483303 0.10360743432381027 872.5532609244907 0.04416522372191491
10.244120558142715 0.1030245461714185 872.5532609244906 0.04483668264239004
10.199070659943107 0.10251696393567823 872.5532609244906 0.05640037489374836
10.251255157235928 0.1405538682774102 872.5532609244907 0.06655619828530915
10.233357488793189 0.11885391616097152 872.5532609244906 0.04460906167804254
10.214826465942204 0.11720094181954832 872.5532609244906 0.04739731277893983
10.211425049206731 0.1061135187907703 872.5532609244906 0.045251505151862735
10.245105942772025 0.11623899307774163 872.5532609244906 0.051156021493769556
10.193542691358326 0.11383942331351975 872.5532609244906 0.06342442807486026
10.233076245638447 0.13193472445100246 872.5532609244906 0.048367000354337525
10.244037790019568 0.12697479728739322 872.5532609244905 0.056198647289051266
10.183893650838808 0.10626764817997324 872.5532609244906 0.09057884747202626
10.196417532146063 0.12597267630248718 872.5532609244906 0.051894731135144694
10.223357443562854 0.1469252790138966 872.5532609244906 0.04435311773686105
10.182459374380196 0.11862945092120211 872.5532609244907 0.08439794277653985
10.203923102984199 0.133744077028429 872.5532609244906 0.043902989991002034
10.226440427891285 0.16033196935159877 872.5532609244906 0.04757106251871695
10.16641207021712 0.10244165578689605 872.5532609244906 0.12378358037771144
10.218765810423175 0.1287638386293414 872.5532609244906 0.04321003818278004
10.23997889936994 0.14182527191457744 872.5532609244906 0.05503228544036035
10.212544874883381 0.14569468590506 872.5532609244906 0.04143591471910141
10.170413075144634 0.11332719809915975 872.5532609244906 0.11572775538528171
10.202446050943252 0.16061800388976663 872.5532609244906 0.04586101363065539
10.213060324091558 0.15910846154756328 872.5532609244906 0.04865483597084447
10.196665448166154 0.14624735672010003 872.5532609244906 0.04635001653183802
10.21049409892807 0.17499217652805799 872.5532609244906 0.05318303537816974
10.18421243554354 0.14328606290301552 872.5532609244906 0.0433390477722476
10.201045659017456 0.1864655699697844 872.5532609244906 0.0493405175158224
10.183757185881019 0.15567943750794766 872.5532609244907 0.04313621816961942
10.180837087715236 0.17262640324147072 872.5532609244906 0.04572987321703327
10.171674281683252 0.13162406390571504 872.5532609244906 0.06333979659003393
10.192457729001795 0.16988880509777798 872.5532609244906 0.04462147243577911
10.17305685911892 0.14810657609347355 872.5532609244906 0.04262032548241352
10.173799144663057 0.16049513609301372 872.5532609244906 0.04262679231908241
10.176086492999994 0.18965484707407085 872.5532609244906 0.04470730563491138
10.163781766382435 0.19022888122060633 872.5532609244906 0.05121460376887827
10.16222517760854 0.14157219384584097 872.5532609244906 0.041071473633596145
10.153483192219605 0.17905182831967362 872.5532609244906 0.04645998873383092
10.166907386052467 0.17652044904859449 872.5532609244906 0.04645974488333518
10.156727166243853 0.16827358148055627 872.5532609244906 0.04296547884239356
10.159837524390788 0.1549465648441379 872.5532609244906 0.04427758076693976
10.146044316382998 0.16016500787727922 872.5532609244906 0.0394781235815973
10.15166561752295 0.13693366604095242 872.5532609244906 0.05891745346800987
10.128396602443559 0.17901004897468192 872.5532609244905 0.0523656982508537
10.157148391674301 0.11445979699380358 872.5532609244906 0.11161578352254711
10.151668734563945 0.12550476342429223 872.5532609244906 0.07673039485782074
10.141302635609401 0.18175246210123064 872.5532609244906 0.050016659758437255
10.12681972582306 0.16731079678319563 872.5532609244906 0.045828143805577974
10.134333658811943 0.15272453355788515 872.5532609244906 0.04162199789203458
10.106661971244796 0.16728116134630164 872.5532609244906 0.0538778479768762
10.109271607139306 0.1547083399669898 872.5532609244906 0.04710683990896378
