x y z curv
25.33983289906475 23.985970733737382 987.0565203003537 0.14709555637029154
25.320166014644766 23.9870640070926 987.0538864067104 0.15192582544164124
25.328956933005593 23.980218286864318 987.0633727535953 0.166788404236072
25.318508015325094 23.986622138821737 987.0402989679453 0.18291538256232714
25.30046647584111 23.986385273735287 987.0397770953901 0.15920956672964698
25.309341624822057 23.983194259157436 987.034624072419 0.16649553832972738
25.331516423344677 23.98799009139129 987.0453819390871 0.14744660212696017
25.30633128262329 23.97399841883634 987.0666882227213 0.1513096903145245
25.31130450143749 23.988101245322177 987.0478670596658 0.176803961407411
25.31149180043205 23.97407869752664 987.0287876988207 0.17347163231156976
25.317213063217874 23.958483130515006 987.0305652392076 0.15842849647197024
25.30620465029959 23.957175788752107 987.031502098097 0.15999244498413154
25.323943990479474 23.951684625248852 987.0373925039964 0.19511330241235147
25.309217365745766 23.949436004902168 987.0420885342018 0.15878688974699223
25.332006908338226 23.948891173522973 987.0498943395078 0.15120263785029223
25.31379700802038 23.95072001996288 987.0564648052462 0.17138863895641138
25.301370523833256 23.95510074705926 987.0623026966027 0.15245108313029362
25.34217057653919 23.98044389232452 987.0403922085745 0.14672312219729355
25.22842897650257 23.968511591464186 987.0428706451015 0.2292266736842485
25.22842897650257 23.980199547714545 987.0396467508212 0.17952206575480592
25.22842897650257 23.96723465523359 987.055125592011 0.2391158982991653
25.22842897650257 23.95583688367597 987.0526331341566 0.19790947633927836
25.22842897650257 23.9836459342225 987.0599736212146 0.14206215840150258
25.34217057653919 23.960278666662305 987.0325172955149 0.137541594641395
25.34217057653919 23.951398574092764 987.042659759253 0.13915256009409066
25.34108158846258 23.95812535786964 987.050918513181 0.16830365111623313
25.31946928234624 23.958526656043695 987.0610094840408 0.17620053321737383
25.319067821035873 23.969020614535758 987.0491982701166 0.19722800407786722
25.340319868880634 23.975789507482084 987.051589674458 0.17200511454614756
25.298684296425215 23.984136932754183 987.0559551408936 0.16150259050357468
25.29788403147779 23.950476353287247 987.0499811610837 0.14130517360311917
25.22907303901677 23.971003037863756 987.0673134280811 0.16815653190901272
25.26400156498965 23.970402191807686 987.0674032344866 0.18183479161597346
25.279842465344213 23.966982488104847 987.0674601120737 0.16739713621722874
25.269849991301164 23.985258021322828 987.0578732483499 0.17509398393880532
25.24540519599268 23.98464622816786 987.0588862289989 0.19421083078277235
25.28284656759763 23.982475894040434 987.0614845763394 0.17023137052938755
25.256081913600596 23.982174139557415 987.0618141771979 0.19559672734623562
25.2391538012801 23.977254984561306 987.0653266964775 0.1931047565630805
25.282203949899852 23.98789291178847 987.0505120296989 0.18349796125682083
25.235629857663927 23.987896666695903 987.0504903948839 0.17222341766075513
25.259807850951553 23.98758650807575 987.0522774494189 0.1632520306642111
25.26873237539707 23.987200590979725 987.0416422702315 0.17623580724814203
25.249018763148964 23.988044189625434 987.0459075120549 0.19823990675624853
25.247136530355082 23.984588958904865 987.0365498304659 0.16943261332379164
25.23626921838716 23.980957223688097 987.0325437020264 0.15803516863368436
25.289731108767917 23.985724174729405 987.0382923075598 0.188501524086906
25.261065091167175 23.969477767145342 987.0279927928968 0.20458984130362368
25.27489471869672 23.96210462340978 987.0289479576854 0.1802853244646161
25.230377074207563 23.963314103590534 987.0286596179363 0.16344970426320887
25.231271472442984 23.953064967353832 987.0352552215104 0.1601094486533729
25.2837233865148 23.949561177115733 987.0417051715789 0.1575833896200433
25.246570499660578 23.950060542564103 987.0403573924611 0.17492153651471948
25.273252414650777 23.951876579361475 987.0368938385055 0.17131935532845632
25.25463924699966 23.955443993563215 987.0327550677653 0.18157381358370756
25.26528871735332 23.957873404743438 987.0310013596836 0.1945913057188512
25.243403255540464 23.95842854121868 987.0306006258222 0.20451973039565252
25.233132470997386 23.948637506495963 987.0470565197637 0.18013164773766038
25.266934989557804 23.949562669928092 987.05393052821 0.16265964531041938
25.285359448099516 23.94928510460358 987.0527177394922 0.1603069723462701
25.246597899720754 23.94911034901565 987.0519161645099 0.17943676019506125
25.284901585614996 23.955937623089582 987.0630621554528 0.14096266505484034
25.242161672853353 23.95471640083 987.0619441081625 0.20286890965182883
25.23338224356901 23.960515744490973 987.065847823051 0.16558208436083094
25.264011875616447 23.95956619629599 987.0654382950257 0.17826059540122402
25.25605158030188 23.95247392294946 987.0593696068096 0.16565159397640414
25.26078786496234 23.949197235864464 987.0428213676367 0.15446130904710534
25.243650543326105 23.97327166041987 987.0285612384987 0.18259185757875818
25.283280198787235 23.97006595594382 987.0280048449304 0.2025532561745133
25.295028320279272 23.97817224504494 987.0643959060798 0.1556985728482037
25.295028320279272 23.97145953523315 987.030504872097 0.17164747524222562
25.295028320279272 23.963187447249805 987.065926616843 0.1583006799711644
25.295028320279272 23.957534116609047 987.0313721793984 0.18181389152606525
25.323444423038463 23.980661073345996 986.5757137223078 0.049284341104027615
25.32636587757608 23.97922167134331 987.0323247703154 0.2189640382976296
25.325320396349284 23.981540913413276 987.0193614474125 0.15291228872862903
25.323933132990142 23.981989893699314 987.0087403409491 0.1006302911306995
25.332970396521866 23.970115379223497 987.0203777322658 0.19285005250385295
25.334799163723865 23.98149621269635 987.0101817023796 0.09681946996208642
25.325841897372104 23.973594798166058 986.9975416265684 0.0482791603830177
25.330157835242662 23.985822257164376 987.0003068308082 0.04417014941633901
25.33383592910442 23.975636885131156 986.9889451813344 0.02469947396947826
25.328013892839262 23.987115634703148 986.9881827827802 0.02689444922889955
25.325107476372096 23.976081534297283 986.9787592996483 0.029207284340866155
25.331604769846038 23.98773574833161 986.973800720916 0.026702517532969868
25.32928952273872 23.97523738199017 986.9660013097305 0.03706261860193427
25.324888684133807 23.98715226929545 986.9590633457962 0.034654373594272744
25.32313096707386 23.979624485684244 986.9508407538935 0.03001401328525366
25.334460620265048 23.97806881687882 986.9548941822497 0.03305147411412841
25.335788643073712 23.983901460072303 986.9461180471711 0.034560639394412486
25.32298655244107 23.98454167917464 986.9396412151527 0.028865976195327193
25.332965533214473 23.976830039737663 986.9369681877422 0.03591713098559602
25.324983492644915 23.98764564818409 986.9194201965931 0.03016631423806871
25.325860694642696 23.976613388530062 986.9254139406854 0.03569373079475108
25.335519097591508 23.984778694602834 986.914871991177 0.031081650752308825
25.334598112589376 23.986550034367166 986.9255944757367 0.03021546949912374
25.325226526408574 23.98793986577626 986.8935830310496 0.03865710544818652
25.32388919711589 23.98644817524115 986.9053370849106 0.03538762557266034
25.322575741821165 23.98263857757238 986.8793469211269 0.030562820161495252
25.33052066663395 23.97595250571354 986.9077868373922 0.032324444338642865
25.33208113253061 23.976514063942787 986.8964343712915 0.037259659501707655
25.333596546510737 23.977452895439242 986.8854097146427 0.02887081584006513
25.334874994336726 23.98612000352098 986.9037238107111 0.02915711061683648
25.334503548949197 23.98668860057333 986.8750070525876 0.022187241964595778
25.325842196439716 23.98822502029932 986.8685208763857 0.024588886375605697
25.322809440697554 23.98408382188976 986.8497230247831 0.018416058079958962
25.32266919996833 23.981282021098625 986.8373826234815 0.018680782216826113
25.325025176083955 23.97738382267997 986.8621883778255 0.024152618806648474
25.335323710662497 23.979763317850814 986.8522422875805 0.02307928801456358
25.33590834751496 23.982377700802687 986.8399969427742 0.020812205913686464
25.335373764680206 23.985065950713217 986.8635419082425 0.031796476718320955
25.32310936173389 23.984931873094045 986.8233996721672 0.022974101440362348
25.32388773249847 23.978300522212734 986.8142264683827 0.021976090322326832
25.335881781237635 23.98271627758298 986.8211144459499 0.02945632133278094
25.3353842310322 23.984937823133855 986.8091504633026 0.037316049739438355
25.32951310616692 23.989088455238182 986.8320439113379 0.01672247680710939
25.32372910419627 23.986127474801126 986.8044051398747 0.02991572223566423
25.32442332501165 23.977802707561782 986.7968533573353 0.035407843644790285
25.33243280090568 23.976530785646908 986.7874590604638 0.029897217860434797
25.332887456618273 23.976740139672494 986.7739969225393 0.03371388764409885
25.334615251712798 23.978446049417208 986.7993047144616 0.03660349930568595
25.33149508227686 23.988575048857996 986.7781237466381 0.03341360380942826
25.327839018841782 23.98890794492391 986.7882874566961 0.035029860424325675
25.32615366830136 23.988237193907196 986.738914726363 0.02980303206791549
25.323503225707825 23.985872181789386 986.7269990587422 0.024617330406439014
25.323592515034957 23.98599998363483 986.6745946130924 0.050943305829894474
25.324088693972442 23.98656237556314 986.6614900010261 0.029505195979564698
25.3228795163104 23.984218504045366 986.6960037277548 0.06196556632927845
25.32268306472017 23.983656158361384 986.6444342075458 0.033658500844794666
25.322561470376776 23.982731052577943 986.7104931058798 0.041295811760982806
25.32371972256381 23.978537060846943 986.7487169862509 0.02804127200676225
25.323512501694925 23.978959144788604 986.7632598709002 0.028994878277384395
25.327559359333595 23.975982727917923 986.6875713466334 0.028338287490999838
25.327023654340895 23.976185330728583 986.636472056086 0.0399588480752709
25.326594435544337 23.976284627438112 986.7225955129511 0.03254103833647843
25.32998441143836 23.97581422571855 986.646830970421 0.0310709858543099
25.329477940590813 23.97574895724224 986.7030991722631 0.03347576502669142
25.328547698603103 23.975702714652755 986.6606231783064 0.028666437132326604
25.333790793016345 23.97752091715685 986.7339849468839 0.03560688532474839
25.335819013606915 23.981138619090565 986.7572276620714 0.028865421166219308
25.33594226545222 23.981554025798008 986.6805122481347 0.03602791571411057
25.335282034656 23.979544756659585 986.7148924900636 0.036111055280135494
25.334923681618264 23.98591021558576 986.6685554753768 0.029182465000970024
25.334978047940496 23.985771510477043 986.7258196000528 0.035234109960202396
25.335469213036404 23.984787137033553 986.656280126261 0.032985178645282526
25.335410099348213 23.984916830354802 986.640133014818 0.04030611462391221
25.33328089168161 23.987626423213023 986.7479202217532 0.03761504248873794
25.333295622821804 23.98763320966382 986.7069131535145 0.034691627362289264
25.33095395137358 23.988787765756392 986.6918710513954 0.029573964852614987
25.329554990399977 23.98902364384134 986.7635406449778 0.030044617657939515
25.32611051129433 23.988273504787934 986.608422550672 0.034180802901515206
25.32267376228853 23.9811979989146 986.6234535054944 0.02371168405603376
25.326528887724347 23.976352072905236 986.607304867996 0.03229024345491536
25.334147064092964 23.977973737158713 986.6255006106512 0.028170175238347934
25.334120609247417 23.98693412099631 986.6186736826005 0.029816670154412753
25.33190141069206 23.98850322119017 986.6309742919798 0.034956909694943354
25.33347578131564 23.977217067401256 986.5964295367877 0.04512220771078272
25.327914757525882 23.98896715182029 986.596316711167 0.04797459964267877
25.335913185933734 23.971953161190505 987.0359920073143 0.18847821808663048
25.32459908278632 23.987127776167995 986.5845763489979 0.057949992251563935
25.330061763426016 23.975814216441563 986.5857789026622 0.05466668435898959
25.3357983178542 23.9840065491274 986.5770706671207 0.038515644767740144
25.28701218866857 23.96756012342736 986.6964223826049 0.16644190499325556
25.274097131523536 24.011088546736687 986.689457054645 0.20160251408734503
25.286916259627024 24.011088546736683 986.6945572542423 0.1807755073961638
25.26993187504823 24.011088546736687 986.7030243065525 0.16405638272626666
25.27818608856792 23.994749045685936 986.6808309242723 0.11461603219692935
25.278355510873215 23.979368687926197 986.7070645210742 0.08569932660948092
25.283355446762474 23.995326281568104 986.7070645210742 0.1079498292994438
25.271838847420764 23.99130933693551 986.7070645210742 0.09399451712237818
25.288687605347786 23.974976264811108 986.6891957772829 0.2609686027829071
25.288687605347786 23.990280520748385 986.6945583795198 0.23834914525556453
25.288687605347786 23.978725216510696 986.7012475199524 0.2025376465665795
25.28868760534779 24.008470280668977 986.7066532094104 0.14065669512524775
25.28828274101845 24.00039763861686 986.6855554972926 0.21741269890983525
25.282653864863065 24.007799194293625 986.6809195275181 0.1551081077239934
25.287108143020603 23.98693107259669 986.6834606966399 0.20938296274370297
25.26828363653675 23.98522826965534 986.6882908847062 0.08724770418512384
25.26828363653675 24.001783401105264 986.6936459149592 0.1587933090859064
25.26828363653675 23.97504237984582 986.7015328439709 0.09055441599777621
25.270167051014848 24.00165653202853 986.6830865122082 0.14562666121856235
25.30645307527163 23.864420618205354 987.2653823630035 0.1089751485581224
25.365078608466376 23.87098951156041 987.2572852344016 0.11785309166060898
25.32850362242595 23.864165994630362 987.2717930845906 0.12120075914437077
25.376691473160562 23.88060216750158 987.2340785258843 0.11035706762163437
25.375168945856117 23.890944666218576 987.2168060822823 0.10781674279927964
25.366192658181433 23.903885111681014 987.205101695648 0.1117018659729725
25.34721312526328 23.912753590404094 987.1943784256175 0.12050839453151894
25.295295175070258 23.903970132003398 987.2008991836842 0.10756932239665083
25.289696120630587 23.873625157730515 987.2539265781932 0.08882442919099867
25.357168499634625 23.90355000448809 987.1953775242109 0.13081871795356223
25.34204873626736 23.897932548829257 987.2049142903895 0.11662098974986629
25.346777748253377 23.888494251207185 987.2206880590434 0.096366520932209
25.34857928073021 23.8779369119191 987.2384014776922 0.09893743505487672
25.33964320700548 23.86946225306902 987.2528273684783 0.09992560340802638
25.324003753462286 23.87080181489177 987.2508869304786 0.10134321069809779
25.32049926155197 23.898922188757695 987.2036799035244 0.11349106856176969
25.31267229753849 23.873494836442042 987.2465851401782 0.09405321121778759
25.29467677798238 23.892041904276947 987.2157618855035 0.08454562749680182
25.299397454475706 23.882968073034622 987.2309230031185 0.08860255047641767
25.35120033599673 23.894489066045427 987.2105212698998 0.12601287203843783
25.338820835512088 23.906456551938508 987.1906478213353 0.11008062685930253
25.333533354144382 23.887823422993282 987.2220797168467 0.10676999312662697
25.36841237315779 23.875379459254294 987.2423059307073 0.11386781493058092
25.3359756406483 23.87701305092881 987.2402058416887 0.096545676197586
25.34820595117706 23.863107014368595 987.2633413366402 0.12047430616693122
25.332905548802774 23.86413458867061 987.2619187066498 0.10764391726404873
25.35199857976159 23.869724173387745 987.2521407764374 0.1102259330793379
25.31766899601689 23.906204340253865 987.1914932732442 0.11754387651703573
25.306819100422985 23.89985975568054 987.202376251787 0.11716857179290278
25.319057510822933 23.879949752915834 987.2356056931087 0.09744169594377874
25.308162517220495 23.86855940710435 987.2549726080808 0.09727437553206497
25.36293678826783 23.897877173542284 987.2195608950954 0.1112895069082595
25.343064554404588 23.90055136767503 987.2154608651679 0.11605182734640539
25.330953786185987 23.9052853311235 987.2077433517725 0.10461776915505237
25.334116764791716 23.878362272183658 987.2529442062852 0.10127276229344938
25.31205776736011 23.896972374386273 987.2220958508607 0.09561675744251594
25.311355689686394 23.884310445986795 987.2433974699271 0.08446659933798088
25.298784621606593 23.895249232249245 987.2252573343143 0.09800941281485041
25.29566780424659 23.885067714963082 987.2424369290751 0.08406151198606547
25.354424235218524 23.90642517695268 987.2053592649562 0.12217125576364407
25.323472952584346 23.897742009801355 987.2205744873239 0.10545838139192094
25.33036760816382 23.913099353373553 987.1946178770063 0.11015767280923816
25.368725814652617 23.888958543266092 987.2344398130055 0.11274463030465938
25.34016238384297 23.887752816449353 987.2370360376884 0.09134800797222832
25.361353078148404 23.879977767967436 987.2496854755577 0.11992822260534254
25.31521299589307 23.890950155157824 987.2321577351481 0.09064126444920831
25.30675598142967 23.910414829031026 987.1996016319513 0.12553476072954187
25.286848695436635 23.896608581265173 987.2232097976828 0.09834727747867802
25.316658183785147 23.87285378788041 987.2625531202995 0.10381191279361214
25.30261226075433 23.87925207302461 987.2520759802094 0.0921870878471676
25.324545716542126 23.888698805224415 987.2283367668088 0.11324468295819996
25.24114780361348 23.966598464088527 987.0708629810581 0.16508807438588866
25.25342638753398 23.967781316764263 987.0743483935928 0.177086952362083
25.25038978370369 23.972543353757985 987.0570473507228 0.21064682720479033
25.320737041379946 23.887112895761312 987.2615892143 0.10060929653537098
25.320913460761837 23.878428394647173 987.2711160253457 0.09499984780255157
25.309288352485726 23.88817128471364 987.2590503985361 0.08843408606658376
25.292241739154278 23.88823149033918 987.2534293345743 0.08753492265878987
25.328486324909637 23.894264221988994 987.254067685856 0.09491254898941355
25.309803705257583 23.89513351288427 987.2503548917556 0.0827940651999732
25.29098264604808 23.879669522694247 987.2636522810435 0.1344987431351142
25.32721776873099 23.906482053833194 987.2376324801825 0.10283002440582178
25.31399746578777 23.90590628240961 987.23607831392 0.08391341438859667
25.319486839396156 23.90076123381437 987.2443693459751 0.10014360847081334
25.31742929093111 23.912982182564278 987.2256645804898 0.10394458437236676
25.32819249966521 23.918475845434635 987.218495382913 0.1080229773205773
25.307236243408433 23.914218224542967 987.221552641055 0.1067608331074076
25.317288345057875 23.924458643090407 987.2051183938016 0.12166352281844475
25.32851679756157 23.927132573323746 987.2022855926334 0.11445685683776964
25.29829513630122 23.896801023272815 987.2448634717364 0.07808702557018438
25.27844668620924 23.899566544832393 987.2309998746281 0.0780800326839446
25.29450433204199 23.904797101196365 987.2312488964226 0.09005784572271677
25.30604373196414 23.919294155490412 987.2113625348138 0.10286817442376255
25.29498075389867 23.913080763595612 987.216972552361 0.09615519093921476
25.322561145237362 23.930838000953592 987.1933924351417 0.11865159170808741
25.328628985368656 23.935868393367944 987.184031299708 0.1112508128356419
25.310154131026678 23.928919928666975 987.1921361575762 0.13485334575383678
25.317637358619315 23.935649542411063 987.1813758362053 0.0995599382250467
25.327190161148813 23.941944682395786 987.1701277365116 0.08599984812131987
25.326656551159388 23.96460308749747 987.1146752419013 0.10958213719129603
25.320547550702855 23.973558187531722 987.0857991360224 0.1131433786149915
25.328115645131035 23.977668407047943 987.0779088794545 0.14141476562459251
25.3226669453368 23.95608967730609 987.135094795147 0.09100723206039305
25.328109494537838 23.95257503441286 987.1456357872527 0.08283380741717823
25.31702721127364 23.947664345754774 987.1525548886252 0.07966030046023753
25.309902558359088 23.952599408412706 987.1326144777892 0.08276328505938473
25.315364473431472 23.951322836214473 987.1421161546143 0.08497362922387697
25.319091506898193 23.959655089834143 987.1244880746128 0.08676575248456261
25.308666208757703 23.965803013340913 987.0910943705776 0.1047379149316184
25.311539262322476 23.97085344344966 987.0806618769425 0.12090903459206614
25.323729776328204 23.970263324020063 987.0974577803476 0.10215807924455017
25.30984908981293 23.96279724924875 987.1029947468827 0.08906886817913882
25.333280378161454 23.886182767965057 987.2630493900906 0.08928660118411402
25.346635963262234 23.887345655978557 987.2602968723868 0.09909853975952138
25.3430914534384 23.87950308048548 987.2693318934361 0.11218143452550985
25.35145665228963 23.893030915986763 987.252628180363 0.10321734448026951
25.340653763197615 23.89432758750135 987.2525178726103 0.09043946775343271
25.363569528832546 23.87818921291483 987.2664173356578 0.12693703035911078
25.35837207690475 23.884794759657506 987.2603105608728 0.09882426693030107
25.332855805759326 23.9010993121495 987.2448414983362 0.09724736515575855
25.340977430753295 23.907865023154205 987.2337050261117 0.0957907125211545
25.33543450895647 23.922426822714435 987.210123492075 0.1237040646273063
25.344213197723832 23.925955522406845 987.2014365417556 0.1158323152747829
25.36586784011123 23.892236341200142 987.248280361613 0.0987597532466163
25.345764720329743 23.900834140533657 987.2430664063692 0.0909955759526348
25.35751999772313 23.89943566362657 987.2422837501731 0.0944890428320168
25.37688871443382 23.89337954474081 987.2417290176495 0.10286832050404478
25.371241788818203 23.882166970407674 987.2592610419517 0.11758418607250838
25.365902001802183 23.90188172228015 987.2345943934617 0.10284615760352007
25.333407667234965 23.91263787701942 987.2276756637165 0.11112369946072956
25.36815505887276 23.91415251476978 987.2118035460533 0.1128182893243139
25.352051436753833 23.91827531726211 987.2134811095593 0.1146431203404906
25.34746518167966 23.913755764642648 987.2230193361029 0.10425049211494847
25.36111462421757 23.91013949125563 987.2235810298475 0.10224063250219183
25.373883014475307 23.907764821574155 987.2203861804859 0.11353605039119635
25.339649242195144 23.931021975194703 987.1920594471285 0.11162173683101961
25.33810414934662 23.936787267137408 987.1798843045817 0.09956631937134494
25.33401279007188 23.970580994668367 987.096731632382 0.11189152369571126
25.330870657814526 23.96013710853495 987.1266036182474 0.10791939210665295
25.329213649902353 23.946843241941025 987.1593740135017 0.06925964423801598
25.337483887425666 23.97811402965634 987.072757287089 0.16704130530907485
25.33964206034664 23.943659990587097 987.1633426488343 0.08337888734006138
25.339360787762324 23.948326428365384 987.152607985792 0.08335060601794725
25.34402803381264 23.95411623736165 987.1334207066875 0.11429967007187848
25.34103996053619 23.962729110184036 987.114203166881 0.1143247810079467
25.346266014264586 23.967952053559266 987.090280489306 0.12693890975001573
25.345804201977664 23.964465149682685 987.1021016642111 0.1296772630838027
25.29486542129954 23.918223972113946 987.2017912187366 0.11811304784422777
25.303607345828425 23.919368742962412 987.190762338083 0.13120152868818255
25.30904638521845 23.927720171366705 987.180220500002 0.12443518129771168
25.30801400736133 23.95773648851273 987.1149714287733 0.07802612176209683
25.31075956925992 23.93735385757017 987.1587251195065 0.08432251434359463
25.31198847661877 23.9412992899859 987.138348431318 0.08095029288647976
25.30928746799885 23.960251653072156 987.0773077938784 0.1374929937660904
25.310957731568912 23.952054234117057 987.1041584170594 0.08898221798674685
25.318259575704644 23.947540776287916 987.0962236672425 0.09863138544623429
25.321666082701547 23.941291053643514 987.1155957632035 0.10824391992010514
25.324769224501885 23.934850503151267 987.1357888081985 0.0906791214595937
25.316960694899883 23.95140315857392 987.0822352519725 0.1214324861175526
25.326708322370376 23.94759484774356 987.0860369658855 0.14096951940468247
25.327141483999334 23.943667941794097 987.1020961436195 0.09847423921511295
25.314394787790725 23.942679911292004 987.1252700768175 0.086430093720655
25.31677941953176 23.933601757604485 987.1508265900912 0.08885472837736098
25.320319789567964 23.92836812730893 987.1614560927815 0.08668245011964412
25.362731880078456 23.913900478349 987.1997901783401 0.1265699163432261
25.350412310094686 23.92968498763119 987.1829085798299 0.0972569747205228
25.348014829288047 23.93549592717874 987.1717956844179 0.09885392223305589
25.349743896191487 23.956021271763547 987.1131949193782 0.13414805623466003
25.34889066593962 23.95010734078064 987.1247402483768 0.10814885736875544
25.3503770175234 23.96412258402722 987.0799765785321 0.1594202423929754
25.346577474724143 23.93958521032603 987.146689320052 0.0861552325263712
25.34763770891106 23.944071621496292 987.1353653901263 0.10140453154561184
25.34621542024921 23.951816468929977 987.0986557745323 0.12854635160655895
25.341748848151358 23.94540014535564 987.1088026722357 0.11835151351736098
25.334859677922214 23.946288604993285 987.0939359453153 0.11862610694258614
25.341156639248148 23.94135997957126 987.1230955586956 0.10744282991799485
25.333211611706265 23.936345977712268 987.1303429736924 0.09074651061464514
25.336361991656755 23.933996742151848 987.1417258408491 0.09155391170426465
25.346540590645425 23.95501575468277 987.0857625188476 0.15354678538421138
25.3326412929189 23.95035973962272 987.0740596485174 0.1537948204949748
25.34412751780496 23.93384268923235 987.1570316655606 0.0994108098993614
25.33826366917794 23.92689064435337 987.1672591867646 0.10476011037173776
25.333279683361404 23.929226359250656 987.1544773292792 0.08259025313835162
25.314666287836282 23.91853945118567 987.1824297039173 0.12608410248404367
25.319333742802048 23.925148788729576 987.1720253378787 0.0939810840750969
25.286572653369475 23.909772548844835 987.2099830808654 0.11952451757392074
25.28078714119541 23.90638010072757 987.2198429235758 0.08922258984880185
25.278747620378073 23.89012735072254 987.2260881846349 0.10155838500746138
25.27823668032896 23.889657879635465 987.2389711028018 0.08864419399501713
25.281398790413164 23.88401320366996 987.2488522099748 0.08604517224723768
25.298274280543414 23.871052896621663 987.2651006654646 0.1179156085719456
25.31375101323398 23.87239262105616 987.275660591378 0.09370855110262535
25.33142628645364 23.9185089832694 987.1810335498426 0.11324565526353335
25.347825779726307 23.918030565493765 987.1850085420006 0.125940935903242
25.38053226673352 23.89778866996476 987.2319938949157 0.11103945798012416
25.373994814392677 23.90089053108449 987.2116817296135 0.1241225473257889
25.377060884977205 23.882896553514566 987.246011670387 0.11547212711466524
25.33969122681398 23.872106700520206 987.276774352447 0.12812588452917661
25.35267605343435 23.872855486573716 987.2718660302256 0.12712861721328184
25.360012191911522 23.887964397772954 987.2283338882949 0.09616995110936735
25.28577547661274 23.882776887641253 987.2372989773016 0.08766618046457218
25.34407288210612 23.968841647236225 987.0694288220668 0.18765117583915672
25.317438279188018 23.973762687984784 987.0705697166343 0.14281501264038685
25.322254429262323 23.97128665203163 987.0603353131592 0.1851156861300392
25.32638429009187 23.959181926730544 987.0475612358575 0.2100593411788178
25.33356840801743 23.956753435143018 987.0601895135896 0.18634667385982542
25.33673163354483 23.96993024431515 987.0600076866509 0.2105473105104099
25.332065154102974 23.96849735254528 987.0480897748887 0.23946604306434674
25.32390553816327 23.961337623943948 987.0716403607214 0.17070259770595356
25.337681337057745 23.961005289986886 987.071545148289 0.18492786950753873
25.273543415698246 23.96756008528039 987.2727885785748 0.09170568011763817
25.27410813259412 24.011088546736687 987.2765227410387 0.19552517411099732
25.26852868295293 24.011088546736687 987.2674784323882 0.18105613404684068
25.271906582950134 23.990809751085415 987.265394400835 0.10826098094208858
25.282211247370302 23.99635779108192 987.265394400835 0.11928232208688408
25.28753737238752 24.0073373427605 987.2653944008348 0.142486351592408
25.2794207276006 23.971191091080065 987.2916281044484 0.10511205335492525
25.288687605347786 23.974403282640036 987.2834272499721 0.08820620840586967
25.288687605347786 24.008750710212276 987.2795578166381 0.18678833123631808
25.28868760534779 23.985799783883515 987.2690782774888 0.09385379685165988
25.287911912068893 23.986711787621434 987.2877534239476 0.09048229204811593
25.286142162848773 23.997453584063308 987.2899801734436 0.1298522967844243
25.283113333321488 24.010076856837593 987.2914676426859 0.16242020354988704
25.26828363653675 23.970216970686593 987.2845812179437 0.09690305729425415
25.26828363653675 23.988962832449392 987.2798661861632 0.10824173858927517
25.268283636536754 24.000351294475486 987.2718851305619 0.15559032864708444
25.26828363653675 23.98069073672228 987.2734802664631 0.08669348064637729
25.27297163416365 23.98416187970362 987.291212808987 0.09532039898781984
25.2717218328331 23.997320603745 987.2906263056309 0.1161043025199768
25.326765309513494 23.898132753244283 987.19318648037 0.12434620512527934
25.328767746473066 23.907329840517754 987.1795731570456 0.11145112335031679
25.27747628151988 23.957914349980946 987.2241849805769 0.0895497979170492
25.276679846868756 23.957995209614953 986.837155964936 0.080225162881963
25.27698351296703 23.95796437930197 987.2411578865998 0.08436194635693917
25.278366806902156 23.95782393759572 986.9561842305907 0.08839151442990803
25.27847770917219 23.95781267801911 986.665990216895 0.18156423355904208
25.27778170825142 23.957883340916112 986.7003961170303 0.10384604333589054
25.278343211102158 23.957826333206892 987.0821909529884 0.10463690486910206
25.278334839416683 23.957827183159147 986.7119200418128 0.10827145866065568
25.275752145315195 23.95822756375606 987.3050980119119 0.15772419462844117
25.274683944917406 23.95855510882972 986.9903629318881 0.08112622031590264
25.276071604180792 23.958129607251006 987.2526802725915 0.08034368776683284
25.275211592971612 23.95839331473084 987.282783895482 0.10442583129147592
25.275185388587598 23.958401349849446 986.7234147849168 0.087908896982409
25.27612763045888 23.958112427767247 987.0175599779698 0.13708715605124785
25.275675728177358 23.95825099574232 987.0574943785591 0.18069850356134326
25.276263917178053 23.958070637815137 986.7673021110954 0.09010407613462024
25.275719825384467 23.958237474100706 986.9730585178886 0.08771391594052429
25.27288986139432 23.95946595323269 987.0453212193382 0.2137929498848566
25.272910012759823 23.95945510393922 987.093083722747 0.06122507879402737
25.27411752012099 23.95880499406287 987.2666344547686 0.09619401717049285
25.273937680145334 23.958901818105602 987.1444346224213 0.08791071029001242
25.27329362123442 23.959248572976335 986.75536813885 0.08164804350859986
25.27389980563609 23.958922209362264 986.7799083770955 0.0873425204627925
25.274359917550044 23.958674489713424 986.925430755852 0.08499643937091392
25.2733722085468 23.959206262353998 986.6900247844485 0.09853732992982007
25.271073591782415 23.960889093231454 987.1591069033587 0.0903763334261014
25.271182168748656 23.960799439089673 987.1885885127423 0.07439487579579249
25.272570078294976 23.959653414812596 986.677087747215 0.12549824998173606
25.271628151013395 23.960431182740482 986.8017317716105 0.07263272857178642
25.27213806210284 23.960010139100284 986.9116423548955 0.07740754385904441
25.272334001570698 23.959848348018433 986.8505808418863 0.08805613891071151
25.27059541214785 23.96145661170128 987.1340962026745 0.09073902405089376
25.26918629589868 23.96353440518163 987.2317144587369 0.09039098167537621
25.26874823542043 23.964359921492793 986.8662704257315 0.08054402712689104
25.26903604849484 23.963817543443895 986.9396225432884 0.08174067842255597
25.269507524135058 23.96292905692059 986.8977751318585 0.08001619409257486
25.26934448079317 23.963236308875153 986.9988142252341 0.07978594575985944
25.268881501821085 23.96410878359533 986.7165168628032 0.08008724766006922
25.26834515979849 23.965702349394373 987.1183525750142 0.07541342443830476
25.26852912270566 23.96508927768396 987.1694186733422 0.08187424454313832
25.26855763427584 23.964994260501605 987.3011451625696 0.11961351615000515
25.2682468989985 23.966029811694494 987.2041014259692 0.08359796159729088
25.268175308100474 23.966268394324977 986.8171001250137 0.06659205382973277
25.26854980809439 23.965020341903113 986.8870311482987 0.0869017550445617
25.2686855011096 23.96456813362807 986.7653273457548 0.07977710259199282
25.268546083919883 23.965032753024857 987.0821826138642 0.13198472255447002
25.2680090385289 23.967848003936844 986.8421171421528 0.09189386489002294
25.26812526763121 23.96663032311605 987.0543917566918 0.18941855952119246
25.268113415063127 23.96675449722173 987.0133129207026 0.15380487523419065
25.268129068073353 23.966590507567123 987.2184238496122 0.08728821295954613
25.26806972636558 23.969526772867624 986.9790869929355 0.08854635996516783
25.26799048563723 23.968746284504334 986.7264223125674 0.06901766039711463
25.26797854388183 23.968628663158405 986.7396624169264 0.06973493903401871
25.267961888908474 23.968464618567076 986.9575698654171 0.07917484894762694
25.268084200735863 23.96966933942148 986.6894330497139 0.0931844831611603
25.268331087967077 23.97100672527006 987.1442627981726 0.09740916578721737
25.268223976241224 23.9706574095321 987.1039494996942 0.08576518693625057
25.268324341922607 23.970984724882307 986.7878403421747 0.0733614548843504
25.268360573651066 23.971102884802352 986.8741071536367 0.08459408426796175
25.268210301535916 23.97061281320303 986.7763146002532 0.07760714077969329
25.269528179795252 23.973849113426542 986.947575233157 0.08204755464536925
25.269042380502952 23.972946785267936 987.254632830921 0.07562793243951313
25.269672154941993 23.974116534213483 987.2255916616791 0.08145649816023391
25.26894351681311 23.97276315492385 987.2393118614659 0.08022284201315391
25.269728654925814 23.974221477812964 986.9889311840328 0.08636059989413612
25.269380664732747 23.97357511756688 987.0364556159846 0.21020983921267652
25.269650916009837 23.974077084821836 986.6780534441448 0.09841834500737714
25.268796176961228 23.97248948450204 987.159809529416 0.08175773946188361
25.27066703640193 23.97537392600985 986.9122816918554 0.08523317025515931
25.270738967014662 23.975461037901454 987.0751495327878 0.1697592571955234
25.270171801912376 23.97477417005711 987.1972156247182 0.08913608689118217
25.270527638788995 23.97520510790465 986.8621647233139 0.09027271280765606
25.27221591603428 23.976797291207426 986.8850485336031 0.08580306954600413
25.271177646086844 23.975950417385235 987.3050397363482 0.11594751498023477
25.271305392175563 23.976054614582395 987.1838532410628 0.09089174794675363
25.271617380199537 23.97630909030039 986.8288786979747 0.08052547440146372
25.2737090349965 23.977720778617023 987.2637657042499 0.08324232783860498
25.27434213096609 23.978056731183273 987.003257197231 0.08208696644761733
25.272885048449815 23.97728352990875 986.8484873452389 0.09316927535755043
25.272676955268913 23.977173105199853 986.8996566281925 0.08629377951891283
25.273139306767135 23.97741845216114 986.7214497626431 0.07636080613427614
25.276375245809238 23.97870436167201 986.9350757307509 0.08365330081876762
25.2755070393072 23.97844384085031 987.0223286908954 0.1624622857551748
25.276473029822924 23.978733703506624 986.8087691468495 0.07415815968360209
25.275418389991845 23.9784172400446 986.7364980007596 0.06858543792061923
25.27455708818691 23.978158791100228 987.2139858116022 0.09959140761747212
25.27462667504968 23.978179671877587 987.0925676480073 0.08897040827706816
25.27456077866536 23.978159898494006 986.9702274666948 0.09049602005432786
25.278384855161704 23.978919271911437 986.9224116437556 0.07289907733535354
25.278070878176187 23.978889302457397 987.1062254442879 0.09057620047541831
25.27721928432144 23.97880801687255 987.1189643147826 0.08377129217394466
25.277676690026496 23.978851676758115 986.7954612986078 0.07952210103999144
25.276813404665653 23.97876927520595 987.1508150070981 0.09645185720872802
25.277077229877687 23.978794457617184 986.749703560864 0.07695148030583521
25.278066096295657 23.97888884602155 986.6850211203766 0.09531801748169766
25.277217652663417 23.978807861128963 986.760776272251 0.08464401440469815
25.27910564450446 23.978878457995542 987.2386909474637 0.07945654041690413
25.280271099851714 23.978760132791205 987.2271053011723 0.07756395673162253
25.27913681198438 23.97887529365429 987.276530760524 0.09055995374608716
25.278739926015596 23.978915588302613 986.8389670660155 0.10043769232862872
25.278582068906196 23.97893161506397 986.9834544591583 0.07941377356357332
25.279935740104413 23.97879418086582 986.7838791406485 0.08210228720425478
25.28219033502817 23.978240935165132 987.130461645663 0.0738535170594321
25.282324529338734 23.978199786486176 986.9950021374029 0.07926441949491102
25.281378322333147 23.978489926717426 987.1719765813235 0.07890240180433093
25.28062710500992 23.97872027627793 987.187702239938 0.06871799697942708
25.282489598659293 23.978149170447026 986.662571701123 0.1444172962704509
25.28436882773633 23.977160341318154 986.77372062319 0.08537561236374795
25.283800283529246 23.97746643465788 987.0414932244415 0.1884143445834696
25.28373242943547 23.977502966005694 986.829940856152 0.09494274442011558
25.282673371961728 23.978073142317516 986.8556073589752 0.09135031460838537
25.282760886612934 23.978026026101176 986.7267885985941 0.07291641575826645
25.28314042021074 23.977821692462655 986.8782458244084 0.07788866708852488
25.28368600184084 23.977527961735703 986.8915179875153 0.085466116379757
25.28265399675272 23.978083573559907 987.0796503539672 0.1105105021533388
25.28473511231586 23.976870148394195 987.3096749148293 0.12544415597250339
25.285971296911814 23.975849399015768 987.2189942552156 0.08464907671495554
25.28491356654942 23.976722794149055 986.9726095254001 0.08564150114722163
25.284964208055847 23.976680978156224 986.9573497105591 0.07664046980206257
25.287276795229758 23.974263539725918 986.943242603658 0.07862892261591028
25.287104623323966 23.97447462357802 986.8667082296563 0.06979830623052993
25.28712620946166 23.97444815883584 987.2055723095767 0.08916289839454655
25.286076043246812 23.975735669297897 987.019179020608 0.13377188927771835
25.28657502459876 23.975123914985183 986.7565759886679 0.07295406843855075
25.288224245726123 23.972504328205073 987.1642611085656 0.07838444644737273
25.288020499150022 23.972888284576698 987.0981329287006 0.08336927985570294
25.287560247485143 23.973755619688124 987.2598453358833 0.0849166978713177
25.28766998058311 23.973548829846795 987.1124734767693 0.06959842286869977
25.287483768369512 23.97389974306091 986.8194052556398 0.08345216342743984
25.288671174067396 23.97110596861247 987.246757054291 0.07649170357608187
25.288769367465243 23.9707787262155 986.9016743293829 0.08995461645874459
25.288863095757414 23.97046636436972 986.8391730136445 0.08264465139541369
25.28869466184766 23.971027692499387 987.1905436131703 0.07127538192337769
25.28878183980715 23.97073716049773 986.7362874667915 0.102677236361116
25.288418334317658 23.97194859029142 986.79974387691 0.07034407527988286
25.288497173956628 23.971685846838188 986.6788568046244 0.20245580835278573
25.288984509331833 23.969330858197257 987.1281270981561 0.06368762684507216
25.288976467116406 23.969415109250203 987.1472768859861 0.06586010038909001
25.289030135294972 23.968852876045165 986.8889065324912 0.08527743605509533
25.28904852939283 23.968660177636814 987.0093829471683 0.09754216208821577
25.289057167262296 23.968569686452508 986.7210383167439 0.10552359081141365
25.288912559833804 23.970084608332996 986.9931910974558 0.0616720251689263
25.288950387565762 23.969688321230535 986.9323365390294 0.08248029831962211
25.28889299092928 23.966510167661827 987.2702683679331 0.09393572850700624
25.288950232047497 23.967073970018706 987.0567867027269 0.16383177497487802
25.288967637583816 23.967245407661906 986.8500898685315 0.0714839366203831
25.289005602938012 23.967619351373013 987.0396814352916 0.19441268953267776
25.289045089040282 23.96800827385076 987.0829856937178 0.11240012139684066
25.28828060935655 23.964360311153847 987.2337239437044 0.09920179462122503
25.288511754775023 23.965114124391746 986.966100451418 0.08572029623417553
25.28851993411434 23.965140798916785 986.9535825963226 0.08565370121007045
25.288270533496068 23.964327451679207 986.874251043454 0.07365156161284178
25.288831983763032 23.966158457660008 986.9129022106747 0.09054228705449989
25.288648524694025 23.965560159516166 986.9783639169489 0.08672539011757331
25.28886567806225 23.966268341770885 986.7689156059627 0.0896943500831247
25.28743970231334 23.962773456164577 987.3008290503129 0.13392044273401882
25.28768292002031 23.963225209459395 987.2228385652888 0.09060562980915796
25.286392663355187 23.96140308171657 987.2584392144737 0.0846469829331871
25.286963418404007 23.96209429700751 987.2843953373273 0.09793772366687717
25.286385647412953 23.961394585030362 987.1815746293025 0.08579675399696408
25.286301047290586 23.961292129698048 986.8321729705235 0.08527909525380195
25.287061931287624 23.962213601447566 987.1361310496268 0.06508205317871575
25.286571871721126 23.96162011275827 986.7860091258239 0.0728359663992288
25.286557291170794 23.96160245492176 986.8963039614969 0.08789424259332466
25.28638948014056 23.961399226671176 986.6725849931424 0.14503647441453504
25.284398326098874 23.959606523789905 987.2039843651443 0.08971070380754968
25.284648694194246 23.959810738384938 986.8635510453275 0.08325657662836902
25.284907988381338 23.960022233612925 986.9229294562144 0.07973230351168617
25.284534587264893 23.9597176662212 987.1932461718759 0.0781771175909181
25.285899452860626 23.96083092897335 987.0910639092907 0.08582911076547069
25.28554003495504 23.960537767091335 986.7582323290284 0.08140278114733752
25.285885571862686 23.96081960683437 987.1154870002387 0.06664837132014999
25.282616363124063 23.958649612119345 987.1545576560353 0.05916121775179339
25.283314688341683 23.959020180924433 986.7988236750812 0.07178365803625858
25.283332303571626 23.95902952850998 986.8471719171432 0.10574916071465981
25.28404831247459 23.95940948122672 986.9341127098027 0.08165732829674816
25.28363914521438 23.95919235513866 987.0063588947138 0.08859108356279286
25.281612450736773 23.958328408111512 987.1267760659929 0.06234613293183321
25.281607393648173 23.95832689066148 987.1667273068783 0.06383599637412898
25.28197924850528 23.958438470902614 986.7355302763608 0.08039680501553141
25.282299014046185 23.958534421017234 987.214156968944 0.09346111706244185
25.282186947192027 23.95850079379314 986.9085803790442 0.08400803981672272
25.27859033471094 23.957821869443094 986.943381495707 0.08057608343340232
25.28008235224529 23.957964289706595 987.2922874753812 0.11871286676271736
25.27973326263377 23.957930967420957 987.1047217591338 0.08113675910693445
25.279016962752543 23.957862593145535 986.8745069656841 0.07919800079820245
25.278610491820796 23.957823793536367 986.8126396153116 0.07200491481022848
25.280473300774485 23.958001607627637 986.8237409900622 0.08595069046777438
25.272696349951758 23.9644859264371 987.3141397011279 0.2075798497408488
25.28296005463092 23.962418871384987 987.314139701128 0.1904043641824275
25.271319712342198 23.971165493216702 986.6594802391528 0.13223962373074916
25.286273479276282 23.967268571637717 986.6594802391528 0.1994626602891985
