x y z curv
0.06309395471573276 0.04480843304202353 3.3043872117996216 0.03548141265501263
0.1719246062942793 0.0428331600461429 3.3043872117996216 0.03043514433051288
0.07167109803498772 0.03626402759932134 3.304387211799622 0.03281425369916048
0.13377588551787037 0.04142429453663727 3.3043872117996216 0.032491979769465384
0.10348404344517112 0.0332940455606937 3.3043872117996216 0.03441591606144284
0.1077375641788205 0.04690566343242657 3.3043872117996216 0.03141246546007734
0.11611572420085227 0.03764226202055576 3.3043872117996216 0.03289292902462258
0.06283173412340617 0.028265888711509285 3.3043872117996216 0.03618213197552784
0.04322568135896159 0.0465777445477633 3.3043872117996216 0.041705376954557866
0.18904044893682106 0.04531711170781779 3.3043872117996216 0.030629671047977525
0.08974527417911177 0.037979581569308446 3.3043872117996216 0.032231386788713394
0.1434998329136006 0.05834627859483344 3.3043872117996216 0.03131660230358804
0.24421696881993837 0.06822977499378563 3.3043872117996216 0.04469707230596929
0.21585375467068074 0.05986069578453033 3.3043872117996216 0.033826051443553745
0.18021238710869752 0.060132216030986896 3.3043872117996216 0.03151089382384135
0.09538830777901897 0.052613363017121446 3.3043872117996216 0.031224128084651793
0.11651380161645344 0.053737890746926684 3.3043872117996216 0.03142558536171245
0.19866778641916225 0.05501579375640568 3.3043872117996216 0.031327220662073545
0.21969238008677144 0.049660506953262844 3.3043872117996216 0.03623663757598588
0.15487852397239724 0.05329294363634536 3.3043872117996216 0.03186056044487397
0.23182451104720686 0.06059321248565459 3.3043872117996216 0.034978635045663814
0.1274911731861025 0.0556323009147473 3.3043872117996216 0.031103551656954106
0.10254241104489786 0.06496136843842792 3.3043872117996216 0.030317724818933158
0.09141984485792101 0.06982435645770324 3.3043872117996216 0.027704222158158816
0.050528681034137254 0.06457416410041071 3.3043872117996216 0.033042837610437026
0.07102343822041265 0.06426604636404926 3.3043872117996216 0.0296987626033152
0.08534253802834477 0.06034384365089551 3.3043872117996216 0.029852330229352603
0.15872324525079062 0.06627855612656366 3.3043872117996216 0.03159371109136855
0.03742155961982689 0.06335675249388258 3.3043872117996216 0.03675979553002518
0.03361609733416821 0.053237370782384656 3.304387211799621 0.04437053664164828
0.12388638908264289 0.06840823382902939 3.3043872117996216 0.03120967101929911
0.1915427298478158 0.06499049727098785 3.3043872117996216 0.03297728849660096
0.17423766444589808 0.07195924769445718 3.3043872117996216 0.0339342232090918
0.18034788979729469 0.08908404236846713 3.3043872117996216 0.03162199158136034
0.16213976017240145 0.07982696969835298 3.3043872117996216 0.03150420077649739
0.19755300980604446 0.07976387970113766 3.3043872117996216 0.028689889468444342
0.2338089712705599 0.07336800197312603 3.3043872117996216 0.03764566343314837
0.22618704837917014 0.08657298298559322 3.3043872117996216 0.031765240617237914
0.24753490515885657 0.09323359530124962 3.304387211799621 0.03472226937812106
0.23722926613316875 0.08585669321256663 3.3043872117996216 0.035793425707864465
0.11465142856371907 0.07907414352326977 3.3043872117996216 0.03231736767447244
0.1501427898033882 0.07867709249409577 3.3043872117996216 0.03437508964129256
0.21837096483261825 0.07240378301278833 3.3043872117996216 0.03134651605181672
0.1381059039830238 0.0827995352353105 3.3043872117996216 0.04292524044813695
0.21137838612013 0.09300899040118615 3.3043872117996216 0.030191701754146653
0.16567825282694087 0.09302391501992052 3.3043872117996216 0.03314015359966346
0.08156045872205153 0.08866368444735846 3.3043872117996216 0.03100121311255196
0.1417847834680933 0.09700129296892544 3.3043872117996216 0.060062062472973826
0.04598141490550906 0.09099603488572472 3.3043872117996216 0.030712609244034832
0.021250907962613655 0.08007110216820267 3.3043872117996216 0.04457657770439914
0.034546326048076684 0.0788266802444495 3.3043872117996216 0.038435440097571875
0.10069061340108035 0.08872856149315383 3.3043872117996216 0.032658038973290074
0.0738570060672307 0.0961467174004949 3.304387211799622 0.03012168793788624
0.1285727182396289 0.09075335528664813 3.3043872117996216 0.04743027340962766
0.04683070497892158 0.07836783362342781 3.3043872117996216 0.03312112233022649
0.06627244159661724 0.08695397530318305 3.3043872117996216 0.03035948537892174
0.014371358804648626 0.0926822077890223 3.3043872117996216 0.04730584504827241
0.2381306802338252 0.09988983871822195 3.3043872117996216 0.03242455543729739
0.14055835723296084 0.11025093446946675 3.304387211799621 0.09774895986864256
0.16455708318092152 0.10871503474958227 3.3043872117996216 0.05232209381782151
0.12288448464520554 0.10011374761191807 3.3043872117996216 0.07470508523757352
0.18714204813155874 0.1153433945864164 3.3043872117996216 0.03278784257710368
0.21704897692976888 0.10572455108862011 3.3043872117996216 0.029693149345742614
0.1932528327066852 0.09894134162732694 3.3043872117996216 0.030907980569867072
0.1783713797908313 0.10742402168547907 3.3043872117996216 0.034441662528061294
0.1994576533650958 0.11386177163302062 3.3043872117996216 0.03132760778628694
0.2330700979720841 0.1146093187002119 3.3043872117996216 0.03420716122265267
0.11161752594053395 0.09946141985581274 3.3043872117996216 0.06351314626630881
0.09080511020596577 0.10539643803572667 3.304387211799621 0.037573335097846314
0.2478787187010732 0.11434285813600743 3.3043872117996216 0.0399477844277508
0.20485926965014972 0.1042455091152358 3.3043872117996216 0.031209940776173818
0.15179165811710105 0.10692003236245154 3.3043872117996216 0.06666836251226087
0.04331313883148963 0.1093620641530941 3.3043872117996216 0.032023575588199425
0.035783555857259605 0.12048706675486268 3.304387211799622 0.02887151578777233
0.012385294375088977 0.10486299999076805 3.3043872117996216 0.0422051253943067
0.0728396604922783 0.10888082823486417 3.3043872117996216 0.03390889077561272
0.12910797481920677 0.11565211210422796 3.3043872117996216 0.12400790252851132
0.0964927324350591 0.12225434766575152 3.304387211799621 0.04944677722785178
0.11051403730036684 0.12404545223264041 3.3043872117996216 0.08997561078764285
0.058438850161368724 0.10306511506952212 3.3043872117996216 0.03271138443696768
0.01750296023034248 0.11873230047974949 3.3043872117996216 0.03695411961373847
0.16656441633152977 0.12122842279905285 3.304387211799622 0.054656529784565186
0.05104191253579423 0.12351395863287837 3.304387211799621 0.03147107113771206
0.0617053262705222 0.1180164796828447 3.3043872117996216 0.03156584309267688
0.22794567780872788 0.12470384503420892 3.304387211799621 0.02856884010051862
0.027690032217621056 0.10131049823977856 3.3043872117996216 0.03650008388558439
0.14920994411483351 0.1194389657919979 3.3043872117996216 0.10661734438406346
0.19283897921214585 0.12606077348455072 3.3043872117996216 0.029251738383015136
0.17849290999397563 0.125517149077799 3.3043872117996216 0.04656215095575943
0.24943670708128834 0.14453170827684192 3.3043872117996216 0.03734036689946388
0.2470659132442209 0.1272120055143381 3.3043872117996216 0.03643659564487763
0.12482963135223435 0.12768256384034787 3.304387211799622 0.14528009535904085
0.19816010123961372 0.13853324942112313 3.3043872117996216 0.0296811596998403
0.13738449344588083 0.13117851328251773 3.304387211799621 0.12412772807782442
0.07151557683030242 0.13089362701263144 3.304387211799621 0.028419706337113756
0.21930309618709348 0.1343874779035516 3.3043872117996216 0.030598763924610375
0.22738978187266848 0.14530359878486565 3.304387211799621 0.03229526012768128
0.15617918526061952 0.1289209807097593 3.3043872117996216 0.07468146113492898
0.18453798018026366 0.14136396928515726 3.3043872117996216 0.030593901783086384
0.036799205453196045 0.14273522503544847 3.3043872117996216 0.030409616252861975
0.21667516867248 0.14848221219971164 3.3043872117996216 0.031407982534073564
0.10725946655191901 0.13824612333343173 3.3043872117996216 0.06399844201476691
0.11514051143385273 0.1501883446842472 3.3043872117996216 0.07054556595441168
0.24082596264643374 0.15231218892439294 3.3043872117996216 0.03552731661674508
0.14058637291129275 0.1461648054744877 3.3043872117996216 0.07927403171808602
0.09953339192890649 0.14747861745466617 3.3043872117996216 0.04246310689494251
0.08518371729524679 0.13360317091587084 3.3043872117996216 0.03289837772972642
0.12749585009143402 0.14804296621461116 3.3043872117996216 0.07809024341389663
0.14946165438185152 0.15181078097867765 3.3043872117996216 0.05561912825853248
0.05063236402124422 0.13949103625366557 3.3043872117996216 0.030301039904537433
0.15803205586315378 0.1429027430446095 3.3043872117996216 0.0611061414441218
0.013142006700594847 0.12927529114558947 3.304387211799622 0.036608810487028944
0.05635229190714047 0.15281533493336188 3.3043872117996216 0.031085124962553425
0.20023882909745228 0.15095273372666296 3.304387211799621 0.03154089735348169
0.05975061473668262 0.13267827270066646 3.3043872117996216 0.03112019526647044
0.06780508048209576 0.1421197767976423 3.304387211799621 0.030120585995646203
0.17130179919190008 0.14410602538662487 3.3043872117996216 0.04191219565237109
0.09575001726639598 0.1585179134765455 3.304387211799622 0.035107033934436926
0.22470076486764978 0.16696187403018337 3.3043872117996216 0.034492152317426125
0.15772392156442805 0.16770290100352217 3.3043872117996216 0.030733469113058923
0.12552743678894376 0.1631446744349949 3.304387211799622 0.04117902090726038
0.14110207813776185 0.16249501363110772 3.3043872117996216 0.051825895584192344
0.18730503220546313 0.1644467683237518 3.3043872117996216 0.030380839674277422
0.24805342895602459 0.16427540868160628 3.3043872117996216 0.043339860148561046
0.20850810881047396 0.15910357249144708 3.3043872117996216 0.03241889375837734
0.23599908397199654 0.164559071107538 3.3043872117996216 0.03474550266509555
0.08467762228345849 0.15558342722455593 3.3043872117996216 0.030597616189603428
0.17085170258307283 0.1615714677310482 3.3043872117996216 0.029721956695011643
0.044474349825620416 0.1548736263033475 3.304387211799622 0.03172724300307706
0.23287160498841175 0.1779627340589175 3.3043872117996216 0.037777676033827895
0.06674638712791824 0.1620257297169424 3.304387211799621 0.029195552545031145
0.032006669794518765 0.15628275708597134 3.3043872117996216 0.034949642256177
0.04102750825145003 0.1773899940611372 3.304387211799621 0.03277196533318656
0.059018029186342066 0.17505896519388572 3.304387211799622 0.028192046033068987
0.030112547090193707 0.17193674248737775 3.304387211799622 0.034534006431980756
0.20934060002944455 0.1760237594591061 3.3043872117996216 0.03123660014617355
0.08287317081012642 0.16857303456700973 3.3043872117996216 0.03056581366615245
0.10513920363028877 0.16736490338695706 3.3043872117996216 0.03169681300552578
0.13260671247536493 0.17175704086911606 3.3043872117996216 0.03200305050445503
0.19510302898707765 0.17328466676466867 3.3043872117996216 0.03131287511598447
0.09395873183935291 0.17838695835336688 3.304387211799621 0.0325452475703072
0.2154252332453827 0.19385735173788798 3.3043872117996216 0.03625526429362817
0.11832565412649367 0.18124086344630133 3.3043872117996216 0.033062035668309966
0.179132036131228 0.17975458178314846 3.3043872117996216 0.03195951132365957
0.16867151254388202 0.18679617020954353 3.3043872117996216 0.02943454678849276
0.14221765580559403 0.18299253625520362 3.3043872117996216 0.031018080651771276
0.13082183341666076 0.18643706771539054 3.3043872117996216 0.030354974906755715
0.20235066543219477 0.1877770035633542 3.3043872117996216 0.03377267948469537
0.15712244598120959 0.1890948467743468 3.3043872117996216 0.032442175022666275
0.22842745845932438 0.19036510924809177 3.3043872117996216 0.040220519448878306
0.17919263955959 0.19357183542861509 3.3043872117996216 0.029815480868543704
0.04286371692467227 0.18846243783721536 3.3043872117996216 0.03318092739148279
0.098396201601451 0.1901018247446305 3.304387211799621 0.02992900795634633
0.06797061207875665 0.20152539509166284 3.3043872117996216 0.032427456352026825
0.08782122983388414 0.19761070062801062 3.3043872117996216 0.03014929877902147
0.062078020013093496 0.18574545001241588 3.3043872117996216 0.02955900379890127
0.05422811477016744 0.19816373320539732 3.3043872117996216 0.033102225024983625
0.10940806643409978 0.1948841092186105 3.3043872117996216 0.0320865602363852
0.07712243070223766 0.19080084250166227 3.3043872117996216 0.028992137686430924
0.19188007322725958 0.19864067892523798 3.304387211799622 0.029887965609134252
0.14078277692652355 0.19734044812109838 3.3043872117996216 0.03229621056213971
0.15188469213248854 0.20361786150730748 3.3043872117996216 0.030098962679488972
0.16630090485573618 0.20845631939123344 3.3043872117996216 0.03031799779453605
0.1287003120733725 0.20506550660526351 3.3043872117996216 0.03052734848967063
0.145572042525459 0.21430185183671308 3.3043872117996216 0.029809987230375996
0.21169880856207232 0.21603657061687806 3.3043872117996216 0.04601113386458413
0.08104964422592534 0.206817957722284 3.3043872117996216 0.031496676473520016
0.19050031062384976 0.20994198812028808 3.3043872117996216 0.031578298468400184
0.22068836236675815 0.20891193126391133 3.3043872117996216 0.04341791104067789
0.11192542130290656 0.2064666312376143 3.3043872117996216 0.03076556426930976
0.06765841683991997 0.2125901891681815 3.3043872117996216 0.03608867693649357
0.162379730892112 0.2223172215571738 3.3043872117996216 0.02957952456717672
0.09764037640566536 0.22128085006733997 3.3043872117996216 0.03048866531290859
0.0749323678838762 0.22269434346964156 3.304387211799622 0.03507326035551511
0.18391006356375578 0.22168318293037131 3.3043872117996216 0.03225963220818542
0.12349874352099564 0.22109876216903265 3.3043872117996216 0.030701983972364608
0.058439239240660065 0.22097098232896917 3.304387211799621 0.04358489543949292
0.13485569598784455 0.23149479338868625 3.304387211799621 0.03453349058481612
0.18737625960104629 0.23656115477332607 3.304387211799621 0.03880246534201649
0.15622164603595015 0.23697984079021497 3.3043872117996216 0.039968189413507285
0.08570579542554327 0.22697926115966893 3.3043872117996216 0.03693657397082534
0.11433886846673923 0.23258360174523754 3.3043872117996216 0.03475856033541787
0.07698235971336358 0.2360555974561726 3.3043872117996216 0.04341567008164575
0.10700845348461377 0.2454287071463349 3.304387211799621 0.040290842609437875
0.1293944000645896 0.4828906180128701 3.1946460008621216 0.07750819491696732
0.13328378198908652 0.4882636736682652 3.1736137166897924 0.0808182563218059
0.12405628761822825 0.46666823547345687 3.1746852203862423 0.08949322803423063
0.12231322227844593 0.48123996033815364 3.1844890867747444 0.0864060543114859
0.1311460403759357 0.46286871648758615 3.185791648876023 0.09724273358293271
0.14596135845422387 0.4785886096576858 3.1829697376993398 0.09431816334716339
0.14502575181334026 0.48051750182555264 3.171370875602965 0.09318513991230143
0.14410865790974947 0.46820209908225124 3.1702682509522 0.11035252676310017
0.1424657948230878 0.4662153627405976 3.184790076903547 0.09629636488688632
0.13438504966910195 0.46251230549386757 3.1736068591934057 0.11477255659388809
0.1423902020420101 0.47267912159044845 2.3239574335368944 0.1850620860423556
0.14333265703044606 0.4749789552244439 2.3483191019025 0.20225519389900787
0.14335929609504505 0.47497304096385873 2.6142345972234393 0.07683536816997709
0.1433976661576176 0.47501177354696617 2.8205413913147193 0.05649482563976194
0.1434747111631788 0.47518316760671764 2.8846718358776804 0.07774497916289196
0.14203997111113842 0.4717160097156772 2.7205130232915833 0.06441612408258683
0.141232236179123 0.4698486106107793 2.3118829606523916 0.09472934286613861
0.14271071607563268 0.4732695821174573 3.049070388044167 0.07106446022467205
0.14204875272576617 0.47174075180366376 2.708351328025004 0.07792668673676911
0.14341450668375466 0.47520132039699203 2.265800361089378 0.06574854117142429
0.1427837951013446 0.4734852316134539 2.911399086408389 0.07797270632448844
0.1429434204360862 0.4738355533412689 3.062144545144996 0.08490811108703787
0.1432711302321054 0.47461298720108 3.153873157965769 0.08022095210668029
0.14327994372417258 0.4748186286296846 2.4654795142682246 0.06658041557220755
0.14193505044516921 0.4715215911913195 2.4873743675221145 0.0809472396040598
0.14227906192462517 0.47231969874742796 2.65097892450558 0.07483169489159945
0.1430124364309478 0.4741078954904352 2.6752708466832296 0.06843067559811135
0.14114392900209938 0.46945358698536377 3.223602564468645 0.06155441239684881
0.14126002101339372 0.4698609638963379 2.5223628166143293 0.0612999843766709
0.14101547364337338 0.46927924731904014 2.4745180926824073 0.062458989458029295
0.14128084557035545 0.46987098389351145 2.744447081563603 0.05741231932261887
0.14224917852238078 0.4721762753097061 2.9235736901273777 0.059477750968855575
0.1408836496776438 0.4688940461517206 2.843879988999583 0.071534048215176
0.1404918500209781 0.46803958027681747 2.339514221355981 0.20535741761021806
0.14171231670048184 0.47087120498558666 2.9730759425493036 0.1519214779127976
0.14050083780183434 0.46805186475186894 2.3914503932522475 0.12116333000184953
0.14064862414438115 0.46830683608226725 2.953164797482583 0.06715217107598419
0.14096219129805093 0.46901023857927704 3.24895456795899 0.0661198499787939
0.14101307211029018 0.46912645215613474 3.285495703838348 0.06748755992135352
0.14221466633924554 0.47201226710611 3.3687285248771444 0.06637925319335278
0.14261763140769235 0.4730296416080218 3.123048047454865 0.06427998669339212
0.14048649091046497 0.4680076494467402 2.4442966640178647 0.054005464980761975
0.14098475432086316 0.4691653061638513 2.6939727858993465 0.07219337234201229
0.14241824892093205 0.47252185560980975 3.2688868353599547 0.0708879095497368
0.14129237251841711 0.469826913222614 3.1411113798424743 0.07924025825828557
0.14270871277109365 0.4772331398520558 2.5341278858705514 0.06534024131188347
0.1415629455996309 0.4798608723688819 3.091382789106244 0.06572635539191478
0.14348477349288585 0.47534529920168056 2.5915699456853267 0.060257056027716735
0.14139359080823274 0.48023869099897254 3.2163683704302266 0.0650389711024025
0.14339014148673324 0.47552859212431686 2.7734480468076215 0.04581113690365498
0.1423356960165376 0.4779374592397293 3.324242034677586 0.0555988098725152
0.1428948659660443 0.4766824044591734 2.942114653352335 0.0673840528766491
0.14274454732999914 0.4771207623638374 2.6382777671552615 0.06957856878128076
0.14236880646221453 0.47792822346588926 3.0395597805600136 0.08034888464213741
0.1417545092924838 0.4793436197003561 3.31195076854296 0.07267787687688082
0.1412773245467565 0.48054548767351307 3.111252080279832 0.06091573777164372
0.14324810435918045 0.47596206000491986 2.4087957722300932 0.06436634496083747
0.14176528949411316 0.4794059699137283 2.9560936080456592 0.0832883773165047
0.14288613154413185 0.476781599237663 2.627602429832632 0.07805755633576016
0.1412685346774016 0.4805342846274014 3.2418101713737073 0.0678744869841287
0.14236651906890008 0.47787415262618005 3.2795191722845343 0.07281040025154073
0.14265927991450889 0.477284523613676 2.807768202135918 0.06309112733636352
0.14311228742570614 0.4763006378400035 2.365763312973985 0.2111076938816482
0.14048215312992074 0.48226608428209644 2.6981909358916685 0.07592650345672611
0.14337042426316846 0.4757058471700323 2.2352356147401142 0.0635854129621358
0.14206890218199575 0.47868998630595855 2.6019214218977584 0.07294389728754438
0.14130952863210244 0.48046372128675763 3.0004839180933622 0.14688003381189588
0.14152758321087827 0.4799265851707124 2.7287430893717133 0.05228964224471682
0.14140198967821255 0.4801295468744201 2.2833157490758054 0.06949816456895325
0.14129757032768497 0.48036779008915936 2.3061149890435817 0.08661987998470187
0.14241420107657704 0.47789731517793393 2.499166311515597 0.0687326964609766
0.14106823386512735 0.48091242944386836 2.4771567717038976 0.08087834096226369
0.14070832099404965 0.4817518376425237 2.6588662654100887 0.05776627434678608
0.1421568705511001 0.4784541819319875 2.3841915461203764 0.17898223572622676
0.14128586940038979 0.4804930192844021 2.866028300892464 0.06606345738273045
0.1406337203398571 0.48202449816294357 3.2546831858672483 0.05699784972314568
0.14081596642275426 0.4815741081429096 3.019300854208703 0.1526837533044204
0.1407665558418467 0.4816772740202764 2.9759594848357778 0.15475068373371859
0.14251212517213516 0.477665624808846 2.4310236518816564 0.06214064775073848
0.1414886864411715 0.47996396510904815 2.4466735018221892 0.0647386350626061
0.14106492350185032 0.48093563158995156 2.56640100511965 0.06546808001570122
0.14294352089780712 0.47665973570324477 2.214555324435174 0.1922641719505457
0.14239002987245453 0.4779073367524252 2.2491758216541813 0.07449905855415354
0.13851917924911275 0.4830848451301968 2.4186889969472247 0.06775482880948769
0.1401194964704118 0.48240227861115464 2.9304780798143977 0.06479546146806761
0.13897517786901253 0.4828491067613182 3.0775829058278346 0.06857713064132243
0.13987529535390694 0.4824761605231673 3.2289701696592843 0.07028921760540573
0.13523344634294732 0.4844187094557195 2.2083412703163896 0.2127871878812439
0.13936450073900292 0.4827076408936575 2.896238760596318 0.07421357428707069
0.13977364955813573 0.48252472715795636 3.131621880696218 0.07848050992910205
0.13902404719721523 0.48287498765095294 2.511999994947827 0.06174979703631274
0.13470211964856094 0.48462067998461006 2.3450523501264415 0.17859301363518038
0.13953179831176626 0.48266596188575867 2.580590599911616 0.06974901274475064
0.1359002325638066 0.48412877805092835 2.4904214909014613 0.07849353651410017
0.13719279423707578 0.48359242764511745 2.7177950685276198 0.0646215167242843
0.13855660853946608 0.48305896799722936 2.5539653826454716 0.05961578532891664
0.13775006569490403 0.4833598233501394 2.8327870610482733 0.07163545776964056
0.13884254203716956 0.4829708984703778 2.223888775348944 0.12017981174180366
0.13505234939567717 0.48447555162781486 2.404173162443316 0.0648668646978144
0.13478429659685875 0.4845889742826147 2.3297320197254536 0.1449158829660156
0.14044246311693218 0.4822737429630974 2.919126613018145 0.0634090125568761
0.13453914784294696 0.4846842613899536 3.029414861299582 0.07902120974492924
0.13611125363003412 0.4840330749902447 3.050035393962153 0.06719945018757086
0.13393290446610834 0.4849353088375098 2.272422043268242 0.06717479543168267
0.13665612406797376 0.4838073649035717 2.85670393514422 0.06562447023995832
0.13990698833635093 0.4824608503983931 3.296878516078266 0.06576813153596169
0.13460981686657886 0.484654999971791 3.15000704433046 0.07944926888592253
0.13801521377401585 0.4832444378130501 3.160337153226113 0.07668176805244863
0.13383472978360392 0.48497600691805687 2.642218499247093 0.06845287798795326
0.1340914664126593 0.48486967300806205 2.7550792156728825 0.05542956222756146
0.1353919636534079 0.4843309744923795 2.5930371279465576 0.05845468331795976
0.13524792264831859 0.48439065465050885 2.777720491336896 0.06359905771396539
0.13457253126429553 0.48467039621007973 2.6082828496753834 0.06901536283467348
0.13542076898639974 0.4843190651142215 2.8436207834593428 0.07408034354515755
0.1362534143772905 0.48397415744814254 2.682296735177346 0.07684021104776961
0.13371452809870962 0.48502585599787856 3.3180633779966877 0.06870567387389424
0.13930982432725564 0.4827081959333323 3.2047726403177377 0.07849377196810609
0.13663602966009436 0.4838157305912911 3.3343257638156603 0.05141413524177274
0.13362895787853804 0.4850612619253972 2.883876703920991 0.08017984872390231
0.14010927552727234 0.4823770653522696 3.3549157504469207 0.05865946539474394
0.13091986990719523 0.4842546405678293 2.908146994408945 0.06658681352003162
0.1309331408099737 0.48425907782848376 3.061989230949578 0.07498068118391157
0.12912675402534052 0.4836569513595951 3.0908116705957536 0.07343445989078776
0.13189707749022017 0.48458041154428677 3.3040501421441504 0.06413072860106372
0.13107955552923653 0.4843078879502118 3.1207875728516035 0.07648932795678559
0.13147949244912424 0.48444117275207205 2.8100089721551416 0.07626975937175942
0.13147243139553028 0.4844388179876471 2.7978204651415997 0.08617394538275137
0.1310143182285708 0.48428612793965997 2.960006374348952 0.11020224392550808
0.1330499914798401 0.4849646486270949 2.540354315748565 0.07387954381411793
0.12943593125772135 0.48376003343142826 3.350251007992517 0.06378078844613923
0.1329749353370588 0.48493962082358055 2.437775156344923 0.07108913595184009
0.13333235102601157 0.48505876083491295 2.453919062274017 0.06085812869722659
0.13223673562113852 0.4846935994440632 2.9484557201088397 0.06901947029421693
0.13105226390138397 0.4842987528736203 2.693259415353088 0.07736779204370119
0.12672559242818576 0.4824195183067744 2.4114635058007607 0.06377158422614523
0.12725830246953737 0.4827566232052716 2.7130155448219475 0.08176562215466279
0.1275416220708265 0.482790663489137 2.5036720456768617 0.0744027472165556
0.1277327753738654 0.4827625687715082 2.2324547117043663 0.08366518228105627
0.1287069573959119 0.4831956101912911 2.3169918220895935 0.09950991042399396
0.13103057853422767 0.48426918946563813 2.6221996227391267 0.06474438050646786
0.13028146080708192 0.48381296397665075 2.2435173086234763 0.06847445874163403
0.1289689047903259 0.48338288043823635 2.5200181299265876 0.06601340745310218
0.1304944760968518 0.48406816683612097 2.6705845081596737 0.06637539011147406
0.12700654188564833 0.4826632800642507 2.738435050010844 0.05973883213287066
0.1310822272405747 0.48416332495803105 2.2987662709102232 0.06982555416728668
0.12940789316729148 0.4835131438027348 2.3929757048518745 0.13768067500385162
0.12852626982201176 0.4832826739728896 2.727379066567717 0.060059951831765684
0.12529408696305336 0.47874610902845294 3.3284419976777726 0.05287754520042958
0.12494786490520401 0.47834411303369706 3.035302359983013 0.09711161804377928
0.12678076497729923 0.4821751514205702 2.8685328920445814 0.06787324914681775
0.12468339733967905 0.47785004687950605 3.000110260237083 0.1572416488810959
0.12703214546763467 0.4826521157471001 2.894568597918946 0.06088433918663855
0.12624072098756264 0.4807437876847118 3.223063841060481 0.06518956112646325
0.12458222546763625 0.47748375751410443 3.1655751283802727 0.07556659872761842
0.12614283640976706 0.48140545676870367 2.3576799161063517 0.19225622415814253
0.1251560434594102 0.4788660596947262 2.9287343329701523 0.06184677371565117
0.12578766422468604 0.4802707793184772 2.7859451944225087 0.06918679866884173
0.12634949710353385 0.48091193926522346 3.272922277105066 0.06958516878961339
0.1254046089157448 0.4794524576671118 2.8386400556912665 0.06738725026915017
0.12680430253959576 0.48198925285407523 3.1036654974003577 0.06290124442159586
0.1273513174118916 0.4829351567737965 3.2531639706382474 0.05552802777842317
0.1257336314410783 0.48037329849268867 2.5734090120380024 0.05267602496901226
0.12622511475375453 0.4806409514344489 3.295351345029343 0.07011745842245351
0.12597168969781092 0.4809349388272468 2.487092661124566 0.07339839580614214
0.12698866236849787 0.48238610724640074 3.075270044685988 0.061400583150105895
0.12547301602620514 0.47922655943741077 3.204713680191021 0.08088723313620529
0.12679355607898424 0.48194096137809284 3.1307123882784516 0.07694315206400242
0.12433052647782265 0.4769922983443976 3.1535256842206363 0.07980171711358684
0.1241529351445301 0.47650646197337254 3.2853901268574677 0.07485306226569635
0.12496936997918232 0.47862947669305367 2.753732888797863 0.05231472536217233
0.12436416281686043 0.47717515823034007 2.3318282116935083 0.1667515830580571
0.12409317796921604 0.47652810549338 2.562129774242945 0.0727013658497765
0.1261480318040323 0.48144888105219674 2.26170599985762 0.0676338127251851
0.12375246981741461 0.4757155883581476 2.955276455219308 0.0847757540720421
0.1249770914091534 0.47864256960466034 2.2042392576344425 0.2447782606385763
0.12460223090914796 0.4777486468322361 2.640910771843746 0.07238393359879033
0.1247564050690751 0.4781186589535192 2.7006584178586683 0.07281514510557113
0.124982680136819 0.4786567842623154 2.287874944465563 0.06851964199576331
0.12475116285944345 0.47810296571650057 2.3824558325476524 0.1622057669048371
0.12469726231230537 0.4779746733525792 2.4699571344810267 0.0625413716472991
0.12500390458276317 0.4787123924520921 2.770572767895646 0.055819308365293065
0.12372668801338073 0.4756506018498775 2.629213070501695 0.06220428110536577
0.1257822031244326 0.480571852980177 2.216128326954986 0.21452250079919297
0.12407226817195752 0.4764766532379403 2.4250504017393557 0.05480811805278151
0.12402069234835107 0.4763547017304015 2.5908267092076604 0.07470945261286915
0.12373090869081523 0.4756625352062961 2.814111488382756 0.07255063443030013
0.1237813490883197 0.47577900475978047 2.3678057564878516 0.2082279733204855
0.12467999636163116 0.4723752278587241 2.500387390009841 0.06780870025574903
0.12361427597103246 0.47483921861622724 2.249608252687709 0.06641728196622913
0.12389155493967961 0.4742031580394542 2.8264182381157146 0.07159439137524037
0.12509045712529238 0.4714247782760977 2.4495350516417664 0.07071899959491974
0.12410120970276742 0.4737188199957127 2.9157659824259445 0.06425358380508454
0.12354311779031357 0.4750098569541357 2.856257111452211 0.07163291662011559
0.12372362434733623 0.4745941195649011 3.0619209298991383 0.06443360498897399
0.12436621782121918 0.47309871654259744 2.224723227922832 0.10114000649935612
0.12396197188340062 0.4740371985295321 2.521738792503189 0.061392621303363114
0.12524728849193761 0.47106082075053546 2.348184566457393 0.1861080748377601
0.12444341424028878 0.47292572163996865 2.801970774502384 0.07175917671683758
0.12421403251114627 0.473452627633047 2.3980338926960716 0.09761647872946413
0.1237024839663436 0.4746392651693003 2.67666468969279 0.06002577381696226
0.1241361367613026 0.4736343883803845 2.549112057742532 0.07577084436568361
0.12412858991697527 0.4736560679850193 2.978479597561916 0.15450311765725572
0.12376288235249956 0.4744995983601241 2.6885154225318115 0.07910817568849227
0.12458087104118434 0.47282008564926137 3.215243037680226 0.065397606118521
0.1265276271045138 0.46878590799957176 3.049258929666837 0.0654682850654172
0.12539946208828048 0.47089035513772715 2.8700348701237086 0.08226635161601079
0.12477381059216512 0.4723537721289247 3.120330104098384 0.07233529060877249
0.12672077332613163 0.46865891508979085 3.355234306218763 0.07466657166408198
0.12536552058245337 0.4709687235987539 2.8824077324256336 0.09179437515678582
0.1257815949908629 0.46984203301164995 2.534846952861614 0.06567588823160596
0.12555797843982303 0.47059410492323805 2.894558518311056 0.07266832888359762
0.12740249598910994 0.4672745260247021 3.330521304726982 0.05873475392825486
0.125779602918019 0.4699114815217036 2.6120953335566357 0.07447118953712063
0.12607121024024054 0.46960850777885743 2.94278177121224 0.05928637105293998
0.12682778981455906 0.4678508316506564 2.654250949729311 0.07396380411845406
0.12683362565583994 0.4683015271844346 3.199847329175976 0.08703889731387279
0.1238189121304898 0.47445100270555346 3.3415020051115243 0.052046375373439965
0.12693565429970677 0.46801172330154267 3.0986658919512142 0.05728051555347437
0.1257841732417218 0.4704443841129107 3.251709944812201 0.05726009022356791
0.12417711785198976 0.47364562951710854 3.236526950815774 0.06803847497735457
0.1249580281601965 0.4721061162682353 3.2628506502320116 0.07340930412905261
0.12532620271177983 0.471265151736673 3.1394041574882143 0.07575898517981054
0.12443326136824352 0.47319182841607393 3.3055410182294644 0.07432951292438439
0.12483813322552552 0.47213960934147386 3.019418934776203 0.1615179036809003
0.12500561200732915 0.47209794760570084 3.365510135314251 0.06224950477298217
0.12630921697953987 0.46915004406635435 2.96349087282739 0.11654854786157623
0.12412074383889897 0.46754800018512527 3.398198457782726 0.07506340336354131
0.12363572353052073 0.4507644387308997 3.4119698830074205 0.07579188863139007
0.12603057374396948 0.4659622804113641 3.387528179836699 0.06783783175726235
0.13256004536873645 0.4511585511491715 3.3996724646899525 0.06641487865959189
0.1244610134245123 0.4398302379144007 3.417380812937064 0.06760224218548533
0.12750516353777727 0.4611675059309233 3.413205801781882 0.08736162218084018
0.1330807453941939 0.45393559938789174 3.420702162320683 0.09968920241568424
0.13158306752323984 0.47770906981134464 3.396361628906548 0.0906151656948125
0.12986999804736393 0.4819021960515442 3.3808471646297678 0.07111214661421233
0.1372320401473399 0.46464919054949827 3.38200732970605 0.0695920077356979
0.14176318764351992 0.4596283374282225 3.399823896043083 0.06753017783727648
0.14335620356085949 0.45014824975615114 3.4113197365319508 0.07133925604160332
0.14336370933225356 0.4698908292502995 3.3922412124263244 0.07415492479459851
0.14035416868284906 0.4634682722051615 3.4113417711509237 0.08334961396813909
0.14260085640689427 0.47547916975447224 3.38072049872141 0.0674721436301691
0.13616379932939018 0.4381051114368515 3.4065256000183157 0.06691842393627483
0.13814286289946676 0.48305734819768587 3.3727245254780667 0.07011094090229635
0.1382463785809072 0.4716475505236823 3.4035887434831933 0.07648945950219269
0.13971962594569687 0.43994962282627414 3.4224641681655683 0.07086083528225272
0.12783339503637162 0.32719359839270007 3.409391289930285 0.06648794644232
0.13294155682120412 0.4261059405571588 3.4072753909904105 0.06174364699049762
0.12673082191283597 0.26958771856628816 3.409847996941827 0.07187694471653669
0.13259998710272727 0.19354280304646748 3.4074168757427854 0.06740463776391946
0.12878635199772237 0.23999724405120815 3.408996556813129 0.05903540812709322
0.13305239001197747 0.3704022759219453 3.4072294817493294 0.0628626065459186
0.1260174790275675 0.1668288720859034 3.4103355600891136 0.06296418702431121
0.12487357970614592 0.15119158354268558 3.4088123910504646 0.0611392234862393
0.12376479698773643 0.13637708621322342 3.400033773037857 0.06827282139624036
0.13088910359341951 0.1435776619385185 3.3958513690462215 0.06165346173050181
0.12706856472220904 0.1335273861225286 3.3769347401074645 0.06872744573984298
0.12881221243695035 0.12509163498267842 3.398295094643535 0.09240277982316634
0.12917023844774694 0.14820055008683983 3.4201237393937136 0.08371229786993487
0.13211458169004975 0.16975740273839388 3.4263992269922063 0.07262611233230633
0.13042259547048052 0.15886361687230585 3.4235344898562072 0.07716334875907008
0.12513537659599053 0.12901461044322587 3.364937873906652 0.0833630730225736
0.12726651823349328 0.11752984159411342 3.3707427047581286 0.07316505690159092
0.14228364160228474 0.12256553389913538 3.3705992754434497 0.07803959813180004
0.14009981681266115 0.13472658170239593 3.3824476711327995 0.07213843854873077
0.1412380519973287 0.13782919702362925 3.3935678628912993 0.06596574999900612
0.14243704113110556 0.14736418081955902 3.4126969337686246 0.05860411068920744
0.14087001805004626 0.13224055818615568 3.405362742505971 0.07846666688776657
0.14018100149294466 0.16136957096143378 3.4080134193021374 0.05929145153437511
0.1347145381163496 0.13831255004488419 3.4150288263655453 0.08731795989465654
0.12506385210384335 0.2956867672998038 3.413268715044664 0.07427741527854051
0.12423037968932837 0.22537767819895344 3.415280881652788 0.07382444862591879
0.1248727035030479 0.20979974800651666 3.4137301854245012 0.07879755768035426
0.12635507366520055 0.41575172805006644 3.4101514518165037 0.07610137754955873
0.12515557060205207 0.18471872740305822 3.413047288520848 0.0592400159865657
0.1255728539819661 0.2838045893437818 3.4120398842341957 0.07405618660718212
0.12356776209756809 0.3456610585095576 3.4168805710592722 0.07492195404015857
0.12588041698091848 0.3898451464349603 3.4112973665628146 0.06507149260031309
0.12419153440458185 0.30990199506168437 3.4153746618229404 0.06802667627606995
0.12450589065100941 0.3632508871147059 3.4146157439138394 0.06365070342909541
0.14045250905932125 0.41728380074663585 3.409923895854683 0.0682751459166476
0.13779245870518664 0.3998949993742283 3.4088220519117014 0.07646249719691509
0.13929248347315487 0.2624439964034291 3.409443390978587 0.07686144524565076
0.13680045597573232 0.2879166512522736 3.4084111453297368 0.07682713224624042
0.13845243249086023 0.22133541081868058 3.4090954257285317 0.060897557322114
0.13662860881187427 0.2511597448306887 3.4083399629341393 0.07919862717818935
0.13393545588421696 0.3062566896155534 3.407224407269469 0.0727171777680776
0.1347750341265515 0.3357013597235957 3.4075721767015548 0.07080804256896633
0.13447594775308477 0.18151984181144995 3.407448289381707 0.0673091347725816
0.14122580253909076 0.2746919382918356 3.411553565716785 0.06920015070566456
0.14068205891134702 0.38964424407402926 3.4102408621044886 0.07412452268635258
0.14256579244925027 0.2103719383631633 3.41478856380367 0.07451291775168876
0.1410392664733417 0.3470860028982642 3.4111032311200407 0.08088863434447105
0.1434320940277205 0.40839105631999 3.4168799854836163 0.06874415695935385
0.14272182424998836 0.24111861627354367 3.4151652551302645 0.06736146687211302
0.14279103835596274 0.3570931130027424 3.4153323515380176 0.08840295057415755
0.14332212037331066 0.3688248281711177 3.416614487542978 0.0630016693754583
0.1242539935743178 0.23684943214620277 3.4188642753715635 0.06852558107779784
0.12588904642871493 0.27483331462776256 3.422811748173398 0.0693854168524033
0.12392052744729043 0.25749986533047253 3.4180591953013786 0.07109547409412782
0.12487506024600228 0.40368911384142114 3.420363703226759 0.0634149851856086
0.125033171265459 0.4196247741686819 3.4207454272470543 0.0707632691215239
0.12493407849078057 0.38235230701188366 3.4205061897007885 0.05825618358426322
0.1285737800512562 0.22281407983052934 3.4250036449780445 0.07444451438640452
0.12761764138523443 0.19351427783295788 3.4246076261761544 0.0687007722847594
0.13081133580773419 0.18139846407564553 3.4259304081990423 0.07139820749835762
0.1313526213368981 0.33809732495664846 3.4261546008338115 0.06886913106624033
0.1292296778884898 0.2642053460569077 3.425275308372586 0.07135466459034973
0.13096896887663534 0.25251457345340605 3.4259956975355195 0.0726875922675819
0.12689180117396878 0.20711843105208083 3.424306993662227 0.06746018514650826
0.12911618006601927 0.3497078088107296 3.4252282992166236 0.08323121357599664
0.12702318117055905 0.32802521041733107 3.4243614093559867 0.0678059970801067
0.12685145946323553 0.3003164614975129 3.424290284709312 0.061705869139931625
0.13870611291019264 0.4273098634577597 3.4248877575871193 0.07056171415212942
0.1336582263656929 0.3728264978018184 3.426978518936575 0.06104180520852308
0.13410604377957724 0.31756950522351846 3.4267930394626784 0.07188935610857224
0.13574252980237245 0.28309714463696717 3.4261152307014826 0.07538397384753018
0.13659546730318808 0.39714773246108603 3.4257619563668706 0.08005318935373026
0.13369039620548845 0.4110724659939112 3.426965194655795 0.07872012492183901
0.13488916746968393 0.3607660737287261 3.426468680995291 0.07709219229802566
0.13735065229292354 0.24180601621053155 3.4254491697037173 0.0612119521500322
0.13755517630912154 0.2017402060639567 3.425364458824356 0.07872983704349898
0.1374482505537747 0.21423361749808084 3.4254087459204636 0.07060080653064327
0.13745434410172042 0.30309447410246154 3.425406222061337 0.06629876833264488
0.13830516409391272 0.22873783788796365 3.4250538247680664 0.05632686095906768
0.14341967072302375 0.17020982618320585 3.4172381004319314 0.05924560459739021
0.14163608921977316 0.2555899262672786 3.421544160689801 0.06950628675130861
0.1432378419444855 0.19280171036938565 3.417677085516478 0.061681092349407586
0.1406745848795165 0.34451327819176003 3.423865498750216 0.0817771711903234
0.14223517198301439 0.33391069631451675 3.4200978087999285 0.07065341258174844
0.1417301804358876 0.38022152817338295 3.421316998406728 0.05935631505146892
0.1429383687967746 0.29316307283843224 3.418400096725838 0.06744469892386716
0.14243845506428243 0.2672766423522521 3.4196070270802537 0.07586543817443478
0.143303104993918 0.3155108493440308 3.4175195224205637 0.06540279989883595
0.128082750026679 0.11957957006192546 3.3839134417854506 0.06649375748046323
0.1396190453943455 0.1208473846984674 3.388398366868971 0.0886902368772047
0.13772769969069174 0.4668639146221116 2.8719170845124284 0.08951375782797823
0.1391113650771829 0.4674320233974139 3.0333007219276635 0.10498812307227189
0.1366489416627146 0.4664054949205575 2.5339256896454225 0.06165292047167465
0.13744566033495578 0.4667323142264687 2.622752320707171 0.06517967787785
0.13904240820131084 0.46734406645587245 2.2088481301371212 0.1989703753168101
0.13752180087559024 0.46675918931723825 2.571585582899249 0.06140520432813609
0.13987410029012126 0.4676834159181488 2.276714311337164 0.07349943087852384
0.14010907771718056 0.46782020384986955 2.855886106618634 0.07374906358961629
0.13701399937921666 0.4665572406129092 2.6019553342992205 0.061554176380253914
0.1400214014723246 0.4677401952023768 2.2432493629498507 0.07014856265747003
0.13415320174419165 0.4653815243114657 2.252916454054244 0.07910666032391493
0.1383918679953951 0.46709320987403813 2.3553170982692855 0.21134674617192814
0.14015119045333085 0.4678649153831163 3.2361319667396935 0.056809537631717116
0.13872848882186517 0.4672605176710335 2.792859332209621 0.08172486758517973
0.13841386032619707 0.46709259105497597 2.22581427506793 0.10221299193792256
0.14013761010743056 0.4678247872103539 2.7615978872064657 0.06019805752516306
0.13757055323882134 0.4667797311890055 2.5844580494719893 0.058832116302980915
0.1366974185194595 0.46641379170609354 2.3807043547940836 0.16606740033027664
0.13636387150424376 0.4662918482654751 2.5471903756828222 0.06973148672504514
0.1365935360542673 0.46639109159234987 2.6416926779601626 0.06668525214169291
0.1384287028151464 0.46714749604096684 2.8956664368240936 0.06885839445576213
0.13364596667749604 0.4651751062158812 2.506264150158469 0.06923977640693865
0.134221807517485 0.46541362704179734 2.4931694726596136 0.08137804454103292
0.13859887882458077 0.467226727206302 3.0942891392931755 0.06108849719472843
0.135294409749103 0.46585798075978446 3.2627549524707806 0.0611540168937454
0.13636669795234 0.46630212252419545 3.073647459729813 0.06289165316896869
0.13857549727219293 0.4672170636787458 3.3455990265558073 0.05441517043894137
0.13391590785527235 0.46528690189954724 2.295322714860418 0.0713247510789427
0.1363657652788188 0.4663017153117156 2.829109298239368 0.07476828843899176
0.13641348409520404 0.4663215214039616 3.3002716251884507 0.06106376063006733
0.13841067674785112 0.467148779823096 3.196741403441423 0.08230131941009836
0.13521707319754717 0.4658259143416138 2.8827550147979197 0.07623739477468298
0.13577622057906036 0.4660575625462911 3.36213712072146 0.06325803297525098
0.13420697823651448 0.46540753299676924 3.060650508084773 0.06130559380362016
0.1377149923870268 0.46686061370878684 3.1595117153344052 0.08721375449127619
0.1355394806481688 0.4659594938662353 3.2750597912104116 0.061545135304624465
0.13322582859353466 0.4652235844917051 2.9231449455640406 0.05868948799556751
0.1281362436415758 0.4672452528486786 2.281261901239491 0.059358816430784514
0.12833854652496982 0.4671648972041598 2.33543745306879 0.17663317182841093
0.13025274301479872 0.46640451730082 2.237196508898868 0.06684736790859326
0.13040474529176188 0.4663441402513805 2.265732626966847 0.07121142782415446
0.13325691025167646 0.46521124652684903 3.0229613711973324 0.13886334658850605
0.1318833024267309 0.465756856098536 2.7273173460623363 0.05712771388264413
0.13215126464554872 0.46565038672207193 2.40637521278917 0.07763018364088209
0.12721880278700992 0.4676096796361693 2.2114495184815413 0.16898700557420868
0.1298627016851492 0.4665594932742763 2.715214948248425 0.07121186876250307
0.1314468280203777 0.4659302396783467 2.7734082970062133 0.06053940762261554
0.13093391293153053 0.4661339571307536 2.462737205595427 0.055679869255300905
0.13088062737067366 0.46615512135778153 2.436230417648673 0.053249858400804366
0.12910606205164027 0.46686003776664603 2.556113549329575 0.05965626727948091
0.12986714803433846 0.46655771993147477 2.631724882658937 0.08488761375579831
0.13225760971327127 0.4656081773525064 2.8023338701206164 0.07428907430852615
0.13067448440098944 0.46623703412721246 2.753655443805853 0.05868894040789771
0.13100571055434607 0.46610542511569697 2.3219530573055835 0.11282531483098521
0.13153720933222118 0.46589434141642927 2.8165187427270197 0.0904868994080446
0.13151071410875712 0.4659048532814394 2.667036104684692 0.055793160874630016
0.1302353818275945 0.4664114530871085 2.699049042273168 0.0821325738776417
0.1309131378464278 0.4661422332301737 2.7398133479868716 0.05902950815823608
0.1288685083665102 0.46695439373173975 2.475385289000043 0.07808953414568283
0.12932973175679724 0.46677117875109175 2.424335969096216 0.06252562277302522
0.13078156469013674 0.4661691505008534 2.9736184612892567 0.13411069321640576
0.13038673674712614 0.46620809482047315 3.2225899010280807 0.06860892383331298
0.1294252003251336 0.46650363654244953 3.2896803069180662 0.06998776481468641
0.12714528680465587 0.46743211832897125 2.8369279871586564 0.06620782629902786
0.129852753322638 0.4664375127122265 3.0844260508515093 0.067826684540679
0.1303301537714529 0.46621946404937364 3.242718703078076 0.08128283958531624
0.12754571337718593 0.467465586476152 2.3883853380687174 0.12220908652118403
0.12853063327505532 0.46689647078926655 3.0353885696559333 0.08522175202156161
0.13142810973199157 0.46589503942702765 3.131053681456215 0.06678058729355757
0.12719037314653742 0.46743557593983287 2.787258928365514 0.06267976095476889
0.13122063388410452 0.46589607296171387 3.3140915001371973 0.07480551772692107
0.12716430576793197 0.4676218974000126 2.30999814629608 0.09285634400286219
0.1278353367777988 0.467140035042443 3.003687891337675 0.1721256157384243
0.1309783875788078 0.46605304644532536 3.1092917282767014 0.07018939418926258
0.012912798690193777 0.46515373522254333 2.190014813096713 0.24354679488356767
0.004234742779037182 0.44436415099307935 2.2097178132532607 0.13340552468425915
0.005560538810934917 0.46020490143153014 2.2006871756159097 0.23261218237929548
0.213067966470938 0.5218137673892308 2.1931619030460383 0.12168323377669725
0.20681957246879887 0.5106045051773097 2.1911286363531586 0.21122947814937212
0.2013222060009656 0.5193196600345814 2.1839563094429875 0.15934936226312355
0.2032898052246077 0.5166163179967507 2.1728711470039213 0.18340739959109015
0.22450455903039274 0.5099867267197423 2.1740107457818425 0.1354725134362486
0.22631527696390533 0.5210200610876704 2.1799255613218644 0.16272271265164429
0.22007401422754885 0.5229707552027834 2.1697673036056098 0.12749488970622358
0.044247170084913474 0.5210481847444487 2.1892054279006206 0.12820952030216842
0.05497986690302405 0.514766412783835 2.19294876839981 0.1360069831616567
0.06410924822524608 0.5099066770415697 2.18720940553552 0.1675153241477299
0.06396527520445305 0.5207810073962456 2.1874205625617953 0.158229008065357
0.06435732189904751 0.5115290946431127 2.1738377709721113 0.1825390841591104
0.05286087629292905 0.5154575621167055 2.1675745434323512 0.19580785810038806
0.06405850234225166 0.5235801269619191 2.1748278683355795 0.1610230684752281
0.0429961510037668 0.5238752250552877 2.175224312797361 0.10867682966691312
0.2585788624259956 0.44991678206210917 2.1990943130039193 0.22452523544568162
0.26165671874369406 0.4425975192500855 2.209573087415228 0.07741903276780654
0.16255721676147067 0.47167144387223675 3.023162898487635 0.1666918987862887
0.1639724446481257 0.47902756979015026 3.0334192539069247 0.12772302615956158
0.17335736751556396 0.47403150177607467 2.9945548388598224 0.23434222812392344
