x y z curv
0.16544151678681374 0.16381232056840367 2.5573313265546167 0.22051290144464972
0.16544151678681374 0.1575798016335939 2.5449894769163035 0.22236783850084105
0.1519753881464989 0.17046448202257658 2.560396687303834 0.19179233980903257
0.14788977427507408 0.17339923098824594 2.5468380424275505 0.18845379725384723
0.14281817071969907 0.16807127759923499 2.538075766589632 0.1806857281652567
0.15683509078115912 0.16886975228594783 2.5388142459543594 0.20208092860566793
0.15040144711940484 0.15968714998289202 2.5342209762286254 0.19559075572402035
0.13759907556438286 0.15257163652177141 2.5348006818873476 0.15374889537748082
0.15071277856015797 0.14564069539656974 2.5390507103337763 0.23206008345477752
0.1619135589278911 0.1455958387669894 2.539096722373979 0.18369707774666386
0.13839862992729682 0.14303604560648492 2.5425231982055463 0.16219700059299821
0.1558833255977688 0.14097566094235753 2.549448170284678 0.25369144862323395
0.13985808258786386 0.14120219889870217 2.5537309616975135 0.1697320713651421
0.16329082422890664 0.14410496501771022 2.5602414289420437 0.2646225603906861
0.1531572720522964 0.14734337020697197 2.5635536584050933 0.2730629774537182
0.13953815179258552 0.1535319512429434 2.5665416511338344 0.1510562140180331
0.16349358203581205 0.1548656709689604 2.566785369459909 0.2502305595520053
0.15256874461962366 0.15724509281278612 2.5699316263198853 0.20986254618497655
0.13464151881635192 0.16070456962837495 2.5490587566614487 0.15229571820710855
0.038276441506622016 0.16877346822208103 2.561850781048957 0.12404059958210595
0.039806029895449686 0.17253028037356222 2.545720528578715 0.16367025355442627
0.0699641689443213 0.16937125251530935 2.5619075083000413 0.1371072541999529
0.04667746211501637 0.17282564939645462 2.555783794760184 0.1948952946723181
0.06643298763776548 0.1737720263907216 2.5505068831646542 0.14489546166044837
0.0777963202387302 0.17386924194943337 2.552077560372716 0.14302622906994952
0.07025947342456675 0.1695040817516899 2.5393659729440343 0.14013639588752294
0.059644572289764955 0.16352495716956802 2.5657611062683907 0.1421796063395546
0.06896399297599429 0.15231000067562092 2.566263868307903 0.1339783669204828
0.07815728767143695 0.14114792821212802 2.547779164120958 0.15277312782223945
0.06556672092096998 0.1423959729739036 2.5438607746110873 0.1530614738859991
0.06414048447379996 0.15107733908247173 2.5354069548930322 0.13733995134031923
0.051732473966887384 0.1537401126792404 2.5346435920645405 0.17372888387558558
0.07722011801728021 0.15954860349513456 2.534212382104209 0.1300060000637744
0.05387904868299925 0.1410457968327554 2.5510231170029334 0.14446931217531458
0.08054897913071632 0.14331524241532365 2.559244218547517 0.14447632154478748
0.03801287492259811 0.15093011709138823 2.5363201510596447 0.1699993669338198
0.03800861276889708 0.14192380291889398 2.5484239711832304 0.14414352864311725
0.08529151231050491 0.15069023947115595 2.543643201375267 0.16260419056960512
0.10154388189134905 0.15212925153450116 3.026000022888183 0.17012048175083988
0.10122562183847576 0.16377272903630422 3.0249637549343933 0.1334084409289342
0.11579836167177084 0.15385814114931917 3.0216011693728375 0.12637345463897878
0.11644187648601076 0.15786070962762988 2.9336940175350192 0.10303135164358414
0.11584778580855293 0.16080705521776142 2.637484261152895 0.05786701284845521
0.11614738437779737 0.1593212198784824 2.760936051945844 0.06256169179221777
0.11610428895345948 0.15953494821705202 2.921512988924747 0.14635648977362464
0.11616284224433754 0.1592445578155321 2.7901631595230016 0.05581387555277634
0.11584982084800556 0.1607969626010204 2.596226962633925 0.062089710375687
0.11603446825857006 0.15988121841500846 2.801319983537122 0.0614833949924885
0.11645455596304208 0.15779782676706017 2.2670796379522598 0.06094675965764958
0.11650993586865278 0.15752317451805295 2.8217681980939617 0.06434470619965481
0.11652087975253722 0.15746889919402363 2.5014880870803027 0.060665035062646186
0.11620461603780577 0.15903738400042552 2.3775573363862863 0.05637662815929791
0.11648975595985397 0.1576232551750211 2.7374019179123636 0.05021489541279054
0.09884638339142793 0.15610472680628618 2.152370329478292 0.14645866845950353
0.10671399914398409 0.16619969935835172 2.1540350312664223 0.1120086187117937
0.11642219378479035 0.15680323768192733 2.156458145318809 0.09166700066074102
0.11444865518866805 0.16293302009826457 2.4402270165529374 0.055473680380401874
0.11448680413295591 0.16287595040850025 2.9504087688926077 0.056814132442756675
0.11521852340339636 0.16178132007106527 2.8375399309963525 0.06968836587193444
0.11447088519461612 0.16289976466835435 2.608443878859524 0.062038562454243135
0.11431519284119794 0.16313267581371144 2.5253223297358005 0.12854851582884755
0.11471161144862467 0.16253964532846565 2.623960592947885 0.06295273840023058
0.11456115653983706 0.1627647214119147 2.2189812479670556 0.052757071183711736
0.11575700240153476 0.16097577145256428 2.3362054727407324 0.06584091569510188
0.11573572900520876 0.16100759582283777 2.4565810313741525 0.07000452125497207
0.11570210575920592 0.1610578952021278 2.542596060506507 0.13511079581564595
0.11547718855920441 0.16139436466586682 2.3902778667922977 0.05576715783536392
0.11550895590965246 0.16134684165131036 2.299554460574998 0.0648285160607179
0.11558689901393362 0.16123024107785727 2.58334848817928 0.10125407746290893
0.11195717347782272 0.16506480647202365 2.718152264220832 0.05696068595248915
0.1122589034024778 0.1648566695201356 2.7067819774884394 0.06118007040104049
0.11144874834977739 0.16541552427548847 2.512884681530381 0.09097040384248754
0.112215634204337 0.16488651713641683 2.688875966600983 0.06365536721719318
0.11148237455903735 0.1653923285095832 2.4242232324372743 0.05565123329857088
0.11146628258785099 0.16540342894596327 2.6533497508862283 0.057832516174957466
0.11279254029675725 0.16448856033534962 2.256875029516777 0.05120516160886223
0.11239792303549914 0.16476077209563345 2.311881837008082 0.060753739039706274
0.11227540009743534 0.16484528990040248 2.4791007590579675 0.05646857557849319
0.10999524530670947 0.1658468024036627 3.0102641386338105 0.07117995470413309
0.1082050676979262 0.1662260004081293 2.7538094615084416 0.04676034010037224
0.11044158484392172 0.16575225811878558 2.8669292958685135 0.08590637373853022
0.10865681053527057 0.1661303115884208 2.244362662755166 0.06815435048340807
0.10830295364742122 0.16620526606504976 2.328735323991557 0.05788541474219089
0.110365447414409 0.16576838565897756 2.2769892922666672 0.06268813346702573
0.1105007581180095 0.16573972395047637 2.196343297525345 0.05832940138102926
0.10869396430033866 0.1661224416242881 2.3526444578932293 0.04757133492616161
0.11107325908084995 0.16561845597036137 2.98851001012646 0.05182283660052127
0.11095395516232524 0.16564372709854866 2.5725196305219464 0.14203840369172344
0.11104142918726875 0.1656251982243529 2.778815749404388 0.07305117213439036
0.10975981927847048 0.16589667068470348 2.4971504893904566 0.0699747760051931
0.10500959490852993 0.1658560338870001 2.5964654566968384 0.06023235456563386
0.10506860610747784 0.1658679325382001 2.412637999322857 0.06275475440861668
0.10516282415507845 0.16588693007943178 2.9392556764753266 0.08774785572850391
0.10689136965246263 0.1662354632447187 2.8809990160238064 0.1231833920053938
0.10574420361493218 0.16600415581846048 2.8232023358177707 0.050973178604724396
0.10499727284902988 0.16585354934354615 2.7959892721889075 0.05444782485540539
0.1056534069483498 0.1659858481432218 2.630754714484327 0.05814275452908038
0.10557109516453081 0.16596925130698098 2.846241631957974 0.058487050321468906
0.10582326626471669 0.16602009751951902 2.3959265584470075 0.05261531658243617
0.10184606440856434 0.16418747396630598 2.7340818917109186 0.055092565372491666
0.10180762968153582 0.16416178164772638 2.994803425932435 0.06188618167120209
0.10349614640725326 0.16529049812363572 2.9027893819905177 0.1268951013226711
0.10174694507410639 0.16412121603460778 2.700213877072991 0.05970038306935799
0.10329005316095399 0.1651527317402007 2.2985436597606896 0.05184786953268238
0.1031372382522201 0.16505058012830048 2.36998172931526 0.03709487868494495
0.10271055956674513 0.16476535981932763 2.2209490693192757 0.06486494582335514
0.10380009826949878 0.1654936796909691 2.4631981812205535 0.04897793629070851
0.10395366515249344 0.16559633397229784 2.9269175821711366 0.1302521366044326
0.10384196517927538 0.1655216663079451 2.6714525225453776 0.06478558002373033
0.09970180356781508 0.16157714119216565 2.8694603240179704 0.09494284819452
0.10087497176909932 0.16327784368000114 2.979421050766677 0.050014357724586476
0.10004115765145155 0.16206909139475886 3.0129366092031242 0.11414589620623761
0.10001293551498905 0.1620281787126377 2.7849370908033695 0.0689577402678709
0.0998966232616644 0.1618595647505661 2.4840449012669144 0.06349965143228496
0.09976575352666492 0.16166984729687756 2.518320690681374 0.11312361727132512
0.09977660329218611 0.1616855758370767 2.4232842996354873 0.05431896936941113
0.09942683468129154 0.16117852804455732 2.237354006671691 0.05708916049760798
0.09960888239592398 0.1614424364942078 2.8577127859751847 0.06339691503848045
0.10081261035814161 0.16318744043974576 2.1899974820637973 0.05338899743812461
0.09990595913711317 0.16187309865523927 2.2022212191514816 0.053060606741802276
0.10046101293335957 0.16267774147723654 2.643446089126626 0.061317488435693165
0.09997427627363112 0.16197213571054875 2.2774038331466984 0.051352538822684105
0.10053018158139108 0.16277801294015093 2.3189568047622005 0.06215649227821627
0.10099700385662631 0.1634547494933583 2.72195696183197 0.06412884234724353
0.10009179621465873 0.1621425004168689 2.336399042575732 0.05175798833459508
0.100790571561212 0.16315549153700015 2.576492322403805 0.11600442549204645
0.09886150039901229 0.1588771916181272 2.8398264520474674 0.07050710033515444
0.09856107321921886 0.15745888061695706 2.440966307493987 0.0627176066276352
0.09885717352323402 0.15885676451988243 2.9624913390262932 0.05852393959424128
0.09875710092444379 0.15838432368454441 2.914209456148 0.1221184206775372
0.09900938317997687 0.15957534341407953 2.7521627261000456 0.04684833938687754
0.09897744318979368 0.1594245553279775 2.8126239486498594 0.052677878023903994
0.09894312810201018 0.1592625544512828 2.61066782827187 0.0692937687311453
0.0986833810478059 0.15803629354921403 2.453245159961761 0.05964479820772753
0.09910627772632621 0.16003278072429616 2.547664156426924 0.1410195992905599
0.09921373082183232 0.16054006474424026 2.663258873706715 0.05254021446865437
0.09908425146566548 0.15992879516669364 2.686285901885091 0.05893850177684914
0.09882410094225692 0.15870062949418615 2.387407225446552 0.05992592509938397
0.09906248119733074 0.15982601814399278 2.260831895015329 0.0548028611810822
0.0993113597443469 0.16100096903036393 2.623047392398962 0.06930617285155581
0.0993101466912017 0.16099524222953965 2.5291011847622817 0.1293295978448723
0.09903848475634733 0.15490187944554412 2.825794663775276 0.06026730914621078
0.09877801945137736 0.15619363784458581 2.766114771947976 0.062253510384498376
0.09904330740931042 0.1548779618551708 2.881740621908282 0.12342804731691637
0.09890682924645683 0.15555481520104053 2.2996145876172522 0.06542681578149982
0.0986162480925342 0.15699593092363565 2.408536460003975 0.0602237807148105
0.09873024019352161 0.15643059553705954 2.1716322947503026 0.07501210662379056
0.0986878549701285 0.1566408019149094 2.4940306885265713 0.06427512141266277
0.0990537316385753 0.15482626366178565 2.35954750102964 0.04588229868617916
0.10088782131112277 0.15142094878836965 2.345626067791483 0.06420357774973612
0.10053299776406917 0.1519517529064902 2.6988345522523707 0.05226501893273807
0.1008970413153232 0.15140715597151938 2.9450586059732444 0.06628301288546701
0.10112822307926242 0.15106131581138255 2.3131536967211774 0.06036851940388335
0.10064750672644313 0.1517804513418265 2.933628277546396 0.09788689361706321
0.1006858967870752 0.1517230210995339 3.0069931862464347 0.08170508110007904
0.09996620795398146 0.15279965144028704 2.223852411045235 0.05141715592068861
0.10046101318590331 0.1520594394195441 2.285327417711028 0.051108948800644136
0.10056620860065964 0.1519020706095434 2.3243889923191605 0.05680109276868216
0.09966793868669978 0.1532458522538932 2.79407912427028 0.060735915764336824
0.09978050117722163 0.15307746254579446 2.5080799636612574 0.06641236084415598
0.09928592959595589 0.15381732503299744 2.5996334996133754 0.06322865662681323
0.10010062518297672 0.1525985677769014 2.2485277342249304 0.06521301403905418
0.09991799707254895 0.15287177330089946 2.3972052860175923 0.06935935218952224
0.10185558833269935 0.15054455498623426 2.9938729927042576 0.05743779478154614
0.10247786989375893 0.15011529679368926 2.676809710395253 0.05916053275282364
0.10181740720650541 0.1505708928407441 2.851166705597914 0.05803969829420188
0.10143216688596607 0.15083663679659678 2.971755392471247 0.054568972649249356
0.10347446965368592 0.14942782887175918 2.5568256132050315 0.1522997887668481
0.10291712405387635 0.14981229336463248 2.2746778556344713 0.05149476674107443
0.10368565607683375 0.14928214963592237 2.183070386102825 0.07101044138068399
0.10161143240321485 0.15071297703108996 2.711817673665764 0.06313337149410624
0.10179914067476956 0.1505834933400802 2.4183644910266997 0.07078765499277516
0.10121491435008922 0.15098650051860316 2.476304976390671 0.06540295222332583
0.10291337302813303 0.1498148808726538 2.2384954572156217 0.05711526509581844
0.10153126112286939 0.1507682802588387 2.5807561880045844 0.10702490598875414
0.10169843886935057 0.15065295880022747 2.206171449743757 0.0674735025469415
0.10356082580025909 0.14936825924007985 2.1610696268920586 0.14053814138625367
0.10584333546386535 0.1487262667129831 2.7747362058581273 0.058221877720247686
0.10619956803583305 0.1486508090155159 2.759936949624516 0.06573619359012044
0.10550154386719146 0.14879866550222406 2.649691660454765 0.046734855549715994
0.10645896777241806 0.14859586258897722 2.4972508382697045 0.06303621245977659
0.10657657545748456 0.14857095075940885 2.4455989006521808 0.06028605880962174
0.10502046731019714 0.1489005678327598 2.8378202354990782 0.06448151170393755
0.10685139755843565 0.14851273754539437 3.0165684744467796 0.12891694286426306
0.10674052842783426 0.14853622200463165 2.8758542956614375 0.10818392211258522
0.10399000685075781 0.14911884145431778 2.372914036678061 0.042443883440108604
0.10470297987380107 0.1489678184796978 2.430449623649327 0.06008688497584818
0.10683240092747961 0.1485167614391772 2.2607399363120777 0.061113891823563644
0.10454058235527486 0.14900221775642505 2.6307350631308446 0.05778377829950069
0.10491202966990071 0.14892353725021185 2.6654145773970748 0.051818501554196914
0.1104917913533559 0.1489614275111245 2.827330035386965 0.05649925670093424
0.10975942890857003 0.14881375928415774 2.7875895747644233 0.0555351502177805
0.10889907757982312 0.14864028431122725 2.9162207934332454 0.1317213266657031
0.10996701446710504 0.14885561532359698 2.8126576453265653 0.05231429546720092
0.10838620447048264 0.14853687231453838 2.8618563186699073 0.06835400386589414
0.10766598347409169 0.14839165220075665 2.533346321720095 0.1461880839556829
0.10838558523362546 0.1485367474561306 2.5670090676416217 0.14571478176357738
0.1088754918746643 0.14863552866149757 2.519312685008569 0.09614824244730118
0.10840383322992699 0.1485404268491398 2.7286384570511935 0.05011400741491638
0.10917669394182009 0.14869626085159318 2.4039439509581544 0.05767698048007716
0.10884802862230547 0.14862999117140446 2.600186543703645 0.05165004037966244
0.10812474177505857 0.14848415288179562 2.2925976093873506 0.056764183964442515
0.10830986711984103 0.1485214802073914 2.457803732401289 0.04824443716246436
0.11355430496674881 0.1507577647480851 2.950249738259183 0.05571832790077035
0.11164860690259543 0.1494838673782219 2.8997513023173145 0.13144347685843608
0.11330387291155947 0.15059035903863088 2.6881010441976487 0.06091604106590141
0.11281074660245338 0.15026072008900027 2.6413609486512035 0.06096708329171903
0.11256028706667423 0.15009329600966273 2.963936076521363 0.05615347878264425
0.1132629572138206 0.15056300822125002 2.4141426330947673 0.06483324794456627
0.11305662510429688 0.15042508189567688 2.218123151696334 0.06556463819598646
0.11222863685082339 0.1498715985930394 2.3262263114997737 0.058228073827612935
0.11299782748989512 0.15038577759676952 2.1887790447567137 0.06057030974453758
0.11118203363204134 0.14917197827396794 2.9394270047430986 0.09324115319562472
0.11553126229592524 0.15337347025417547 2.3442795722567693 0.05803538636922726
0.11506960981740283 0.15270422727335997 2.7705585951671754 0.07777777243478405
0.11472765577999294 0.15220850733261462 2.306954213039104 0.06246179631401451
0.11394951073012474 0.15108045509222068 2.588981768320939 0.07330311851199543
0.11471118508616904 0.15218463028928955 2.2050869005761062 0.061741488475998405
0.11411807208414905 0.15132481314999302 2.6770644652397406 0.06290588804768166
0.11400286481803039 0.15115780082410746 2.6139485980307833 0.06497747144678688
0.11394459223467382 0.15107332490509973 2.9872272505555877 0.0565836724306314
0.11423391657278015 0.15149274923717848 2.469009401163109 0.05434491322530777
0.11613609766513534 0.15545258472193413 2.659299181696973 0.056344190125815166
0.11644670415163326 0.1569189505394341 2.400045128042227 0.07143640947077456
0.1162131418120407 0.15581630830264312 2.846316507731726 0.056373261301029605
0.11625530704789447 0.15601536937583554 2.999312885847374 0.07319683232257093
0.11631471316585518 0.15629582424241006 2.8794367652878075 0.12554253404912144
0.1162172154206847 0.15583553971193148 3.0108878149715133 0.0845431506813146
0.11640964449201277 0.15674399276991563 2.3605852845528768 0.04462474221584526
0.11635541755150211 0.15648798867660452 2.9729926135612845 0.0501443442431565
0.11621992741615833 0.15584834297790495 2.2867950962896275 0.06337732895062186
0.11597968140984082 0.1547141473098526 2.236582702033718 0.06735953576389164
0.11579642717530295 0.15384900843761515 2.2503166179337133 0.05533320756674972
0.11587930773788627 0.15424028559759223 2.7200950439435827 0.06420233237214315
0.11622261231726885 0.15586101833203625 2.4257529547835395 0.0630047694601766
0.11621300250920394 0.15581565065727193 2.4837885345979265 0.06517148787124256
0.11579215112008288 0.15382882128286782 2.169052418786222 0.07266251849889561
0.11593673745911695 0.15451140994232415 2.6990236634957503 0.05008990219650046
0.03018774801687404 0.06525066746609191 2.6828681483939265 0.0712054435244986
0.07535619271242085 0.007021910318386391 2.7451521530883074 0.0943415837846409
0.05996174942446803 0.06471013168584873 2.6831132178727684 0.07576973732670604
0.0825804761203492 0.059363679792489424 2.6889887913735286 0.08718122430231619
0.07733923069908545 0.014132262827527785 2.737114156600588 0.08489529759627527
0.09501479919692016 0.03600017814153925 2.713820556688276 0.0842372585272049
0.09436391266071267 0.050796222141981845 2.698238945711444 0.09899413728970204
0.07761748248613942 0.0403573304025755 2.7084785937887097 0.06928140238547968
0.07400457938745517 0.03180082644659039 2.7175110678242915 0.0674846690021056
0.08503233008002127 0.045788966247284554 2.7030253267810767 0.08590878029171924
0.07819244718573698 0.024814986040282348 2.7252493751636964 0.07218249471501012
0.06692803043260741 0.04886673866020684 2.6993133432563283 0.06997200018289913
0.053418210091885 0.013193428762652741 2.737783579339364 0.07960859700892133
0.06271372045361327 0.055782651060355085 2.692144452742377 0.07633427011637865
0.06564745700950601 0.012475448688967045 2.7387014858610286 0.0768902980345825
0.041284917697593106 0.06616091884891437 2.6817148461877935 0.06943496542414365
0.022007606297047295 0.012831255424552133 2.7387761670969084 0.09239391238170346
0.008090796406744243 0.045250598037258276 2.7041299178025318 0.08849137428019906
0.046664122183537694 0.006040502948437007 2.74596299712553 0.09097013154246968
0.0237297876178414 0.02005536908651649 2.7306038463690876 0.07293743918621148
0.008191512291647643 0.02623060751057681 2.7244882678300844 0.09365265939354418
0.04891781317173355 0.0505997953303695 2.6974031624650876 0.07151379513145453
0.03339862207616451 0.04504278023138546 2.7033839308262113 0.07094768138031805
0.015596800060508842 0.03742327287458305 2.712027192275234 0.07990253124289953
0.021080176390075138 0.05253418617248337 2.695989089066187 0.098943801757379
0.021465586939649704 0.028988773287755124 2.720866445824365 0.07390254551213107
0.036913423957775776 0.058061896125239126 2.68991089441814 0.07416410733102156
0.05024293657496844 0.05990431011090105 2.6879093567933294 0.07951445555203765
0.06346472576329756 0.022483852859078918 2.7279042870855577 0.06822141429893237
0.04670598248416666 0.041302236833938494 2.707122064749135 0.07029338242651699
0.04076420677481916 0.0346226734939307 2.7142863059534266 0.07173149344969856
0.062366429965277324 0.04069287897595151 2.707795273194002 0.07188365859361516
0.05980573478529848 0.03083854972417218 2.7183028154213527 0.07283698756460943
0.03448303800498286 0.028607691525206397 2.721375634919136 0.06315130655466644
0.10040272562382506 0.139442378449966 2.9125002084552114 0.14800128686258301
0.1220047884841716 0.13984116693962598 2.899326290332673 0.15602640686525793
0.11105886188653043 0.13936655223369598 2.8948492404963995 0.17217427634122875
0.1191355266284361 0.15511975027199348 2.8913155218252413 0.1365284995910639
0.1168655593359985 0.18592857169979943 2.8889186267903613 0.14971325171757252
0.11617414526675313 0.16983966440557435 2.8885028770564256 0.12392338070405139
0.1058434958601761 0.18220293730136208 2.885812450215556 0.14772026932417293
0.10420281107235782 0.19926017419143027 2.885955121833414 0.21320313019133336
0.0993001202377704 0.17187008856449093 2.88824884079777 0.12617871502733694
0.09963968940799939 0.14586517453132217 2.8881325231961457 0.1334633336540083
0.09364639773043817 0.19497969575135482 2.8953245871882065 0.2295335029425977
0.09317212964393856 0.17571392824887477 2.8968797766074346 0.13240685670134017
0.09275073963814122 0.20546518932923546 2.8991076720886872 0.19858506688131994
0.12206452646924296 0.1677204334715956 2.8978125481306782 0.1302683629254548
0.09323935442528052 0.15347276539082091 2.90412116628858 0.12957883694253033
0.09378618859502644 0.18405220782418535 2.905993550383363 0.1416031332550025
0.09342110422209568 0.14218815020214598 2.904551273853924 0.14655685904606117
0.09607819944025311 0.19457616738094416 2.909985176512081 0.21546074980361876
0.09905878592088033 0.20451620091910405 2.9127089891949094 0.20398492815980476
0.10018663090706949 0.16977813338018263 2.913297587037971 0.12194628223031044
0.11127474305078175 0.1760628810967035 2.914835573368355 0.12723476318396493
0.11571280220659419 0.20066481140561118 2.9128906822671556 0.1859797985204584
0.1150854737532792 0.14045492457773784 2.9130731712044167 0.11248780170945011
0.12072986576636467 0.18998149057159447 2.9073547176392722 0.1660972226782889
0.12105340901104086 0.1759046313411759 2.906557457505662 0.12277004053671432
0.12210606421329043 0.15348903993292218 2.9025318129056963 0.1275882718585341
0.12206322591451065 0.2071970695233588 2.901370837574923 0.17048860701703367
0.11375919250794668 0.20706553219831064 2.88713167843493 0.17118281730456728
0.052318944486510255 0.15612288625743226 2.5756315601622584 0.11933907686498775
0.04184853149696785 0.14703895774185166 2.5772256588639206 0.11945449546415696
0.06357620749730761 0.14149000790617608 2.5725028282748097 0.12240674772584414
0.10416107067823926 0.04480270275516447 2.7126234652505232 0.11246027486567933
0.10107224713722371 0.02955151562280104 2.7359120315795535 0.10710445261823218
0.0926736901338221 0.01836216631837083 2.74504842366546 0.10732044570362247
0.07467742316725154 0.01269220861545854 2.758367103890759 0.07920071050104535
0.06856806563516153 0.003982712794286713 2.753904717329082 0.09458996151759577
0.05262134360136831 0.0019521410077305882 2.7557614130139974 0.103947997492909
0.09080488822321803 0.06494108733895392 2.6943094577340467 0.09721130447263587
0.07115831488332282 0.07812045099323695 2.6883671919816408 0.07548108330451067
0.03762196951480248 0.010136779241048756 2.7599591830590473 0.09765276870220374
0.005607362135007449 0.020396015446127437 2.73343743382192 0.09878287081885764
0.004959318456949295 0.0581322666003492 2.707348211538164 0.10180218199096491
0.01820590557838913 0.0636367090541316 2.6872489864557085 0.08947996996582264
0.06536948593846276 0.11413867148470663 2.6106071819387395 0.08169160782267709
0.06532640798694664 0.09217082162458806 2.6518840555572663 0.07079839429719789
0.06519166748222431 0.12477394907049238 2.6055084886703295 0.0749098364916196
0.06513368381954968 0.11013496125406454 2.63520808077418 0.0739237258143697
0.06525519874696716 0.12987793268608178 2.5919083690182894 0.07360961233773729
0.06538467401054747 0.1317043309033654 2.5790446598868026 0.09186114150628141
0.03960972741675566 0.0838739136798245 2.67023406115111 0.07236437982774738
0.039609100213439934 0.09005308407056255 2.659484416244004 0.09099033823977554
0.039557319718708836 0.11708556995829997 2.6087833784553753 0.08372889951794578
0.03971137914633694 0.1321470333473642 2.594238189563564 0.08438332186915519
0.03969358805165314 0.09923363999877166 2.6499129211600696 0.08187305852659406
0.03955991577758287 0.1338706370685234 2.579905306084563 0.10640910460383346
0.052368351863427615 0.1452128944561146 2.5891271296177067 0.08547973527530876
0.059587142520675644 0.10613707364613839 2.616232067005941 0.06192950662316534
0.054154797477459576 0.11253682524870535 2.605147365709291 0.06815365006273982
0.060466634761739316 0.09422608218448682 2.636862521232696 0.07314597374155403
0.05072344412791361 0.12888678177659377 2.576828394039802 0.09057213125825953
0.05384402092388964 0.12001786936754581 2.592189809761159 0.07888662067123901
0.050087726959613055 0.09866809250056958 2.629168729259478 0.06193617103094909
0.043528387075571245 0.10645580693283319 2.6156800044423103 0.06860676879406852
0.054763462179595185 0.08579734432974379 2.6514615318240007 0.07300879429611747
0.049252519154957514 0.07935558883246212 2.662618986042189 0.07562519512231672
0.04398535279094438 0.11600423208995969 2.599141637441048 0.07848730601237185
0.06064805360144693 0.0806909684321668 2.660306039399943 0.07445706673662666
0.04154620988900911 0.08763385633915631 2.6482805978883954 0.07462309382235113
0.05355752930487821 0.0737190144142162 2.6723818031649147 0.06917947101167894
0.07305904118418687 0.06688707734218839 2.6810590440181685 0.07602766234328315
0.10386797036914296 0.04490399873866335 2.7261079386256313 0.09846779635373853
0.08171184127840056 0.07474176986352421 2.6941623348031025 0.08708086752725415
0.021912836547932902 0.017797258429896712 2.7552470329444034 0.09168891402743409
0.009793501515936918 0.024847992826019256 2.7460280587915276 0.10001940008280233
0.0025169828019213796 0.04059205620692709 2.7311687737625503 0.10143742429660638
0.039874506628829104 0.11563508679102329 2.6275292510368016 0.07804899752286582
0.06406381111040908 0.14179187070996985 2.5843204165245313 0.09138806907859151
0.04074122674708866 0.09459584300073512 2.6364101406132114 0.06885684009582528
0.04053313229660936 0.12316449902111709 2.5870954356694575 0.08461397095392327
0.06517648755617836 0.10055943886135048 2.6275604003467232 0.06616182886486176
0.0649792205782035 0.11918305780043459 2.5945132234763215 0.0737777645786198
0.1035024289297555 0.03155077370836948 2.719195435111837 0.11832268526553562
0.0978615970646862 0.019583282532081595 2.7318411908225917 0.08624975928912623
0.06430450367569106 0.07300354359104627 2.673730088433259 0.07096772332875867
0.024273767837326883 0.00603385530019373 2.7482463163802215 0.10260151049455776
0.0003273853436950099 0.03906443751004898 2.712580109758747 0.09209867983083712
0.008475010992246616 0.055270865779651054 2.695061848845552 0.10973032696289184
0.03513863097639269 0.0034450616449785794 2.749917124166356 0.0916991451757152
0.06240297684157455 0.12153605121786376 2.6195601785960188 0.08506582759646632
0.06283472098399882 0.09533799698681583 2.6649365441984196 0.07154471028032346
0.056501418831886 0.11662265340220282 2.62807047128262 0.06115471000135919
0.04849160793295492 0.08837963260109431 2.6769888001912934 0.07889679632047383
0.0535524082219172 0.10109654855007633 2.654962458860234 0.07255487000693278
0.04872185531666727 0.0955141737113195 2.664631414299561 0.07194744730609581
0.06006359769276612 0.08879712488784088 2.676265682444203 0.07398754901385228
0.04906357907917067 0.12249336695128155 2.617902117065899 0.08515586951106309
0.045800816236485103 0.11004486650607087 2.639463513723976 0.06966521877772577
0.04728431326511176 0.1317337250432171 2.6018973433645116 0.08915598748383613
0.058162012807822946 0.08088114378748175 2.688034997882733 0.06732426184012516
0.046343937311045275 0.07865637126081729 2.690432333088223 0.0736894535702171
0.0784207755187727 0.06799875129644012 2.7018611663779413 0.07877663984587488
0.057928049441587845 0.0688495927534761 2.7009487209715073 0.07357260355098565
0.09725592032001731 0.056383302165702594 2.714317229590138 0.10252764824139456
0.08591087847252982 0.05959390111452395 2.710874282436823 0.0896014639765185
0.06589534721450924 0.06300030150169637 2.7072213252649417 0.0764571516006
0.0935699727215757 0.04896748942029447 2.722269678064578 0.08292821599338629
0.09104204906595845 0.03764406713818385 2.734412729674623 0.08968397970902094
0.08255616414906222 0.0444744839810321 2.7270879635776994 0.08244788129177631
0.052041655701302425 0.062300789869315726 2.7079715175783172 0.07060764379607704
0.05953257542739023 0.055928802006750496 2.714804677727068 0.06759245404276328
0.072878402202306 0.05010943410783191 2.721045196319994 0.0710385942124312
0.0919048627043637 0.029869461193243713 2.7427497666945833 0.08365285254095277
0.07204600722522096 0.040392345199072394 2.7314654001456544 0.06836016575037547
0.03132333956590622 0.07205073648095828 2.697515931106447 0.07558539023538483
0.039001892273332894 0.06477170318994772 2.705321734491494 0.06941460500196901
0.06980337608949884 0.03221924859130673 2.7402299135889123 0.0706828748090852
0.060339230582444996 0.04369304089722462 2.7279257686133143 0.07548668364199387
0.08004202917442145 0.024889364848893245 2.748090203861894 0.07872250476064847
0.04204628198029523 0.05594762341889632 2.71478439696551 0.07108224298251173
0.041388674661342016 0.047272727252811994 2.7240871086001692 0.06873699819800971
0.026515651649052247 0.06317327690908907 2.7070358978106386 0.08674995900779019
0.018984107092570954 0.06972136620957073 2.7000139307452047 0.07499421081184982
0.051763646604614036 0.03714619955040187 2.7349464653602618 0.07224813851505145
0.056841460095862 0.029177408862990202 2.743491920969389 0.0677327002418468
0.02608296755519753 0.05428500826135136 2.716567340023338 0.07531840304192385
0.03710266908412982 0.03991205488801168 2.7319803995286946 0.06586386512018157
0.014347616873954772 0.055555002150428634 2.715205388926437 0.09267605046915502
0.01653837163984959 0.04345244855828018 2.72818382983923 0.08019332543639929
0.004409663245610882 0.05079647090947841 2.720308304074762 0.08874677367772744
0.011560994251332106 0.03634672391032071 2.7358038613764144 0.09054295491548453
0.027752948285744598 0.033290513628029365 2.7390811552322174 0.0735061066504354
0.04665772402546404 0.023348646501235863 2.7497425588555595 0.07397462208548915
0.03698491207514465 0.020532933526140818 2.752762010224208 0.07360420512447664
0.05759623364019611 0.0159899278166427 2.757633743546097 0.07474136452875271
0.05979225027730499 0.16672422769826314 2.5327197360895544 0.1702372554801075
0.056773652433916647 0.16865346830102743 2.5171570090806075 0.1434581041019206
0.05927640108809197 0.17448265849914488 2.5052414827009737 0.11604807863586238
0.05060689360380618 0.1741121974622423 2.5357698256787238 0.1721260923781951
0.05026626510604711 0.16272281987811502 2.5270588283936792 0.1814174407633042
0.04794766828582139 0.17116287717015993 2.5081173256926608 0.15253614618001524
0.04667528124027617 0.17944662737674344 2.518205260531275 0.17374524791400142
0.05066832982382653 0.18469337546975043 2.504299165348796 0.11188008508565235
0.11680665130681872 0.16808637098861912 2.5629863622025626 0.13855145495736323
0.08994323716300298 0.17334876915844694 2.546442631957029 0.16716460206560982
0.10924224828633042 0.14111766268278558 2.5480793162685824 0.15159908393355995
0.1193818959250557 0.1433266403543844 2.542040209033858 0.14539469491128887
0.09406504413751375 0.14364082198174635 2.5415180167882774 0.15998485823181835
0.11568212027447888 0.17195207923220746 2.5428179456478723 0.13877505336941265
0.10281818669505369 0.17158650292462904 2.5422741206061192 0.15371630447256165
0.12544361581487845 0.15707093224914542 2.534010016232578 0.1467197334307814
0.13179784003577472 0.1690780163787163 2.539008278127344 0.13678162933673252
0.08776406078466348 0.15880156940212983 2.5341438931392037 0.14340736793228945
0.12585710160057267 0.14108976990442235 2.552651789377165 0.13844985292277687
0.132597593153779 0.17270294149358872 2.556304104482602 0.1296383482275955
0.10856184069769846 0.17297730837347652 2.5555864799645978 0.14746657963370938
0.0961150339362839 0.172464010636815 2.556929043764627 0.159841081966339
0.09227498145902532 0.14413672016227627 2.5603060431265927 0.15156493763406406
0.09713919756655395 0.15512954423509306 2.5661634766504866 0.14204758379130436
0.10236655061068026 0.1666207660818526 2.5634689808095343 0.1374792404492047
0.12102918032134623 0.1546913347945173 2.5667598486835486 0.13408395861097389
0.13030135043976487 0.16479896995435622 2.565149899640492 0.13218822999431587
0.08599151112139225 0.16340801137623306 2.5469931001233626 0.15979907832814674
0.08599151112139226 0.15302765024572884 2.5647684704535094 0.13662243510037766
0.08599151112139226 0.16524137723162907 2.563304941837671 0.14044351976504965
0.11185839634762057 0.16620347203299202 2.17069602926496 0.0688092063276519
0.11037947326430209 0.19285354188639556 2.1701046206662657 0.07035704556426008
0.10677436732293044 0.17872224960590027 2.1695443159356733 0.06203592087542462
0.10306737756803372 0.20663634829055216 2.1709292068729344 0.1150507832838196
0.0994919049025496 0.16978507583856453 2.177299129717401 0.05387070684577497
0.11350182481523546 0.20602111888197044 2.1724634311835587 0.0982629878865633
0.099734502600759 0.1905096818786628 2.178772621773633 0.0537359616291087
0.1026955223055099 0.20627197242828452 2.183819463123063 0.10656037900277097
0.11522841279591217 0.17348520619991264 2.1796813227662986 0.05312660133469432
0.11257567352049384 0.2007069934459796 2.1837090288980616 0.0745372066955853
0.1081032024715583 0.18256560708994976 2.18547018605002 0.05616914518420402
0.0454039583881105 0.14063580095273326 2.5621044783795206 0.1496059536280997
0.04295210996292259 0.1526991171676815 2.549513126290109 0.1849630822382088
0.04859375255292782 0.16041845991415718 2.5659201908729123 0.16918445361413292
0.056855149592629106 0.1685027550501924 2.549204184930744 0.17238681777319034
0.06191645385693613 0.15100991960703125 2.5519352100122323 0.13835635819388029
0.05895721467416577 0.1406902504855314 2.5614064633416573 0.12364037054984736
0.04428190440892548 0.16252389825840963 2.536173950910783 0.1730992767374472
0.08554646719718531 0.031289813195552824 2.7184484389346677 0.08885920922507146
0.043820595379779156 0.01893195087407281 2.7313868302648836 0.06168822754495202
