x y z curv
0.004061756973400256 -144.33775378916766 656.6880304118241 0.03811842101017296
0.013969759884052427 -144.34312470975647 656.6839344530883 0.03376432146158164
0.008829403254487722 -144.35058115542282 656.6937587571329 0.05034316523181149
0.0006555019105324456 -144.34487276499522 656.7000602713647 0.03605564957900623
0.007565750501590922 -144.33663419502292 656.6987374249832 0.044400631554231365
0.005996067147110535 -144.34993750754558 656.7087399024322 0.036884268759024806
0.002329524142423432 -144.339305479371 656.7095152101415 0.03888876595184608
0.014856292501197351 -144.34329363388193 656.7059835397633 0.03517049160028097
0.012764963101731678 -144.3488602129734 656.7233722143005 0.03678028632969434
0.0022494612015218633 -144.34344777921265 656.7218443059934 0.03373740113361706
0.011012700096373446 -144.33614761298747 656.7198185173145 0.03417485498584452
0.01811038585721353 -144.34349235967295 656.739038116534 0.03899237957490022
0.005329605418568177 -144.34639569195417 656.7378207438187 0.03319522901513436
0.008508013930895978 -144.33600452397434 656.744487422051 0.03517030819953328
0.0085805915082863 -144.33573072444074 656.7310186452942 0.043212883602991
0.014387965785780025 -144.3487618677195 656.7501036248736 0.03942507292366306
0.013013869362056322 -144.34842589450398 656.763385513595 0.03776572930381384
0.009662475428673932 -144.33596561721686 656.7547140310289 0.03698775044261778
0.02037102865703068 -144.33901943221343 656.7580957125283 0.034040758414774455
0.022249320432686008 -144.34386478375714 656.7687841534479 0.04128930993415977
0.010006191829705574 -144.3433227547339 656.7758958787587 0.031282577958834164
0.02382936971828305 -144.33802998828114 656.7800066797092 0.03473755850506018
0.026308721601219193 -144.34292484701527 656.79052406347 0.03892050106863947
0.023853099907587293 -144.34733004346214 656.800511106971 0.03569058175755149
0.015765287749922724 -144.34752064303817 656.7859672303975 0.034772319637158426
0.016127079666886167 -144.3347974727949 656.7897248437916 0.03343539908237455
0.029533936814745518 -144.34343000646817 656.8087159564943 0.043038499860734526
0.018149586117026714 -144.34355068800747 656.8163566915578 0.042304391135697846
0.014963965649083541 -144.34054636303762 656.8041124810297 0.04382733779883554
0.023965627567142885 -144.33373725651248 656.8085274714861 0.038213746906170985
0.032055499408520254 -144.33850609023142 656.81934038714 0.039259884136946754
0.03037366611395753 -144.34696689812287 656.8366972630378 0.03933602925683475
0.025298708840477628 -144.34733037912113 656.8237238611576 0.03848112481991807
0.023233005616035658 -144.3396419335301 656.8432589249317 0.033650809794150194
0.0215785776746723 -144.33535162583053 656.8256367791353 0.042707969822590466
0.03394677458579518 -144.33532497621957 656.8360537865575 0.03449399273940803
0.032111026755444395 -144.34646371565617 656.8599563483012 0.03355179788165386
0.030552539946468296 -144.33304256387012 656.8484470114201 0.03284840625814506
0.039794852271924946 -144.33862857553368 656.8537856444171 0.028609298546355084
0.04998941887205301 -144.3410654793314 656.8978281339889 0.04009708930703608
0.04427297627369618 -144.3435178726204 656.8782775846747 0.044870449231447826
0.040774442563284906 -144.34622369318458 656.8911105775798 0.0372345661064561
0.034545625128436536 -144.34620737125013 656.8712980838802 0.03686876631499605
0.033322858836734824 -144.34029839217487 656.8865500610734 0.03564758094236713
0.0366009307062659 -144.3381356609117 656.9004331382904 0.0403203840568564
0.030398168205695797 -144.33533262816843 656.8680395720398 0.04040993125302952
0.04007030271441031 -144.33245320737876 656.8918128660724 0.035901722583545397
0.04254609252014767 -144.33481584895372 656.8732189895983 0.03753782928918473
0.05279455929360559 -144.34209439068235 656.9116192823777 0.04339721823414239
0.05741256976895004 -144.3425557998313 656.9328266621391 0.03909003248195356
0.047508260616390956 -144.3456561342742 656.9216876722411 0.03809808135106867
0.0510549434041069 -144.34473834417668 656.9440228702551 0.03510637116786261
0.04154754777194062 -144.3447830508772 656.9082006894987 0.040395176834601317
0.04525880071909418 -144.33997180042593 656.9360567811732 0.038870177559177
0.04097406349593151 -144.3371388325528 656.917993887105 0.04827173631475381
0.04604234056610452 -144.3329555324532 656.9267608098863 0.039255339635295664
0.046194883481742846 -144.33207349770774 656.9071135550721 0.04070878478483607
0.05588033542442313 -144.33213833302133 656.9390317522258 0.039073228796689674
0.05608423192264624 -144.33599222490975 656.924467076634 0.03529532655333958
0.06154810925543004 -144.34107929548412 656.947035541697 0.04185683381420277
0.06368809788253188 -144.34216520057095 656.9589419412403 0.037668483267476544
0.05336633555089244 -144.34181952247113 656.9658321557351 0.040382541290131274
0.05160869022823532 -144.33401736001855 656.9568455608967 0.03483526238984957
0.06098198783641036 -144.33138091252994 656.9646310768958 0.031155396175836472
0.06263956648246703 -144.34487947404352 656.9755751017486 0.032244025683387606
0.056206227498380876 -144.33607085265754 656.9814591668445 0.0382162320128612
0.06528750963122629 -144.33194896367758 656.9751471360923 0.033683977296893715
0.08020592196910821 -144.33847355807845 657.0254151950567 0.19188473534897393
0.07587031345362488 -144.3408230114217 657.0098454723907 0.11783717972233412
0.0689802323729514 -144.3439758075771 656.9935365133261 0.035319516860329164
0.07235536888728136 -144.34417246663364 657.0210794837346 0.1851639530191214
0.0617828144059472 -144.3410148994226 657.0025261888184 0.04065401097364368
0.0639137386918937 -144.3399039220924 657.0138387415068 0.07630155641352011
0.05905857471409162 -144.3352009120403 656.9926597131796 0.038421867366216986
0.0710679286517723 -144.33057614995806 657.0270027713556 0.16137359437398935
0.06889739326659038 -144.33044867099466 657.0098578171037 0.0800345652856911
0.07064024156334343 -144.33346296782753 656.9892642223072 0.03419102221108496
0.07456121336230448 -144.33701701102672 657.0000062116395 0.06072294326702286
0.08123627626502024 -144.34290347757184 657.0469528684046 0.2506373881977888
0.0775838556383157 -144.34297661647668 657.0581589144844 0.1918905686187106
0.06786961959868257 -144.3385615837733 657.0328346267503 0.16059588519451398
0.07398835310158759 -144.3329757164242 657.0570922296884 0.12924831294248487
0.0809759296382601 -144.32948929289282 657.065098609712 0.15805185209017505
0.07702525344304056 -144.3299980062703 657.0378832566968 0.1604716247772551
0.08052270541794698 -144.3300274213944 657.0490477182864 0.15733119699580564
0.08789435396556403 -144.34283630013266 657.0949116576968 0.1522248831853658
0.08370736707941308 -144.34305387583655 657.079319734602 0.247093191580092
0.07682160071261615 -144.33846639856912 657.0734032281915 0.17576545175201286
0.08320381890022624 -144.33409827728596 657.1052947271806 0.03371547310889034
0.08296126093542305 -144.32993951712518 657.0874038273781 0.09389860581586763
0.08514615087844166 -144.32932118619416 657.0756000404228 0.1724182732862118
0.09305403915529822 -144.33208878949435 657.0906239337264 0.1433783420999387
0.10033920534025356 -144.3406950013146 657.1359476110919 0.037597621882220704
0.09032308825648991 -144.34243746617153 657.1121150269178 0.03157942131381946
0.08885263958398718 -144.34022040989 657.1246784021868 0.03165753579733495
0.09123810669698061 -144.33188321694533 657.1438229304068 0.0351662052484326
0.09152002866769338 -144.32901708734303 657.129063674072 0.03791728016284996
0.09005896456106599 -144.3289746772341 657.1183666139746 0.03905422128096013
0.09931966528796032 -144.3287363819539 657.1374117734964 0.03776962893865306
0.09666203432573467 -144.33181142028445 657.1081344706507 0.03227684577506335
0.10043355358285934 -144.335151806515 657.1216731599327 0.03188973919522813
0.10673578377164818 -144.3369958139025 657.1570295931012 0.034887136880039415
0.10657805389145024 -144.3401195272359 657.1700640134932 0.04074078415861589
0.09754614277730075 -144.34176771916714 657.1493980123151 0.030616172884899612
0.09695114806976672 -144.34012611151454 657.1641838360582 0.031058632746608174
0.09768277293111634 -144.33155131843452 657.1799622139856 0.04139701162348311
0.09621616023342648 -144.32885313226546 657.1567008346442 0.03269499624310281
0.10736476423154939 -144.3294245438998 657.1706899153519 0.03387662276244295
0.11072305685064901 -144.33134972251455 657.180672259509 0.040430070101607096
0.11671268475475419 -144.33645091774656 657.2157609423834 0.033083553713852853
0.1085600414101605 -144.34044781777942 657.1865496202207 0.03977304067901695
0.10828131661110464 -144.34094748657935 657.1999309559137 0.0316086297654779
0.10596143326606283 -144.3387751834422 657.2192836743636 0.038840372872568946
0.10002397604492841 -144.33708758823417 657.1931041994724 0.03812092593143274
0.10231443409578388 -144.33208515976312 657.2094343857161 0.034994662086834966
0.10584718773125143 -144.3271576949224 657.1915826250305 0.04131864345121847
0.11142831717697227 -144.32695791206564 657.2139471372279 0.03512704569247489
0.11475529108408908 -144.33184389704107 657.2025407219338 0.04006739203296963
0.12077028622081155 -144.3361272738392 657.2418510235016 0.02662553356073302
0.10922605852211174 -144.33741369959634 657.2458622189927 0.030554726196489527
0.10571981256406493 -144.33303422158713 657.2316779581588 0.03768913282958764
0.11372708170728664 -144.32645535368073 657.2364928767353 0.031156059165859153
0.11346091803253608 -144.32682975908108 657.2247829775334 0.03724454489981314
0.12040653168525706 -144.32831581857798 657.2490844850859 0.029796071922992325
0.12609448736546233 -144.33538439690813 657.2776341022694 0.04388387240487957
0.12119717015822515 -144.33890445824954 657.2620890626091 0.029268433158202017
0.12204159470105516 -144.33963579220023 657.2895699603789 0.052467839233862223
0.1164177060025963 -144.3393833261586 657.2738595100392 0.039449866278228045
0.1161668192916302 -144.33536974230833 657.2999966866249 0.0352279695112243
0.1135403399312719 -144.33424012144718 657.2840479671918 0.0425690237951153
0.11206254381956808 -144.32958748553807 657.2680722166807 0.037782883563080925
0.11726001397261224 -144.32705550010388 657.2910632951667 0.055959924881134965
0.12053608921083486 -144.32587099252572 657.2800012314312 0.035155215688428186
0.12320298063610507 -144.32792522582105 657.2689177215956 0.04789263645227278
0.12718034813272244 -144.32939685626118 657.2880948693976 0.041322063346289094
0.1292386961086812 -144.33484569883947 657.2996790808171 0.03446878178502101
0.129514939898837 -144.3370828519207 657.3132008584186 0.03305648101439922
0.12335860246223859 -144.33804648859268 657.337375101843 0.03030709801253375
0.11983917481698309 -144.33666960928625 657.322536988982 0.03286895934002719
0.11857037361298081 -144.3278782086129 657.3098846031221 0.0380127795990653
0.12359497686737717 -144.32556705790148 657.3186516856433 0.03156445220437813
0.12733621979333165 -144.32527885536308 657.3358983476853 0.0285633734919429
0.13391803912855882 -144.33408934486192 657.3366367923664 0.034583927162954206
0.13219755999128527 -144.3380124923457 657.3480563062982 0.04329378613414576
0.12327092102425918 -144.33562218635822 657.35646371506 0.034940912981975485
0.12139229418690656 -144.33087877704006 657.3469865261458 0.033326228862563374
0.12633960832263702 -144.32617231619398 657.3631677276605 0.04125364429374224
0.12823951209700446 -144.32565485941902 657.3730188967829 0.0383082324260428
0.13098815579485235 -144.32549233862022 657.3517868621819 0.03823767987500097
0.13787450524257355 -144.3323089391566 657.3704169229186 0.032746744958839245
0.13723775056784018 -144.33654765200737 657.3808057438017 0.03393258375203912
0.13624241397182274 -144.33839307701123 657.3983795109652 0.03126413151471184
0.12757927116317486 -144.33775085414248 657.376485537467 0.030681229769896172
0.12765374782582214 -144.33635184572748 657.3926074908848 0.035426267534220825
0.12989780476708127 -144.32640796106426 657.4042789636884 0.029008787039514514
0.13118628085314485 -144.32512519829783 657.3876825379014 0.033412423702391565
0.13928750884890806 -144.32822651185643 657.3951946720124 0.032277312459634284
0.13356340489848167 -144.3386738835814 657.4138903269359 0.03171809528945699
0.13367253404448404 -144.33801785802194 657.4352826004852 0.02772958211398194
0.13905248122266747 -144.32561057094216 657.4232696097042 0.02602277648690025
0.13965325002198592 -144.32668676644454 657.4118995302786 0.030247641435827435
0.14396196503352582 -144.3311065174018 657.434673741041 0.018462893677156735
0.13977911348991479 -144.33864421201503 657.4449208383542 0.03092566071282477
0.13795590426852133 -144.33876481584588 657.4675727397625 0.036060015039440396
0.13272889826631679 -144.3351754725951 657.4581921749202 0.03551953807797645
0.13262271440337203 -144.3274879651802 657.4469313081001 0.025909934072149372
0.13572205915036456 -144.3259843044026 657.4621874314871 0.034077577743532615
0.139609726594121 -144.3250847779159 657.4745312718542 0.0407103586364533
0.1423775206510806 -144.3261010910265 657.4533657116124 0.039600993123428394
0.14727161562324517 -144.33362752937663 657.4772086269505 0.0369669566532085
0.14645889463289224 -144.33706928652822 657.4911219385756 0.037956573792763605
0.14148510940540335 -144.33926398752993 657.5013734076105 0.041958658081201486
0.13479150973671009 -144.33450447530583 657.490030724823 0.03287645179512
0.14586568841609346 -144.32675270324145 657.4915850356256 0.031080618897105863
0.14922571774124876 -144.3312777310162 657.5031017796385 0.03994384841706053
0.13961378087189275 -144.33855525868358 657.513838983135 0.0392966128424066
0.13984077006754758 -144.3259159268461 657.5059007340435 0.04463145594927994
0.14717382109864813 -144.32680792235303 657.5152364900638 0.03998746859499727
0.14569808206190552 -144.33929934389715 657.5231618783503 0.037803623457946
0.13673268487439605 -144.33062013746832 657.5201996445625 0.040559191736983434
0.13820704097162603 -144.32915079275256 657.531540060494 0.046134464946942816
0.14789064540791455 -144.32696001533208 657.5280643113188 0.03371432056752673
0.145711464185161 -144.3397407656754 657.5364044707217 0.03125343017606152
0.15125230581496646 -144.3306231523543 657.5398547029426 0.02809907401817447
0.151722502119659 -144.3359352569363 657.5502852849797 0.02826603402317131
0.13919265913039303 -144.32975261753722 657.5499930791627 0.035625526712589624
0.14707942952419592 -144.34095050770233 657.5714008062187 0.0326642463465478
0.1404158210955706 -144.3379632004086 657.5592635446053 0.025031893340593366
0.14259643406986894 -144.32773956345017 657.5657077244238 0.037112012688753145
0.15272902417227774 -144.3307444457551 657.5752896925746 0.028415947075694243
0.15375216204945422 -144.3365919577969 657.5834015534359 0.0421631189079931
0.1428988018179909 -144.32888147438354 657.582769113699 0.03667898335340788
0.14426270448344503 -144.34126803551462 657.5890177886213 0.028105924902402903
0.14498687018614229 -144.32887901975505 657.5941239071594 0.05038228118762441
0.15420130471949361 -144.33331328806102 657.5955658239579 0.03358828109124351
0.15294685322407875 -144.3415249968015 657.6047665787534 0.04778616518585535
0.14237120267007686 -144.34118328582935 657.6089967472351 0.051010483069276254
0.1472315639929999 -144.32995202595254 657.6072785935373 0.03569109654761691
0.1523626686786541 -144.3440516228766 657.6148288277469 0.05342841291375044
0.14575579454200532 -144.33276727184182 657.6200840562863 0.05988595744482645
0.15361685123966773 -144.34766971679105 657.6301600537196 0.15879366391578714
0.1417551822361955 -144.3433310633971 657.6318091931844 0.17789591623358827
0.15147353244445377 -144.33917074974394 657.6394674321771 0.15856990631702056
0.14290498726985862 -144.35083068523778 657.6404248170697 0.19868969318301757
0.1429157409029972 -144.36621839592587 657.6602040427242 0.17255276294265398
0.14832135612001876 -144.3622008133774 657.6706940152447 0.18452288251168814
0.13470992541449087 -144.45097867989494 657.7705442524616 0.06656203227253576
0.13683239740025668 -144.44104884883063 657.7656411776335 0.07885319653427698
0.1439779430507561 -144.44370642415248 657.7758221955601 0.06202797678460122
0.1552262592467909 -144.44824167218005 657.7755440726598 0.06242415781397477
0.1547751383299772 -144.4577040280717 657.7608806209632 0.06757085029980153
0.13817844837253457 -144.4569206753547 657.7596589482538 0.07593492218048165
0.14423195171438874 -144.45377255006233 657.7512565420143 0.09510204652991724
0.1490345089437762 -144.44270979067872 657.7605393286032 0.08268721548600624
0.1408985324967191 -144.51461843068137 657.8358082922496 0.050945295008691
0.12426165215994743 -144.50945117710882 657.8296491689808 0.048302791550057636
0.1052862866240897 -144.4769291734807 657.790891228362 0.05190463487158211
0.17265392635439 -144.5091630988341 657.8293067427302 0.05087284133399564
0.11271269255613374 -144.465854762486 657.7798221679685 0.05127228997620739
0.12344450800355365 -144.4559259640135 657.7765901065965 0.0636887818251467
0.10751814352592634 -144.50017167448647 657.8196053218749 0.04652488654545256
0.10167427198361187 -144.48433830286177 657.8099723143333 0.05150581165134703
0.15875452330299455 -144.5129711849379 657.8357242197958 0.05440955928487877
0.1865950700542503 -144.4983874100969 657.8178257244384 0.04555292333860403
0.1602913635189919 -144.4566202670305 657.7706812582619 0.06272010838547565
0.1910911466718095 -144.47995031773175 657.8004196775585 0.057138596655680995
0.18717170138194095 -144.469288496621 657.7911385903352 0.04881311996834967
0.17872172796637875 -144.46115706794694 657.7818954052921 0.05435063855238907
0.1476591603853547 -144.45806862977892 657.768538247346 0.06155810083527965
0.16919082277347608 -144.45512325230777 657.777205318201 0.06628124178440573
0.1394179030699455 -144.46870086397763 657.7941683988518 0.03676864524974764
0.14276649521246335 -144.47699687663692 657.8041730182446 0.03247504418608608
0.12401827278182181 -144.48075183052714 657.8084780565283 0.03646368114651841
0.12221654281957123 -144.48825923436888 657.8173143442478 0.03978867037695515
0.14120524780738153 -144.48629106761894 657.81521926132 0.03193686289097184
0.13936620178318646 -144.49565677599196 657.8261688273378 0.03865602046055287
0.12467527835022736 -144.46201033960403 657.7858544189812 0.05205648338440784
0.10767248063823597 -144.47586972407282 657.8022505026925 0.04836140204751677
0.13455436156987993 -144.45714475217824 657.7799939544523 0.050955488907329045
0.11527511343836183 -144.46836320062883 657.7934054876768 0.046920772490807096
0.11239810049822313 -144.48420434347514 657.8123203806794 0.04425333188936272
0.12044228124754316 -144.49822629734973 657.8289129700875 0.04936823964041496
0.13396516504417957 -144.50716460601575 657.8393979773524 0.0564708977413955
0.15226641723215129 -144.4949688423582 657.8253771479398 0.037301516042359865
0.1591457564029641 -144.48732883003254 657.8163799664496 0.03256673552413135
0.16901813683282693 -144.48885676473446 657.8180443910187 0.03813488951727234
0.17912853014742047 -144.48252419017405 657.8103619140276 0.039539600014570436
0.16838861786224896 -144.47782339077594 657.8049909854221 0.03487165756815658
0.17459739336878619 -144.47148782975117 657.7972525583546 0.04116242813508038
0.16253412430159458 -144.46546156158283 657.7901476392724 0.040849948080762324
0.15395910286803008 -144.4699653972487 657.795695317329 0.03462243986045355
0.15177328880052582 -144.4614736622781 657.7853631120224 0.04293885565689334
0.17903393806549628 -144.49487917490274 657.8248772742734 0.039193227268121564
0.14761738782013828 -144.5026154668526 657.8342393855098 0.046564759576281624
0.1700660572190278 -144.46887045546498 657.7812153509068 0.04190589847431592
0.18717607973189468 -144.4885919304005 657.8047753135505 0.04081569820507281
0.14175967674081233 -144.48932027914293 657.8053724457792 0.03222508218727677
0.1424204746211556 -144.43693925802506 657.73191172193 0.11638549217099624
0.14287552274320386 -144.4225619450828 657.7144673334916 0.10386293914183625
0.13916284965215273 -144.41263807560165 657.7055275722612 0.09458330707676578
0.13875676298885958 -144.4430168052144 657.7424302959095 0.10092080782227554
0.13734708384082908 -144.39457061297767 657.6864765564178 0.09112190873464515
0.13639639188622518 -144.42368178434518 657.7233415431251 0.10936758459665975
0.1371247129245466 -144.3806924856135 657.6702335478163 0.1445509453271042
0.13535249559331217 -144.44730592155256 657.7548407197497 0.08192839168810155
0.1346929047586729 -144.41286919631034 657.7164598300474 0.09606719757413722
0.13443952271199705 -144.38178116937698 657.6805808418526 0.10483206213109161
0.13486851672531916 -144.43214309471568 657.7387593035919 0.10527796757119112
0.13569275984219253 -144.40050168942912 657.6973452590416 0.09955284457714086
0.13539508014661383 -144.4315731761835 657.7503133561772 0.10092485502905676
0.1367298405497624 -144.40181114402813 657.7187453501555 0.09425356322457545
0.1373794782162675 -144.41567883684385 657.7364066565099 0.09742607378103349
0.1362758228308068 -144.38117700875983 657.693330526754 0.08998739987700606
0.13887682885058406 -144.42236933655232 657.7465604942769 0.10285321330666175
0.14096357643507954 -144.38623435321415 657.705798389978 0.10820725051835796
0.1444339500882908 -144.4072230702547 657.7324499385019 0.10468668381933016
0.14610301985772733 -144.3779252919482 657.6979228653391 0.08959315705903484
0.15839228802443048 -144.40218342678384 657.7091353235555 0.11588419816341908
0.1467990261218969 -144.43188959557253 657.7619566891185 0.08309698558648056
0.15041866475756022 -144.42161682517923 657.7486858202669 0.1031680462196906
0.15201061043475414 -144.41329340252634 657.7377191579269 0.11083314261859956
0.1526153782862707 -144.39027891990798 657.7098916374034 0.0971932385118848
0.15592721522297429 -144.4300238794183 657.7523365314498 0.11327118094264772
0.15785854342982994 -144.42282338835508 657.7378619306627 0.11296447885621821
0.15802358419099652 -144.4160779069242 657.7290024552653 0.11789380642186015
0.15434477495456397 -144.40054323633285 657.7200831192523 0.10794771632024815
0.1582863808034003 -144.44150823265312 657.7550131002878 0.08196437676351019
0.1483732932255131 -144.36738652427084 657.6851656194245 0.10318891785367383
0.15803689036956553 -144.38830341254683 657.6963665723081 0.09258123712372092
0.1558027333338107 -144.43696017515353 657.7380740630286 0.10143795574767929
0.15493973619990975 -144.43010231744944 657.7283022274165 0.10166623472001943
0.1507253137705729 -144.4461591782286 657.7431741247515 0.09921700345586407
0.158381996356662 -144.38514767578883 657.6854152440211 0.10583911873326915
0.15402901377241393 -144.41597348837135 657.7100556136575 0.09085601695740078
0.15085567010716994 -144.39894414291132 657.686727364579 0.11259375783896641
0.15200110778753068 -144.39034659646506 657.6772574675581 0.10438760340792601
0.14863789256066678 -144.38492097195802 657.6689353107502 0.1143178149162457
0.14968393512513734 -144.4089559684764 657.6980924570864 0.10746229922517464
0.1555289070609988 -144.37706492953563 657.6726928298895 0.1531953983062981
0.14522995512453787 -144.375007434411 657.6771606038279 0.14331697530751691
0.14620281135171936 -144.35437987472176 657.6500853515113 0.20689707891406064
0.1361368573318151 -144.3603786234473 657.65374951801 0.19386178260510636
0.1542163544371195 -144.36362696699956 657.6509082408604 0.20611335772448763
0.1572684889843603 -144.36235247710943 657.6612509003542 0.18911948443014617
0.13588875378104032 -144.36576018260246 657.670964798144 0.16801182865236866
0.15263842116661158 -144.357521545347 657.637802796001 0.18415124815341188
0.14777869604344004 -144.3405217266296 657.6535522864708 0.22727915014883746
0.14130660682821305 -144.3484522273672 657.6584503295448 0.22802073492979583
0.13807465044344297 -144.33964951547634 657.6464457235562 0.17476950142403186
0.14886378838884298 -144.372442267126 657.6532906429966 0.17084059392914633
0.15872491711424003 -144.35307079994152 657.6478062970489 0.1918473683173451
0.1547478121839654 -144.3480357023928 657.6574870441974 0.20767436583191234
0.13525959777832242 -144.36004345399115 657.641407615061 0.1607993921135633
0.13525959777832242 -144.37493922679948 657.6566592456255 0.13763805283867345
0.16254026753783501 -144.33901339282417 657.6469134359888 0.16908242666573906
0.1358296763321118 -144.33845932485036 657.6586697139525 0.16380653688967303
0.16792198012989423 -144.34888176414188 657.6363616567124 0.15410367486700624
0.15674233859795444 -144.3730684667325 657.6438682956598 0.15602448756466175
0.14341740256508634 -144.3723300280565 657.6427238835581 0.14804393209676342
0.1665203387267573 -144.37518039212947 657.6489100019483 0.17481037508843078
0.16007087735479553 -144.35672760848612 657.672629715508 0.15404910659619764
0.16219211720478494 -144.34423765666727 657.6678966030843 0.1756772356308603
0.13890701476085904 -144.35009804726434 657.6714213609125 0.1466756346274734
0.14853474684019766 -144.34477256609006 657.6683599161556 0.15848660595206976
0.16675959777832006 -144.34786459176908 657.6582895753561 0.16936414277801043
0.16675959777832006 -144.3592083210023 657.6374592194505 0.1540095589886432
0.19990947812794022 -144.35803426093855 657.672788842453 0.16208865091169603
0.20925959777832048 -144.35886850642078 657.6441221289685 0.19487522364387647
0.20907171395847216 -144.37431812036613 657.6500904578205 0.18273041014056163
0.2077595977783204 -144.3405273588498 657.6445674373069 0.17014909749288012
0.17169473425818013 -144.33811698800574 657.6571979488158 0.15036498438774912
0.1851436037584312 -144.3400317908614 657.6625924479631 0.1615022081943426
0.2074658897848623 -144.34371388047683 657.667418855586 0.13939647411179026
0.17463744788397872 -144.34530645406574 657.6687733521865 0.15841639178702288
0.1934765545450616 -144.33779433425275 657.6541546094531 0.165106572277018
0.20196864526048464 -144.36997785845884 657.6672867680014 0.15350740297334137
0.19094082162499093 -144.37055687868278 657.6667086886066 0.18024677500016098
0.1801726255560046 -144.3754781116545 657.6569520800222 0.17906256499448844
0.19861092377390044 -144.3753157375617 657.657755243365 0.15555437864120072
0.1714793341649964 -144.37214310803168 657.6647999660489 0.16583608260400512
0.1708353553777024 -144.36967074589467 657.6396848875833 0.16384445743343268
0.205407095065761 -144.3704586311079 657.6404520966613 0.16754956523912254
0.18680704134993686 -144.37235335574692 657.6427704367827 0.1562206098565682
0.17900816226855953 -144.33844612590863 657.6486565321933 0.15175739309270803
0.1682595977783201 -144.36463232969322 657.6557085092638 0.17337689281247826
0.22518249873698787 -144.35726167877735 657.6871866778351 0.1382952554270039
0.21930959727967278 -144.35192809621438 657.6793135016668 0.1791219981234315
0.21075959777832054 -144.35589675671883 657.6640603085383 0.18643807510126548
0.2107595977783205 -144.36423231536054 657.6560169103445 0.18860825959156965
0.21650065701007776 -144.33881951714267 657.6598299861404 0.16362004690933085
0.22429442831255877 -144.36487947786668 657.6708161253855 0.22266165612101133
0.2125137231211085 -144.36975594687343 657.6675019042616 0.18270882236494984
0.22097596168536535 -144.3747043854114 657.6599183483058 0.19818013100743104
0.23025959777832128 -144.34256226737932 657.6595691239896 0.18657904067768294
0.23025959777832128 -144.34445925044224 657.6462061983798 0.20529534738154728
0.23025959777832128 -144.35380692202614 657.6389261422248 0.20968718968919997
0.23025959777832128 -144.3746750271832 657.6503383570911 0.1629875385016631
0.23025959777832128 -144.36558066818446 657.6601341321516 0.2701247080060263
0.23025959777832128 -144.35524376960421 657.6662341334578 0.24288699795912158
0.23025959777832125 -144.36183531451988 657.6462529763004 0.24017335421476488
0.23025959777832128 -144.35512382337154 657.654923630946 0.2865210398967415
0.2219620098858655 -144.3699249794355 657.6399224119891 0.15975396161176608
0.2179112806314738 -144.35330034928026 657.634962635514 0.2170138481244815
0.217102792626275 -144.34270917590285 657.6408729517457 0.1464293762427001
0.1541288053276375 -144.4899483901088 657.805842505802 0.03281463184708059
0.12678140139639 -144.4832915397128 657.7966816644605 0.03593439677557737
0.1308886640940915 -144.47138397845842 657.778195794727 0.0510517687638493
0.17854082772464616 -144.48607820013473 657.7970551282407 0.038796960058281406
0.1521699672979986 -144.48179079398884 657.7949351558395 0.03130240001225886
0.17562204485602168 -144.4770900818672 657.7885937023249 0.039596402402032126
0.1615874021509197 -144.50524438281056 657.8225959382046 0.03972507621329088
0.15083543025647267 -144.4688312800116 657.7750184864713 0.04695718924143584
0.16600305871408777 -144.49129847890137 657.8064460605552 0.03422273772637471
0.15211114502904072 -144.47595598496957 657.7857476882411 0.04013120476630394
0.16263440849334965 -144.4793598746204 657.7884562260956 0.036809614685596334
0.14009474341651354 -144.48498783554115 657.7950653711703 0.032592701443512485
0.13980427049297625 -144.46625017212153 657.7767050742567 0.049802092918485606
0.1395866521559196 -144.4997789884001 657.8157646008095 0.03710408047863765
0.13056203846645037 -144.50653901101836 657.8210187527877 0.04339098310472893
0.14179517154058494 -144.50777938170154 657.8230313654135 0.038660187838102024
0.12645089305760893 -144.49283206632788 657.8050960589428 0.03450479563365867
0.17022607903921033 -144.5031566371032 657.8161588613813 0.03723363547685371
0.15068536836692276 -144.4992873701766 657.8157416234849 0.033460764405055785
0.11699746974713361 -144.48042589879242 657.7889120342928 0.04020576298625144
0.11652665321952074 -144.49588788713282 657.8114520819978 0.041179964013710435
0.13315668051981572 -144.4770863341894 657.7899903967535 0.03756128694424957
0.3066957909633983 -144.3783194743092 657.0710018139416 0.20566809774208233
0.30336242512590583 -144.3811867882526 657.0816943152674 0.13567306801733928
0.29576841448249436 -144.33962375312566 657.0663647934509 0.15600457700035444
0.30321864223714645 -144.34784665028644 657.0711862769249 0.13509722356157858
0.2996961877427652 -144.35769224107807 657.0718188583511 0.19496892908140961
0.29519304582961414 -144.37466289148944 657.0470013199135 0.19158209525723024
0.31034688136918637 -144.3744327664642 657.0459770764194 0.1480722886775633
0.2972872227046943 -144.370005107368 657.0374567482227 0.16544958438682728
0.3079584223723415 -144.36833335057713 657.0357187134227 0.1519095314024646
0.31029677713465575 -144.34261091110596 657.033545444209 0.15355796229844343
0.2992213445937102 -144.33799034553178 657.0376370674041 0.16898899274374218
0.3113595962524407 -144.3555630982423 657.0318062190759 0.17430249288248423
0.3113595962524407 -144.37107615944018 657.0575923288577 0.2269691952295665
0.3113595962524407 -144.3373184240165 657.0421553851415 0.1548844373720129
0.3113595962524407 -144.33446174184337 657.0549279199412 0.1481126290950842
0.3113595962524407 -144.34792045670582 657.0520578917092 0.23356121066715724
0.3113595962524407 -144.36652643398688 657.0667471959038 0.23021562559173864
0.3113595962524407 -144.3612112738311 657.0493016456172 0.2326896393720344
0.3113595962524407 -144.35037370162547 657.0645421070546 0.18354978441917852
0.29278123883507406 -144.34937397908737 657.0319031708786 0.178521180518256
0.29258035657127923 -144.36019396172674 657.0323081413451 0.17966722165932802
0.295857469618849 -144.33453384140336 657.0542616197381 0.16261403000308183
0.29301539579046854 -144.37264653829453 657.0580027074765 0.23104376471018784
0.2924451138625822 -144.36643813125806 657.0665956586076 0.23955633470351154
0.09116087434755736 -144.37071600118765 657.0425334142255 0.14385132471821901
0.07330882067961142 -144.372367241666 657.0744299480625 0.2007431547920582
0.07368159463281831 -144.3828584081058 657.0805222313 0.11827010532289757
0.06853123024247744 -144.35914417679928 657.0715138602363 0.17674154210475682
0.08152889975312141 -144.36073010140484 657.0710492383862 0.20944117240022211
0.08089221257930934 -144.3746440004367 657.0469016161883 0.16561883193703164
0.07357535308269425 -144.37431648037605 657.0567273394385 0.2276551924602161
0.0670517322294393 -144.36941172787925 657.0367917213429 0.12162636059056338
0.06706136228496629 -144.36928008660385 657.0656179319185 0.23117100475845268
0.08426124268893807 -144.36725032692328 657.0347808593145 0.14306683238960252
0.07463344842469384 -144.35839726740954 657.0305850290466 0.17600412977290264
0.0661595993041999 -144.35618202241798 657.0417581988554 0.16969310566805346
0.0661595993041999 -144.35104726073092 657.0324304687256 0.15928645438648228
0.0661595993041999 -144.34761626941702 657.052080590402 0.16980062975632187
0.0661595993041999 -144.3643028771595 657.0531298258647 0.1726686628586659
0.0661595993041999 -144.3551653626581 657.0625374020028 0.18224317817581784
0.09155483001606425 -144.33914289932085 657.0380805946957 0.28720367861442825
0.06663580125785443 -144.33940996246452 657.0661509783702 0.1287218373367494
0.06616919521661162 -144.3341418759401 657.0461656512534 0.1333328389471022
0.09022613297057402 -144.35118488339094 657.0707182451584 0.2753771901209272
0.08596980816402573 -144.3690647638607 657.0640677085464 0.21324204148859136
0.09577448753437054 -144.2998747278821 657.0517344392991 0.1290534383834181
0.11961323249193556 -144.30945159099127 657.0439850446949 0.21446519760085825
0.1055169287825525 -144.310433794435 657.063720998079 0.19324830359068254
0.0969277706643231 -144.3128181304957 657.0457775721807 0.165044595686956
0.10813962172365155 -144.3175776727328 657.0548873617344 0.18345422627989172
0.11275889502382844 -144.3175776727328 657.0436967156497 0.19950824106374762
0.11372001090502872 -144.29843359741608 657.0618935131877 0.1544799556825176
0.1120840527357992 -144.29898114121806 657.0393483864447 0.1737433736756944
0.10163051806342253 -144.30014687152615 657.0610531294578 0.15718503770761932
0.1016078014672841 -144.2997708307451 657.0406971078157 0.13104945151919026
0.1214246758158146 -144.3034975857318 657.0537177337101 0.19647241594497095
0.27089789359980665 -144.31242737896895 657.0383155712749 0.16248257751216102
0.2807231070260434 -144.307772659231 657.0460508336045 0.19677497803617747
0.2769553025715408 -144.30627024399527 657.0612026846725 0.1529330528554734
0.27298425393896386 -144.3175776727328 657.0491710751663 0.26612429938318616
0.2654503820891214 -144.29757767273279 657.0410937468819 0.16188440220699296
0.2773560906536189 -144.29797325558607 657.0429807796818 0.22387195385062655
0.2678915077937156 -144.29865276051606 657.06302574404 0.1502074497221012
0.2567595977783199 -144.3101970989162 657.0496994049752 0.21413959030121235
0.25824947516863217 -144.30099204981647 657.0584825250502 0.1441550700035657
0.28375959777832094 -144.34348557976358 657.0452953868202 0.23674206391820113
0.28375959777832094 -144.35734070592656 657.06177928412 0.2630098989211672
0.28375959777832094 -144.36089007759762 657.0463352007155 0.2542076154398855
0.28375959777832094 -144.36755577927678 657.0555858459874 0.24370667975686555
0.28375959777832094 -144.3425304123561 657.0570386261679 0.22733171408934522
0.19633856445323325 -144.34682012064945 657.0304148860291 0.26291067051007716
0.09375959777831966 -144.3602483085705 657.0546634971589 0.2816090654056306
0.09375959777831966 -144.37081461223067 657.0551286990333 0.19135853205885855
0.09375959777831966 -144.34412938292144 657.0550580523613 0.28807780204788996
0.09375959777831966 -144.35585630633352 657.040360872386 0.24306164030873817
0.1620270272093738 -144.3170776727328 657.0610160724987 0.11347643812377264
0.21085585469044563 -144.31707767273284 657.0654082025416 0.09745965075124034
0.12048255272609663 -144.3170776727328 657.0581858724977 0.18020809339752258
0.19231530984745554 -144.3170776727328 657.0590201134881 0.1146668794544975
0.20168506405448003 -144.3170776727328 657.0524089085139 0.16144479205483575
0.2280052412422297 -144.3170776727328 657.0635136435315 0.14020207712119592
0.17361562682089343 -144.3170776727328 657.0585510158397 0.10555155414784138
0.14897340363935774 -144.31707767273284 657.0540080173944 0.16046615175028492
0.22089455549769008 -144.31707767273278 657.0530350851252 0.13148294893456844
0.2481161936085418 -144.3170776727328 657.0543141184214 0.18546421708658106
0.283296940256904 -144.3170776727328 657.056086085738 0.16031546926050397
0.18122833004280714 -144.3170776727328 657.0504984424792 0.12275143385777708
0.191506590073575 -144.3170776727328 657.0468831826925 0.15157690364140392
0.1285488459729843 -144.3170776727328 657.0371412207132 0.16452451241270485
0.233878296998938 -144.3170776727328 657.049079618026 0.18570242803591555
0.1581393057409023 -144.3170776727328 657.0446876224021 0.16374111464323576
0.24898156043970632 -144.3170776727328 657.0433619727671 0.1784888899036375
0.13760068756340094 -144.3170776727328 657.0464193198702 0.17992345010019895
0.2212752199195574 -144.3170776727328 657.0412867717687 0.12895965093724704
0.20358131879937452 -144.3170776727328 657.0396352362137 0.12371967783916131
0.16907798654681255 -144.3170776727328 657.0408927879312 0.10197606058031047
0.2577901462762197 -144.3170776727328 657.0363609760665 0.1739211561344043
0.17937617853276838 -144.34622581201756 657.0281344853222 0.22280059757530304
0.28475959777832216 -144.34550706483452 657.0686929558958 0.155186977166971
0.28475959777832216 -144.3291141559732 657.0630868174422 0.13962266069070062
0.28475959777832216 -144.31763450650988 657.0426983022004 0.15516930624009417
0.23215674876893375 -144.34477970384518 657.0321803349783 0.16500869513013405
0.24533676983225433 -144.34355479407478 657.0325990704282 0.18365568120855563
0.2558815132861975 -144.3411300736201 657.0333426160372 0.150713918070066
0.22412443788591052 -144.33900408950285 657.0339031127063 0.15936801220582264
0.20950806492802615 -144.3457281000105 657.031839316696 0.18951308980633658
0.2675440036423127 -144.33552977415636 657.034649415496 0.1800135326556735
0.28302827389302637 -144.32937305715546 657.0354513826576 0.14840371811381223
0.2409754822239064 -144.33157961971665 657.0352405548358 0.1460972711007391
0.2518843659176425 -144.329534222583 657.035442786528 0.14915781186180518
0.21132167244941424 -144.33349613090203 657.0349917071694 0.14617389834467584
0.2818903144304824 -144.34948464290994 657.0306603747495 0.1421340504925679
0.26622978271286535 -144.34897699198592 657.0307792703306 0.10781980771379003
0.22455345769087365 -144.35332551517413 657.0301413034658 0.10011850160814709
0.24074650913969117 -144.35441483606695 657.0301375848892 0.07662400663873119
0.11872545278099578 -144.34974994958128 657.030590948445 0.11370433147884443
0.13179178313680748 -144.3470816725356 657.0313434822376 0.16156323994298843
0.16491684020622444 -144.35406096850681 657.0301191234096 0.14450247440276448
0.21232798756211307 -144.35545403813927 657.0301802617669 0.08764967721585747
0.14383453011880593 -144.35731349771888 657.0303901053236 0.0887410998936928
0.1912178693930253 -144.3576948446202 657.0304588110673 0.1206814369586711
0.0973713650262676 -144.3591930731857 657.0307692767652 0.11604779452023992
0.2611200257292018 -144.36003258793494 657.0310176001418 0.11477904170451668
0.2497857393839653 -144.3599549266038 657.0309942084855 0.08824306074418582
0.11171638290395378 -144.35953825535978 657.0308687067666 0.11416823299829666
0.27021902539164716 -144.36522414380613 657.0333608764662 0.16423362086370813
0.12292538393559194 -144.36580921671944 657.0337254951255 0.10823898892275961
0.24058795687331908 -144.36520551080702 657.0333492643423 0.09188328085477844
0.13646209195862746 -144.36490818296588 657.0331639690119 0.09612697508141888
0.1080443041003347 -144.36867740303566 657.0360501734319 0.13026873784358478
0.22772542868032708 -144.3675837424156 657.0350639076601 0.09615989253508458
0.1573796356161163 -144.368894689869 657.0362599322935 0.0934337235243416
0.2813544758569355 -144.36645484910557 657.0341922054947 0.12697510785652613
0.1678587375861613 -144.36626769061263 657.0340512357127 0.09150152142068006
0.20547898877184795 -144.36374125698177 657.0325119765007 0.09450854153705676
0.17847109590203883 -144.36274294859066 657.0320060250635 0.0935487160160705
0.1325010180627805 -144.37211367181797 657.0403925974726 0.11179841221907029
0.25872360479109735 -144.3714186130266 657.0393136079564 0.11829739723553538
0.213784127757032 -144.37134187817804 657.0391944869581 0.09851908712995054
0.17228297459637998 -144.37349050618025 657.0431781695733 0.12809491222567898
0.11493480501226415 -144.374329275449 657.045590891819 0.1388850784821521
0.14798787654227075 -144.3739255223369 657.0443196742033 0.1429776317341755
0.1844598414651133 -144.3728981753842 657.041848999646 0.10524195210225769
0.2720904091522167 -144.37291511299534 657.0418812204254 0.1707023268898717
0.21985861486690564 -144.37484583383417 657.0481539713505 0.12202816595491102
0.16005128028741616 -144.37492210654491 657.0487326265761 0.14534699077308771
0.20861708655021005 -144.37501879738892 657.0524569850202 0.14881691048402887
0.18121407225695596 -144.37505591507576 657.0516411258822 0.13812446180285565
0.12351145476490746 -144.37481276755096 657.0543568818506 0.11395409807041793
0.13749225683861105 -144.37507038333337 657.0509925340286 0.14984934114146672
0.10488284422101311 -144.37471089491214 657.0472711681181 0.14406681451382003
0.23340126507033207 -144.3746634791501 657.04705836832 0.11334330588279559
0.281872085452764 -144.37459463190686 657.0467493850026 0.1453888174693681
0.24684130069102658 -144.37453335212234 657.0464743640982 0.13194451288853906
0.19607148496063964 -144.3709195072795 657.0386167144279 0.0991504778262017
0.2256106965588687 -144.37385309849262 657.0581713190237 0.12549523019157102
0.2501845379602271 -144.37394331564812 657.0578898699673 0.12486787337577275
0.2153979828266665 -144.37221015824295 657.0617235812501 0.1290746721067135
0.17402992810206325 -144.37297815378918 657.0602722352371 0.1269497784627681
0.19628091021787467 -144.37346653985196 657.0591491034239 0.15161280885191483
0.1864371792138447 -144.3699045831961 657.064925174632 0.11853986715548274
0.2816117486055326 -144.36677819580228 657.0678336428928 0.18456417459346863
0.14295798657904427 -144.36702769993315 657.0676467676956 0.11047476388285835
0.13213998780957265 -144.36511981354067 657.0689730206288 0.10298054583084056
0.23955704116866589 -144.36766267532818 657.0671317218678 0.13830450845997377
0.2712794142010952 -144.36859032298415 657.0662997863852 0.16945825842083515
0.15669917696908356 -144.3683401841195 657.066524116599 0.13318502133775967
0.1221067809752075 -144.37085026129446 657.0637430163424 0.13018730172753745
0.10446504669546873 -144.37039184289443 657.0643298144644 0.15916902527364726
0.21763022792191863 -144.36239489067046 657.0704047702714 0.0917585860987236
0.15081530093753365 -144.35822369121834 657.0717003342429 0.08007938422914704
0.2666842946183273 -144.3583241487019 657.0716798010919 0.1179084090524805
0.1037864023170489 -144.36088167523675 657.0709979150776 0.14039984139638123
0.23986575635952043 -144.34907817421274 657.0715096504907 0.10119014190049015
0.10460243381870546 -144.3499394381583 657.0717200367403 0.20407942464053552
0.11732474458017716 -144.34904194618514 657.0715008008473 0.1418897346858858
0.2590947493099773 -144.35052898666407 657.071815365846 0.12047685105710444
0.19673589631060992 -144.3508627379627 657.0718662832707 0.08034674871705229
0.13599794646894992 -144.35477060982393 657.0721032638378 0.06936707505878385
0.17899160173766737 -144.3547119516846 657.0721047366616 0.06381551852753374
0.25667367417942366 -144.3635597320011 657.0698490655969 0.118240676121558
0.11633428944846991 -144.36315592229664 657.070052324953 0.11458570982248814
0.17239387428653438 -144.36404203660354 657.0696062954955 0.10332533634412602
0.19918734139571287 -144.36391165873889 657.0696719217559 0.10647663047510703
0.2679209876225987 -144.37450705995315 657.0559103511332 0.15953968533325266
0.16192207980524606 -144.34650992098523 657.0707203794482 0.1436463652587404
0.15513728764677184 -144.34450599783298 657.0322773523333 0.19756673860816104
0.14282412125744764 -144.34263826877626 657.032885566807 0.19355019194293852
0.16680568331092205 -144.34260414773763 657.0328984496227 0.18987389297029067
0.12443843325912017 -144.33936839698066 657.0338073329558 0.18089610828446948
0.10900175156604985 -144.33608705785375 657.0345463225489 0.177478135028604
0.17206683976387302 -144.32982243010818 657.0354263987408 0.16136901792615876
0.15125626415480145 -144.3292857480864 657.0354648523305 0.16170931139153782
0.11906591611373525 -144.32834304473926 657.0355287646686 0.15423142902256018
0.1610635371677783 -144.32489642320516 657.0357247063018 0.10975952246717849
0.14469631893923937 -144.31818676204125 657.0360763565028 0.1411250894762674
0.17812777651642875 -144.31864264337372 657.0360524631668 0.09962581205860585
0.23176195026359397 -144.32145230407502 657.0359052051795 0.09654810890316708
0.19197590989370783 -144.31869115047428 657.0360499208463 0.1087086089697177
0.22164171582245948 -144.32691646641882 657.0356188227986 0.11415710557433062
0.10277466698220637 -144.32642587420358 657.0356445233414 0.16818167108324772
0.27035109391644246 -144.32320546603046 657.0358133127681 0.1538539185327666
0.15301495649275434 -144.32638409821553 657.0666059604682 0.1559642391306931
0.16505517188310034 -144.3268351896428 657.0666288133237 0.15247851218040093
0.11945402731765106 -144.3255930462605 657.0665658847876 0.15139947720357527
0.10504311544682589 -144.32116049074065 657.0663413259851 0.16396631918999205
0.2752104678215939 -144.3187955029559 657.0662215127483 0.14380528597160294
0.2655956827673935 -144.327596358759 657.0666673751025 0.14725349753232203
0.14482502667875846 -144.31789791961083 657.0661760400542 0.08309241342066824
0.1299711707263116 -144.31737629991008 657.0661496141481 0.12969737602275472
0.2455221659531865 -144.31852263670464 657.0662076890029 0.12743352851559253
0.14226323485570605 -144.33359152475583 657.0672751203361 0.18743406803258353
0.11396276040055349 -144.33482275567712 657.0674806355078 0.19144640456994624
0.2234578694649435 -144.33088733375823 657.0669298744658 0.1498221636271651
0.18378654341882159 -144.33050489517865 657.0668839505333 0.14339566591154285
0.1314393085393178 -144.3330364927883 657.0671879494606 0.1611128497757144
0.2758777447150065 -144.33226124643113 657.067094856443 0.12336897790967542
0.2453424760663578 -144.33101908524395 657.0669456954281 0.20228394025807211
0.23434182489529537 -144.33137046789344 657.0669878901072 0.18757038034574655
0.20476167016428143 -144.32886739680254 657.0667592939743 0.1593068943001663
0.09402479095384114 -144.33848139310714 657.0682155782159 0.26054170725192843
0.25961465293034836 -144.33758929686758 657.0680242210473 0.172010041039413
0.16064252688513347 -144.33645374600025 657.0677806421718 0.16943233858890014
0.19161446625214093 -144.33953408302563 657.068488489735 0.1592378319054098
0.12326360395015021 -144.34001656859863 657.068615400731 0.171437064820393
0.2034587290622386 -144.34081560314743 657.0688255754515 0.1727315659337374
0.2705372069858442 -144.3456450949864 657.0704071625446 0.10735985434920621
0.22337970717568456 -144.3427457423874 657.0694087619613 0.15602042264065155
0.2501579596120558 -144.34289474847418 657.0694553642286 0.1611336951080494
0.14040489797951708 -144.34388631383305 657.0697670190201 0.17292957787013272
0.15107285085292946 -144.3453701252635 657.0703070818226 0.14764072627886735
0.17657399377399863 -144.3446344342616 657.0700393123903 0.13470760781684976
0.09275959777832199 -144.32639720164644 657.0616407867496 0.18947338976982325
0.09275959777832199 -144.3282698833304 657.0404516035845 0.20880560205297316
0.09275959777832199 -144.32199639314788 657.051280227365 0.18118123773663053
