x y z curv
0.11910000443458557 0.16365792442479007 2.9611641152905843 0.22527709908137372
0.11910000443458557 0.15910765031301172 2.949043348314034 0.1501463183858785
0.11611503651122235 0.16647472929820073 2.984951297514961 0.14162901305535308
0.08090154622017684 0.15286027091876664 3.1801129048028582 0.09604413729940117
0.08045184360289481 0.15281151732483697 2.940925058937215 0.13980325956757786
0.08099770175350357 0.15287069542519766 2.8692398882295214 0.08197553999454056
0.08019265953613089 0.152783418411781 3.0831825855590513 0.07577561087650592
0.08186246611070243 0.15296444709284535 2.6970282340932874 0.08792989769136839
0.0810733289777869 0.15287889439678695 2.8557923062913986 0.076438499917496
0.08152407095896941 0.1529277606712384 2.9108346612613345 0.07393247569363882
0.08194384081669306 0.15297326916596554 3.0235253135736 0.05429188622965126
0.08196960645084171 0.1529760624947485 2.7295491330210266 0.06571401739748546
0.08219946803548146 0.15301290529878908 3.1094298461782333 0.06916911578244567
0.08233367689754323 0.15305584138995998 2.6148166642405606 0.06533412168542278
0.08265598967028355 0.15315895567305066 2.965218426590732 0.17366185700296552
0.08249280888992937 0.15310675088750234 2.653507139280232 0.07999105095341197
0.08469929055215186 0.15398573248019387 2.6305616794752993 0.08449521983847955
0.08428452433829077 0.15376040487692788 2.8215601919406823 0.07089840466787219
0.08478452041808451 0.15403203480853084 2.763595504007444 0.0764000305327577
0.08461523240401042 0.15394006670409466 2.7496814802552425 0.09177365709964758
0.08411354637158196 0.15366751868185635 3.040045995595804 0.08881650971653565
0.08579292152275741 0.15463844895749884 2.53019265559206 0.1084718014149295
0.08619656163047681 0.1549690841213613 2.7086143505179665 0.06540796780207307
0.08574146933379294 0.15459630274208563 3.138718678885998 0.07522087072569363
0.08627463162606008 0.15503303387583012 2.587888524215896 0.10388594339552518
0.08609703566149723 0.15488755905873047 3.0964362617345706 0.07643447796626683
0.08651864473931184 0.15523291320927998 3.2495911012600587 0.1373539649408329
0.08641087655997037 0.15514463667542153 2.8797623720641674 0.0839671484476712
0.0874779040176079 0.15618357313891346 2.9326432138316885 0.13706581512059715
0.08719124600534695 0.1558416037064049 2.5441067917453255 0.10546877029564027
0.08705265779506853 0.15567627453507815 3.200010555592362 0.09341324701933473
0.08754858596050213 0.15626789334929064 2.798804284195654 0.07635203932961636
0.08720471739538482 0.1558576744367153 3.0728484880823967 0.06783479494224251
0.08768938510699031 0.15643586006280574 3.1228319783727887 0.07224507901307592
0.08899250511937666 0.15844301579801223 3.232436622241815 0.10110179840193484
0.08877788303632196 0.15806044757450322 3.0045237955890927 0.06952805782273375
0.08921676468075504 0.15894025764742717 2.9580010560153003 0.14518688254288367
0.08928346281682785 0.15914516654514116 2.5547542317199117 0.12532425839439468
0.08945550758424314 0.15967371960110743 2.6741305115085607 0.07308560948230403
0.08930066382031854 0.1591980111802747 2.9206129602743722 0.10140771715731801
0.08960909124669067 0.16014555675926515 2.9010610503209415 0.08259698175916753
0.08957577777832273 0.16004321167911395 2.844429868648441 0.07548419250062072
0.08975617906810932 0.16059743750329605 2.663666999119001 0.07346005634467943
0.08968214355646152 0.1603699868431024 3.1648303520381034 0.07259968664165507
0.08962659927808218 0.16019934464037866 3.1891701772622634 0.09040410987036276
0.08974357134417209 0.16055870426475632 2.6475921838442416 0.06590356905085144
0.08965995482580477 0.16030181899601917 3.058461336640134 0.06443025634608225
0.0898815655602164 0.16164881161773897 3.1778105230142666 0.07610984295746444
0.08981534809156479 0.16102615780569965 2.8616550455595675 0.07809379981734825
0.08985506953927103 0.161399665149572 3.150088736816185 0.07509536763197898
0.08989624427426854 0.1617868379942604 2.608079497647683 0.07159707096988416
0.08996506836081382 0.16243400226556481 2.781939199315531 0.07303752918975585
0.08992925888796248 0.16209727986840833 3.018508311061339 0.06535876336176086
0.08999446298262144 0.162813661497252 3.110481823028035 0.07026183004785037
0.08977250717734736 0.16486094748179042 2.8262895315134893 0.07435798269400663
0.0899267617392362 0.16343812728469692 2.6945343174664553 0.08892585851866847
0.08952619685349185 0.16566039851318007 3.1389140782822045 0.08230916895770175
0.08942144242984616 0.16598783933488442 3.0791804544824957 0.07843354705524928
0.08976337591534148 0.16491902545989692 2.7445295029365377 0.0730356759810469
0.08925227309885037 0.1665166279322596 2.9128376553709425 0.08317708706373264
0.0894771244647226 0.1658137887256636 2.8051867086205347 0.06995604792203415
0.08946856253145864 0.16584055157123856 2.6272543612546357 0.08620951716979067
0.08879001393137946 0.16743750291384146 2.5839995642209326 0.10576341518615263
0.08904488550149882 0.16696835379806318 2.7236972128540495 0.07485920402588297
0.08898748522067139 0.1670740120752222 3.098462533109209 0.09136684102163067
0.0885462170868324 0.16788626647736962 3.22429008803753 0.07907860367443936
0.08835184731121103 0.1682440482743903 3.2400994631802407 0.08032341058169067
0.08816222737303345 0.16850888814666176 2.8837596733895383 0.07160313662061338
0.08817027073699923 0.16849906880135102 2.9294487997945837 0.12575990405219734
0.08821759838363213 0.1684412911716167 3.0402381667299943 0.06251560634524143
0.088272339349749 0.16837446335539058 2.5271642591000396 0.10231612090238297
0.08769090237972542 0.169084282084144 2.6828988057635828 0.07748209822660661
0.08817199632561486 0.16849696220135715 2.705117271374508 0.07138256659540466
0.08794146164762504 0.16877839912487727 3.21058316546043 0.09904472202223995
0.08803496308756148 0.16866425249049727 3.1221985209116796 0.07905559550636589
0.08660084939142469 0.17022208237317205 2.5487696741317007 0.09279391745834839
0.08670486732459023 0.17013488915403555 2.8494264999389487 0.07087181019414239
0.08685678901700812 0.1700075405227424 2.7715577388945825 0.06568330292848688
0.08572437427926605 0.1709567892087759 3.2505595449575098 0.1254100527562594
0.08603765297805668 0.17069418277733525 2.9854383911558418 0.13228857748231562
0.08564382751167555 0.17101208633304724 2.6385414523973396 0.06999920024938394
0.08566629007607958 0.17099948469644521 2.6012892867365838 0.07472131030738552
0.08549581919648923 0.17109511990697537 2.6143300674176753 0.07888005373136975
0.08540978042375737 0.17114338818695218 2.9999846325509987 0.07969431290264277
0.0843916392608113 0.1717145716330733 2.9008540815663566 0.08278077539770959
0.08490216479085093 0.17142816367493016 3.0290445618193793 0.08327054409902583
0.08450591163146079 0.171650464131246 2.7370907507559457 0.08708603425999495
0.08414053466009581 0.17185544285642945 3.087456013188824 0.07955963421007423
0.08264645936679853 0.17236202169356252 2.696401756944357 0.08526978536535565
0.08320569864355157 0.1721799882664154 2.659689075354411 0.06532916494427593
0.08298528247342828 0.17225173414070222 3.1540006091925337 0.06886267054962723
0.08275726347978703 0.1723259547482177 3.180517419921431 0.09040130350851155
0.08151441469677087 0.17260147835863598 2.8134136991602126 0.06409562437013856
0.08094166134297742 0.17266238776657125 3.1404749586884977 0.07671708906113552
0.08081401238307596 0.17267596258463153 3.102219691714586 0.0755815641206105
0.08141225521528504 0.17261234250022692 3.0551942082867516 0.0814279319405186
0.08069899719947102 0.17268819386479872 2.9728301050330774 0.1587227026854656
0.07905734537185044 0.17266033146514947 2.9120282479273225 0.06509608967514095
0.07925974346209033 0.17268227404214254 2.561108387279684 0.09468528379530937
0.07789677327787294 0.17253451040380485 2.7615720147969567 0.07832229964558524
0.07818500120790203 0.17256575804818094 3.06610091151937 0.0726962453249482
0.07732103735326834 0.17235875260743497 3.228455356095407 0.08948542678249169
0.07772438750566699 0.172487791520634 2.718310279266879 0.07461697847288969
0.0776800315943372 0.17247360127288547 2.7918254940532883 0.06738179116014828
0.07693259375914324 0.17223448256829663 3.0778262937387213 0.07227975896661781
0.0770133822087449 0.17226032823532722 2.842756173182284 0.08687557467026791
0.07757611844370868 0.17244035760124074 2.5220736865233486 0.10339997553768246
0.07621482605145447 0.17200485586708247 2.859448669403492 0.07955476188474232
0.07653157571535783 0.17210618973826908 2.824526921318947 0.06829575601654052
0.07761062693677347 0.1724513974841185 2.5109117178931144 0.15301690701130732
0.07590784854180224 0.17186916227593846 2.746167191028563 0.09711711156337086
0.07594068336066818 0.17188700025500106 2.6484150929960752 0.07315214277694937
0.07536397117673069 0.17157369321638957 2.6218938031278896 0.07953786849813575
0.07577323185487958 0.1717960298596273 2.892054222015885 0.07247590557132268
0.07519303054512655 0.17148082730414094 3.119949654115029 0.07159557162215059
0.07454311419568649 0.17112775106878547 2.8801996232357503 0.07592124586582814
0.07417097172895395 0.17085702890183282 3.0341917419739244 0.07532097111512044
0.07326422864831529 0.1701142828822991 3.014549910292558 0.06206989325355228
0.07408310198381456 0.17078505161870455 3.2501312535438984 0.14387606449163426
0.07298336370177402 0.16988421625645495 2.9252618451441066 0.10529494443325048
0.07226122126386725 0.16903026026168308 2.7759805371387936 0.0644653013055873
0.07265442620755921 0.1694993363702786 2.6753970523241413 0.06841128088026226
0.07260281056975103 0.16943776119704096 2.536525291401814 0.11464274669181937
0.07182773658118179 0.16851313220581315 2.590884923015187 0.09355425996360196
0.07277839396076019 0.16964722441745536 3.148313987285185 0.0742480812058948
0.07190550295018569 0.1686059040448685 2.611114851823554 0.07542239169070328
0.0721478798848389 0.16889504900894992 2.8694582299651485 0.08580907410229822
0.07159567881594614 0.16813047186022415 2.904575749735264 0.07087626328412593
0.0712298903047748 0.16747844938152634 2.8019828939175073 0.06924365201323887
0.0713021661911511 0.1676072820297532 2.551769824380804 0.10983827524399184
0.0710848430385195 0.16721990086186594 3.058583147878167 0.06927994927221114
0.07096694043349934 0.16700973803164476 2.694747362473992 0.08675118581802137
0.07091181301419204 0.16691147273494128 2.985636596450898 0.13514518257378327
0.07085859525132242 0.16681629110282928 3.1091802192438966 0.07307803530740666
0.07083635983446213 0.1667479796967623 2.6327805905622403 0.09549825758685691
0.07073340966024097 0.16643169729018206 2.736916927816324 0.07860508555092866
0.07036383724576953 0.1652963009342362 2.91518731945448 0.06663191446794796
0.07032451931449894 0.1651755088130174 2.7233491091250808 0.07281909084818367
0.07063432793728726 0.16612729949755087 3.2227186922142126 0.08346810823682063
0.07036986154480106 0.16531480872026053 3.167171113429128 0.07800960108536942
0.07010762105838571 0.1637744621744417 3.2591083877664495 0.18568886064383455
0.07006897359051369 0.16341105364061814 3.202639271551499 0.09205321439073126
0.07022172659263885 0.1648474153894207 2.5799196706154515 0.10416390077557751
0.07006118213509994 0.16333778929642787 2.8508461506041165 0.08061429475467846
0.07011952320344143 0.16388638001336395 2.5135273250914016 0.13289790024481218
0.07011600083431901 0.16385325859380281 2.7649939395761147 0.06456763564124593
0.07013210858398418 0.16154402672327295 3.1411349792409733 0.09342404689776374
0.07013178453312174 0.1615470157182585 3.0767242773054537 0.086987961618368
0.07009828111938349 0.16185604601956471 3.185979197722588 0.08324003181186679
0.07000559939601178 0.16271092788691424 2.78621186651735 0.07761461151418793
0.07008300383777272 0.161996961299906 2.8920589219657837 0.06740192011930814
0.07013369962661435 0.1615293511923785 2.954672291229032 0.15840595003762262
0.07019709099037887 0.1609446390672974 2.7051972042464594 0.08022161405017836
0.07014835485044063 0.16139417367673392 2.524990980193539 0.10468446663185389
0.07009625889145109 0.16187469873693083 2.81434986818401 0.06326993429987457
0.07061960687894318 0.15940894464878672 3.246993734679244 0.10942138387845969
0.0707861154382387 0.15888847307747672 2.8274371318203233 0.06676624447370766
0.07047242668743339 0.15986899971060992 2.6859521349490083 0.07559673548372559
0.07078706579018892 0.15888550247239241 3.045925220967181 0.066448895900248
0.07066522586653724 0.15926634905937612 2.864001264416146 0.0877550012343262
0.07050540851455207 0.15976590529037255 2.6536037602517277 0.08408181285532494
0.07169895426559367 0.15718752100669048 3.091447429107612 0.07493825378824441
0.07134244457685138 0.15784375820553342 3.0258390507094157 0.06067979420780594
0.07134405404163965 0.15784079561938882 3.1567640613100068 0.06490458385729898
0.07180488060865454 0.15705634089910275 2.8381626535633915 0.06805292647065249
0.07223313249318525 0.15653353198549513 2.9041298373744033 0.06351160114182863
0.07173917572118443 0.15713655327429077 2.8001010418504935 0.06758994964184295
0.07222765223095295 0.15654022227699746 3.103864383108623 0.08717336737396929
0.07328466075249129 0.15539896041920448 2.7578866061828204 0.07419957813485807
0.07295825804809801 0.1556725697877691 2.7374355371222068 0.08568466890123361
0.07382390368972519 0.15494693622463246 2.6384699810588312 0.07192165957955077
0.0734368850681894 0.1552713573131709 2.626797114158125 0.08724758871317559
0.07390344218692266 0.15488026251849626 3.2280554407413184 0.09660483381789185
0.0742505038463849 0.1545893356351698 2.8813391574412495 0.08033738150202713
0.07450811126167305 0.15442773845299287 2.593429199697603 0.08560965980432701
0.07456698441686072 0.15439471038559072 3.059271875524367 0.07198575819655359
0.07533420110279752 0.15396429886213134 3.1473865485296457 0.07933301225596748
0.07506104410564994 0.15411754099234168 3.118809620099592 0.0775917134714885
0.0762049686313045 0.15353690461661376 2.5388900422510874 0.10783290088738579
0.07751939320237487 0.1531090569683093 2.5146646479931665 0.13731634887262842
0.07707189035126769 0.15325471998060358 3.0119685673753684 0.056715327872392564
0.07704646756514028 0.15326299514488262 2.992083630969759 0.114950897723599
0.07761969105992861 0.15307640982869486 3.1670605097825355 0.07896301704009
0.07843238025202448 0.1529292412285267 3.1297587258369033 0.07222636167886345
0.07915262596824757 0.15285264675753407 3.2389724935881326 0.11232403242190302
0.07911873143412643 0.15285625126895575 2.8960197479075673 0.07563425951241262
0.0794917497235509 0.15281658266988532 2.789395603743167 0.07300229585433703
0.07978751349426931 0.15278512969620328 2.6718901175780436 0.07287162454867861
0.07790144614746246 0.15298570337186873 2.924019596200191 0.10208676045325663
0.0789028140942645 0.15287921298056661 2.684768693534445 0.07863213240993668
0.08730019221338146 0.15696467715937062 2.509999990463257 0.1562742958257477
0.08081470632811164 0.1588180882908623 3.2600001096725464 0.19028128331973898
0.08575760607547775 0.2097625294700265 2.5706265100702663 0.26623193262876765
0.09985332771577435 0.2097625294700265 2.5575654137108237 0.1917986382396088
0.08037693151279425 0.20976252947002652 2.5552775626290916 0.27616641231852407
0.09903628914509421 0.21056779200015302 2.5747975326388923 0.19370429964019584
0.09025678520492783 0.20979764989507207 2.583789775677872 0.1720304543463895
0.07674952505777798 0.20996938551647853 2.586147599732291 0.23964519823333572
0.06698412475143722 0.21272528517705225 2.5820071086060463 0.2458708795903586
0.059730581181320026 0.2101220620038096 2.5718249334115004 0.23081514992822527
0.05948440740493682 0.21261722558456866 2.5588767235804264 0.23176531358027522
0.06808393146700134 0.21754394807849958 2.54714112837343 0.20908577729156444
0.07830342492871709 0.21126566312299233 2.5436804973658425 0.2553087762245042
0.09062611644703925 0.21166037708357832 2.546413837893708 0.22362755455934463
0.08064049677101447 0.1447625309228897 2.5773360652173913 0.11892942169105401
0.09225203889081139 0.19234824750734383 2.5626683687928202 0.18111880713853767
0.09153943989655916 0.17605006308052618 2.560278983069868 0.10223653972200833
0.08980994248625707 0.2027225862067599 2.557328073296029 0.23330519564590668
0.08707671722848154 0.14565502447651227 2.554710061945134 0.14163912944273216
0.08470066195628126 0.182308974045093 2.5534371810465863 0.1173515846421538
0.07855467780194246 0.1535624807866756 2.552653762996438 0.11987634885865837
0.07038154659573437 0.14515822085848662 2.5571036729281484 0.13883673679186864
0.06948134680986776 0.20426184620668342 2.5582932327766934 0.2348218082967507
0.06856038466256488 0.1830190035070828 2.559988490877651 0.1100322106328344
0.06823374656293628 0.16239573691890022 2.5609353971400477 0.12194739751129956
0.06770041384943215 0.15207786675413731 2.5668844116016403 0.15196302861912947
0.06823266403239003 0.1724092760389229 2.5690208278076816 0.11958701788908419
0.06857976997198102 0.20212255475000657 2.570079200781865 0.2106382899356199
0.07180661215410442 0.1912335334038058 2.574375104115554 0.17090488918606664
0.0762299262546415 0.15598225179953618 2.5768604502777697 0.11116524671322398
0.08291760698876766 0.1970206102131894 2.5771263772962874 0.18227740999794573
0.08802604311521654 0.18357197692880073 2.5745130238999243 0.1257806735979439
0.09111327984731278 0.16791396757396457 2.5706122262006668 0.11012863814710276
0.09186632014899646 0.14796059715357507 2.5687517929616166 0.1231381351300516
0.07460524180837576 0.2097625294700265 3.2122944503258952 0.2878151884323907
0.08669670913774631 0.20976252947002647 3.209849572977711 0.29169155404689595
0.08790049450403631 0.2097625294700265 3.1973446982759817 0.28084107814451287
0.09916090406284142 0.21502186606002832 3.2145681737196363 0.22461192048137144
0.08560234524106762 0.21287739834397673 3.2256672878183736 0.23482230262091552
0.07463047989821649 0.21671363070841515 3.225756676888673 0.18944058689512808
0.06287379659474468 0.21183111530290272 3.217893671689384 0.19761030078179098
0.05875869211707292 0.21590034757230847 3.2074325729995437 0.19694499310050628
0.0610330161233653 0.21617029166998522 3.1950747971953017 0.23770262407779655
0.07056434946334635 0.21495820104816712 3.185749538278537 0.2473454840906679
0.08400197915122767 0.216309836811782 3.1839337618649464 0.2235168625932946
0.0994937361625943 0.20985109681282868 3.19599796619842 0.2177524107439945
0.10142288648314036 0.21720188590666797 3.2042748562386247 0.24806477161086432
0.07703890718030279 0.1447625309228897 3.2097413252082143 0.1356412064832603
0.09228482412483006 0.14608229222738023 3.202976561276712 0.07863041431364129
0.09102978423933422 0.18945572858926985 3.199224794222431 0.11793774972567521
0.08807370821647151 0.1763267742332966 3.1955268334057774 0.08846350579258655
0.08186089671632671 0.16698187347706425 3.1927017192452025 0.08720027021601766
0.07785293892625808 0.1937249706895885 3.1927283020623767 0.16128165016184504
0.07662099829244158 0.1827088718206252 3.1930236799698393 0.09489299349950026
0.07718892151613721 0.20451716225169225 3.192838828623879 0.23795376923298808
0.07507837408403778 0.14736425345164159 3.193525783334058 0.11727583312452108
0.06803049054640621 0.17800750805877247 3.201570779695107 0.095843116916183
0.06770290510204072 0.19640178003376943 3.2031285122725874 0.17592606676924188
0.06752212923305641 0.1455214445498594 3.2052080668834284 0.10579318262566896
0.07205347502366871 0.1966476752886184 3.214577248930609 0.19610024616041727
0.07737045799806036 0.1820193254355582 3.2172149235855825 0.09174489033002284
0.07950353851933714 0.15521673808420927 3.217446153438147 0.09448796969263247
0.08230633450872342 0.20033186350329635 3.217254624953851 0.19972442636172136
0.08764664997484736 0.14586958971283204 3.214831167489355 0.11025486579192942
0.0889891445730671 0.18252578449048223 3.2136645966773627 0.1018532505436091
0.09142341498239323 0.19692910528985796 3.2100413316463725 0.1863449716014581
0.031000010669231415 0.1786558802541021 2.958228221072297 0.13700282836778918
0.06100000441074371 0.1682961871718933 2.9750266958458984 0.1635416108023364
0.03351576521548418 0.14927362460041074 2.9502237405436595 0.14069405382651257
0.05869468798439482 0.14729474443176666 2.9663101274611705 0.1556964707281062
0.05099274077812958 0.16133638018981128 2.9766787056500617 0.1510672593719042
0.031358159031778333 0.17623666255716014 2.9697530170285744 0.16489063113686353
0.04914073273248888 0.17803322029825192 2.96678596283217 0.154700606759248
0.051203814577922446 0.15087369656137128 2.9483352433850003 0.1397940056747792
0.05300396821924754 0.1617965255812926 2.9433685123199487 0.12873783606202988
0.05371514133291411 0.17863448682031746 2.9547806574102236 0.1685915332188449
0.07508402296234978 0.15297405632531855 2.9742420436247263 0.1752823535146211
0.10351535291692017 0.16676123697530157 2.9764476365852723 0.20822146190538812
0.1043274296229319 0.17887236669019208 2.9651820329429386 0.23679097318946485
0.1168859379247047 0.1495579016322957 2.970659315252308 0.1862666076426401
0.1097718094608082 0.14587025773468604 2.961036664579276 0.16791427354392685
0.11023531853443735 0.17925070672591709 2.9559864117311996 0.2112686292857677
0.11831318794744626 0.17512125719504149 2.9484320816994405 0.14852096282817223
0.09899771736210672 0.16645849936619603 2.94346179253853 0.18205573834691405
0.10453822921881478 0.15361968557885233 2.945799867174856 0.1575488544030985
0.11910000443458557 0.17183580481743244 2.972456217992244 0.27278109355666086
0.11910000443458557 0.17729325930798534 2.962673544496425 0.26683999138692077
0.08904842888245539 0.17958860450648725 2.9583746316263695 0.17625090088095566
0.07420712766788715 0.17958766325919218 2.961581777830502 0.16250356796357293
0.09433625632948911 0.1757048459891447 2.970891408982142 0.16734199526479576
0.06894360014846805 0.17647533494687673 2.9500870009078657 0.13322578377422892
0.08178507097266041 0.17637913493000262 2.9499386112442743 0.14090623087712545
0.09764837807759477 0.17600765330857648 2.949373432027356 0.1719079436368318
0.0841378149732735 0.1632636368939558 2.943054832654404 0.15416878398616513
0.07027958976940986 0.162140692692669 2.9430680559366684 0.12325067923569782
0.09631293602310707 0.15497221983666642 2.975081946321883 0.16442743246970626
0.06199561208135444 0.15749775630981205 2.9760914997448293 0.14738427835653928
0.09721754587136842 0.1461996088016772 2.963666788932549 0.14600688289453775
0.07408853647866592 0.1459143579408201 2.961318310864172 0.16749372002057034
0.08593023460590365 0.14604150822982864 2.957584004531266 0.15093122163851835
0.09653315612350107 0.14753360867453008 2.952489506685833 0.1629999444801006
0.07141728190350932 0.15031451955637798 2.948537122753659 0.15685682688179206
0.09102130753188448 0.15533520807628476 2.9447165748909714 0.15628089960131195
0.0617000050842762 0.1596313883292897 2.963632919906119 0.16132812642808966
0.0617000050842762 0.17245524849774532 2.9625819680862437 0.16487087277754867
0.06170000508427619 0.14822968028450306 2.9542921525138808 0.15616161845270585
0.03939765342662015 0.1888583965176383 2.9186273596413717 0.0633404743080846
0.04587985866539954 0.17023547597468297 2.956131095948195 0.16993427298531136
0.03648567470087103 0.17392692472495652 2.9295325072306984 0.13327598872115304
0.0336520065029113 0.1720208293213818 2.944816736336174 0.14348561445319885
0.033629876214942706 0.18137883878786668 2.911800378563351 0.07665226405777331
0.042808666153921045 0.1808562607865723 2.9457169002157437 0.14201026023895252
0.04459926426102284 0.1837082367272562 2.9335396401650455 0.1309893636938858
0.04614867953908982 0.17852790209722139 2.9228833352828696 0.08582283856307178
0.044335871608359806 0.1720125682290639 2.937489366107773 0.1579665391180444
0.04669157777382135 0.18413609976828205 2.910611989997267 0.051979716609977
0.033579448950711535 0.1653022509071848 2.9536459365588073 0.17029302283579212
0.03671964713800102 0.14568660400214611 2.9637583148278814 0.14152080553393478
0.042343410200182965 0.15251291457808502 2.9561825910034805 0.1548443595582209
0.043984179898269304 0.1403440330921606 2.969805633403414 0.15288830210671664
0.030200146370459157 0.16247867754164047 2.966910204248141 0.1737433121794817
0.04034451372169451 0.15942256703361601 2.9817689857457994 0.14226240379087796
0.05057327739912692 0.16059065844001674 2.9642116882581178 0.1496442986532472
0.04365951721803133 0.16886284048187827 2.968018146663836 0.17278851225056407
0.029265505484974277 0.14494740970957992 2.9755064845142476 0.1714861074665334
0.014650093960950386 0.044222138637272576 3.0740461725985897 0.1475639894316074
0.005425664996032076 0.03166155433760122 3.0890150844586333 0.140513071894897
0.07119181022776855 0.03767536403207601 3.081848232969432 0.1266787892850491
0.04841225292776341 0.04742600694807797 3.0702278437337247 0.14079204802931428
0.015234134877907443 0.005914321404916805 3.1197744798074067 0.11164756039610665
0.0006604892717900891 0.02188694213558818 3.1030669524501686 0.10461180795598773
0.006575351910997169 0.0412568525424943 3.081316355922319 0.11017863682777367
0.03553623835325302 0.05248957490690543 3.067564415621841 0.14085173924626324
0.07971885749961542 0.02923194762759327 3.105834278596017 0.1597309574928732
0.07710049029854016 0.02627073017518501 3.1168618748343886 0.14067186373867302
0.06682877742464646 0.018360306438314107 3.1293587212762093 0.14004754212803194
0.001601225432199088 0.033976212633270005 3.1184934893799525 0.17906144418983652
0.006476844702401271 0.028487194577803934 3.127685425949851 0.1829726262251534
0.012632683958380115 0.019051815014935428 3.1293893446869134 0.18606646589826173
0.021425566826598172 0.010263822191637916 3.130220739595913 0.1795529297204992
0.05219750290140429 0.009935723198003957 3.1333820392368974 0.16569318097065003
0.042459015052107495 0.01575411971635735 3.1406045424914195 0.16472398476833744
0.037694976468518285 0.00431870389947842 3.131074238055284 0.13594870507642554
0.031311889965694534 0.011871434652742287 3.136247916407312 0.16888771582809875
0.07928974021735453 0.0345527538545751 3.094742082271071 0.18367555032822167
0.0781403170459872 0.04602591866189369 3.0983578825392293 0.18330065880686633
0.07261074767541759 0.05592205965715766 3.092088234152314 0.1440695500678187
0.06639202519963808 0.051426857714477296 3.0793518508563515 0.1430018352651248
0.06313638356330283 0.06182998560444776 3.0846814724068836 0.1671456845386646
0.027500003576278687 0.06930249201849602 3.079228929254417 0.1744062821799059
0.027500003576278687 0.09348428016573085 3.0529158874308426 0.12146157938165253
0.027500003576278687 0.10814641856498476 3.0408486657964096 0.12157738513955878
0.027500072711285302 0.12824146875986084 3.0137958457121243 0.12742505985074692
0.02750313636693215 0.13044243629374744 3.0009458565597753 0.1322826285985037
0.027517071402768076 0.09370508515352585 3.041601918794084 0.1099091739455751
0.027515208594621934 0.07848045795342938 3.0609612194124605 0.12361996891348646
0.04624892915066601 0.06345890725909611 3.0615438708242237 0.14437144511169164
0.033519019683733595 0.13302952257904674 2.9788775653244453 0.1292609000377241
0.045366150548261056 0.13295910635058023 2.9780985972847667 0.15331363701395181
0.02926614339715322 0.06714819141750425 3.0643987164152815 0.1463886080212516
0.04946334163527709 0.1127513523381466 3.007103541997994 0.12289786973583013
0.05153175594338708 0.1285403142522611 2.9936260089027087 0.1036799014598334
0.05099336602896649 0.10015721893473925 3.025702126433282 0.1269513350959729
0.05170434968058904 0.09109430954757569 3.0386288456878052 0.11525436992754712
0.05210852655423924 0.08015415032692563 3.0544339841994823 0.12421701221470556
0.05226018400200819 0.11182508500100516 3.0178000481724063 0.13813840310432632
0.05200819548435784 0.14281188844043016 2.978860145462705 0.15715883973191713
0.05248294368919476 0.07275264224076679 3.068901715471719 0.16503145564676241
0.05250000581145286 0.1340536128394974 3.0056985564306764 0.09519630212024084
0.052500005811452866 0.07175814551554022 3.080381318645277 0.17670123223717835
0.027956163529330585 0.11649740232745792 3.010891959515137 0.13277468543413698
0.02822403839486788 0.09929089779803071 3.029258057177984 0.11999770126049283
0.027984961033593388 0.1334097048496717 2.9903361431404933 0.1216923509393237
0.02766828696055503 0.10977073222275038 3.021149229428058 0.11446138615838117
0.05310084511395664 0.058581954670570535 3.0752073275657077 0.15512649172720738
1.5456150471685305e-05 0.04041306483960093 3.108398174818705 0.1336678259862194
0.010872675170199663 0.05196591289001155 3.0833667404734735 0.1776349996791118
0.0194574961201347 0.06408618586447436 3.0843755384304057 0.1973720040365862
0.02457859394266302 0.057934725185993505 3.0758238437116288 0.18490754993493327
0.00495977202499044 0.013713083390458902 3.1108188427546715 0.14205684745230918
0.024414143779861723 0.049238801980581254 3.068923302899657 0.179299513657104
0.027556643041359588 0.04408000266855818 3.1193312748303867 0.17380899035109323
0.038419437696128586 0.04183920895554982 3.122001840284375 0.1801721782360065
0.01049702275972543 0.03931880256580944 3.125005628510754 0.17685572756364742
0.06021701007430019 0.03842688246247932 3.1260686002237557 0.18536460443477615
0.047541508936796456 0.03814325637385109 3.1264066198604423 0.15683791773310807
0.019842402560842118 0.033724676449558795 3.131672522038256 0.188613167315049
0.030984558986942277 0.03439967021361596 3.130868095181567 0.1850499113644024
0.07063254091122656 0.03585502177595114 3.129133673406129 0.12394119005275257
0.060925722509975515 0.030089409086262633 3.1360047785707064 0.16747049125726
0.04887154408035797 0.029744299726789984 3.1364160596003834 0.1819119644691858
0.035847098064473434 0.027213466763077426 3.1394321827885925 0.18186909392095812
0.07810598823021743 0.04605287990164661 3.1169801874861833 0.12120460965940177
0.04974975724303895 0.045771341890778736 3.117315696257336 0.19151377168126438
0.063336539465919 0.047152020610232805 3.115670341802026 0.19601635555948413
0.036728473546662845 0.049645467869967826 3.1126988142625045 0.18953316958292016
0.005600573642472849 0.04962506795420564 3.112723125670423 0.1572234366568571
0.027099356893192796 0.05429320165672295 3.107159891656077 0.1646706394008476
0.05470009764396619 0.054360377322408934 3.1070798350443303 0.1484009141891581
0.037659530791282696 0.05790722945664297 3.102852854771829 0.16682906569374434
0.008004373130082494 0.06099364401717794 3.0991745462932103 0.13013880967282587
0.04700521443902772 0.06320069950175848 3.0965443450703916 0.163804702992402
0.060462428416068976 0.06238835402353458 3.0975123970967147 0.15813608573200097
0.018633163609844572 0.06255292628320193 3.0973162804028713 0.14054811227061836
0.034301113724846004 0.06816218672528557 3.0906315557061275 0.1957228907085608
0.03649675808173389 0.12122931726022393 3.027388359513374 0.10399989371835824
0.0385042048123284 0.11287099748482828 3.037349420472464 0.12778619091888532
0.03567397542329229 0.08868800474793379 3.066169598606178 0.11587091571545363
0.04107023123243788 0.08069572566780674 3.0756944291054324 0.14202521096426007
0.037525648537093906 0.09607074718542838 3.0573711858340773 0.10554063323871046
0.05127802077190367 0.11868652993938714 3.0304187364538944 0.12433955070622636
0.03756482474099305 0.15101766050957757 2.991887982529642 0.12099129980067813
0.048127467097797916 0.14461447940558295 2.999518999172095 0.10158138850087114
0.050882381860395946 0.08547290377963057 3.0700012080199715 0.13852149288554946
0.03441435252012778 0.1435199111565422 3.0008234552524518 0.10795772344236736
0.04486897452534829 0.10527732002889181 3.046399215894855 0.113977528988287
0.04872594850553813 0.09574507955980621 3.0577593015269904 0.13296640876084018
0.03791234061190156 0.12880686023118482 3.018357792427862 0.11881220668278097
0.051379274484687744 0.15138681955554423 2.991448035762913 0.15450118468557852
0.017990572401813627 0.025578479271264346 3.140211087294932 0.09517397490229818
0.07712812623476861 0.05537830690926081 3.1057572182315427 0.11800790597872968
0.05244502066762218 0.1266798287111688 3.0197855741700406 0.0962735809090258
0.028367690316778348 0.08316996500098953 3.0727065310392025 0.129512900428319
0.028786800533365048 0.15426426703821358 2.9855043063176114 0.14025716873062896
0.04155001573048779 0.14720440230182746 2.9795802778101184 0.16966744187951843
0.029508888404296718 0.011903386510772287 3.1102285307145623 0.18800647816167743
0.07094477875941745 0.021733414116465892 3.099284400111698 0.16761421463308124
0.04028212299125141 0.016334968597546257 3.1057762161227744 0.16795366987868054
0.02753895820094413 0.027293139195926474 3.0919550854436255 0.174805149927226
0.03063692631586077 0.020742651571643258 3.102027764003518 0.18115451276252706
0.01633711323618307 0.01316182451957295 3.1110623216008446 0.1745671548575753
0.01736996891585336 0.02491394574672008 3.097056728612955 0.1860391847524207
0.01843117899357669 0.03266234596551666 3.087822404201972 0.18416225850070564
0.025828526575824354 0.03876826865483928 3.080545644735339 0.19543792825040807
0.03528004065745897 0.042559039527451464 3.0760280436349787 0.15704439586177293
0.04819012982267969 0.0377011352604691 3.0818175236353724 0.15563655912742513
0.05979340945036539 0.042975576630055655 3.075531559436797 0.14379426611962198
0.03462892491281445 0.005941856005276695 3.1196667656983736 0.1763447462562822
0.06007911295308341 0.0349127152431766 3.085140533775654 0.17175559239336943
0.06907470976535829 0.03028859750959978 3.090651393997064 0.15010150958643748
0.059446495038675634 0.023599861039073827 3.0986227594437867 0.1761881017360216
0.06725068005545874 0.015195035476808599 3.1086391566419342 0.13249925410374533
0.05521761200702904 0.017224758312919183 3.106220264945611 0.1744496076760929
0.056432803700066855 0.006830627799663397 3.1186075064279954 0.1686250995693779
0.04740080996279316 0.010740365229886084 3.1139480250922005 0.16918862274416793
0.03355000540614128 0.07437638823059214 3.0492708250321514 0.126167541766888
0.04377166455251951 0.12154291791555392 2.990603951167206 0.11321852934133485
0.04311701258213467 0.10378697978304863 3.0115133121945123 0.12273821899049306
0.03657675024039136 0.09630021625496743 3.0205308278053757 0.13747585359170944
0.040401318593423316 0.084610754579421 3.0337240071329505 0.10887320836226978
0.04282619455091975 0.02802276802578689 3.093351611522844 0.18073248221926472
