x y z curv
6.066882358703493e-18 -0.09907970792766523 0.3529027236757001 0.16846262772206633
9.567327906046765e-17 -1.5624632200415518 0.034329342867401254 0.1489413141173832
3.398873776520615e-17 -0.5550782117565722 0.21898318895135782 0.23322931550588755
9.303975228017966e-17 -1.5194544638496186 0.060830038414229626 0.18906922996647066
1.9225186172119452e-17 -0.31397111698662467 0.20116401095907532 0.22476940290494746
2.4326092385358237e-17 -0.39727523727322867 0.24456280167876118 0.19951998863971318
9.606091932916126e-17 -1.568793866052524 0.08112133814650851 0.179117144795442
6.775641403950156e-17 -1.106546215393307 0.15793761889328478 0.18099860716626937
3.0144944235842266e-17 -0.49230429960426714 0.1917052424109511 0.1524824059447586
1.8569546137854715e-17 -0.30326370265751 0.026715080619900498 0.2014109808048324
1.0798249648190795e-17 -0.17634879960016156 0.14042286596384812 0.1783537662228083
3.5883582692437e-17 -0.5860233778003674 0.27184489250095606 0.24813811402575178
5.947314268376672e-17 -0.9712701282553344 0.06695652612312203 0.19110809353952865
4.5487549089383275e-17 -0.7428680517689423 0.016572357472433345 0.19916520727626788
7.580549227928528e-17 -1.2379976386998115 0.09342195231409066 0.17893511813026103
6.964772427467907e-18 -0.11374336555351393 0.3314265222870228 0.17353061803676734
2.19193005823851e-17 -0.3579693442655657 0.1552509635425919 0.2325623075585109
8.931507182306395e-17 -1.458625815790293 0.04591843920720339 0.2021018051842636
8.587517785727835e-17 -1.4024480840854359 0.0787195208020009 0.2479336260655457
2.4322310391481416e-17 -0.397213472625994 0.1046580235782968 0.2032831453006372
3.974884649674078e-17 -0.6491479261516949 0.059236553328981104 0.2020939215028242
3.224229814579727e-17 -0.5265566883161025 0.13133320982560664 0.18044283453027116
7.23734893552481e-17 -1.1819487774864939 0.08153764241118959 0.15547178384382107
1.727071548222823e-17 -0.2820521883412062 0.30626679115405514 0.20386052274403543
8.57486011423163e-18 -0.14003809294568495 0.34262302491925756 0.21146829254016958
1.4495391586303467e-17 -0.23672770951421623 0.11755712470909942 0.18499459030697374
8.970668536635773e-18 -0.14650213502997766 0.3193690946896994 0.18394596335342125
2.819961941318141e-17 -0.46053473430568037 0.04698668381876548 0.1743015688539616
6.805202208648711e-17 -1.1113738611633588 0.008354686449994311 0.17826364418070645
2.2250565375050153e-17 -0.3633793088838653 0.09794542988950695 0.17093783974555157
3.629416984627131e-17 -0.5927287748849828 0.17391218708166875 0.20976582865845897
6.35479393482915e-17 -1.0378166078992908 0.03365609884301903 0.18396473522983142
7.277340325925169e-17 -1.1884798671734473 0.012932800871999847 0.15880509493768324
1.7185728120979198e-17 -0.2806642394026518 0.2899249219241756 0.14850932617576676
3.1270850726918885e-18 -0.05106917479993557 0.11581673580672702 0.1738477023022674
7.232483590328863e-17 -1.1811542063171847 0.153881705132663 0.20626033666766388
2.4678754412120017e-17 -0.40303464524305826 0.263178960771212 0.20581679491049987
8.586504705953634e-18 -0.1402282635602672 0.07207110789727682 0.19626026120804482
2.4220887051157176e-17 -0.3955571037791582 0.07963800784053504 0.16583980127324405
2.2985322187121507e-17 -0.3753787982481934 0.09459086865747637 0.19230669422088115
4.283289674291566e-17 -0.6995142888992579 0.044565437030460495 0.17531611912224881
7.915552915762269e-17 -1.292707892801971 0.10422722857655005 0.1777910780758545
1.0386140528686871e-16 -1.6961854692990839 0.038430972172736395 0.14794276882814925
1.6916574446832777e-17 -0.27626862632737464 0.21863785572523275 0.2044464882103598
4.302663293999563e-17 -0.7026782411051488 0.24274052841521257 0.1942329569418297
5.773304109874079e-17 -0.9428521127714012 0.032891186454030545 0.19586740769959285
7.437398476241107e-18 -0.12146193468058404 0.0020813540870654665 0.14052399429856796
2.2979266457850223e-17 -0.3752799006840059 0.18946584559453922 0.21715295321326905
8.021138372939403e-17 -1.3099513065357344 0.1065220795451121 0.2090768660797296
4.658326773295042e-17 -0.760762495200796 0.185592376858044 0.20374259726385185
5.73047920456799e-17 -0.9358582749830844 0.10200344978581942 0.23820227605537717
4.375579571646636e-17 -0.7145863729351327 0.14272615502474603 0.18921719592728461
4.427001349187232e-17 -0.7229841865049551 0.09973570859541205 0.21265414900589388
1.827194986212001e-17 -0.298403586647867 0.33615421240329363 0.20282536140537943
4.9153083296837596e-17 -0.8027307682682041 0.14397357798094468 0.23147721946356953
2.4868671961114454e-17 -0.4061362341930586 0.2374122949591476 0.1896116033024738
7.920417869497996e-17 -1.293502400040975 0.02733340268735943 0.18868539735747716
5.4734984310979747e-17 -0.8938901297760036 0.08747913431647834 0.2461348224884665
1.1309548384016695e-17 -0.18469894163592054 0.06620304789900756 0.20099726259029757
3.8108912359498475e-18 -0.062236576923291494 0.10914810028721804 0.20338997490992036
8.095067400959319e-17 -1.3220248330531579 0.06502735536751793 0.19692815594026805
5.3057797474095455e-17 -0.8664995901028175 0.013993589844466407 0.14154218496190896
8.116841006241038e-17 -1.3255807326475355 0.01042445940588042 0.13200331891874323
2.4180526592331133e-17 -0.3948979674656653 0.23047313813039863 0.20447172847913891
4.543157762817413e-17 -0.7419539684389878 0.15677313360365677 0.19891380245816123
3.437934348057056e-17 -0.5614572871869146 0.26904978510365046 0.20239275849780952
3.3642722221112907e-17 -0.5494273490860594 0.08525518553212928 0.16558912202046394
7.213427539362752e-17 -1.1780421170226423 0.1321959850446679 0.1979242738906823
7.943165930424735e-17 -1.2972174403191314 0.13230113238803273 0.20484288499008393
2.4622650148528978e-17 -0.40211839308561825 0.018003068941584245 0.2121879849042496
1.88925180596006e-17 -0.3085382344159035 0.0879511843925729 0.25914497768373534
2.1640301362793665e-17 -0.35341294123106326 0.049078848620082806 0.21965616852605366
3.7426692305614913e-17 -0.6112242702413926 0.20747343892589387 0.23134618456108735
5.826201672446701e-18 -0.09514909403271424 0.29390662941619344 0.22867974893497098
5.578847926949809e-17 -0.9110950081009512 0.13796724562061355 0.22694129003006117
7.853748336907715e-17 -1.2826144390979997 0.1343641043541268 0.2639562865653949
1.0313969966016199e-17 -0.16843991219667886 0.20736678985321763 0.18798112765570493
9.762483187759412e-18 -0.15943344962084469 0.3509529789023452 0.19068608915650379
2.8433809581845996e-17 -0.46435935000430695 0.11642103632577959 0.20364182339450335
1.799681061034116e-17 -0.2939102216716075 0.2918673641265127 0.19131896542098503
6.3042003515633496e-18 -0.10295540487187946 0.2477085910560859 0.23907078620177089
4.079602213055679e-18 -0.06662496020723782 0.2219357057050885 0.18993676434958462
2.815871016700593e-17 -0.4598666356146298 0.18733957993405784 0.21423011490923627
1.7826621780966223e-17 -0.2911308271638453 0.16608424636576152 0.1888046399044883
6.088126641912967e-17 -0.9942665340164621 0.10624794672912163 0.14481689353172195
8.717751054798586e-17 -1.4237167909748711 0.03196998250655579 0.2190136592711717
5.40940226672851e-17 -0.8834224317566088 0.04926475478380635 0.22481150458283589
3.461784403946983e-17 -0.5653522969001694 0.24298920122710035 0.176524898600679
4.705777603815252e-18 -0.07685118039081304 0.20161332418060426 0.2591688732737501
5.0264696639313156e-17 -0.8208847918323781 0.20246702717804316 0.23077060026612972
4.531796506640392e-17 -0.7400985344991887 0.05300942233348492 0.22596492020312356
2.2079930803763652e-17 -0.3605926348582556 0.2958170114667811 0.20840517714527823
8.70378664588892e-17 -1.4214362299315746 0.057253269788410055 0.20975849916633824
1.978300992478431e-17 -0.32308107020829213 0.16150963984967803 0.24843012188822913
6.943553787952302e-17 -1.133968388728354 0.12942654927764827 0.21293709856842571
3.741193364070629e-17 -0.6109832429522363 0.06387863743857329 0.22686098620955245
5.377770246629317e-17 -0.8782565308419588 0.025327977471179746 0.1693582983580582
8.485027122353432e-17 -1.3857100885350844 0.06885224178366887 0.2178126057709403
1.3428354578087708e-17 -0.21930167273432719 0.05284600661603488 0.18729639785648633
2.2061904667532005e-17 -0.3602982457128433 0.07004514906666426 0.2154479647450554
3.4477850543515346e-17 -0.5630660296098462 0.0907263959722346 0.1477568374645343
3.2480733831650435e-17 -0.5304506385721138 0.1565663532357758 0.21791912006524436
3.347526174982483e-17 -0.5466925120472549 0.2630887160050006 0.20239280394032713
4.013017359287201e-17 -0.6553754702304729 0.15292344246795633 0.13527321518281513
7.789885697571665e-17 -1.2721848786107612 0.014410526027599927 0.24312049809505681
3.212962517435866e-18 -0.05247165990509028 0.14258019190880403 0.19437179976902683
6.495922476037153e-17 -1.0608646477596426 0.13179490365220564 0.20718037873936584
6.391318338933896e-17 -1.043781495755965 0.09021173385616425 0.2152933632612689
6.421748339995232e-17 -1.0487510920644718 0.12213569131575215 0.21635895367794267
4.232482786393352e-17 -0.6912168944286909 0.061460005308880475 0.22318503387465088
3.0572296158414416e-17 -0.4992834861398411 0.2399526888324753 0.2174461788473417
3.8870001831054916e-17 -0.6347953035621001 0.18213024652127455 0.2552212821686091
5.65867423374907e-17 -0.9241316333311547 0.11847935819375129 0.22261871544304415
9.976016051679263e-17 -1.6292070593129306 0.05621349014552752 0.16721999109098268
2.0558298133043303e-17 -0.3357424875050797 0.09011402874531829 0.15212446472423552
3.3722568065808995e-17 -0.5507313306871493 0.012105729546445468 0.16582711343726594
8.331248554751865e-17 -1.360596142586157 0.02160202160932428 0.21558079010405906
6.102688864894007e-17 -0.996644725506642 0.034868352393420614 0.2015969675894161
4.187707894604185e-18 -0.0683904599680468 0.3347422392637175 0.18892635913260697
7.232474005339086e-17 -1.1811526409695623 0.06434115824672564 0.20846844178996382
6.216077132583842e-17 -1.0151624349015107 0.038156725183697976 0.19202443507949862
4.4862078392121244e-17 -0.7326533401035461 0.22465478330630298 0.20619371744115647
7.634869444175542e-17 -1.2468688032322846 0.08552314391779306 0.22635597187356601
4.372040301672556e-17 -0.7140083662843101 0.06303307218903918 0.23398046460115937
6.615661449763768e-17 -1.0804195061579958 0.13190546090364724 0.20011493578018835
8.5360906593722e-18 -0.13940493969878268 0.3026240400034855 0.21486005013112813
5.234474148252287e-17 -0.8548545020322157 0.03562049834493181 0.22769171544260844
8.318619327900277e-17 -1.3585336333205662 0.06688533708613675 0.20734741044115937
3.6563487065856666e-17 -0.5971270588599683 0.24175245744910254 0.2284170881266944
2.5897755165194972e-18 -0.04229424383132508 0.013218922683718376 0.1918181337638535
3.158170304267694e-17 -0.5157683515714956 0.00844023773125409 0.12726983634036426
1.2215512410973642e-17 -0.1994944570055392 0.08376296261688183 0.21611451273066976
2.6068653274361065e-17 -0.42573341623905075 0.07365358480946722 0.26857623642363304
4.907620454899029e-17 -0.8014752430359359 0.16153491520299443 0.21267236474586446
3.7431253006821335e-17 -0.6112987521444131 0.22316318973424967 0.1596132982632983
9.425718962246292e-17 -1.5393367244839646 0.06981289130981819 0.17400751648682924
5.642958974399469e-17 -0.921565136711796 0.20721655541440587 0.17194754801887865
5.1670807708850376e-17 -0.843848328266168 0.13408518270367187 0.21418260463061134
9.435589769989709e-17 -1.5409487497226357 0.03219903324719037 0.1775646499675029
4.5053443438038437e-17 -0.735778568472255 0.07901967440026711 0.2414735956333317
3.88702075611066e-17 -0.6347986633888163 0.08364363215428983 0.16162920314662269
6.264109218808602e-17 -1.0230066698692095 0.16786293492186785 0.24034965462861435
7.098579217000768e-18 -0.1159285962604577 0.1732489382564451 0.22991947826177728
7.935110562301196e-17 -1.2959018988700952 0.08196465910667895 0.16794316102416876
3.5615295815121995e-17 -0.5816419205916147 0.15343475536010887 0.23398830167861806
2.8914953972926594e-17 -0.47221703421849154 0.04272384098492302 0.1889962366743724
4.10422476516694e-17 -0.6702707699925335 0.10545712453854855 0.2602565630940352
4.157103226027426e-17 -0.6789064780019451 0.01801361189170664 0.18692138656172524
2.6477128317067804e-17 -0.4324043199313012 0.08386186035356705 0.25702477549514546
7.073673460198191e-17 -1.1552185438484235 0.0868167314277098 0.2536955638802217
3.8094344024683044e-17 -0.6221278502700666 0.07030081923541705 0.14546140855534076
3.716386129980378e-17 -0.60693191417605 0.13525927567927223 0.23388213321640866
1.823406063132735e-17 -0.29778480855088363 0.08253173703483163 0.21952860874647195
5.625545212521464e-17 -0.9187212535791034 0.023293902128349912 0.23687151563744208
4.7508188475183017e-17 -0.7758675972249316 0.10012165758845344 0.21865320943749625
4.9704293748870156e-17 -0.8117327180943309 0.08171736002198982 0.23271512162458408
1.1493634743070003e-17 -0.1877053000272784 0.17677239329892944 0.2380346029588968
3.076438128694813e-17 -0.5024204743501145 0.1788956134577516 0.17722366672363785
2.6386556022344153e-17 -0.4309251621074011 0.10358518934653639 0.24078351178943688
5.816625526820595e-17 -0.9499270370641326 0.12543307510159538 0.2121243933112557
6.449853521603215e-17 -1.0533410165435217 0.10139416394722106 0.2413545023717303
4.90352742590952e-17 -0.8008068006748634 0.11405355209657057 0.216395721602169
9.010872536056191e-17 -1.4715871616746823 0.020778629266278405 0.1740138545469162
7.66788667952477e-17 -1.252260926964975 0.09520950985945048 0.23181432746944589
2.2334088684288427e-17 -0.36474334803860653 0.1358149003399169 0.2561246754274652
1.299396469082103e-17 -0.2122075475127675 0.30190963334933774 0.2302477694088493
1.0234781383923331e-16 -1.6714666450848006 0.006611617361059989 0.14353735880209068
5.857783078920467e-17 -0.9566485754094786 0.16236090120825517 0.19376012547769889
7.992418552954275e-17 -1.3052610039921564 0.11953488699628488 0.19756928194609716
1.2751092066100594e-17 -0.20824113654611928 0.31892694137994426 0.19035134835248024
2.2914946473771658e-17 -0.37422947562882514 0.21371799525826785 0.21014296089660886
4.857836854436527e-17 -0.7933449640857662 0.2074763496048634 0.2225175996240509
1.175914545542088e-16 -1.9204141902151797 0.011050755361780672 0.1455265427153437
6.084094114950385e-17 -0.9936079723862209 0.05102250103137289 0.2506185248609769
7.990123403508924e-17 -1.3048861776427227 0.06621991527715006 0.1619484334155118
8.181201376836566e-17 -1.3360915788180945 0.042388866755935305 0.20024824649900372
4.33303583458322e-17 -0.7076384534055122 0.09291782218912722 0.21511396984978512
3.618443351084251e-18 -0.05909366445253525 0.15262491772783277 0.23411258446219196
7.013385857427372e-17 -1.1453728311396174 0.010442581630537845 0.16340177029871122
2.6240099299328366e-17 -0.42853334230894563 0.03735417930240828 0.18823325747027314
3.373223678618997e-17 -0.5508892328739301 0.17673454665816007 0.2453683893654498
1.2557261052183211e-17 -0.20507563586376196 0.22207444968841386 0.1961337745306864
3.605913967524819e-17 -0.5888904409067818 0.0914741920777543 0.1885912857753719
1.8399759202315517e-17 -0.3004908715741738 0.20293122395078003 0.23207342427203187
2.7963610406943105e-17 -0.4566804147352928 0.07382576976957428 0.1745017941642937
2.753807210082771e-18 -0.0449730846804169 0.15237884584026282 0.18344508742688162
6.870817305983496e-17 -1.1220896197609345 0.0010082751254301943 0.11623624630951349
6.009674332618613e-17 -0.9814542996074922 0.10825015093282374 0.18303152492925967
1.515307372581302e-17 -0.24746847395286836 0.23077041589452377 0.22901554482322
7.760937057017048e-17 -1.2674572068322907 0.0012127872187962915 0.13834040133336337
6.241817082280265e-18 -0.10193660876958256 0.15185251822419008 0.2530346760509722
6.6959927318118016e-18 -0.10935386001047506 0.08702346978844647 0.17096357408253013
1.528349569733898e-17 -0.24959842638677446 0.16256350746148884 0.25415019095714914
2.171815984235169e-17 -0.35468446669640125 0.019816914762508075 0.15601952200660912
1.8541385328659198e-17 -0.3028038017421584 0.31347287367916443 0.1997238475955191
2.3895771288282268e-17 -0.3902475604381514 0.21647164869493024 0.2631650730447822
5.421765011642598e-17 -0.8854414212191535 0.07645316736267546 0.19788390127773114
6.940491556096378e-18 -0.11334682883144133 0.3158655443305723 0.22505519854608708
2.5856815144509106e-17 -0.4222738370363051 0.054177984568037955 0.21281203223506967
2.0614995230842503e-17 -0.33666842137986996 0.12754506459464243 0.19401108487067847
6.000614956208463e-17 -0.9799747911620436 0.03679253191950057 0.21647989430355893
4.871120995886392e-18 -0.07955144290219607 0.04222540474586593 0.19271091410245564
1.4699959548857198e-17 -0.2400685578746767 0.05532537509474095 0.20727960946336324
1.5936775980839113e-17 -0.26026730306133844 0.09767940845681485 0.22017144833521293
5.745531025133051e-17 -0.9383164238265782 0.016275681709482834 0.19205604920221164
2.0915902995197878e-17 -0.3415826181027925 0.10071609129316364 0.1919752614707747
7.909821890251583e-18 -0.12917719453084284 0.01164549563162426 0.17442559191487228
2.503129764712681e-17 -0.408792113196304 0.28843319549872254 0.20321132292641642
3.9096750928651695e-17 -0.6384983973480741 0.2193815176634693 0.17403687782272204
3.796624117887822e-17 -0.6200357720334025 0.15897649545331927 0.16516009936291878
8.702788495421669e-17 -1.4212732195896627 0.008875456944081511 0.1331805206516732
5.877608264237063e-17 -0.9598862738757465 0.18123629754468004 0.19775995419494144
2.2488888510707894e-17 -0.36727142105569593 0.053293408428641664 0.219009758875755
3.072789899895856e-17 -0.5018246733728046 0.10926224134810333 0.21678741681522848
6.4490094971105e-17 -1.0532031768834167 0.18216783032135325 0.20135888256796208
2.3275124374874955e-17 -0.3801116271414746 0.22377889981808866 0.22270232357931566
8.085555848940538e-17 -1.320471478726767 0.07842315817794875 0.2046908258976246
6.016405505700908e-17 -0.9825535835948396 0.1907986119977985 0.20528091359060652
5.63713070804606e-18 -0.09206133085834789 0.18734954649862973 0.2285074955922479
6.562367049298851e-17 -1.0717158700562197 0.1669091680379998 0.17605615371935185
6.956085996540594e-18 -0.11360150537091498 0.025248725395592454 0.19612127830962747
7.556931797746959e-17 -1.2341406196477855 0.015753338849659074 0.17766614273801384
8.914292275707145e-17 -1.4558144081891402 0.060579214548616395 0.2015607101863147
6.827307809501246e-18 -0.11149839797490482 0.014215795445692793 0.17172537128355342
1.0209728417707552e-16 -1.6673751852070267 0.04957323353466105 0.21949231928030494
3.184578229027276e-17 -0.5200810929721946 0.11396340013990454 0.20626818136583938
3.076021074923969e-17 -0.5023523643005664 0.287869501616965 0.2044934204133342
7.42165146272833e-17 -1.2120476643380889 0.0024319282154943 0.08499352255785046
3.181230529679829e-17 -0.5195343721789377 0.28631075016798635 0.13059325221089166
1.08696577664384e-17 -0.17751498267102447 0.18424954492133888 0.2251968076298959
1.820019607388172e-17 -0.297231758357649 0.10661088060516527 0.19762218889944758
2.726269735656604e-18 -0.044523363594380666 0.22846235545839957 0.24382109165414476
5.677024569162859e-17 -0.9271284705296947 0.013846754531637825 0.17563164374577586
5.2707838750147374e-17 -0.8607843304182826 0.06066789828575194 0.2564827314284234
6.084338228895087e-17 -0.9936478392188245 0.15007365999889574 0.19993362181982663
7.588795148969291e-17 -1.239344299801854 0.059377695955862 0.20136166977238995
6.15519056063251e-17 -1.0052189031021832 0.014873010257573725 0.14651771151325477
2.6192205395670875e-17 -0.4277511755047563 0.23248326382344714 0.19949677361099355
3.0945439210387505e-17 -0.5053773746345954 0.024559185201420308 0.18908442137890077
5.0870552569096617e-17 -0.8307791700352245 0.13351422854014017 0.21288182333695108
3.319578846483305e-18 -0.054212836693723045 0.012947661429029795 0.1539113932205181
5.1941722730774994e-17 -0.848272706333595 0.1859400328414041 0.21642532241040172
1.8661487617227884e-17 -0.3047652209636401 0.2848724892323199 0.21833188920488134
4.79760720087004e-17 -0.7835087152002228 0.21844991079029497 0.24312946076455932
1.445185386583106e-17 -0.23601668458028888 0.23342392115205263 0.21339861397427232
9.414120165898884e-18 -0.15374424972903797 0.17180310939045726 0.19511269028552758
3.7396837031146823e-17 -0.6107366966080989 0.14908418828273295 0.17963728895633913
6.644688705876997e-17 -1.0851600168315123 0.1678891565502597 0.24402723266862905
7.186666497862418e-17 -1.1736717072818146 0.010662282599636029 0.16554445283376876
3.9877034618215425e-18 -0.06512413970457338 0.31378487044056547 0.17005199394617992
1.039658590364432e-17 -0.16978913284847236 0.23801964118424265 0.16625880689647962
2.856304967351213e-17 -0.46647000087533547 0.05773025535705425 0.23666408114584483
7.84568371463861e-17 -1.281297386332301 0.057635882151664104 0.23591374726060904
6.235849559263324e-17 -1.0183915172284719 0.12054986658529775 0.2060126214909195
1.0068625855988259e-16 -1.6443313881191586 0.051761080654811366 0.20479608594529394
7.109366129010583e-17 -1.1610475990237186 0.04142391780023374 0.20545355597599155
9.570296604167417e-18 -0.15629480452373093 0.26732960007433093 0.12476885964066452
2.4976623360674056e-17 -0.4078992143377789 0.2511696277607889 0.18826626825205756
9.918106468558355e-17 -1.6197497066850175 0.0653439797253693 0.1332643588701601
1.6236509866192806e-17 -0.2651623288853128 0.21528199721048488 0.22441152113853002
6.813691588569111e-17 -1.1127602821177613 0.17118552514905552 0.22040400430962834
4.731095645155468e-17 -0.7726465538389422 0.23526486196339108 0.23974861880019216
4.075542593095181e-17 -0.6655866158197992 0.020855796337875685 0.20498774244391094
8.84949752466485e-17 -1.4452326223081162 0.05091776130801384 0.23615689312033467
5.74965999358692e-17 -0.9389907355475975 0.057853999447262744 0.20827940660359895
9.173095363836954e-17 -1.4980801599650806 0.08418867797520325 0.23992539907370186
1.5172510727737978e-17 -0.24778590428361338 0.01273310032772777 0.17631051474110387
1.8330828569543845e-17 -0.2993651489116124 0.09526029586375881 0.24362551107568828
8.745523643111902e-18 -0.14282523988468965 0.008765963186428307 0.14284048486349366
3.203135442772752e-17 -0.5231117159662524 0.2601318771465898 0.21045926834579276
1.418834196548346e-17 -0.2317132086632968 0.31136339373457556 0.223761679791492
4.4811929552526545e-17 -0.7318343474008401 0.16148558012178774 0.191615164229363
3.9632676618037966e-17 -0.6472507280569676 0.16436304783457123 0.1440995639062027
1.1769377083286935e-17 -0.19220851418517132 0.10696582629522054 0.24854805368896762
3.740888354646507e-17 -0.6109334311331331 0.04674258299335841 0.24915183978494052
1.3505601395008103e-17 -0.22056320899072662 0.2432881309314369 0.20966561259473637
2.9645581733344223e-18 -0.048414909105196094 0.03519180098010449 0.18185898858513017
6.148427133771414e-17 -1.0041143516730193 0.044726585822341666 0.22205484260282599
4.698592606154391e-17 -0.7673384047426138 0.16587893825720956 0.16199309343560878
1.893498149033929e-17 -0.3092317148670549 0.12588599301137263 0.2537523791652875
2.9748551255534375e-17 -0.48583071096493247 0.16286992442359055 0.19524582917175776
3.3186195683283747e-17 -0.5419717049256858 0.12323712637615863 0.1968508220232118
6.596289780819573e-17 -1.0772558725360106 0.017085147466678146 0.21898702391235628
7.147912840246756e-17 -1.1673427546984831 0.14822403797805 0.18617277015261313
3.3245282545423495e-17 -0.5429366666139193 0.002795516448897686 0.0838552855373199
3.7298004378140263e-17 -0.6091226368959375 0.10931024511217523 0.2258060477710755
8.571616106441625e-17 -1.3998511427800273 0.11611881528529691 0.11171404494674848
2.1159219093853114e-17 -0.34555627154841684 0.2343714805757445 0.25541087188695194
4.735519106536692e-17 -0.7733689599048059 0.05555359895893923 0.15156326912543205
7.402755591597263e-18 -0.12089617343958028 0.14276005275328052 0.18507721039840122
5.156746615509313e-17 -0.8421606326166272 0.06359454849337061 0.22427056621925076
1.563719927095968e-17 -0.25537484410765465 0.20751879766486003 0.20013767817409236
9.88704659661362e-17 -1.614677244654927 0.008864232404418698 0.12940010898675255
9.433607376100164e-17 -1.540625000231611 0.008354122371171318 0.1550913595073217
5.929742496551843e-17 -0.968400440140024 0.15567991714860194 0.2121704107344019
8.392487558782434e-17 -1.370597230911902 0.013118927789050244 0.19814795545474564
2.898725754518494e-17 -0.4733978411631337 0.09746772842200757 0.2668524353414167
2.0739589396205236e-17 -0.33870319851642033 0.26471733228816147 0.14843240809086694
1.9100205094830675e-17 -0.3119300210988014 0.2406906460346956 0.23011623396999326
9.897273409352904e-17 -1.6163474099215824 0.021766313063631915 0.1585602088082064
7.706816316588584e-18 -0.12586186191731966 0.06753341851861923 0.2346399304218092
6.653159250093389e-17 -1.0865433616820095 0.023718991445986205 0.17830021416393077
9.498624279195142e-17 -1.551243066296087 0.023126355773043533 0.20744707125482348
2.1755636227248938e-17 -0.3552965025082507 0.3136163309922002 0.17631818156800363
1.1914176639689672e-17 -0.19457327039902095 0.027691410609148905 0.20305267306822372
4.6586065937869867e-17 -0.7608081933550948 0.017724564459022395 0.17032018908736915
4.022730724743427e-18 -0.06569617831923799 0.14147030131193034 0.2098571064332164
9.676055697219098e-18 -0.15802198158613479 0.23762768354452732 0.15815275866721307
4.541591214277361e-17 -0.7416981316473278 0.24712786021809066 0.21764503983589936
6.184756514912861e-17 -1.0100473898627635 0.1831359349131612 0.24968405161317342
8.635911742777258e-18 -0.14103514170436596 0.2353429776004719 0.18694407018245127
1.0841056590641919e-16 -1.7704789002330934 0.036482374693505716 0.216314020110616
5.1617330670499446e-18 -0.08429749819529589 0.09445299282283434 0.2101395465059081
3.552935135441545e-17 -0.5802383410327348 0.13974619739745375 0.2479557650433329
9.457124153211616e-17 -1.5444655813898398 0.0861950322854444 0.16367768718667364
3.944785468051805e-17 -0.6442323567576085 0.26011869684601735 0.2818227059404825
2.2182977629263325e-17 -0.3622755172300777 0.009990730090788309 0.1330958234905532
9.794358184913291e-17 -1.5995400782874711 0.05327203328360805 0.18947697807903763
2.689668184022808e-18 -0.043925614893950804 0.2942549170322008 0.18896367212818896
6.4700603378743175e-18 -0.10566410400744158 0.36997104817851356 0.1606366531103285
4.606206115475149e-17 -0.7522505458197692 0.23782027176360512 0.24815122504096213
3.003332809135298e-17 -0.4904814696329317 0.28292165438776484 0.16100111066722883
4.7785325565745945e-17 -0.7803935893845629 0.022288790408751844 0.19829289681934173
4.361193430147031e-17 -0.7122369377331429 0.1865699297198752 0.2237690304261301
7.997466225578163e-18 -0.13060853514901294 0.3511145786646384 0.17728710013807789
7.165079006531165e-17 -1.1701462024021574 0.16062567365260597 0.23807435483968242
5.802296245776567e-17 -0.9475868878792403 0.0006978943030885035 0.08407499548322253
3.835741084178559e-17 -0.6264240574260516 0.10741376031581226 0.18143990006111188
2.3167183466995824e-17 -0.37834881833889933 0.28028347727532416 0.27724846146540005
1.7246590677400832e-17 -0.28165820037922085 0.23076803293833384 0.24170160255447923
6.662050002299783e-17 -1.0879953317051352 0.15490531645163205 0.19602993391668835
3.0016086403302977e-17 -0.49019989149853405 0.26290551103297094 0.20163089067271925
3.4200991919197467e-17 -0.5585445851491145 0.11581652218171139 0.17245985451851104
4.6296644209600374e-17 -0.7560815778367102 0.096091070175756 0.21102084705623958
7.188111906758077e-17 -1.1739077604681971 0.09413101686047781 0.19228690832061848
4.1495480502342313e-17 -0.6776726241596039 0.12656070008006873 0.2840836842692065
1.0868706247455408e-17 -0.1774994431867641 0.1715527335609376 0.22343964563106766
1.68370523409944e-17 -0.274969931783058 0.1685202140061685 0.2423560799270085
3.657411963995577e-17 -0.5973007019725214 0.06955130295539572 0.2320619992682312
7.537659517462685e-17 -1.230993217425742 0.051910333911904194 0.15025283651456894
3.8368182004130844e-17 -0.626599963856424 0.25078775940158804 0.18515680241074492
1.9098083727056722e-17 -0.31189537653392885 0.18828284837385983 0.23716740853189588
1.0677978332123768e-16 -1.7438461995014714 0.03496233507508678 0.2019030259631458
4.608675781701153e-18 -0.0752653872922363 0.26814075179891284 0.2134177900253376
9.302652956245151e-18 -0.15192385204815004 0.2023673564373937 0.181804078907458
1.1473034800732576e-17 -0.18736887743830383 0.3439116319131255 0.18089157814737586
5.448751044777402e-17 -0.8898485748823309 0.20421575732377226 0.2307211608439335
4.784835830801394e-17 -0.7814229921856298 0.12873411670056817 0.2188883573654188
4.224661127099445e-17 -0.6899395205280117 0.24356315751436103 0.23444607958485503
5.042265977119224e-17 -0.8234645255480757 0.21384683415607889 0.16078711115162728
6.524380637269604e-17 -1.0655122181860324 0.15023688729080845 0.23371822557451907
1.289974794439354e-17 -0.21066887127578085 0.1430535936066025 0.21616005714615047
6.219552097062995e-17 -1.0157299396680397 0.055456702175062066 0.17460352449063585
9.211962877854646e-17 -1.5044277067099465 0.0022741405469802745 0.09588521414385877
4.825270447795461e-17 -0.7880264662684787 0.08104244061038136 0.176974715806268
8.57105604430744e-18 -0.13997596776923668 0.16436862159191365 0.21113599175753076
8.28686873455176e-18 -0.13533483679247602 0.21192379013949297 0.23941651431822594
2.874246238361216e-17 -0.4694000327869845 0.16984971994366121 0.206405114435582
1.4491794305460293e-17 -0.23666896145974567 0.0789248546051431 0.24830264771695232
6.282893034321048e-18 -0.10260742997402096 0.07344661445255263 0.17367365095006565
7.698326862938403e-17 -1.257232186177807 0.025679392244876878 0.18960335213766805
2.6198775768330123e-17 -0.42785847783329417 0.2528475684326372 0.1401395838820385
2.3367754327846704e-17 -0.3816243890747315 0.08545160965986295 0.1940805940741874
1.0536678325782526e-16 -1.7207701572598029 0.001730850665359114 0.11219865819695916
2.86914503659573e-17 -0.46856694331677357 0.011434087761546599 0.15802548356223478
3.297696901753968e-17 -0.5385547741683484 0.0689654290318059 0.2361098533579522
5.793962302636932e-17 -0.9462258516775472 0.15257045288482798 0.1881557537496289
7.341936544037805e-17 -1.199029230166534 0.029030870560404043 0.20307649643541323
4.5498486129076974e-17 -0.7430466671819955 0.12392270060799343 0.20590630682298441
4.532457714079546e-17 -0.7402065178686981 0.19940204293398925 0.2198304256504054
9.785632387259902e-17 -1.5981150473872205 0.06694160563701029 0.20864607857859824
6.544507421497758e-17 -1.0687991714924334 0.09733467470493129 0.23812086202078955
5.648675583069797e-17 -0.9224987297566326 0.15014760777968483 0.23289397756876304
1.6402774606642277e-17 -0.26787763815759 0.3025338980282987 0.2174404160939806
1.2136746454574755e-17 -0.1982081113187056 0.18585019252725662 0.21319260707668317
5.18241256666302e-18 -0.08463522005318133 0.2568989449436773 0.194063336137519
9.66441560375928e-17 -1.5783188443374894 0.067984983989828 0.2165291305287691
5.3886390045736955e-17 -0.8800315337165746 0.19873747352440352 0.21599813853600447
3.164595457123426e-17 -0.5168176586631739 0.09305427986634672 0.1464633039544181
1.1144903453485097e-16 -1.8201008586711878 0.031015088002582968 0.1933829672761603
1.0127052927383043e-17 -0.16538732529957031 0.29389488120654333 0.24231096057382304
1.0189749682029816e-16 -1.6641124100637534 0.015270960719865388 0.18321288148489326
1.2724924063880828e-17 -0.20781378063847333 0.026819469254347618 0.23232644738223415
3.869708918063105e-17 -0.6319714256808325 0.260855827392568 0.22019827715757365
2.4381987303698226e-17 -0.3981880705632663 0.13259079377756788 0.25982588290632697
2.0505943338416734e-17 -0.3348874688227458 0.1983780303339475 0.21996845567506954
2.9669460472324417e-17 -0.484539060453699 0.20896516235371176 0.1911736442791428
3.5586492499237584e-17 -0.5811715267457407 0.08121823048795655 0.19113702661787904
5.1661232659658444e-17 -0.8436919558459959 0.14661856987794014 0.20570558300066372
2.924083614665512e-17 -0.47753909399859173 0.1819320738602319 0.19458597716265927
4.462126999393111e-17 -0.7287206405144435 0.06351084314498742 0.2355319359013251
4.6638578975912136e-18 -0.07616657963485264 0.30970129925962314 0.17755291839270568
7.3817916990456e-17 -1.205538070925444 0.11859982988066266 0.2235575843598518
8.599336128056733e-18 -0.14043781658587481 0.17566467505295752 0.1784902659795341
3.91354846177699e-17 -0.6391309664960959 0.11863793046827967 0.19077912953827103
2.0924471406356467e-17 -0.3417225508763 0.019298649045979496 0.1634938258577245
6.685036238866441e-17 -1.0917492690171278 0.060998220948181234 0.22245084478194124
2.1470434741154657e-17 -0.35063880877495796 0.08028497526923133 0.1865235905151884
1.0935405334970431e-16 -1.7858872194961168 0.03736052252431717 0.19056095172160376
2.3897497363094387e-17 -0.39027574937904963 0.03794563810937 0.16125708956044751
5.2529096982512734e-17 -0.857865255828628 0.15455324485530453 0.23720916545855747
5.505607119844961e-17 -0.8991338765884465 0.12449023343487411 0.2215499608293347
3.599905431913787e-17 -0.5879091725745221 0.21198691935815459 0.21237989109719294
3.2582526451105e-17 -0.532113038204815 0.08428739277553 0.19783665109321866
1.8906782185280452e-17 -0.3087711852665453 0.2615061496599015 0.18443918812214793
6.884994645660932e-17 -1.1244049550375723 0.05030662517620996 0.2716089043282931
3.4784842997234305e-17 -0.5680795968511553 0.16516665718488 0.25245590556367825
6.615870532961837e-17 -1.0804536520355197 0.0927972709796871 0.2226358469306912
2.1543209300698076e-18 -0.03518273075256849 0.1630435023365618 0.11419628075732859
1.922674642534429e-17 -0.31399659785549106 0.06987892116752771 0.18618232089887066
2.895935112012109e-17 -0.4729420946559239 0.20737206604003955 0.21604560646284404
3.7946674927034596e-18 -0.061971623089129936 0.28799254393762597 0.14020285666933083
3.645894885039666e-18 -0.05954198202417351 0.001284328409965684 0.13196800212200907
4.609351043816883e-17 -0.7527641515947443 0.06986198289273203 0.19042334389162252
1.745844846706702e-17 -0.2851181006510983 0.1468130447262701 0.19700172213931566
7.726740292479691e-18 -0.12618724513646462 0.025631434600643235 0.22935771566280175
1.1111751471100551e-16 -1.8146867290776385 0.021507597347277876 0.1856761898302036
1.2768383911108246e-17 -0.2085235338057976 0.19787798549409027 0.2327729962529943
2.35773052442884e-17 -0.3850466152478223 0.10671962249976395 0.19430850933549507
7.002918433362572e-17 -1.143663371061481 0.02579676724848705 0.18072233541105506
5.704029954702414e-17 -0.9315387846804126 0.003339417461052226 0.1336781038750294
8.883830180429933e-18 -0.14508395704974203 0.13823991204817088 0.2225723520637166
5.018858697529712e-18 -0.08196418266922409 0.1460587536024601 0.19887582690238526
1.0869726618916552e-16 -1.7751610711732524 0.01477271264038385 0.17509886031498142
2.332333001323178e-17 -0.3808988849596535 0.0442575345255419 0.17604725216767547
6.387517248081724e-17 -1.0431607305108643 0.06987235722103487 0.18278544561050625
1.7102371072159747e-17 -0.27930291548660535 0.042391348129835096 0.24162619821327963
4.313041265654013e-18 -0.07043730924960438 0.35033259490986257 0.22109301972820045
2.192077211758131e-17 -0.3579933762590717 0.2361221860353733 0.23339588582940163
8.4822102569216e-17 -1.3852500594991546 0.019446145058085673 0.1979146050494489
2.9958824699883175e-17 -0.48926473691421357 0.13067744102821421 0.21897805411451815
5.844577677373494e-17 -0.9544919696752919 0.1141733646899747 0.2275561855036697
2.126939130939205e-17 -0.34735552037045503 0.14694745870342518 0.1603136946849806
8.404457621541374e-17 -1.3725520905117925 0.0688681070320839 0.23782269929375102
7.709131065764116e-17 -1.258996646401479 0.03784453414776119 0.18195966996286655
7.23433840340691e-17 -1.1814571202805149 0.0020032515519413066 0.09555389191133826
3.6906733359206857e-17 -0.6027326962337674 0.19461655714045517 0.226275717622741
8.256442317411619e-17 -1.348379356915002 0.09594945292030908 0.23335084916912022
6.153195079156388e-17 -1.004893016246069 0.10213989732700925 0.1672427185036677
5.956697533851248e-17 -0.9728025317991331 0.16645811814141762 0.23023098076881554
2.84108974557057e-17 -0.46398516658821914 0.2622382510760104 0.18356351834390164
1.4917806277991892e-17 -0.24362626495048614 0.3043446980319681 0.1916444741532544
5.649949324023484e-17 -0.9227067474405191 0.18850176451117245 0.18906863513516947
5.804523118700041e-17 -0.9479505638264641 0.10014477874238967 0.23262583520257551
5.140277066799988e-17 -0.8394709511965163 0.17524123448754486 0.2087857583242603
2.9132632510600354e-17 -0.47577199451929536 0.25408122655921817 0.20656687971808882
5.842492679780829e-17 -0.9541514637279255 0.14288009618541608 0.24808971375960784
3.242491599418827e-17 -0.5295390641083415 0.18235830661987548 0.18174623898101042
3.8300317082114413e-17 -0.6254916455712878 0.017772790698767547 0.17411095411183272
2.926523049935588e-17 -0.4779374840114141 0.21953404615007274 0.15857803622275396
1.0840946929195709e-17 -0.17704609911598346 0.054799204166888396 0.22577718929702892
7.834967131592643e-18 -0.12795472355045803 0.08036667166398159 0.20338041177771632
4.221711881667983e-17 -0.6894578721974863 0.1920943800755978 0.19701626023073207
1.0493706502220144e-16 -1.7137523258993974 0.016231582324608515 0.20902618331061698
2.616071645612533e-17 -0.4272369220960597 0.14152510815463926 0.16100136733251225
4.1870687336123683e-17 -0.6838002167690421 0.14815283600356333 0.24430562100843692
1.1126234275488604e-17 -0.18170519505273064 0.024841425602838956 0.25467215829787637
8.327686715742738e-17 -1.3600144501322011 0.08377325656923419 0.2703587007641034
2.983971535758937e-17 -0.4873195337360118 0.05205540465241901 0.24707191976503243
6.098563691198742e-17 -0.9959710335167331 0.1850860908775612 0.23220734618908365
7.259349015378889e-17 -1.1855416631853577 0.1417737609284261 0.22552788592015424
7.528812293317389e-17 -1.2295483560744602 0.10599890601368811 0.20167519603158154
5.751252301837757e-17 -0.9392507792192824 0.11355331923491578 0.2418794869893544
3.371233732529404e-17 -0.5505642500150392 0.23916986668722662 0.2514824219682106
8.300421818613279e-17 -1.3555617545225864 0.04394614904959166 0.1706111663258164
6.495475220411073e-17 -1.0607916053728268 0.03109243163540573 0.19848365885252944
5.390793814624225e-18 -0.08803834409035333 0.12464603522547948 0.19161475016142063
1.929789820379261e-17 -0.3151585945797361 0.02371589850156816 0.24501113622365173
4.372917690359257e-17 -0.714151654730793 0.2423738897360237 0.22816763788344735
1.2578794942031315e-17 -0.20542731097307668 0.249845955354876 0.21407899967375257
6.483498097223373e-17 -1.0588355927174165 0.04590380217763581 0.22370068118047842
2.719183759107854e-17 -0.444076408153119 0.01951093604515043 0.12203734111775084
8.590596697751535e-17 -1.4029509085775005 0.09522641562861595 0.2682889871146284
6.039284469626019e-17 -0.9862900019549807 0.12242976894829521 0.19694252219976555
5.361595656442723e-17 -0.8756150198041875 0.08375947669220211 0.20616616470164542
6.477110921809983e-17 -1.0577924878127474 0.17046478359864367 0.19159347130010437
1.2114566735354565e-17 -0.19784588901533404 0.13992899860461466 0.21512831197269186
4.8608024264000424e-17 -0.7938292787413191 0.06759142418163344 0.24436523411439767
4.6575064819383995e-17 -0.7606285314559491 0.13330245924372217 0.23296613520690898
1.6242077922396526e-17 -0.2652532621439078 0.25595177777914635 0.19335975377860326
4.2313070315295106e-17 -0.6910248790876702 0.011155582442940598 0.16343932732184166
3.3380586521336275e-17 -0.5451463482299899 0.2077727130905008 0.19831605517882514
1.032088142854916e-17 -0.1685527849455853 0.35842023268439416 0.15686992929264534
1.1611097001494548e-17 -0.1896236042845765 0.20453721334899605 0.2227039851031339
5.31409990422887e-17 -0.8678583748275426 0.12770726509370894 0.23668767953886455
8.624345280807569e-17 -1.4084624704546933 0.013878215272465763 0.16154340191444683
5.04089829464281e-17 -0.8232411660492609 0.14419356987422213 0.18336172115448188
7.715528929878023e-17 -1.2600414969034133 0.06973477079345786 0.15851121969066842
5.234953772430562e-17 -0.8549328306047655 0.2147377681677338 0.1917667879166388
2.579914674409535e-17 -0.4213320405860322 0.15137198004094454 0.22727727715245336
3.760707915546977e-17 -0.6141702110625412 0.24771813061262082 0.21849155948051935
2.2792757109047542e-17 -0.3722339718671007 0.2998196319767562 0.20576918218433132
4.9904666091942485e-17 -0.8150050467888057 0.16821388344555246 0.16564020120952835
3.264437318097433e-17 -0.5331230719535235 0.1152188178784979 0.18760802465689708
1.3979505197843376e-17 -0.22830264542521894 0.036370885079562584 0.22942277871526162
4.850244752239117e-17 -0.7921050797039679 0.1700430490175415 0.2063299305093637
1.0718806531712862e-16 -1.7505139504999665 0.022495520440464857 0.16386537018253242
1.9889604315447983e-17 -0.32482188871592854 0.19040469932473578 0.23799485001268308
4.1520534620224164e-17 -0.6780817889555156 0.2086008657295788 0.18145927672163253
3.178902312777063e-17 -0.5191541455038855 0.04049673187807582 0.2199362981431528
2.6296755045792503e-17 -0.4294586008651854 0.26773416698779107 0.1601622283879016
3.4295787768442685e-18 -0.056009271885282756 0.21594858089750416 0.18303924561247048
1.0124471509098476e-16 -1.6534516753969435 0.04417147439961999 0.27345370135120306
5.3264491191477343e-17 -0.8698751546741829 0.18939692896491397 0.21462700397077752
2.811275195482337e-17 -0.4591160810512314 0.10452768927503663 0.2539046379775596
8.727987592424028e-17 -1.425388544435962 0.06944553656478807 0.21501675799184522
1.2887171896692668e-17 -0.2104634888306607 0.2359422328355998 0.19327457795817277
5.991164900133644e-17 -0.9784314798854538 0.023238764342524136 0.16103717149166566
7.974147315029314e-17 -1.3022770843938394 0.09765786785214897 0.1959862782495261
9.401773602624558e-17 -1.5354261504901558 0.043266139345640324 0.15863797326822948
7.465067808451143e-17 -1.2191380916764922 0.1507317888432456 0.16171232035101382
2.3164737775636928e-17 -0.37830887716793316 0.0011371392752720264 0.09996142757764415
5.819107263220063e-17 -0.950332335375645 0.05080402626601788 0.2323187233753659
7.470638660768258e-17 -1.2200478809024133 0.11302040729588278 0.1927229943002998
3.693135309843048e-17 -0.6031347670878416 0.26098306026450513 0.25438842806629874
3.816870546978832e-17 -0.6233422648287303 0.08805889379404384 0.23253182202101663
2.5314057455451834e-17 -0.4134099313055236 0.03194865510182448 0.13940610403422565
2.0185162973759257e-17 -0.32964872790771926 0.2845891159697052 0.10619938574950777
1.55159188878002e-17 -0.25339418514143 0.31687516532815635 0.23043750139509392
9.214933448037773e-17 -1.5049128376367078 0.03387880840324125 0.20376254392382653
5.324071547659415e-17 -0.869486867783632 0.0009510815555765486 0.09193187364593226
4.437096561054168e-17 -0.7246328597181567 0.13609370501662116 0.2499694708708211
7.584852383990349e-18 -0.12387003974160089 0.11901005062058978 0.23201127413335887
6.25011230908271e-17 -1.0207208010398234 0.1349178883800776 0.1814026286726296
4.131653166531104e-17 -0.6747501678700702 0.19585568269865106 0.19455482195164966
2.1090942587077996e-17 -0.3444412315740723 0.3232471440103211 0.18974534890172634
3.6025789826262775e-17 -0.588345796540608 0.1930121941526335 0.2047485115867617
1.7414213856045282e-17 -0.2843956946308068 0.08793791807899941 0.2025742181834771
1.0353516691062481e-16 -1.690857592290447 0.05341797998948044 0.1975480404878971
2.0313766868591498e-17 -0.33174898889597776 0.23482928833676056 0.21742768154297581
5.503616526264811e-17 -0.8988087879863228 0.06959394848901665 0.20431685418103532
1.2284900005133891e-17 -0.2006276424139126 0.2114895493783631 0.24049066443376496
1.3920817213524775e-17 -0.2273441979061553 0.25257056905407427 0.20983382629216307
2.662707086351535e-17 -0.43485306754656367 0.17194376781157797 0.19466547072813079
3.625312184874276e-17 -0.5920584102123746 0.044463329920021465 0.19368516008616
1.6926079587243672e-17 -0.2764238570505107 0.13047052987980198 0.25307370871536683
2.7451760274453835e-17 -0.4483212677086458 0.1474992377327298 0.2288091352522549
3.7156129196732194e-18 -0.06068056393500843 0.32505165828136545 0.19402847868155074
6.14717676844126e-17 -1.0039101515181623 0.1397678770486723 0.18847736870394688
4.7106788187150174e-17 -0.7693122330446257 0.22082348936328772 0.1661087224081519
6.483767672436784e-17 -1.0588796176907556 0.08833419152827014 0.24392537453825616
7.013925929851947e-17 -1.1454610316599554 0.09574732048421383 0.22812273281227985
4.9626162204803934e-17 -0.8104567331471507 0.15501123187376314 0.2017965157996545
4.8279003160505176e-18 -0.07884559563478857 0.1354725440490381 0.2363476726962053
6.806725321466914e-17 -1.1116226043633188 0.12862159555729885 0.23064199266328236
3.1530756541466845e-17 -0.5149363320660256 0.2097833516631869 0.2034810003289737
4.798206041126192e-17 -0.7836065132357982 0.1429747686716466 0.1788269932430055
2.1377622666158563e-17 -0.34912307256333003 0.2760151440444074 0.19679170581336655
7.614920448108997e-17 -1.2436108849360976 0.022564516364551312 0.20147706512229735
2.7434464571553927e-17 -0.4480388074448056 0.16039115715028682 0.160310216461891
3.945243205445509e-18 -0.06443071109469833 0.19302258804426992 0.23019433137724277
2.1692460253305867e-17 -0.35426476055641515 0.1313636942911972 0.21881626435607937
4.139616289490745e-17 -0.6760506445405985 0.05715398817357246 0.20799886461321332
8.65231748109001e-17 -1.413030677435174 0.10993317930076975 0.1562810265589219
8.415226981710829e-17 -1.3743108604978738 0.0012497590747654694 0.08341463069566676
3.985131962901958e-18 -0.06508214394022116 0.23328930007736837 0.14254450972266108
1.00439608569446e-16 -1.6403032880888755 0.0405551728136916 0.21457717689651346
2.568599689545698e-18 -0.041948416332514116 0.1841765610415496 0.21051989100175048
3.542913189367089e-17 -0.5786016330314672 0.28066686112881306 0.205836928660123
8.591342840113287e-17 -1.403072762872514 0.0435425103167531 0.17521363393018471
8.184651595597309e-17 -1.3366550423021204 0.014584049558011921 0.19116219482848143
6.0244851635301425e-18 -0.0983873091853851 0.10676153526783107 0.1838327376693012
1.124371214176819e-17 -0.18362375420564525 0.2602413409793136 0.14458782525385844
6.551673880969085e-17 -1.0699695431418454 0.12003686322244775 0.22010271334364362
3.415903974791676e-17 -0.557859454198543 0.04707171452878031 0.16896649509671288
9.897273810300916e-18 -0.1616347475401362 0.1567378842346433 0.23982933416085023
7.623665663487134e-17 -1.2450390869914536 0.1378446351864538 0.2374014098182751
1.523677759000629e-17 -0.24883546179379604 0.33634786422195473 0.14709321645965243
9.043594632482851e-17 -1.4769310855635034 0.06070065992501484 0.24332970435612522
1.1622689735413948e-16 -1.8981292799697216 0.014033582847808318 0.15231924281396345
3.987356982400119e-17 -0.6511848126621116 0.08537515702316746 0.07227256197243809
6.547823924805107e-17 -1.0693407975857132 0.007468755523609601 0.15646900261634647
9.713184886360648e-17 -1.586283472609955 0.042223462654379894 0.2203976950208938
4.0208164487606093e-17 -0.6566491581997451 0.1871893563249382 0.2175803284807273
7.100216024778907e-17 -1.159553273600577 0.07152847037863869 0.1738101869530164
5.683177328944019e-17 -0.9281332924563832 0.04592165297229912 0.1849360173680618
3.397464361838159e-17 -0.5548480368713014 0.026731717324154244 0.17214021647308453
5.162689476251717e-18 -0.08431311754288963 0.21565313080301954 0.21187838856897723
4.11343744141462e-17 -0.6717753142013771 0.11705746397850411 0.24614041807815792
7.433076598356987e-17 -1.213913530584032 0.050470078541597706 0.17085466578995498
9.490158212643744e-18 -0.15498604527037774 0.0007459429316575448 0.10096966683602246
1.2416738290336294e-17 -0.20278072500546787 0.2818706012204666 0.1989009633519534
6.829310814999818e-17 -1.1153110953712777 0.05800390320948787 0.24572488958444985
4.502499310132421e-17 -0.7353139392136959 0.1006875882277509 0.23311499467040503
