x y z curv
0.5657550274217376 0.9009069094908657 0.35369523840985456 0.004743758300745014
0.229474029183887 0.9052653703841077 0.35220892788273106 0.01252042206381603
0.7038273319364788 0.9035125685827678 0.3604492214621627 0.006404746150490132
0.21343490576637794 0.9058339248324259 0.32290991433254573 0.00876683653513913
0.5101388327240481 0.9067335382919463 0.35697574012958866 0.03161296616734369
0.32515458575512574 0.8954512920027786 0.2752710032448377 0.010700373503256781
0.35617272835308544 0.9039894880702235 0.310758646637325 0.010404409111866172
0.48550826339917325 0.9066150187084415 0.22104610492418736 0.010992233330522518
0.3372746629684065 0.9021802352039066 0.34738932200131084 0.009813275161328473
0.5704443916294879 0.9054754128074378 0.2849079901774537 0.007268787252036835
0.4126306514435878 0.9067191286196893 0.34961332949415297 0.0160696869821859
0.19006613766401123 0.900686257180458 0.32436772913597645 0.007714158621759929
0.40658273107365744 0.9038303129199637 0.17798658803684028 0.006034867337283574
0.17195195388661508 0.9045429556598805 0.29838807430809056 0.010779065187056068
0.5930556126224953 0.9017914067306559 0.30300748818536144 0.00781129154227724
0.2760271549946498 0.9020851160378863 0.2385570429076094 0.013967640597744323
0.4880971481707309 0.9015557731170298 0.3564408437494227 0.03685480870040735
0.6303355445342539 0.9033580553935753 0.3532627494956852 0.011225340394097207
0.20017628196895165 0.9069173014269345 0.3001461575959174 0.005616512863696834
0.4431005751228225 0.9061033637958165 0.2962608555867695 0.024756239248103246
0.3868505249166012 0.9046777775678179 0.12674658461197227 0.019139659077260535
0.3516044238129268 0.9013280749541599 0.28688204125148437 0.007988772219476317
0.30633414742913634 0.898334369178177 0.25615923157840365 0.025887139071981136
0.47947856574582565 0.903047461006431 0.2133788729051099 0.008187227105328827
0.5141560484746375 0.9017283097769341 0.27181699733567755 0.01047631741474345
0.4335208636012505 0.8984694771811147 0.17273683139622872 0.0034540714555408936
0.5134647625811961 0.9005756487527673 0.25797974683425723 0.011503103953145534
0.3599208749198421 0.8993245623542473 0.3909849145339394 0.012464479656702528
0.6664047489787371 0.8970787165264565 0.33468062115857256 0.010983396098472188
0.16787145594015934 0.9023300568495515 0.2871434140723154 0.009937016245650042
0.26486823717400343 0.9064358352692088 0.3792869530247081 0.009008736341777115
0.34147683238277904 0.9075897219617161 0.36877982695366573 0.006496877415545173
0.5243028079533633 0.9096994865323083 0.29165708284264763 0.009361992505988253
0.4622635632559329 0.9010576551577945 0.3191514588918958 0.012058264642620928
0.38615099372127387 0.9101977225646257 0.24183028649369803 0.007444940266555433
0.14857192686841303 0.903807104369691 0.3532806166978602 0.007915527968837134
0.30037022736755165 0.9054229807520999 0.27657617336958906 0.01986011414268434
0.3035405499004298 0.9017554609260999 0.21208682994231273 0.010324612400822459
0.4822408360395485 0.8992379085743014 0.38611294901846116 0.04004611500307864
0.6353075696491394 0.9068111927339074 0.34179705560626567 0.006370209101756698
0.32507332615163137 0.9012001198918316 0.1710820709278887 0.005499089712768655
0.3609557425295453 0.9021878108438774 0.2743908728830184 0.0034034340521603037
0.30323085954016366 0.9007982525325852 0.284545459922009 0.022215188603791996
0.12227494927901113 0.9085339646160171 0.3246163336111857 0.014100387480192418
0.5990134639896252 0.89741187601681 0.3871375257381642 0.006878905127026635
0.20378503488017352 0.9011740891685328 0.369182008094491 0.005895294288970729
0.22643611110482592 0.9032221882171866 0.3108187840991681 0.009649226670425585
0.27484430077194294 0.9013609257052629 0.2569629675755582 0.01784200358044876
0.33170664865554556 0.8998183730238177 0.2887283198484936 0.013000363253790786
0.3109350676878793 0.8978175057465311 0.19196552254474705 0.0025352037956182204
0.40489804583122446 0.9059285553616598 0.3545033860805041 0.020431064221753625
0.421453657470908 0.906574159407607 0.13795455853375038 0.00838344734131418
0.44027664851556614 0.9064041362796338 0.22059405921921382 0.007561254145961194
0.21991419805580414 0.9045969129416304 0.33111464522380796 0.011696001513545905
0.48107059185328876 0.9042002217864816 0.2833983279818748 0.008671924649849876
0.20072619856298438 0.8974816882281526 0.3379390871878181 0.005475457770187664
0.3321746386693775 0.9027370548528035 0.14415663765447 0.013070948823769872
0.31505906649802423 0.903366719917036 0.22601842288012727 0.022695470033670555
0.4675589802348528 0.9144942587643223 0.37902515600829867 0.019394785364507658
0.3686108228648464 0.9022307672675034 0.15772900938974055 0.018013120599215348
0.5369594371560078 0.9055305042022607 0.35146556560291764 0.0184362686098081
0.4974613652076097 0.9000578151432561 0.34840733538631696 0.0186817858605948
0.35788948312086366 0.902862177458656 0.17268041049131302 0.017391092514120177
0.67412613577376 0.8999255355758656 0.386921061759397 0.014134547370783259
0.4974222953248398 0.9027449338284201 0.27164062959917484 0.010341406761908395
0.4209398559727307 0.8990140904348434 0.37872727100950304 0.015405294064908023
0.4713628731353655 0.9010853452119463 0.39023091969036977 0.020455724981515044
0.3745407880837125 0.9045498916433925 0.38198176623777746 0.023312184623497306
0.6089662094982082 0.8992570613838055 0.35393649158148693 0.010315157340088834
0.45508487704214007 0.9003683844151764 0.3483791995825884 0.011730920513191538
0.26140488649200316 0.9080529143657141 0.35305252985277574 0.007542850660197358
0.24319773060329786 0.9115710973109963 0.24583815347836147 0.015793219663673506
0.3435900042525489 0.901497916208377 0.3852996827544429 0.009950151089547311
0.5612157608656603 0.9052160939072764 0.32630348237745743 0.010164337870487547
0.25197893755412837 0.9052454104740542 0.2417982558026285 0.019457410586794694
0.5818789336373518 0.8996088616826697 0.3487670002054011 0.015333627592249516
0.6157173056140051 0.9051161039841847 0.3709257404363755 0.009314416771999817
0.5464424247213242 0.9015291577582027 0.3180222873660083 0.01748540809872355
0.546326226702122 0.9009410543276043 0.2589864800317814 0.010555458758959446
0.2828307148886172 0.9028219052680668 0.3322944567726568 0.009440661774539666
0.2564382736643734 0.900191516343919 0.26903615328655367 0.015877076105203825
0.10101896848117803 0.9036522484195745 0.3727425658890867 0.022342924374409552
0.3848987518455727 0.9047961988254731 0.12521458555202808 0.019195779225359092
0.4324909808901374 0.9019246207016215 0.20871649705683915 0.005773917088402803
0.41377744713160286 0.9015907597088952 0.255972840361247 0.02378296326380024
0.40519037335246394 0.9044838488733311 0.21815392821711121 0.008426748874531063
0.4309125411674213 0.9131421355295194 0.277867795487742 0.00781558097272543
0.2959018426904995 0.9035214208702758 0.2972748319621424 0.014349235913227999
0.40571768647111134 0.902164270590838 0.32959112520519035 0.02053994435769772
0.49348178141268895 0.9072561349853894 0.37151180416256047 0.050539861798992655
0.4031468754290808 0.8992514358842746 0.13728358037721922 0.005944478275286998
0.2514157973591707 0.9049925830107728 0.2976549029408688 0.00515617784072655
0.6339030495753193 0.9012862184065259 0.35183832215224925 0.010122644418490125
0.3260945663101678 0.8987495159719874 0.2484734171567886 0.02293913527825808
0.5340690755993658 0.9039090346555682 0.24755949067233485 0.013023378886811734
0.6415638840841061 0.8984822137877032 0.3752720664448326 0.009237882974386316
0.3243080000895737 0.9005698139191999 0.333685302300164 0.010654108341424603
0.5875061947418291 0.9012387626258828 0.2933796302614006 0.007894709823143671
0.3048621695565797 0.8999019258001283 0.17900534310823968 0.004750783141073619
0.27606359243810213 0.8994597618234264 0.3066897055806823 0.008324150710792712
0.41972120834896487 0.9068367545918471 0.1568775828764132 0.0053231790849904434
0.6897092583076757 0.8961735776874359 0.37766083614948076 0.00805606732237452
0.30716987832744336 0.8980589418873197 0.3485684192318655 0.02001071054642649
0.7097756395123421 0.9022613491671291 0.39193939983929943 0.006411526123410282
0.30472975455062223 0.9004813864405193 0.3771021282496932 0.013441540146331983
0.3761909257178711 0.9069438357979184 0.36921144363319086 0.014818354898777975
0.3312880504106278 0.9105846685398737 0.22931862206205064 0.01368414001392281
0.4729538886126948 0.90051382515895 0.3065907978674777 0.010116556462585729
0.4482145932258998 0.9004809071914068 0.17244322038646426 0.00548914679952391
0.511768517215798 0.8999910719283389 0.33253321598571267 0.009622702624598104
0.3237773430147947 0.9051331336067431 0.3013021826673112 0.018134587468100143
0.36675196786186537 0.9050643264324235 0.2851168777351123 0.00371782257061916
0.5589175744668834 0.9030020977977267 0.28767827250299893 0.009818192738350337
0.5248859342828455 0.8955343617471421 0.3164507420178238 0.011477094034986136
0.3132229486325041 0.900215789950478 0.20744621916777578 0.011528405110395107
0.1657244068738829 0.9038959642225024 0.3228969995464148 0.008659508196630306
0.4272725866954921 0.9029121416922358 0.19312450533858386 0.007147815386226781
0.551140891018184 0.9055265609525023 0.37392605218990943 0.009553663675516829
0.49229131947946736 0.9065483569844646 0.278689680426306 0.008593953062135104
0.3498640499479227 0.9021154389179672 0.2500379864580633 0.01164463894192077
0.26822910757455076 0.8985802232267625 0.3215084816227628 0.007217925943246026
0.3100454117771899 0.898422299759435 0.368333578713153 0.010698174320161244
0.18164999074366045 0.9035573372812438 0.2819199209152095 0.0036167425272628237
0.5565261065271919 0.9000510671703028 0.3000458510709601 0.01372032875748119
0.5718619621490751 0.8998110764587699 0.34110932046840153 0.0055559411352323765
0.4671035473180261 0.8995003976147509 0.3357117409755051 0.007995945131975943
0.2803179814798966 0.9029411573119909 0.3561681252740024 0.009833462004992622
0.3788756627079207 0.903834314478186 0.2674463765165699 0.010654979503975514
0.5333385850936817 0.9026748315216552 0.23837687455053186 0.010060370835059777
0.7642028247211353 0.8769305897991864 0.1274368962673113 0.02154364566717961
0.750597336657752 0.8998596968175143 0.20237793811537058 0.006847448035608007
0.7672124848873662 0.8778029774943884 0.19594631481643157 0.0171055447259858
0.7584075865144015 0.892297094622601 0.28587462015759757 0.044736381110005795
0.7588312388801067 0.8862644098573265 0.32439459116144026 0.015809647080693323
0.7614444296586032 0.8930872889325387 0.369466532132902 0.029376151769463774
0.7521354751332326 0.8905145230234883 0.40390148287805416 0.0970728893877532
0.7554911178387692 0.8886502661014876 0.3903910962802708 0.03753025023479082
0.7660939055275843 0.872632187943996 0.44921311896166877 0.025960047060602717
0.7571214389896688 0.8809807096517137 0.49152896327417883 0.03633599880962268
0.7600939746090121 0.8853899417642597 0.5456676221495356 0.02495302378624962
0.7582989682216699 0.8820139307060527 0.529571294769535 0.0464360510112488
0.7491208876011032 0.8991767856276658 0.5562340666754346 0.046693174548993195
0.7589171816761636 0.882193197669361 0.6039095404714617 0.0422388797446889
0.7579861064504883 0.8877252207351437 0.5811410042554743 0.04757847378173434
0.7623749836779424 0.8765186430950737 0.5860152806986889 0.019313630140583356
0.7524911661528437 0.8827125099180931 0.6214121064233201 0.03985581685058749
0.7517668356070821 0.885013702313629 0.6337328253772123 0.03146225555691316
0.7413674234765513 0.8983874144422715 0.16249517534466154 0.027086860358108096
0.74786770450518 0.9008660424036066 0.1812669179073462 0.02479973691231711
0.757250856826086 0.8979416122344174 0.25591614649325767 0.04277773382216436
0.7518027048423896 0.8958274478943301 0.26749745826814275 0.052698610183211515
0.740832954221315 0.9025920907348881 0.33766831713853507 0.029478790546261242
0.7358946777552579 0.9069286720340165 0.30373361744709576 0.027274768039654663
0.7524158907708979 0.8929655334543886 0.45470228977929816 0.06961244534475068
0.7496874262915472 0.8938051459892157 0.5305533814871565 0.051470692376181744
0.7434079908936608 0.900580421781542 0.515348870378253 0.061437575471258284
0.7498834309799383 0.9067239536901784 0.49044233613181953 0.02513490591562632
0.7496887923396788 0.8968921084344416 0.5644203454051883 0.061882182586040495
0.7492443414561133 0.8940114757701845 0.5764185578389789 0.06707467312105837
0.7525984856902598 0.8955346210168679 0.6066597507860347 0.04748672060635834
0.7420327417402335 0.9030084090498126 0.6194852251867073 0.03718347081740541
0.7384585854431795 0.9007264774579469 0.6423674830672037 0.032589834357934874
0.7679598852254919 0.8773828208493095 0.16014070961693908 0.03835423197663497
0.7606209616754696 0.8768116469722802 0.30535197611910736 0.026340704475180738
0.7708931029618886 0.8647447167133286 0.2773959787865877 0.004867628348648838
0.7590780695070758 0.8768460480466691 0.25021126310768743 0.02127680597881496
0.7601439161787638 0.8741200953759719 0.2877559319247361 0.011337874499738523
0.7712867215373117 0.8698127295483695 0.20867309839579667 0.014277800887035768
0.7548539479830997 0.8913725779498352 0.11622866712236878 0.03458867268762667
0.7541736922112388 0.8915390456295501 0.1284675501834474 0.014062166745557887
0.7588469199338007 0.8847360048530779 0.2434779151689108 0.041928961623942496
0.7638687916069976 0.8683883205237979 0.342623841610657 0.008216756852522579
0.7673410311296712 0.8820497183057153 0.4647008535369603 0.019203673506038414
0.7605351278244927 0.8741839659407311 0.5575248615293179 0.03486600640415115
0.7634856570014865 0.8631786878466761 0.49427027828527953 0.008417815454998603
0.7618440907965345 0.8702793447878517 0.538079332869834 0.013212553436226585
0.7614609978075574 0.8769645516685809 0.5188048732998944 0.02262007810762888
0.7622984823994194 0.8711415435887279 0.6155276869394743 0.014870245713892826
0.7615863507671308 0.8670995785194675 0.6420535107006408 0.009954146749281127
0.7576452419173176 0.8837298231897326 0.4212620654365299 0.01893828798371206
0.760085829361368 0.882661922861599 0.6785282835070418 0.03168355210552605
0.7516617372159075 0.8806483826000802 0.6441798725746061 0.02303316828514999
0.7624487480827886 0.8827430351229204 0.3846378243727119 0.032192026115728335
0.7466422951433059 0.9005678741608095 0.11297990116577045 0.015615010685401446
0.7360010024277661 0.901627461738602 0.3334178289483889 0.040898373386776175
0.733300364049442 0.9080591346162761 0.22833496706207668 0.032576236826683855
0.7426673263263633 0.9007977349813695 0.23709383018358235 0.04716020808705022
0.7421625679815724 0.9038192328523209 0.3518836201341967 0.022897262279967273
0.7288189772050204 0.9042473609828651 0.3624636769466883 0.009681852422966944
0.7298348700438232 0.9071342668876977 0.1954126803378383 0.0024504447646844867
0.7429589724698661 0.9001634193407932 0.383089886744106 0.06181832422152582
0.7459749116268843 0.8929081810964553 0.4456140777092349 0.03860758337629901
0.7294701327854524 0.9061175646081625 0.4722370383982417 0.01473722401609558
0.7371335068511432 0.9015251388243584 0.4994822041441924 0.048336500017433746
0.7321531327535993 0.9052363685406717 0.523695640900564 0.028465513982594202
0.7469552635650129 0.893918473921113 0.6612061395941661 0.03422344437900522
0.7326332697243045 0.9035859066052859 0.6557697809257133 0.03407925650630926
0.7475970868438259 0.891217545852589 0.6607119781038134 0.03379572885970808
0.7389375347134064 0.9055972886912487 0.5910375371074923 0.022951344882655884
0.7372117918661012 0.9026267726595498 0.5526674511939869 0.03720254135349322
0.7337841304458466 0.904236831639589 0.5859064709434405 0.03126013258609541
0.7458897858335802 0.9038740410016728 0.42268372620534794 0.00765151313232017
0.731969114985042 0.8685092029666124 0.7116521492715494 0.017788985918244144
0.6898085847099906 0.8667346588211817 0.7151461439140501 0.036645930466585624
0.7181943112323971 0.8637511119768108 0.7111849418123118 0.007517245873802649
0.729215696411441 0.8304209841967788 0.7137702992159255 0.051768838894424456
0.5861892812552802 0.8648822240016151 0.7172789142169966 0.004495654502629702
0.664474312374246 0.8636657838345677 0.7104364466587594 0.023948667470250696
0.6762241824678338 0.8687510155043139 0.7105274746628056 0.03000930428963864
0.6537377342157968 0.8313341143189432 0.7164159992340857 0.0008389521164291424
0.6251161665148113 0.8427423935237808 0.71606097213829 0.0022537273130949637
0.6841474739376544 0.8249623741307205 0.7157669169885695 0.0072853641836026104
0.6981328520851556 0.7982997752019374 0.71388850810695 0.0012419725536793593
0.6835945106484368 0.8343302162031175 0.7164228265345489 0.007241521520160829
0.5880594898769668 0.8576786417594268 0.7179501081336709 0.008531665788789673
0.6120911813500325 0.8434207531763616 0.7214001448761335 3.981921316326415e-05
0.5578791376808889 0.865346044844035 0.7117631372753856 0.0075396279727392105
0.5405185982677527 0.8630282434402158 0.7133902188931258 0.020932592997856082
0.6702506312431079 0.809623090833529 0.7213991533143531 0.0015512807348058496
0.5362004226806383 0.8526842301629206 0.7163279556528751 0.010017728102441902
0.5154110735327235 0.8576866290505554 0.7190314959216708 0.0056605763032675175
0.4942661492983988 0.8481863883988111 0.7181943068941654 0.009849604153212286
0.47507589413763146 0.8412746331905817 0.7237020254070313 0.0006247457459602561
0.44255075944967565 0.8588780271919152 0.7170453273701511 0.005218814012179288
0.3917913008959015 0.8659843385846152 0.7174740551805328 0.032721169562269434
0.4238678125475425 0.8707140478077444 0.712508389956352 0.03461436123647999
0.2502805283142608 0.8644609695391956 0.7169424771909612 0.012897533992829148
0.30275116764029164 0.8506824882040547 0.7190633558173272 0.00393182938463361
0.2203963547746973 0.8382848845872547 0.7199262760637657 0.004725049150605835
0.20840126347183058 0.8459513447844439 0.718579920411495 0.001031188873537498
0.2697190201161384 0.8570555980139217 0.7146067818065321 0.033760997396410405
0.0843603946796555 0.8160435811556015 0.7147138264024572 0.0015698130933955873
0.03945855960596025 0.8127011957836058 0.7202171150224184 0.0007110762027968065
0.23432559566526925 0.8563447165714442 0.7205266774093838 0.010965373612457658
0.19363818848473413 0.8397143450831971 0.7163546405025879 0.0008066328731961038
0.07619229217876819 0.806096819158171 0.7164122168631188 0.004200764408530442
0.10495692193300162 0.7997488955547025 0.7157093390498825 0.0005872833147120331
0.13871494688861746 0.8695702884032241 0.7137156610959376 0.003747088411385019
0.10794559450570465 0.8508168971397657 0.7169340987351727 0.007825245268298349
0.055340274459522706 0.8348550041150163 0.7141254416078087 0.004386624443988784
0.05990911661665385 0.8575115816452512 0.7126533244406325 0.004758939484629539
0.027023849178791696 0.8571609997008852 0.7126111955120625 0.03180718345465312
0.046718402202925516 0.8542221719896588 0.711208374108688 0.003139208787679971
0.10828265699335221 0.8623824468715595 0.7113164452539539 0.006512041391565357
0.07364906013483989 0.8449579776788044 0.7176455545208884 0.0019418080594449758
0.16095229462168006 0.8438753040169232 0.7131264263795905 0.0033392846373724635
0.18968974418858014 0.8673363008698988 0.7167501516212353 0.016873854836539946
0.32612596840543273 0.8555263658822527 0.7170578813134478 0.009773720442614575
0.3228308430927802 0.8721020748791959 0.7143180120105116 0.01823969080858706
0.1324062992961222 0.7995449831150558 0.7183866954571135 3.3795211274572176e-13
0.7166820132952164 0.762960027655742 0.7141828734154916 0.0027415878463893525
0.7230676731484398 0.7454693867235241 0.7128141527123664 0.0073235502296821325
0.661738922357793 0.7424766548673308 0.7186426465729254 2.577736395637144e-05
0.6889159970055957 0.7699512900439375 0.7166443660014873 0.0008864423223383319
0.7146500250329636 0.7561949542197133 0.7164082672534289 0.004014360707495054
0.6518238274164025 0.7578839404548541 0.716772019499519 0.0004518727080291158
0.6048884732442809 0.7192335678246987 0.7206510677567661 
0.7044621733357316 0.7427622764001645 0.7164809608698417 0.006112066938276859
0.5299675996925803 0.7141895797600073 0.7183389219374596 0.0009462234512462018
0.7050575953710503 0.7992209311962807 0.7132623883940321 0.00209252238023735
0.3863854912840002 0.7082592345949118 0.7190424571347255 0.0026815160494839643
0.4037065979737857 0.7283395695976224 0.7194763376738382 0.0001382693238405341
0.6498245698870043 0.7897618007793061 0.7210417687425352 
0.5356479460080247 0.7885656261427071 0.7200627018446569 1.0690513364534632e-12
0.39146795798247536 0.6681976155643261 0.7178524456316541 0.005774146265258187
0.44176366265652756 0.8414932334659475 0.7205423414827613 0.0034153343489743923
0.4073568169048909 0.7011540158880275 0.7195933285396783 0.00034503617551756555
0.5483325374409286 0.7730521598354564 0.7156844119261273 0.00497152428925405
0.4226685147136499 0.7839686747550709 0.7174733181463456 
0.48217918095965034 0.7219166302500728 0.7147009686058716 
0.5119455726071613 0.8227782420830398 0.721417206116674 0.0011966368582437587
0.44565695935783134 0.750286786576437 0.723668374365825 
0.48667643775980374 0.7953380051748252 0.7168834020542149 
0.5987714302882667 0.7855451519933013 0.715435094056916 
0.399438603635564 0.6940171150607788 0.7193409019195788 0.0005631282396409056
0.42443171337294366 0.8404369299346868 0.7151689444970859 0.002834536842669677
0.48566257814822433 0.7029222005489851 0.7147936352675479 2.3730290197808204e-13
0.4440831035144924 0.6816188873427982 0.7161628598013561 7.071583393138612e-05
0.4036442629115223 0.8385924010460095 0.7162225958747194 0.011089836504459608
0.5382273756062579 0.8301311062555373 0.7190796428876739 0.0007436558202407638
0.573864354700454 0.7481891586104451 0.7180851314130394 2.79436254981006e-13
0.459481042079509 0.7424967320506098 0.7234152088480011 
0.4321422105730566 0.6808693260365384 0.7160507919575586 1.2348608764913978e-05
0.559214445497411 0.7762444884021533 0.7149328534620055 0.0019097690983581454
0.5533034472109765 0.7443254877788708 0.7156575657673575 0.0004857588875509234
0.6910505160815203 0.7833557947651929 0.7170061258547454 0.0030181612207850236
0.4404177133283164 0.7936018836253141 0.7186372610590449 
0.5852851801531714 0.8046325159108119 0.7197629681921209 
0.5329527073026568 0.7521437974468018 0.71755289208095 0.0004257861700493962
0.6860372042902704 0.7116323594642051 0.7189121627113325 0.003736866342631986
0.6314181863222041 0.7017656596674928 0.7239520012639612 0.00038153710244986125
0.7133748050472414 0.7282740095404314 0.7200149495339676 0.0010483922762737385
0.718624026705737 0.7006222889005177 0.7137284341936819 0.0018872028954488675
0.6831578447431328 0.6629099002523366 0.7216147525725553 0.030268955504593045
0.7318937122583303 0.7028672546060564 0.7130524587383521 0.03311387324097925
0.638172662785318 0.6550833989879092 0.7103519473634119 0.04456996254546383
0.6954720661780159 0.6864621205032423 0.7175079740732997 0.00018264971800964716
0.6452517792590284 0.6655469874960889 0.7144687742328063 0.011434864092613062
0.5260168409564462 0.6699930813403874 0.7188729923118065 0.004225703890609235
0.5613386658126387 0.6963350339121056 0.7181938991194615 -1.2780662656504708e-13
0.43637461064586475 0.6615163587217451 0.714262605901941 0.022621350846720747
0.6135410749093697 0.7069729784559472 0.7208754421792523 
0.5134449472749726 0.6838702482398487 0.7144992036913785 0.003531716573860388
0.48865908618499776 0.667807127610828 0.7199918490465619 0.00272786569141136
0.5890879815964597 0.6611330462732844 0.717942001145987 0.014556725607244934
0.45226753820625354 0.6633518533770034 0.7140561773051326 0.014271241340544057
0.5472395212865674 0.691045608162285 0.7173277534069347 0.003887937286879683
0.6492240919001326 0.7301148700691484 0.7173629914875964 -2.543711646971042e-13
0.15651479248791159 0.7208719139111021 0.7230281373982146 
0.3130630595087899 0.6749864126065349 0.7229143077551791 0.009076022577451907
0.32882682008968284 0.6620373800642588 0.7187227516435934 0.0058349521788460005
0.11746902878838703 0.7077516186781834 0.7194615666368677 
0.08318112880901979 0.701673670374622 0.7190753504085671 0.0044810115934371605
0.07429180075731892 0.731862795430667 0.7139958533722496 -3.5041307639984424e-14
0.050796962351427555 0.7243649080567242 0.7189079442654455 
0.2761402966966451 0.6707180355729091 0.7170098264401215 0.011428879054699031
0.25330545271995875 0.6654359913563186 0.7163420725758869 0.022233579058249277
0.2201036330916648 0.73757048508918 0.7166464245032796 1.4846402333580867e-06
0.1859152471508552 0.7505318930621662 0.7118028642366123 0.003050792461328087
0.26326533929129925 0.7550388973224522 0.7206883281146285 
0.3535290522017076 0.765055366020308 0.7205169158287577 0.005830823541274299
0.17841343697513268 0.8110035279137398 0.7151447320252803 0.0003929074905460947
0.28181289603579 0.7375147088901947 0.7184059543849782 0.00233174448195055
0.23157283775011292 0.7004954265315726 0.7199616588486493 
0.09127466161471089 0.7561435255701792 0.7148450731485736 
0.10075849449422412 0.76338580287798 0.7161078444335843 2.296581933493335e-13
0.15477975126966784 0.7808540368176085 0.7151833474542573 0.0002951708198365331
0.19889514445631318 0.7338497751230268 0.7142069828605293 1.0515491396998056e-05
0.27538279255030795 0.7017476156603019 0.7167047601802266 
0.3752918871640649 0.7393962235639395 0.7168182327065559 0.001032986901552574
0.21101482915034533 0.8081243485082843 0.7157570875191462 6.592727389847522e-05
0.305782270547821 0.7362316988249828 0.7182291302013771 0.0002419868422077966
0.3249978036438985 0.8208101674362047 0.7206464143499635 0.003862672837740883
0.3627531081599058 0.7165464071343639 0.7218699071104104 0.005132888178432896
0.13125619021214402 0.7873663645392224 0.7184644603433674 0.0011300667027357076
0.3529904680646001 0.7357096795967275 0.7230883376914449 0.006133493083091943
0.31227510822030735 0.7395526481957576 0.7178019240049875 2.768661057695135e-05
0.19893200401718192 0.7152662890384999 0.7141974590022473 3.896081807904157e-07
0.3468244908015957 0.8361573511677407 0.720318867169608 0.002730040134741335
0.3329766943255142 0.8119093408967066 0.7210895273984872 0.001503666414485563
0.1662494602080112 0.7754439015304024 0.7154569235686807 0.0001455859904983532
0.33428493837418294 0.7439427395927553 0.7185953250167973 0.0008407620173641149
0.30610160685910154 0.7994148098823948 0.7162035772216473 
0.25869323853380133 0.7971455146441347 0.7138065719827859 
0.3257610736261786 0.7064678239313332 0.7189826679484276 1.819874963178013e-05
0.18965632204585026 0.7701666193117896 0.7116620225020251 0.0021047841296641463
0.2825891047082813 0.8344917434506733 0.7154202398210149 -3.2678185060717025e-14
0.27644171735256223 0.7586245262984734 0.7164989193788909 -1.510302130828091e-13
0.3765332184906169 0.7883293723402239 0.7177235194975033 
0.23405356199064262 0.8209811906187889 0.7213711387829816 0.000605779149384051
0.3512602379907854 0.8589093447283856 0.7180636766434572 0.02164195083163243
0.3192016654945593 0.8460978846210833 0.7208463897293217 0.0019415703360934052
0.13823638659045356 0.6655704627954818 0.7213649458460439 0.0012181752633129853
0.18263132844780644 0.6618398288772954 0.7172262730029032 0.00748928308014756
0.06559822152893631 0.681962668063729 0.7159834388707439 0.0026587569920105605
0.06359703134415123 0.6476934578329957 0.7156877004240022 0.021675175911761685
0.14427060227744667 0.6577675932898065 0.7172691253237524 0.005542506994092279
0.03402259333561073 0.6283227878788699 0.4802182617534335 0.007145987311943299
0.043523423429587337 0.6265247413307573 0.47478039796331095 0.0034507121598928883
0.03698686723850674 0.62931283894139 0.4926201565780732 0.007681439542303534
0.07760723684184759 0.6265184751521846 0.5000260383737295 0.0036067106955235966
0.10988936077653762 0.6223637503228391 0.49466082806946693 0.0028027993768297136
0.047882511366561575 0.6301695043642596 0.5181319903907682 0.004711002752654755
0.13330677466115173 0.6208795869228957 0.49119976591595876 0.003099650770319131
0.035996931250988254 0.6263902326555078 0.5149924317266397 0.004355665942233546
0.09725188842040307 0.6277418402679718 0.4997952981127513 0.004439854620896348
0.05986814409394325 0.6286982991547202 0.5244704889324993 0.004848100113626624
0.057194635998241414 0.6292377770836066 0.49770109726276046 0.0030476330096169883
0.048189039027640546 0.6265962285123539 0.49529525941966973 0.0038067263924545184
0.07939760595189414 0.6256175584032734 0.4884873991051745 0.0037607103611218278
0.10080098874838322 0.6275720196918867 0.511245743699216 0.004005971602686525
0.08406600181727811 0.6251883978985298 0.5183368180642731 0.002896117480684965
0.04917692605601667 0.6297766162566047 0.5369384422958434 0.009025228755170343
0.1596787654243664 0.6237807589681226 0.4841274110978468 0.004333841221069243
0.14030830675586933 0.6241101482851693 0.4900421534396484 0.0033251290480722667
0.11251995654887502 0.6349788944725085 0.649823748542532 0.017271068325411483
0.05184946106718967 0.6289433222722255 0.6070963385804785 0.010190828739344583
0.032357421659753915 0.6267412435856661 0.6054857840304559 0.027513592835240727
0.03217638835599651 0.6222919158908171 0.5923219008830054 0.01169527294320879
0.03288164945699874 0.624116246048716 0.6371867344109348 0.00705321226647452
0.1507678396828709 0.6255684004109912 0.6665195919844706 0.007999070582950603
0.07565624977623889 0.6273536280974248 0.6250598931570468 0.011209099375225635
0.06649023468467022 0.6202783945427711 0.6270534645209073 0.006624427325979281
0.05838553276299249 0.6268824404432797 0.6702181880988871 0.016689521895217475
0.027712654370511562 0.6253384841910199 0.6689255501990133 0.026094215982697934
0.04138618393774704 0.62605127782964 0.6497001548438883 0.004612165080786195
0.11302473120619344 0.6243185744707583 0.6848452248934062 0.041063031034799524
0.05992568583395299 0.6243805883483705 0.6551765737844748 0.005400548318255846
0.06972459113827223 0.623070550455284 0.5719892900437926 0.013972554670255797
0.09494886694437293 0.6298512898014385 0.5805016012795262 0.0051529855202753685
0.10926597617165304 0.6260582529970325 0.6100036662491177 0.02543741853184679
0.05117837734539774 0.6321360894246796 0.5921718002258867 0.007916502993722423
0.18516945831794052 0.6275006302511157 0.6230768339115408 0.013457388552861757
0.08349454761904503 0.6236111673173074 0.5976137090824031 0.015502050363660872
0.07665222759997019 0.6243918475674669 0.5676503152548485 0.010629571735693955
0.11812643592257432 0.6217315223615827 0.5882643838711338 0.007091097793609498
0.12535293240322343 0.6167143853229393 0.6205926060300743 0.013955943103277847
0.23647397238931214 0.6233148756383684 0.6416387785093618 0.0015342228604908394
0.04495699259537291 0.6257610588196943 0.559261138982068 0.02126174862672847
0.08872406785950451 0.6215697037828152 0.6558831962660784 0.008826247020950423
0.14293908302344682 0.627015861430474 0.6736571840514303 0.019089415740542806
0.13281949910601332 0.6287780055936215 0.6826509061600079 0.035036805095697926
0.1615847842847763 0.626052773242254 0.6444623501465627 0.010554785494426585
0.19275225627409243 0.6230252476796296 0.6533060790985659 0.008275708452955917
0.10921923809319412 0.6282299491789518 0.628631965998907 0.03240310894798118
0.239696040892266 0.6236751958264167 0.6757141882257222 0.020734132337793768
0.2402003888050124 0.623777993350791 0.6626136415175483 0.024224023709430616
0.15082738229349052 0.6255640351983249 0.6195579486537637 0.01010676494022844
0.16968789712440677 0.6252244559757858 0.6405203046586202 0.010021795211193636
0.2781460488872408 0.6242188980434469 0.6622034550810943 0.006516814218037458
0.21606620964565967 0.6265403801941434 0.6526533854740392 0.007603677609028485
0.0825042045124516 0.6204765670224801 0.6049508774349784 0.01257154251216526
0.29709198102398804 0.631167853964178 0.6707214709031518 0.006479877549742842
0.18154102395252125 0.6262893107285799 0.6359422838053106 0.005259354186740106
0.14362930013867425 0.6199634055812856 0.6454118394494649 0.01296001067736907
0.16835870320955781 0.6211403169564319 0.6617025607723231 0.006077160226012406
0.11104673930230703 0.6282709737738906 0.6321511700511534 0.0383648023224047
0.15705401094200258 0.6283583124421253 0.6731283282455286 0.010200465500125369
0.342211980222896 0.625519372140631 0.6798749102936912 0.0029686977713639408
0.32161105912603255 0.628710222162924 0.6568842653837003 0.004884539114307632
0.25944079934811337 0.6192369196011737 0.6470263011679127 0.0012683411857644146
0.1512553260859097 0.6246414995725915 0.5937735586168899 0.013603053054561585
0.20950532373548122 0.6227839268112508 0.6265768547096345 0.005237034069123536
0.1885594910607756 0.6287461397075532 0.6138727674233134 0.01213092100943542
0.31034414497501145 0.6307986135112847 0.6554018507854322 0.004246433984507167
0.35981281304138674 0.6292173497693351 0.6784110633716444 0.003909975765062708
0.2273359284651451 0.6204175822999509 0.6137112833309092 0.0028148599555730043
0.3333215306997799 0.6285670301726166 0.6717143081808613 0.007650337402294898
0.26495318477017676 0.6302347802387016 0.5543788413590308 0.010425830874338779
0.3287382925253068 0.6232588066397297 0.530234896928272 0.011196634152562173
0.10639279274796179 0.6282527088936867 0.5196142297569234 0.005532895014613779
0.3061395077918304 0.6255992354158538 0.6403481810793002 0.007319116547622845
0.24628960985893497 0.6303643541838024 0.5856038254056035 0.012342368427193483
0.24658960815415 0.6294887282054763 0.5902798877906426 0.015084596526086127
0.3439543022369954 0.6269639506736507 0.6617321556888983 0.006839694665637235
0.18033555009861146 0.6278851996020519 0.5409039922818294 0.008847194031094432
0.22928541167207178 0.6271499622998666 0.5114822669507132 0.005517232442872229
0.32066539740409045 0.6264929976917225 0.6395130673040612 0.005903776150345861
0.20145751570907316 0.6254939325518165 0.600387271030571 0.0206196218082875
0.13624529619002565 0.6255216138246787 0.5551353194079857 0.0015246121549934103
0.3024983241315102 0.6310794927566532 0.48649289958723596 0.013598104248905236
0.14644410613400047 0.6255949435584465 0.49873311434189893 0.0025159588175477417
0.27679798379598874 0.6272788843856631 0.571385805494678 0.010386186573837438
0.32784327055847606 0.6213826242089817 0.5065610406041351 0.009654183096606143
0.1415811444815262 0.626035459384183 0.5126120045497323 0.007950368252605125
0.2941177431232462 0.626310606796817 0.4714744039200664 0.006545954278065365
0.17292352741075337 0.629878668025349 0.5230884204214202 0.01286906342104567
0.1133753893608146 0.6242668296551513 0.5694699246103173 0.008524326325955954
0.320109907726193 0.6249757556623231 0.49085949509132265 0.01993716791010577
0.24333502799858098 0.6258197111788586 0.5606110934158057 0.008441375533258945
0.30506938513447385 0.6283116260907473 0.6169506669710463 0.00920762133765925
0.07037411592538102 0.6289058481253555 0.5601546464463208 0.014381745081288424
0.30749725287530255 0.6289979177094106 0.5589967060382552 0.008827970632374447
0.3286641319901828 0.6303207848605009 0.5995995349582163 0.014046964777236768
0.3131047818899033 0.6253144155654597 0.6169356164119535 0.006752212008823475
0.15455139240355822 0.6228862795853523 0.5447218309908997 0.002382597531428555
0.3463371776332567 0.6180603292190164 0.5859288858733442 0.003447144619078194
0.31396275228439685 0.6243701653073445 0.4807975617456799 0.012064014042756177
0.3342394724761757 0.6270676154012291 0.6218949238857883 0.011643642580511907
0.21093176632557725 0.6282691880739224 0.5808328849065991 0.00760451533280124
0.26286272456794757 0.6206720226624858 0.6330332901289057 0.003986265875760676
0.311495185743232 0.6292400184340058 0.49624253961527504 0.00804839929598656
0.29293199882951854 0.6287429212673804 0.5732338909754344 0.01305354124743499
0.1716516061622996 0.6303872596481309 0.5300636830360161 0.013682224204060208
0.2391228688633471 0.6256114444915712 0.47197659346156995 9.286974753447372e-06
0.2980731994929726 0.6214172540521421 0.5497258286638979 0.0022669292186513084
0.2723555030536311 0.6251975671240169 0.5402602409076444 0.010961970381282275
0.3396613793449193 0.6202907624040337 0.519481906264293 0.007100142861183141
0.3410461486077793 0.6256431335898004 0.6680146887387077 0.005948941782585587
0.2245776224989439 0.6239795046174701 0.5409436266997592 0.005687558525585357
0.20541036341507665 0.6217907829494546 0.5543661021671376 0.0057336926984528904
0.2483178960162201 0.6305933873964124 0.537404462478115 0.01921973765757844
0.20743325621220407 0.6204127824453632 0.5178999586587724 0.005412369839890705
0.3117257016946543 0.6272911011692089 0.4865519089565662 0.016673590256226486
0.2446597322991299 0.6333114420733722 0.5275439902827109 0.013697397266659207
0.3026764592650165 0.6231014184070839 0.5928340084128177 0.007979692331314648
0.1725639657536786 0.6224381666935274 0.5762126999844595 0.009105247904794847
0.38273915208072934 0.6274490696953162 0.6351298884814458 0.007266059588509735
0.3633868580482822 0.6260188987037183 0.513813279926332 0.009090741519874242
0.15061923963486845 0.6301217152946169 0.5120368939613686 0.008119502968433397
0.3569713028093839 0.6272285805327823 0.4746683126486784 0.007620543844075976
0.33717196709950104 0.6251463020882884 0.5485937060509107 0.016995514776524046
0.06044477245604679 0.6308421636081953 0.5542571300035652 0.012305242691324712
0.24722420699049755 0.6294510021908989 0.5990929249205588 0.012440105296158459
0.18900946614296027 0.6245098221650129 0.5803220573727991 0.009482762845308981
0.25690587346639393 0.63104803166185 0.5090427046652657 0.01953057542083103
0.3562014550705014 0.6240510332083792 0.6140068582043372 0.012741051570952235
0.0796501541423343 0.6319207493772311 0.5423011379797038 0.003387523100126912
0.36586419027199657 0.626203177120218 0.6465427468232234 0.005317593778326991
0.224536123849701 0.6263335425623073 0.4785733608145899 0.0011364159306398534
0.123431666083436 0.6275713597337379 0.5305936475545934 0.004121044153108393
0.270529419248293 0.6349481191401861 0.5912300823024682 0.0018433783613347502
0.2967581280477132 0.6244944491831684 0.6343939462178882 0.008449287023959138
0.16850936177433895 0.6164645765339466 0.5946977673805335 0.001144512807571902
0.33015388016320824 0.6229596377232639 0.6443186381136017 0.003024410258366892
0.32450163718883074 0.6285158195760387 0.5538236163817439 0.004962713399847543
0.2869318971478108 0.6271476798468345 0.6101154538365681 0.01427440830885812
0.36818232612067575 0.6227853829265423 0.4997563862175143 0.01602832766669281
0.273702569868004 0.6237253015597112 0.47027284566848554 0.00024668857935517685
0.16864097697719488 0.6257156764278538 0.499788792005581 0.003823078764039681
0.27410356807531394 0.6301744304040657 0.49045696152279833 0.012074857571202044
0.3662666779060943 0.621834383824463 0.5370196697747807 0.009782021624126424
0.30681179684333937 0.6312955058865338 0.5007696527879522 0.0062014788247188105
0.2954032288773043 0.6246529277037814 0.5278310807976214 0.014085108882513308
0.3563361453829451 0.6285095366558716 0.4911455170539101 0.003313378380011041
0.27144826384762955 0.6213931733951213 0.5169984001571515 0.002166869803701643
0.11333948593752165 0.6257916308537108 0.5520480266416776 0.0052655330203814
0.1350292564678354 0.6249146700016852 0.5673644541244857 0.002071823557905589
0.13074018917778574 0.6268459205590939 0.5223479076289751 0.006993437670464604
0.3256958582999227 0.63064259995841 0.57574434610522 0.017116475390803305
0.3527751011298137 0.6273903421574435 0.6199758518380695 0.009280364675479408
0.34570941016931145 0.6276278234220061 0.6077742537482206 0.013513556042085154
0.23500159694913994 0.6288213483519085 0.5552285406617372 0.007671129982411628
0.19331267524849952 0.6247594994896443 0.5035166564838215 0.0072942451302135435
0.10944870661594523 0.6242772429815059 0.5525919644276284 0.004849490620758677
0.37007155541647824 0.6184591622005521 0.5756524291634524 0.009080616099742644
0.09996455491543563 0.6258126687639838 0.5315424560913492 0.006916595665114692
0.16474470328754717 0.6304167512324991 0.5210725932697993 0.0072976995381261785
0.2597812894179341 0.6313280547831798 0.4948123481423186 0.013809363898903112
0.29344314981292535 0.6267042497406823 0.6030381005322183 0.010854110565630718
0.13721626267228684 0.6260936826051965 0.5034400586792205 0.003363133024567054
0.7052908546734058 0.6254539577068339 0.512843578824543 0.024491863267871478
0.6581588100938157 0.6253191723866142 0.4859640670393912 -5.350470869196391e-14
0.6142916918594618 0.6256655601991831 0.4871940612529249 0.01630315680106183
0.7054456219392781 0.6240354675109877 0.4979865681427931 0.007871559181886019
0.6849028652984585 0.6211375085187161 0.49672853294655 0.0009048436127941484
0.6253663388847905 0.6198510568755187 0.49481789147241023 0.0049412002801729
0.604705630084422 0.6284915601010791 0.5717201815990788 0.007438616683486673
0.38813613547244497 0.6270770389744362 0.4739697259488861 0.022795578862220407
0.4657010108685049 0.6311449110358084 0.5082892750548541 0.005640235501685978
0.381653313789853 0.6244829902886391 0.6190053110155461 0.004440388456395346
0.4672708280912588 0.6256643796463899 0.5552283825074471 0.0030409997238879656
0.45715519771807617 0.6236232360701327 0.6422026950550529 0.015592848265469486
0.6621638472195693 0.6318109329242106 0.5532123623175499 0.003937713557549605
0.42902920325367666 0.6282610486609038 0.6099127782822854 0.0036480813393370737
0.5642754046916891 0.6249154723831063 0.5300926685355791 0.007824250728880495
0.5229012613897689 0.6210534811026337 0.6266698677584529 0.022539440066735472
0.44959722465186097 0.6226946365803652 0.6299955937071019 0.008093928396784465
0.5225109628982488 0.62461509725344 0.5869670690271404 0.013697834961258891
0.498975340956442 0.6276225126907152 0.6136413978935927 0.00846401260424531
0.3970721832652573 0.6244814986616268 0.6550272172939641 0.010261834831058842
0.4605339125167794 0.6288129986706351 0.5206023199344587 0.0049572266233610255
0.5307832182679779 0.6324356183404073 0.5282682932955722 0.0188153111140578
0.4904458342578162 0.6183034947886367 0.6317187120239904 0.008992279319968188
0.4640140885941377 0.6246338959128565 0.5730797397368519 0.002736081196428824
0.6815276083454578 0.6256045975049351 0.5574318230260041 0.013046856485799634
0.5252834465304642 0.6326114103810824 0.5540365388664235 0.018984467662621678
0.5957643020165545 0.6269003782585212 0.5377819148356144 0.007951103844312747
0.36844346430801467 0.6248750136428767 0.6012116100705708 0.013046984446997749
0.43964629870443184 0.6308692028064135 0.5887095368716524 0.002976429215389569
0.4643608988701101 0.6291031171701782 0.4970675873943699 0.007258271698734137
0.5359543554703561 0.6294238731729824 0.5789311170888881 0.009332635269344856
0.656880359428163 0.6247793331273136 0.5398695801627108 0.0081600783584467
0.3851006319766355 0.6288211388641595 0.6053319655320509 0.009223647766633326
0.417474057054887 0.6247642544137908 0.6363339591001798 0.007780100253967248
0.6308734775255749 0.625273654823308 0.5583248706038374 0.009610552740083303
0.5982542873721256 0.6280067224605882 0.5685941947379343 0.00973217049719044
0.4975072438206531 0.6266288615865149 0.5058101959454046 0.005875709232408917
0.3756375597806972 0.6255777492876975 0.5145421521979433 0.007045193184237524
0.5082773321195065 0.6213400220374984 0.5729317009808843 0.010875872165263548
0.5593721076999245 0.6214146461734008 0.5431873491771844 0.004983105688259176
0.5931520866710345 0.627045062451394 0.5536176368694089 0.0074031765621334015
0.49566518621017924 0.6304647691054538 0.49501144822535825 0.007927678969301837
0.562222180791447 0.6239026823877479 0.5746660046946479 0.021991142875005205
0.5691042681912074 0.6285084389971094 0.5129635575414244 0.0061213194959659645
0.4951910377040933 0.6247854189257541 0.5666398968268309 0.011774091095643448
0.6363966109887853 0.6249994529416941 0.5445287402418264 0.008782835148501412
0.39617196503165253 0.6297413022545988 0.619220721225733 0.004248461155648847
0.5280169244890875 0.6322603983495853 0.5374014192083946 0.018223233778392113
0.4335087347347836 0.6297665753119825 0.48663234024628765 0.0044930103690821645
0.5312461155987607 0.6330972458522331 0.5573143881662015 0.017571935539388763
0.46986739480455997 0.6278171050472521 0.5405736982275948 0.003058676286487648
0.40085744538096707 0.6325208385948901 0.5277495017779137 0.01928462131517924
0.40823264259578956 0.6302445901411563 0.611248782742049 0.005166844482450129
0.5042660801822375 0.6261581614730649 0.48375087332339745 0.001692223479832967
0.40894076225048576 0.6325001727253299 0.6009527531830152 0.009897825708017206
0.4285207975745502 0.6276241817927403 0.5728948688752733 0.006873709255176012
0.5501486190967698 0.6291467062425119 0.5547051448769843 0.004869757086950282
0.48967756737120827 0.6299097545493778 0.505529495373186 0.005594837593771101
0.5255985041653818 0.6217227254848194 0.6154824208092023 0.017767345351781625
0.6674385761383509 0.6297339860176574 0.5353279614583117 0.010308126881464093
0.6421241120705565 0.624722410796885 0.5343731740758864 0.00835199690442328
0.5119824378772264 0.6229508332192557 0.5316335409199429 0.010648811512863897
0.6205100261198228 0.619007482395871 0.5466163756882172 0.0032916940203339155
0.4737039079748418 0.6266676251935968 0.6065152003206589 0.00791116564138423
0.3855313589982553 0.6273896004507418 0.5833023827807535 0.011283371573282856
0.5956939820697997 0.6212841365614756 0.5179110341347013 0.005666844299735871
0.4409110349407785 0.6240479711087744 0.526509196658234 0.0046959939091093415
0.4165876153683444 0.6297735151858441 0.5896973861350683 0.006501762785441628
0.611179473143511 0.628053924913021 0.5750827354730622 0.007773885904753362
0.4016398521311562 0.6223224383039349 0.5707609810580052 0.011891911756230033
0.4015568273834085 0.6323825328330169 0.5866937570992663 0.0063967129193905434
0.546235327153103 0.6312763146918592 0.5661961957555249 0.023712096316843796
0.6210297737033832 0.6233799480597503 0.5193854707138992 0.010279649168280723
0.45797327535387605 0.6285688593805382 0.5815971882005151 0.0026900711276335643
0.5096094263206999 0.6270785401447629 0.6160312092192808 0.008065105958248893
0.5753031387103098 0.6315267164548547 0.5908285149966193 0.009391726903681886
0.4434178040318371 0.6267417814705266 0.5474510187971314 0.005351217261245825
0.4197995565806525 0.626227797114334 0.6514584560091595 0.00938590436936078
0.5359860262855775 0.6214116092590488 0.4769300056556231 0.00480006704358259
0.521505260752193 0.6240178952911272 0.505178601015431 0.010654627885587733
0.3988576938771106 0.624223045919868 0.4795621382502217 0.017368470506401515
0.44010850929651113 0.6245575415671558 0.5067195339151813 0.00871618414168443
0.46863550696577716 0.6272725344843123 0.5941184267355305 0.003539991567208882
0.48640666289984136 0.6290140476170936 0.6074194632148612 0.008615112376742394
0.4528842930845292 0.6270800657935685 0.5961591301622081 0.0052549605940188015
0.5806464936724702 0.6227027642556388 0.501300394793818 0.005851269007394766
0.39742662954400176 0.634482814727551 0.5106630462494518 0.0174567643676985
0.5560347124248879 0.6240522185002407 0.48832167730710757 0.0037843939297663677
0.6044023090449747 0.622588440048376 0.5503301649165214 0.006928996611778908
0.47644459162221897 0.6281104492904406 0.6161607404897906 0.005533714046180897
0.39381572153666894 0.6347805942957528 0.5046268782627964 0.009819542551559032
0.5000551372006117 0.6282910848417227 0.5774561626600787 0.008016912583835559
0.4053225678814729 0.628255320857435 0.5460028382488087 0.010975158636056422
0.5579665061883171 0.6261136274630773 0.5343670441397735 0.008828351139017384
0.4353503853633072 0.6266703834764986 0.5615390799039468 0.005306270651525895
0.4290150855520853 0.6248251288474185 0.5654361216920913 0.006241769671645958
0.4260580901628191 0.6219376455690603 0.5331144234869474 0.005615369041742568
