x y z curv
0.12950137415256968 0.04845305696936459 0.24584463612743682 0.009227687360365989
0.26228402736240325 0.048956796562597285 0.2708823808885481 0.012125818726274855
0.19290020633381016 0.04561719812861516 0.2537127851037794 0.009753496118000396
0.13844211238501353 0.04902771136000953 0.2615738104367267 0.012883253477984868
0.26252237956037877 0.047093865652547674 0.29046913928478824 0.01677751089754729
0.15485413296464678 0.04476448621134554 0.24885718929387718 0.009575248012330482
0.32787329046529917 0.043725483741830135 0.2593028708833329 0.009834243891018269
0.32829705326032305 0.049593315180476175 0.26896249932152294 0.009561628089679702
0.22570450476918036 0.05028321928757341 0.25623652565590493 0.007530843418476543
0.18246521655864006 0.050541795833514036 0.26926224108203023 0.01466641213305183
0.2810473967710568 0.04878634801761699 0.29047089106621055 0.008503357091960456
0.2227525943678337 0.049054213814934425 0.2716635095362618 0.0051334431733230795
0.3140258671704831 0.04671591463983986 0.25584870486713257 0.013748712417805134
0.24578801940733622 0.047440189211981246 0.26801875932811164 0.006903740471540365
0.11868383399700654 0.049441980747076016 0.2402557480396505 0.005310428506918174
0.20268577072682004 0.04446907204892918 0.2824741031971201 0.01277642930885283
0.23971034001495917 0.05084050342890309 0.241643544241117 0.009589041817038351
0.09143828211441407 0.0434410018064186 0.24548928966448136 0.01405464875975923
0.28239900508398014 0.0526640229168505 0.2551551486744071 0.008180644920140775
0.2926405555889593 0.041678615467841865 0.2780985335562848 0.010157685983060112
0.1103537820715372 0.050204203562745214 0.25214246465208134 0.013887268428319794
0.31975464970057244 0.05181032579385749 0.27825478940433374 0.006791572171747713
0.2400950796170378 0.04921887805477012 0.2796295549987767 0.007570829387932081
0.30446295017978076 0.0452666369979416 0.26966180829589675 0.014004737449866142
0.1972281989943436 0.04011340148395743 0.28075896762654123 0.009615767504535046
0.2530020122717112 0.045613106413620735 0.2758405174080559 0.012205175483550858
0.16505108295935864 0.05390151982138892 0.25370301377251075 0.011980296511132985
0.15918182379273674 0.05017560302800196 0.2573897487207194 0.017624982599632317
0.27518900830422816 0.05271753477848433 0.2589870868197645 0.007316378961468061
0.3320668236008802 0.04780915753521126 0.25444483256178585 0.011263787005153705
0.16810600368262246 0.046767153331132454 0.27594646463733036 0.0124040672122915
0.2425568127211858 0.049083844382215275 0.26176776381318484 0.007409896930783658
0.18742716684615998 0.05395900423985334 0.245991804206614 0.014414845555219996
0.2566455463419185 0.04412063756798382 0.276560990643694 0.011737705646909164
0.3614880920400871 0.03815308128199931 0.2968762393950757 0.0027898934999905614
0.415315486685571 0.05329770841999179 0.25445106344581153 0.014898359944102558
0.4166039950176262 0.050506378431059165 0.2624781895724057 0.011656175165758514
0.49058879251312754 0.04097485408188039 0.2592480750668593 0.011720728034720384
0.5637973917654298 0.03624938667745808 0.2705475682317165 0.024582459465482567
0.5195984046271276 0.041648176135460485 0.2759459539567414 0.02369261224191323
0.42914106074413827 0.04991177447532363 0.2958988899696734 0.014261184211708577
0.34593926364068006 0.0480490560643109 0.2730530763220486 0.016143382212887313
0.36025010601095064 0.04739963354695912 0.27727823007677327 0.008298831154254685
0.3759154486163668 0.04301527845635485 0.2726680478420531 0.012661417506216499
0.45752753871527213 0.04797514427725456 0.2617257327894714 0.012130094662305923
0.4071316273024685 0.050815555225491096 0.2801654479251786 0.013207225484507897
0.47658758737153983 0.04300817143552375 0.2642244913154685 0.013400516654567329
0.4070198277556856 0.047650231632981946 0.2899590751137258 0.005746760625743985
0.47938820177947594 0.04120134143925645 0.27925162181459456 0.015130597115196513
0.38996075178817674 0.04474589393249932 0.2763944660092641 0.01098477806459387
0.36298501197635574 0.044942099748136344 0.24708243070979136 0.012720814956603281
0.44031991649201574 0.04847707930450201 0.29266685579251617 0.0059248118190673195
0.39225686222300693 0.0540122944245696 0.2522177827906955 0.0176507005468347
0.5408779898301187 0.04696851148367123 0.2668789813755277 0.01983647016814194
0.44757693539906074 0.04625438903673468 0.2808485948500376 0.00544271254397588
0.5713993106802339 0.0487533055947664 0.2554867735693678 0.027232265564840638
0.38753530045980433 0.04074454418802632 0.29581259681711314 0.013282308682039784
0.4630900381965592 0.04994975224325819 0.24738292410989543 0.011338519708023975
0.461010155649153 0.042234495058490036 0.28582245395825845 0.0037729242940253396
0.4156125502530346 0.04678661692298033 0.29864884792923446 0.011870737081900624
0.34752877705275836 0.047180918463745565 0.2532531136578578 0.0103024441786439
0.4639310601172602 0.044425275171023015 0.2718875179443354 0.011534721574452959
0.3982078005094014 0.04559106278229544 0.27785072224591556 0.015007986029100242
0.43135710255369936 0.04827491830713568 0.25595570931157074 0.006557457525881806
0.3956844094914302 0.035925107989174254 0.30801797058769 0.0033459982258306513
0.3372717694235527 0.044751832579164603 0.2852199920427195 0.01937285394262456
0.4394130008540537 0.051253534573699175 0.2748307119435812 0.00399169981677716
0.3592767954768519 0.051347261820235766 0.2576922135998742 0.01029037815783569
0.5942904587242362 0.04367898420457754 0.2623308422280962 0.03550677529562101
0.5075126076019926 0.04561023163969484 0.2871023367377534 0.008689497540035522
0.5301163211081258 0.044279704081376804 0.2909804416573724 0.029146841201196726
0.4875164841058465 0.043214619946746184 0.2976516159831652 0.0038127223775891715
0.5255059381002366 0.036340237088735516 0.27423061164419815 0.024503348271260342
0.5845926890005447 0.05135928213268041 0.2882390963024582 0.030376569848603808
0.6145046831143867 0.04320278016625487 0.2722286960159242 0.01976045230180889
0.5949101288069207 0.046697028160942664 0.2938515152038613 0.052213213197557715
0.5467508982195565 0.04240648999031747 0.2856532698606961 0.02985685649793726
0.5956187482579116 0.04339719820513258 0.2637961162809738 0.0356722235595441
0.5646423523041325 0.03943444332929095 0.2819791442827862 0.022145057618074348
0.6173903326546705 0.04520954218075601 0.25638276784045705 0.02283517321798714
0.4556158778597771 0.047228708015503516 0.2996105171181551 0.006204333780304748
0.595491066411352 0.05022440312410314 0.27152725439179093 0.03627106912754232
0.5839745388059507 0.0498629345772594 0.2696441244334923 0.03874644523732486
0.7806939632773512 0.04198703133429627 0.2563416641987495 0.014435304345202522
0.6524220262986105 0.046701821100831466 0.27512222878665643 0.016899263591978807
0.8389584614596476 0.04868279578085398 0.24973698745463482 0.017031587564053416
0.6397607273395488 0.040655347637664714 0.2871616508346595 0.022088582645843968
0.7459991452165151 0.050420491626398424 0.27145973553381014 0.019072484669931878
0.6985352319118385 0.044208976385773174 0.2736878364243615 0.007560091135084706
0.8103164909528449 0.050159987631403655 0.2617920411500144 0.00988046506120789
0.6981763012892531 0.043667558123416654 0.2650567941964476 0.007242800231328394
0.8860238383181894 0.03379231347913964 0.24768920759675295 0.014876975996951905
0.8056205285255895 0.04253118320725435 0.250832403955314 0.013980718793731533
0.7002935635397604 0.04558706742944534 0.25693830436789405 0.006401685640005682
0.86335619699116 0.05019878269907329 0.25895436431925045 0.0192956746681167
0.7084752189322685 0.0438201151755897 0.2843173890797511 0.003368500181130762
0.7862447805661675 0.04423491114072639 0.26575753330973195 0.02061294764095986
0.9022856785075115 0.04983859184334055 0.23965075494227167 0.09607968310975863
0.675704786085145 0.04034861035534809 0.2764296189253528 0.005418853129634399
0.787254390924033 0.04898429700575883 0.27184943832938163 0.0181887683290486
0.7657556160162706 0.05167192190891712 0.27872562916634797 0.013434740033781194
0.8257032045726255 0.045692262737409714 0.251867334203609 0.015596978613925892
0.7253072659980246 0.047692923414303326 0.25854443858269094 0.008969578761834693
0.7237563252601489 0.04470923537778801 0.26871521125702097 0.00663286442265425
0.8422964928272689 0.0420025875791452 0.2706440884452522 0.005826802249945842
0.7329897209445827 0.047748175238602975 0.2725677706980171 0.006994340744238909
0.6259955487070668 0.04910411488888539 0.2616068597938036 0.022468285776154544
0.7446566328000167 0.04868093022438314 0.28713423958101125 0.005137511138651402
0.7120702079647838 0.04645666740383532 0.2796574896914721 0.005127096338389223
0.6793672527580005 0.04718066882551572 0.2584431338001674 0.014180480887523788
0.6745249635645103 0.04334850609532996 0.25220601162670686 0.021396109064942857
0.806053613384155 0.047905319197105625 0.2649308122398116 0.009716826672931701
0.7376229057256117 0.048739860470746396 0.2644740581549353 0.014506958399861472
0.6387302412582223 0.044775657749644426 0.2618643622622763 0.030341811953520804
0.6421875155111431 0.037846662780402475 0.24944771906390534 0.01506097622601682
0.7683636316545182 0.043822595773283735 0.2466989565923112 0.014717429554080057
0.7639308399690496 0.04819302929043528 0.26798969594266253 0.015465158160953672
0.7103287635998478 0.04668006504872659 0.27127194988152364 0.007037284392278564
0.6650162185627874 0.04232711829833206 0.25635905759952166 0.019494927662313432
0.6514701596334611 0.04857073849356245 0.2594715290067737 0.025829166076331428
0.7788452095968303 0.04235166042777703 0.3030982906836257 0.02268588673178442
0.7901168667502295 0.04809518939153983 0.2889467965972901 0.014851605560090861
0.8205557474367763 0.04335861927911217 0.29374369262041633 0.00711605347829126
0.8602260360513625 0.04326831729533308 0.2717176139501653 0.018206708819624894
0.687531734912791 0.038178059829578 0.305146259768326 0.0008934572415787359
0.7408812843207766 0.04182783519397923 0.2969034997639416 0.0065846939062368355
0.7799838806225591 0.04618471847057143 0.29281373179152587 0.018230859826458872
0.7356145665565962 0.04164069160111541 0.3032952565794758 0.007909293904901549
0.9164052513925459 0.049123610214638506 0.280462732043141 0.027834078263358594
0.8261259312910554 0.04878172146532395 0.26896524734815197 0.009940124145505807
0.8922256132718991 0.048648413601202964 0.27539661317481984 0.03289449890139529
0.7961137162096368 0.0397661112160809 0.30895508969072655 0.01042978924460971
0.8287980205151412 0.047885057178674396 0.28908214866855797 0.004828990176934726
0.9019011997487247 0.042920988980169 0.27266761691921065 0.02974523875907013
0.9018597578076055 0.046959895304109066 0.2603594620369828 0.06533880213955634
0.76351105125462 0.049756446647569334 0.293173293092826 0.007876996496912824
0.8800099266625989 0.04526757141730612 0.2971241691611212 0.007664531268786382
0.8481181452335101 0.04407257158901533 0.29036352726430775 0.008980751047558735
0.8549577066567285 0.04130976243368169 0.31006582846915137 0.017983342324556183
0.8687114735340613 0.046055074313551526 0.28551131161705623 0.009265817285543938
0.9697790797894502 0.046877819921874106 0.28249998320542113 0.011430128138288127
1.002767781465755 0.0485220442997342 0.2421251939387129 0.006983482213544731
1.0398094748561142 0.048293073659124545 0.2624787752644293 0.011518774334114726
0.9974040665076408 0.04195492215474189 0.28256741665676427 0.007525406026505443
1.020360873551976 0.049813111163698645 0.26211175896705674 0.00838094523045153
1.0742818153053757 0.05176505426250747 0.26298057726122687 0.009287842368402492
0.9851756331347025 0.045218502725525245 0.26494717379531235 0.009410180664360415
0.9785428920569906 0.04427213927002476 0.2571250161042086 0.009735101646514359
1.1700814520783867 0.05259607827188887 0.2472668152067706 0.019145964952298724
1.0133903443600765 0.04702477600896841 0.25545090099229734 0.009781497252540914
1.0543564850378513 0.048308403638141685 0.287216393319162 0.008475718168134206
1.1044169469795027 0.04545691695828513 0.26856827881720924 0.008817462512701558
1.01431452837668 0.04614430610040081 0.27749853592657253 0.008413251071711543
0.961868968050605 0.04694580305412617 0.2988375381212782 0.006085435039627371
1.0503693784028336 0.04734424580133611 0.25551197753765503 0.012362658918426677
1.0383142897915847 0.04588174909131573 0.2519707914285847 0.007258027479966999
1.1212392920148262 0.047128100675682065 0.2575137209539584 0.010260441980065106
1.097071734287851 0.05168806952345992 0.26195521460510496 0.012502991025900283
0.9905426708861234 0.04400491308481728 0.2920756763697004 0.007549932774951151
1.053373544794624 0.04781963282022123 0.27827181612867624 0.014373313668247987
1.088389604481701 0.04654945931918503 0.24676544856753305 0.01395816152518393
0.9409712716412705 0.046075079392227436 0.26881496131882954 0.02920652159199812
0.9847915111161589 0.04895373906837801 0.2796344535599467 0.008111184652137324
0.9176537433711555 0.037610686408890745 0.2639022462740157 0.05668786525280941
0.9425806162076039 0.04950596892233251 0.29382925101939955 0.009281656844313094
0.9664896215298712 0.04702973169093988 0.2908733694626711 0.010980708157423524
1.0307238593250523 0.040112737061093154 0.2838542711175579 0.008307034026566842
0.9313506759422674 0.05155166082123479 0.27434797851279763 0.025696555431063008
0.9545751245650879 0.0391930349625933 0.25989898389930083 0.026408603412051406
1.075116806478559 0.05232062430897035 0.26454078961819466 0.00872914025611461
1.1381446972065221 0.048714192866887995 0.2942368824120633 0.0030642108846834844
1.1759925997981298 0.050308807209832974 0.2675181062903216 0.01018230627560855
1.091798644882184 0.049129195438019566 0.29125981598238754 0.01051934778517123
1.111564180406955 0.04910906768067274 0.2808791789932937 0.007466191710510746
1.1602778616278417 0.044423420971404316 0.2638183757258227 0.011708997463064938
1.1865734244148454 0.0519092984526331 0.26477977301106986 0.011545452765833313
1.2006338017670237 0.0427939765211075 0.2861745619524001 0.012663182382654764
1.1892208191611786 0.04514852368431114 0.29512443727875487 0.014156357389605224
1.122310453896896 0.04900258319508783 0.2835294642649945 0.006137927229074466
1.19322398828692 0.04985615307121048 0.2619047371452973 0.015962142360917003
1.1316708987098436 0.04500450583397356 0.2765111748075926 0.005044050132634058
1.1742529420112628 0.04542161316118574 0.2561871757389028 0.013080872171116075
1.15241399322831 0.04286516483481097 0.28223650930900157 0.01037507699953912
1.0632082694560632 0.04220011966358423 0.2840060239019881 0.007565101502271835
1.1773409617171233 0.0398920831245822 0.2978038662309383 0.010697481376560004
1.1317160063081042 0.046625069633384135 0.29275726893608806 0.007251965159791699
1.419760488666209 0.05465844550175214 0.2631421683323571 0.006731854613813054
1.2065426824856633 0.04763238859691405 0.2606835911792465 0.01812447695382216
1.2576685173145514 0.042488582807570646 0.27119271573987186 0.009777539385112118
1.255859520909481 0.04437216599357135 0.29327792969262795 0.010830064985549542
1.397243480553086 0.04903988737342647 0.24864303652773223 0.012903761610286456
1.4065304977322237 0.04261390611503611 0.24761636965505768 0.015076270867773793
1.2460661187767106 0.039468636172648584 0.2905637403400403 0.002741854607757628
1.3147703543045635 0.047859649484123704 0.2779680130226992 0.01800564444476649
1.402480823982857 0.04525083498466186 0.25578538750653207 0.012560036582173195
1.294074290392062 0.04632797413014524 0.2684261717221267 0.022960717933801496
1.2799421899869396 0.04544474193529885 0.2550708173009693 0.01625615679213826
1.3768027195216543 0.04555029473838519 0.25302880309390824 0.019259560401454347
1.373000638512011 0.048674011672389356 0.2597320786833118 0.020357130067007255
1.2850453022538708 0.04541091756056377 0.26716193640866864 0.018019164904126483
1.4469125324796215 0.045307334393809046 0.24517883528751894 0.025706016103764585
1.2873876973839244 0.04738776444847142 0.2875314013123764 0.002208614614219839
1.2626282303732836 0.04608015982234374 0.251146746473353 0.012703543200103817
1.4225723152412861 0.04167998225581076 0.24876289345877586 0.008720579064886009
1.2349975246470706 0.04657893712673069 0.2864575682002436 0.020640580160077842
1.3561726519838557 0.04349697411296117 0.2817838622535347 0.008073356441428588
1.3266765421216522 0.0419702380770175 0.2731782755052331 0.01135789871523124
1.2173101762611995 0.052275053233240394 0.2645641643459634 0.021494999890789228
1.2111142780408455 0.051364462091297136 0.28475046137294563 0.008748390921612358
1.3048279744673759 0.04691034488508519 0.29882243759788774 0.009761231401382698
1.2867917387922951 0.04548079688650343 0.25634461385957524 0.020630812972996546
1.235996084929448 0.043891041010845115 0.2731891864664681 0.015037806364535186
1.3112215216070313 0.043653064012738774 0.25692109572582666 0.022384643123212908
1.305715878606237 0.04839441970641065 0.26788194868506543 0.03284272062044315
1.2433282669294998 0.04082348836191518 0.2654168272918551 0.008737768707140096
1.39707011541692 0.04769824435451085 0.2566387183337112 0.013908470971201214
1.3615250365658251 0.04954980845695894 0.2553551034440603 0.017326188967268553
1.3467825639149151 0.04761072937321621 0.2576842414645535 0.013234955945099672
1.3359256744145098 0.03984977563781557 0.3069381975663825 0.006440962362053331
1.4103038299090538 0.051774523845385896 0.2747889533720624 0.019635340592192345
1.3894033852768957 0.04322831008517652 0.2989023811964469 0.009527859222795478
1.321869724405846 0.04689431853990115 0.2914535762088031 0.006402707685874537
1.3754978269095706 0.04567167822886428 0.26967951140482627 0.018792613654552266
1.49458858629235 0.04586163419980879 0.2927968376438556 0.004522932442190707
1.4605661322155739 0.04713157964279847 0.2819709631621729 0.01161823509305782
1.482845872619161 0.05135482329541117 0.2892691045628652 0.006628769208833586
1.4647947512314379 0.04112558175084587 0.2554453785881357 0.013991899313306511
1.4814077010367677 0.04813044052348814 0.2664112180996087 0.01919964698223058
1.4423998363889436 0.05104248782302929 0.26925225869188596 0.016181113972231247
1.4465768239230663 0.04430792722421485 0.2929642597455553 0.005424775919760883
1.4297469460364516 0.04959879726092708 0.260003286251713 0.01591314311390013
1.4724054883864628 0.047673192052093985 0.28001073217148675 0.011028165586271737
1.4039742957131316 0.04325412411518619 0.3046071220278493 -5.490307478086684e-15
1.4353666999586465 0.051131864293360155 0.27466292638927414 0.017565198293870554
1.3870216309992975 0.05165154931732588 0.28134033586771917 0.014540900679125567
1.6204831728294011 0.043019017787034076 0.2572811588429389 0.018536983699187538
1.5028838955804755 0.0456590370965148 0.2514124716143391 0.03208024947242388
1.59833248223018 0.03882219270400742 0.2540943394231756 0.006390048259341219
1.592643128295096 0.045789227857059134 0.2650068345386218 0.009961249991961841
1.6610041360791137 0.05293992588824908 0.2780284814523924 0.03162644167462289
1.546859178899734 0.039467419046460755 0.26400958539896435 0.020366578269437188
1.564747092621207 0.04689172462290486 0.28461804807491864 0.01131151082752058
1.6461453411359936 0.05168216069352722 0.2646994352413825 0.03099548814940666
1.5690899623845864 0.045626257163966275 0.2720585616357302 0.046411189937467526
1.6119030999822845 0.04405876555940988 0.28927523300668656 0.025570129559220774
1.4913486301161312 0.04776833715897355 0.26621977425260146 0.02162439397321641
1.7373014466154284 0.04649320071835905 0.25555517033930886 0.024654975883608113
1.564524536265424 0.04725562360528466 0.2714680299853518 0.033245336588761526
1.6191014721161205 0.04825900784908104 0.27442822024993013 0.023878176925999348
1.530830806124206 0.046297873562092966 0.29086675229578135 0.008752182612209279
1.6823681068689968 0.0490265954848752 0.26405438842078005 0.02669687880167877
1.5092984967776968 0.04704695980045345 0.2694823411491639 0.007146453600353917
1.5798271402221955 0.041856541217024 0.2833909505523876 0.009951686083416324
1.575015460036431 0.04189111026581882 0.2490258943151098 0.04634874584755035
1.6996670162024285 0.04307511806111024 0.2524821205013231 0.01971632059095234
1.6637811262132178 0.03996360833540593 0.2473993819935859 0.009025675815127017
1.5255338869598842 0.04305407620672509 0.2927476582679325 0.007619423833171793
1.6346943268902767 0.051145030650445324 0.2750425059578066 0.019237725221886867
1.644849456612765 0.051789386623302645 0.2532095984643956 0.006239047728704026
1.5555010612348315 0.04807817855278565 0.28904518233723125 0.013611551781322615
1.6150833323539306 0.043201547317708006 0.2901002984355357 0.02602848356280631
1.5212360630093502 0.04428445993197337 0.2508852293194702 0.009609166955063603
1.7389615760615227 0.04997255466413454 0.2695728553691168 0.023930224541882695
1.7705982902664057 0.04192523009059588 0.25472236974131346 0.006696857914385509
1.7039584038467042 0.03793266318698063 0.29399117993789076 0.005599283477226366
1.6724365279139484 0.05031579768153429 0.28087633728006706 0.017316988302248128
1.753131692885154 0.04923318547078075 0.2835373521542864 0.008670969116252907
1.6343685937301602 0.038465216506166404 0.29972508953336935 0.0022278414244495397
1.77813937185285 0.04934148256744863 0.27656265278907155 0.027041544718360056
1.757938118809679 0.04912592607517193 0.295273787783792 0.013496357417250695
1.6943040414540707 0.045957618285380246 0.28376309729889176 0.019848523349089438
1.755965302504091 0.042327643069237274 0.26683380559054204 0.016931142467846615
1.7242860948769982 0.04770112533129658 0.2831480612732431 0.0121495359898545
1.7162815950717656 0.04381781649180639 0.26825545183033156 0.017158377058945476
0.20049923237632872 0.05183712024356635 0.24950292603376212 0.011524704494197981
0.3127061848518309 0.04870721757113404 0.24331637567739656 0.01560386085800969
0.16943489434211748 0.05272432238636793 0.24493172923578024 0.019666123783993666
0.21693189786692987 0.05166900050059467 0.2435789758952572 0.007099513164704098
0.39713459088874037 0.06014948579481884 0.2450211833740472 0.010478038004837143
0.5679143131562854 0.05930200224622079 0.23926069945368536 0.01824907230361287
0.6020408336298818 0.057321964229345115 0.2373280557915129 0.021319679354866797
0.5590187678251837 0.05778517192263329 0.24346288779421146 0.014511421369575854
0.4275380330588989 0.05105385469673515 0.24662571652060417 0.005344256473506813
0.45400166085182503 0.05507818296525645 0.2377072673626913 0.004716710036896482
0.379360026460655 0.05018710503396899 0.23974022948350082 0.014496870269155434
0.48113978363919757 0.053567634495000016 0.2479341028499276 0.012584887690579812
0.5959275713234797 0.05507626731556157 0.2438690843741618 0.015394499437879258
0.7096311821640545 0.054430692304823544 0.24336736783801205 0.00904763911070918
0.7348991137054093 0.05730143135142183 0.2444466221205886 0.018234360260202715
0.6490765914048513 0.058074736734370455 0.23453150449576676 0.00847992230243276
0.7165784303608344 0.05718607809408469 0.24399188502403138 0.009634558185311342
0.9261696834146618 0.0578605945495043 0.24070210616865845 0.04250693595497063
1.1483761876934013 0.04707220455283209 0.24323794311796354 0.010445442275579244
1.1067845285987128 0.056473986907868784 0.23621356247745068 0.02478810859377492
0.993890100575784 0.044853339149594496 0.24155903826979314 0.006152093372093536
1.206686604326053 0.06300832300281452 0.23790696327823113 0.006913774695949297
1.2923985128635211 0.05857687476625994 0.2415937569255783 0.019694549342779505
1.3083786497837726 0.05872890415529416 0.24242150746434177 0.034851632650811225
1.263727241836273 0.050832606902437905 0.2419903469051631 0.01590542772608245
1.3549106364046597 0.05777899121431758 0.23966850328883227 0.008776856336196215
1.4924662268646092 0.05870100093605059 0.2344071612777521 0.016604499317098113
1.5596479423918839 0.05932278160844424 0.24142907033073707 0.0028122734626596846
1.7375872479327181 0.0571494316884138 0.23532900680080596 0.006006048237840344
1.5878616752122647 0.04667608684090805 0.2524686528844458 0.031991636698331175
1.705105042177999 0.05533243737704736 0.24088803968163625 0.016646460661745698
1.5108573851773726 0.051928744108771324 0.2443862743431633 0.01746653821155627
1.0194073227486562 0.051488192753260664 0.24732810753201276 0.008098696714051062
1.1784809018600955 0.05491510611793471 0.24738100135486749 0.018120268929261874
0.9661594338025526 0.04762592810628264 0.2495349535124954 0.00770747167045616
0.8395798339710602 0.0463975758894502 0.25631584851110506 0.013929512201388121
0.7767534189691148 0.05434429393797114 0.236958207204658 0.015549609079541732
0.7480263875764636 0.0532540143695816 0.2453473915092015 0.02089583040841802
1.2276723482403837 0.052296771281584956 0.25228957581824524 0.015983781163019743
0.25032026243613553 0.04754065730193624 0.24109322586584303 0.005287643238453553
1.632130640738793 0.041198456873651285 0.24189123292463313 0.018741990282129403
1.3621189098706772 0.04821708633752936 0.24187517973047556 0.009415347631834152
1.4606497432987193 0.047457815255227874 0.24185286842739473 0.02290616943995201
1.7639433733567123 0.046166998240691884 0.24192799999591702 0.020017141184716224
1.0664536142885723 0.04760656551350498 0.2505409130928147 0.013260073061653551
1.2468662162953936 0.04697787535530639 0.2441218780524715 0.007568817361023754
0.4390438277186371 0.05202199118346991 0.24697149557227166 0.007440175541502406
0.851804065427487 0.04904828051523972 0.24898029118465317 0.028470180199214132
0.5422293201183689 0.05266881518569354 0.24118751787976223 0.010222333462190343
0.522826764839383 0.05260387739967515 0.24173341955207944 0.010562400933946368
0.5149299623811354 0.054740102190472255 0.24690690646430938 0.011848804743793706
0.6655377447966638 0.6693139283908309 0.8300069540374329 0.022353301780723197
0.6452696418832872 0.6752751707696737 0.8237525755052403 0.0758257100450547
0.737445810106763 0.6778593552230767 0.8278557832073399 0.033605055186057387
0.6871938165077056 0.6688402073025402 0.8330333496873511 0.0023018505379964168
0.6496324718003217 0.6540415840904548 0.8302496707814072 0.0028419147041093213
0.720163740368006 0.6705853958442206 0.8295016269667239 0.0171912398166257
0.8510505929775617 0.6784883539699311 0.8370317415100573 0.025635321609708227
0.6811037355413163 0.6446585664125466 0.8384286158414728 0.004860477049371021
0.8037582499521607 0.6690696113885249 0.823156757372425 0.03209170372539351
0.7632322099087667 0.6686579759018246 0.8317876814389727 0.03300735130351979
0.7787875220378485 0.6815089378239415 0.8264625921038322 0.01883333929338949
0.8094053529577478 0.6752889116704968 0.8209451354652337 0.06541253698578621
0.7059587591457067 0.6549442388499517 0.834146638911845 0.0062815215375345195
0.740252213360491 0.6588819039002579 0.8390361442990717 0.00892081399475716
0.7910837721698792 0.6600316297691221 0.8392546967321719 0.011946612164087768
0.8715395938116894 0.649230208094509 0.8368680335748316 0.013446309726556664
0.8723280129515957 0.6645274105020655 0.8302000538236933 0.03245517425734535
0.8909379351956195 0.6583526221608497 0.8348077403621154 0.012015115132395568
0.8508126756960639 0.6392650574458879 0.8449412330025515 0.012039982700869213
0.7626706704659265 0.6429281888391833 0.8370876212910003 0.016525194388307886
0.7614018076473603 0.6523514345784296 0.835387955659071 0.014447193547083813
0.818788801810517 0.6653461637533238 0.8344265767745188 0.03953962851319162
0.9083997501684257 0.6731698231982473 0.8255800696944338 0.04016649096391044
0.8412387988661462 0.6421899543472988 0.8393055474743261 0.009037455797464454
0.8706858807214921 0.6340052598260739 0.8452665117381484 0.017803641616700606
0.7225935469667586 0.6502241805648649 0.8364443820910225 0.008780229113411172
0.8881160614557424 0.6319744811603263 0.841856358745085 0.05262088171931412
0.7047699258384433 0.6436529000866463 0.8377723330798564 0.00786412730192879
0.8276891451613935 0.6281690180965817 0.841633905444046 0.002624838764389551
0.908638698720814 0.656491584279658 0.8313724633297505 0.017688462448750393
0.8031444979582059 0.6449109000028218 0.8366549429909745 0.01980267457806187
0.8983582155417407 0.6394925875533557 0.8392348582570428 0.005619246425817699
0.8880179733434316 0.6684423090677123 0.8313790870549896 0.035592445987781066
0.903883927705467 0.61990380151686 0.843954029193886 0.08862623127494808
0.9738076284079336 0.6501362694483458 0.8328368277136075 0.021743228385358835
1.0271956810380716 0.6439210751377628 0.8376940233839603 0.0041319625132393645
0.9172691727756852 0.6656114089613334 0.8310059955857669 0.04178296501066804
0.9400724703141627 0.6262378432926292 0.8467548548187095 0.06894755637665519
0.9195886262597252 0.6819912122395128 0.8247835581822281 0.03840879201526414
0.9928480398868488 0.6552379967655454 0.8358123272639463 0.008482343092676594
1.017719464793511 0.6429091871167101 0.8375397731861466 0.004911873831110625
0.9377764853212328 0.6672488200135169 0.8267279282569957 0.03834541123472886
0.9531681775780974 0.653042974927264 0.8413986143212016 0.009481626647100054
0.9214570604180965 0.6228619292709794 0.8440582716941726 0.03544167978771734
0.9311183104825042 0.6549024729803342 0.829692812943016 0.01532671184174123
0.9728347989773398 0.6310650949644194 0.8393293302740887 0.016631583411108326
1.0884622003423188 0.6645897205234599 0.8358737784795542 0.014057640295962995
1.0080041528676194 0.6723437454445462 0.8322265969186695 0.03389594999546808
0.9442867969502275 0.6714328251919497 0.8200253656092414 0.05156169128213561
1.0378416604632732 0.6560645717434435 0.839691902619558 0.0024774523035553343
1.032335247863129 0.6659877078403018 0.8301754792119992 0.04478241181591779
1.1230194111653813 0.6544806562835739 0.8404263647740762 0.012032719606583054
1.1050487882920426 0.6576626819801729 0.8290658318507018 0.010076627614147744
1.1385571899462201 0.6547411957966683 0.8396130472576787 0.011290640090870031
1.163423892508834 0.662489558430587 0.8298220754987576 0.02081743816591365
1.1549980014342733 0.6502233426490366 0.8330074285004646 0.008685627778371454
1.1063624825689757 0.6743027891045699 0.8232589872596382 0.05434430735787179
1.14696339268485 0.6756242691174766 0.8232908974597225 0.05356021550977574
1.0748549895488893 0.670760742353308 0.8279373644891065 0.035015548930804545
1.1324278808337758 0.6636498982867187 0.8283589824512564 0.031216408299522207
1.0552808871673993 0.6316594548639122 0.8444684252703265 0.017467587942836264
1.1669469013902376 0.636793474494925 0.8349124673925126 0.04737068443186572
1.0755266028821626 0.6407541242506088 0.8437557866411141 0.00751248504505662
1.0464258476442019 0.6188125939271657 0.8466259436440213 0.024050154820721453
1.0024959879005753 0.6222044236140424 0.8434902899479649 0.04936584671647171
1.0937683435323329 0.6191594985823218 0.8432726062309847 0.04908598887757109
1.174865892280256 0.6306114064041657 0.840359585310047 0.06369355290148954
1.1341321075989728 0.6244088123464518 0.8477127565866444 0.03056873742264769
1.113915388045246 0.6237003169502099 0.844708503466229 0.06064427750448015
0.7187420336163706 0.6372941685312952 0.8458533264933185 0.003379275469653577
0.6590216136442749 0.6486052874327146 0.8358113785148741 0.006918406114490864
0.744082932365259 0.6358417088770392 0.8489426119831659 0.00551008869947318
0.679018984742525 0.6420190101935821 0.8393409659740763 0.0068442004973429905
0.6931157163252208 0.6337413348819241 0.8395796762707288 0.02011736937201908
0.645296109836364 0.6433880918133793 0.8360039486098136 0.007634141153754596
0.7033969415748954 0.6353316873778763 0.8401211395916599 0.02818240711689578
0.766079099826888 0.6120454947615721 0.8421177147429336 0.03976423489686801
0.6299041721056444 0.6768988867228176 0.8248442428969144 0.06288747794677937
0.6285115472147671 0.6162711600218075 0.8392292253238132 0.08591447510082244
0.6262506416458914 0.6272452116622951 0.8334153458530987 0.06485018096259827
0.6443775861951954 0.5886638168578148 0.8285178167793731 0.03482260437168765
0.6309034422337059 0.5937798385070917 0.8350205234341361 0.0768198160697886
0.640938504479317 0.5948376925511444 0.8428663828093783 0.05071306845344498
1.1346612413847155 0.6684066495082042 0.8244227103093091 0.04249609510930563
1.111940772274369 0.6882603180315006 0.821197561843221 0.035109020486842175
1.0664106510404576 0.6887730382197408 0.8262030030521551 0.038728795109679
0.9079504408061785 0.6842576374931355 0.8169861974336515 0.035927949704928734
0.8895188942340269 0.6882009102602356 0.8190664649057695 0.03060016990738067
0.8362258972143812 0.6821919217759477 0.8198478395657515 0.017983830912230134
0.7976494844351776 0.6777689297076825 0.8210104652607956 0.05820970483220015
0.8233012126867912 0.675928272907508 0.8237997708623603 0.029270447653091808
0.7379716585317577 0.6869217031646662 0.8155099667227136 0.052601379691708194
0.951824532351157 0.6805612767667174 0.8157657698830588 0.08060486799238775
0.9370964120220989 0.6791950685636889 0.8154079809867655 0.04476867536827249
0.8526069687555324 0.6809137408135026 0.8150374312383026 0.029266694188774787
0.8603137890315541 0.6800498653918938 0.8190585031238562 0.048453187546053586
0.9827900804757699 0.6884033481987589 0.8225014589493043 0.03781020681729834
0.9645549491220915 0.6851524738415277 0.8228530604481621 0.06780759174114646
0.8760830120521459 0.6843028425399547 0.8102786879015614 0.0460606971825302
0.9092861075808681 0.6814509207706853 0.8052930030796112 0.04382687985327223
0.8954256946586399 0.6888265050747504 0.8063162538594364 0.03376713126671793
0.845967279065613 0.6950633362008427 0.7997273085754706 0.019322406228074768
0.8248763085563506 0.6896512130643246 0.8006038226472786 0.023235679432215973
0.9122240320786019 0.6860500446136775 0.798413736261729 0.030059298828054262
0.9368076923452296 0.6840442802455788 0.8009283293864662 0.025194683934548018
0.9976709160912304 0.6907700558469926 0.8051093382862544 0.02969206213449375
1.0650136074105159 0.6891698962040814 0.8069235868777823 0.03914569654339808
0.8057556393762033 0.6850764622531563 0.8097118095533915 0.03963154797449406
0.7756810852814089 0.691805753114883 0.7975379317251258 0.025256083320608726
1.169371183960504 0.6802973367089881 0.8191335182980535 0.0791809476270135
1.0352679713880266 0.6790371874938588 0.8273162185678219 0.04531525975479982
0.9975310164041534 0.6789552920496358 0.827201591823969 0.05019805897462507
0.9609130347077058 0.6823583046123446 0.8172371238073154 0.06820434429941359
1.087911235835922 0.6877477050617532 0.8188685850382535 0.04646117242930123
1.0404278721185636 0.6859533688558657 0.8124051415482909 0.046440781555739254
1.0094206402684305 0.6820001852904506 0.8175273250344973 0.046129616979806894
1.1250535195795175 0.6886687464143372 0.8185633470580278 0.045074717716256534
1.1456220353520319 0.6859199180197346 0.8121414089828763 0.05954686186183221
1.0605538866723707 0.6933073797924495 0.8200800108444855 0.027736757689580827
1.0499237880999155 0.6855925375138873 0.8263189849816359 0.06123456672264646
1.0218954989273326 0.6842183828062881 0.8237008261602116 0.04165155220713374
1.1750885146330814 0.6811029545232317 0.8157927523358384 0.07165126179280458
0.8734584929222313 0.6817925035822441 0.8230593752194011 0.038891112244808144
0.7703453689712444 0.6823328100631486 0.8192036661186468 0.022710365576392087
0.732060894140922 0.673052665174261 0.8281211093096944 0.04068633320668208
0.6654058510904182 0.6920956316969336 0.8194951059305866 0.03521577569380273
0.6831449742675298 0.6918843282642444 0.822829274332085 0.05920726985311155
0.7074090770556652 0.6889479865249863 0.8207990601515541 0.07496622456085805
0.75675592697461 0.6797786892604442 0.8193092629926928 0.04316755233547933
0.7708214062685236 0.683744318443029 0.8106900620154109 0.03303658020224547
0.7940676554256643 0.6866004419332912 0.8018791063246156 0.03672276387720891
1.1658550876296137 0.6906092610755503 0.8127327840100279 0.06854305375247459
1.1432507465826376 0.6875249118203403 0.8083024330102566 0.056948080910432665
1.0117393891684623 0.6921680964243526 0.8034274123898558 0.02291769308472122
1.1674807538608047 0.694604570163215 0.8074437675071201 0.062090213654649694
1.0954355791985873 0.6899059295793094 0.8010962567649415 0.03524215100258382
1.0926861268297614 0.694476559441226 0.7896935417162969 0.023096512057227736
1.1415877661872287 0.6875742627047087 0.7941399479296491 0.045180843596054655
1.085743364459038 0.6990548627179682 0.794759053868927 0.01883475203511395
1.1618391807616277 0.6907570043399217 0.7927624930643817 0.034019062032679466
1.1536692681822052 0.6835869299245788 0.7959657174173989 0.04048479495538593
1.1227040204355605 0.6878937434656186 0.7992480011049435 0.03277546209284472
1.1174765304066425 0.6994244918518507 0.7822473297122677 0.019313369136880625
1.1162912042358968 0.6844631480194437 0.7917369475902759 0.019420026428925898
1.0507041920299844 0.6917530373914722 0.8002435560577912 0.015960263507681365
1.158737441275051 0.6841121946355186 0.7865759220115892 0.024103639492825832
1.0590771591683026 0.6878863796667659 0.78979538930245 0.018458863169927852
0.9400953845750962 0.6878639190485676 0.7889051070072449 0.02343705910701073
0.9995409396963177 0.6957007665281069 0.7880131086076158 0.03233005281959901
0.971039843046407 0.6847032572605466 0.7899317916140277 0.04122879315628865
0.988509387827611 0.6869234346662723 0.791003943346725 0.031463850706569145
0.9611295532031885 0.6850227031892226 0.7872799784552906 0.04039330039433175
1.0462456328947891 0.6873022340050607 0.782922069810076 0.04075400624278569
1.0247805076116605 0.6903831563060625 0.7858502954551716 0.023031050741341284
0.9373414566707858 0.6838483240833538 0.7738817865019767 0.016800529964373846
0.9680929889225223 0.6830701241150854 0.7835837691688518 0.03565879459289268
0.8727750136454898 0.6810058355336831 0.7703970777104096 0.04913854374055589
0.9197839000718351 0.6882931704415137 0.781598123853296 0.037089158247586664
0.9978936886225729 0.6869251656212274 0.7670973694694271 0.0564255862723189
0.9825403411641845 0.6778306153820352 0.7669390018599508 0.029420629180569945
0.8953365837108574 0.6809547696351147 0.7730902433707009 0.05465664375329589
0.9059681931929178 0.6853169151953538 0.7912138557052081 0.023054225818091346
0.956145186290371 0.6867498185758801 0.7793144112468309 0.04320805134355357
0.8750760024329384 0.679176420500013 0.7800770351473628 0.049499399221520704
0.9213743498462922 0.686048299744371 0.7893889224513164 0.020462892847198426
1.0733858636650486 0.6608614793617632 0.6739545993936716 0.012359712658933297
1.0818335950352516 0.6486066239119731 0.6570786813535556 0.004575855321287339
0.8558129509365896 0.6891313364355132 0.7885405250399534 0.029133536907709263
0.8128586343666424 0.6925372816891441 0.7983657505251623 0.03249493002271013
0.7498304707891641 0.6943161291257005 0.7764790478592273 0.04327707061564046
0.8530858464567942 0.6930335237314832 0.7785068153539726 0.04476924370587
0.7581963356783789 0.6872316869603173 0.7776754733301884 0.03854010925993942
0.7847319971597206 0.6820164601169046 0.774466200098904 0.037737787055510306
0.7733885485844566 0.6832506374878592 0.7745432359732815 0.02738096056462457
0.8294467673176437 0.6884174357779159 0.7872400165663822 0.025753548495950244
0.8046604299311326 0.679750352639394 0.7841021746936004 0.02697380622815042
0.8455965496815755 0.6859616445165332 0.7792350596549092 0.0378595159705982
0.8078400026696287 0.68165088268164 0.7793951511726351 0.05918749147814897
0.7847881829918457 0.684846910987181 0.8001652128610954 0.03536194032531684
0.7905270011597302 0.6813907728780124 0.7823325686115391 0.027043781236238913
0.7342751503705104 0.6895539066092495 0.8064865773093158 0.038485026697378716
0.762782573535074 0.6890416873224324 0.7986469036146342 0.03176507302384501
0.7181567401912237 0.686916244398282 0.7874095986693619 0.03175898020828501
0.7258745683777548 0.6894111731907165 0.7841432595682765 0.036566930023454805
0.675153319341105 0.6887742131740034 0.792046332271711 0.022915207044765056
0.7442158500724876 0.686374723654873 0.794202438850049 0.02680373701997102
0.7014602660868715 0.6945660865607793 0.795559340099528 0.017478056163661444
0.6875048707345316 0.6879416638820882 0.7789054555390507 0.03168406378039365
0.6581003667018708 0.6870258179210872 0.7878001562949695 0.037161192794960024
0.6874405642666364 0.6883865824651871 0.7970974030923454 0.017917080369620694
0.6706350176219267 0.6859563363275414 0.778263900731017 0.03689728995646006
0.7406449158867409 0.6857294215406211 0.7868227318219497 0.027804673016865337
0.7240836741883281 0.6902727868792861 0.7779802681719199 0.03410520565464586
0.7615386420435936 0.6439958542113527 0.6485862797040498 0.015536274800140614
0.6563944343766103 0.6482685769252103 0.6403516198261453 0.021203954212529304
0.8402262872107445 0.6424930460246879 0.6436796701957886 0.03486290044964749
0.8527446344929747 0.6529307856297804 0.6612682304372783 0.003446700312038063
0.9628890936990795 0.6541216094495571 0.6587350867023596 0.004085607392405171
0.8243102148703317 0.6472431573601239 0.6476313380784614 0.01813856049287606
0.7466070183906608 0.6425159875460926 0.6434456821759041 0.011437095071382334
1.0739200911317366 0.646758684251496 0.6467486284918049 0.05374022444325115
0.7565218696200774 0.6370343504667829 0.632004044062389 0.013171713155848225
0.6673932291231546 0.6465044619479843 0.6526235043650912 0.021271903357121712
0.9945600309598904 0.6466292695821173 0.6510842730348564 0.010385651846454416
0.6740071181405757 0.6497768932939313 0.6541615914794063 0.050443343343393905
1.177784815065522 0.6345917600901071 0.598098344167303 0.008029343936321647
0.9967721623163297 0.640759047216558 0.6202178049297843 0.01125409746363856
0.9758558338299337 0.6283331998405416 0.593044509793195 0.03940077814300337
1.1683447319340143 0.6305750971633893 0.5914030554410572 0.052768130889816474
0.9688931007618269 0.6373767682607822 0.6250936772173834 0.019460924052433815
1.170051939055313 0.6222800575551596 0.5766267493775555 0.019997469769159917
1.0763896185523436 0.626874314208005 0.6147141843936101 0.013188749745877927
1.1474351164688972 0.6521300591366328 0.6520246688556091 0.021644819001372946
1.1673311539356457 0.6474442317228695 0.6381871800204252 0.021045952272163423
0.8371905073026518 0.634676814420003 0.6258263992347531 0.016961219206981137
1.0808803353382201 0.6369895622687202 0.6310544988986564 0.024008390811737862
0.9782026284588049 0.6368749442276682 0.6330378265985727 0.06721557128212872
1.0642221790966344 0.625107264358375 0.5986863343648261 0.04173060067798591
0.8400635983547224 0.6260322853585752 0.6049127072039406 0.022271031569953078
0.9811120196260511 0.6296680062055271 0.607866022630007 0.0672947797727039
0.8657000944092462 0.6324572738631713 0.6170682011693212 0.00634530671397442
1.0708178866254154 0.636789916218637 0.6287301396063162 0.0012235488097460702
0.7482210708537029 0.6363041102569321 0.6161548747949427 0.05475315969401818
1.1558549838047258 0.6337629219796587 0.6050038890609538 0.04143374979886821
1.1584701332763716 0.6351797939649552 0.628042578104876 0.027300146841062262
0.8582986021956688 0.615732146436782 0.5534538071227031 0.015304891060274921
0.6673626857323361 0.6176753796706494 0.558090810598433 0.05171537329837008
0.9864322361424265 0.6303586964384977 0.59321101396455 0.04387375434571121
0.7528684749967952 0.6187614848873829 0.5750875878902001 0.03490796873908245
0.8354748064641653 0.6134262473444471 0.5582256293836017 0.021090519186385753
0.6690901947830674 0.6251486709564991 0.6059395926512104 0.010808980573683746
0.8456768525899311 0.6307333162663604 0.5870011562628006 0.09861378485246369
1.0041385120764208 0.6251793699180673 0.5748400998606696 0.007829401169912318
0.7534471311209012 0.5998614176631235 0.5272057783545816 0.01078459038880126
0.6660512743734259 0.6191302092049051 0.5812128972986574 0.04759335039000883
0.965600446143911 0.6145134926409117 0.5614266452636325 0.03191186616669986
0.9844633898341895 0.6176902230828522 0.5619214994104911 0.020014669921056397
0.9849053446332574 0.6171055809965185 0.5655961462264572 0.019177273757319535
0.745054413799346 0.6191180099921101 0.5527806943709628 0.00993630630464072
0.6445104385076523 0.6322955731310639 0.5997552656584579 0.004313041621948157
0.8426011570079412 0.6115126151586925 0.5570519098557981 0.017629073254755188
0.9549971110181446 0.620937714286988 0.5544761961554783 0.01774624095996163
0.6609442810549928 0.6108870359006501 0.5409240415543263 0.07164178827930591
0.7434940808681985 0.6259937069484189 0.5834557626417699 0.04362502436161964
0.6609449286879593 0.620849840302341 0.5716283222036742 0.05883695404859465
0.7442693770671276 0.6167819246909579 0.5585493499872963 0.009303917809090944
0.980599775365746 0.6199347704331756 0.5788565529752419 0.016013000878594166
1.082618189389769 0.6207554154152392 0.5694699305544625 0.004577463301792701
0.8273552963754879 0.6239959330405077 0.5742399946786145 0.019202469853527464
0.7608311728600691 0.6202066234595477 0.5946735727956198 0.0070083834469983385
0.6601654270252187 0.5993971756193265 0.5236228992402591 0.07042116052857614
1.159281559507804 0.6143304518193018 0.5542913241204399 0.006036831783689118
1.0783472462059822 0.6099901461102272 0.5459966944584199 0.011174227689035164
1.077836476116217 0.6126274509889005 0.5527895463829656 0.006333245783818618
1.1620837782271884 0.592829985218322 0.502140947710506 0.005354252215133728
1.0655644505098025 0.6021974386639176 0.5134414431705377 0.03474423162705825
0.9741065500850745 0.5994064491618507 0.5209016147850235 0.1242258267947106
0.9788607998112671 0.6047718550492036 0.5388073779417248 0.025818928059582524
1.1489452698398894 0.5994991020571482 0.5100087157996879 0.021160781603345846
0.8567905881696555 0.6076209004229545 0.535933467368554 0.01482126519527523
0.8291991199321396 0.6039449899218549 0.5218786019965314 0.017558815364111052
0.9900419481036123 0.6113653868160183 0.530571806645987 0.007736880872908057
1.1753762892144863 0.6051234422244565 0.5155309279966218 0.026347415616777267
1.0709406024381436 0.6087154408810846 0.5439060732089134 0.0811554647005261
0.9673367791276546 0.6057850744447378 0.5341260267769888 0.04250901917895153
1.158138335721228 0.6092569384126583 0.5328411225947177 0.009234514936541635
1.0883011860477683 0.6051987238983522 0.524779873795891 0.013197940469158972
1.165721364461066 0.6129517183828692 0.5533013517343145 0.013266537625454983
0.7585819332508866 0.6012713067520487 0.5289707947848965 0.010171604781001814
1.177779632118749 0.622385847700306 0.5646132142302406 0.012627790268871675
1.1633988889380007 0.6071437959715286 0.5232229528082243 0.013945330687946532
0.8432712834407143 0.6075516415607928 0.5472910286291436 0.02210176657405245
0.868162340290846 0.605856479763481 0.49893560968074185 0.02289832271163968
0.9978778342732957 0.5877388244383134 0.46505998333601245 0.013504595594417697
1.0780614140752665 0.5922062093656051 0.5034833775406045 0.004258131778851233
0.7762389649973436 0.5947238219183777 0.48834406022109494 0.010979484345618675
0.6761236124520984 0.6006461305678946 0.5153237177959152 0.0068358619346606565
0.8442193209642581 0.5947777730095716 0.47706742534747687 0.007427026934088916
0.8639190017333117 0.5950728668973853 0.48261384283586223 0.02453346956365247
0.6575104148708923 0.5979739798263519 0.5189127393069575 0.09155269668066313
0.8379871429024456 0.6004756240889223 0.5060055774142663 0.03583597621113619
0.9832013814010016 0.5869388008055902 0.4522320504915941 0.028474316580499714
0.7653503119787678 0.5898906887619119 0.4941358300248431 0.009002171329802074
1.0588993695342621 0.5906403961594987 0.47493230568618455 0.03524066662105185
0.8483901895190641 0.6005563907782329 0.4911907141280729 0.042269439221610104
0.77553492147275 0.5904196725365017 0.46876004682491224 0.022620534168095043
1.0808527261981706 0.5938631318741264 0.4849509329569142 0.012961760889397022
