x y z curv
0.6949445843157562 0.9519833057918068 0.5936314042961925 0.014702151693939718
1.249837306780373 0.9404018002000772 0.5827506532189348 0.014341951902474042
1.4664611979705229 0.9452842200660045 0.4929228795900864 0.015547767403053187
1.9557303668240293 0.9462126552567257 0.3414112189626446 0.017481437679748357
1.1030898432674952 0.9489730885244338 0.5081200435602761 0.01307163532156217
0.5180229339246472 0.9502870885465486 0.5468774457293512 0.025777201294061008
0.6684907075314233 0.9432247163273623 0.5563844341261741 0.016422462969808548
2.0701899347522317 0.9391594532712222 0.3576831270678023 0.0173351435053096
0.936485703297155 0.955891071228105 0.4945955039974591 0.014516611965682972
2.057788311206968 0.9470675637887 0.3440712169616018 0.0124519181825837
0.9723272011906132 0.9559331118061315 0.5870800673581833 0.026807167204995635
2.0341503792005544 0.9436682899153794 0.32963480079564145 0.0087164990752451
2.2098020812204284 0.9434469315816271 0.2887231395038708 0.014265087787620976
0.6958823551854303 0.9429011428171945 0.5652408131473368 0.020647455968190825
1.531632512528434 0.9451134470688426 0.49890155402417163 0.02222204334641657
0.6279654979194027 0.9441175795443385 0.6021857463299795 0.025651072229108455
0.8024244778256175 0.9486976076887542 0.5848966752448248 0.022223144706868595
1.0186161270553427 0.9434888750794358 0.5740634227192977 0.028861227976756023
0.20359430381657667 0.9443138860543542 0.6036097979073577 0.03036868204645715
1.3119461925409943 0.9413958785707579 0.4946623156886723 0.01306928980289525
1.2868000142776659 0.948222971063064 0.5265394783291686 0.008203379399713578
1.074918007969333 0.9450706078214971 0.5206658462760125 0.0206980395031008
2.202935272978272 0.9438617150246682 0.3019141686244816 0.013503003900251671
1.8003443432359234 0.9485496337235817 0.427527240705492 0.012087230403023385
1.098391511884514 0.9493332776430529 0.4754090742716524 0.019274513110264065
2.028896365347054 0.9430319639708389 0.3438807265865601 0.005147617224426445
0.9156906798704901 0.9461312518409812 0.5424426908656715 0.01647650982362505
1.127263245998015 0.9434328621119117 0.5083053090440355 0.013655304646682494
0.7329417654496064 0.9450520637857049 0.5625255192806837 0.01630945097891926
1.914391169979909 0.9477303156097722 0.3813076281492689 0.014741453939912202
0.7140130362500108 0.9431193701549899 0.5209140701414312 0.02413626034054297
0.6408364819119744 0.9435204737181776 0.5870005820317423 0.026273412279900835
0.8381856422049819 0.9446727224478694 0.4823734634784889 0.014293950258312914
0.6446463367355237 0.9511901296935849 0.5319984657834919 0.01528158417710984
0.8654693269715069 0.9512391236651363 0.5828609872700287 0.011091785976671743
1.555396576631868 0.9412158163098439 0.40306451449783465 0.023206115443600236
1.1021461670659598 0.9508738500691557 0.48406795004420683 0.019161630005004697
1.9603617180576953 0.9454030656791111 0.34094878472721135 0.00688151726597642
1.0887984141763 0.9420913134653721 0.6110344145828546 0.035870732121232186
1.078749848645451 0.9443215503792665 0.5841622239609123 0.012837171290290975
1.3477452213503633 0.9506107971106612 0.5152201432937605 0.016479441099893556
0.9149672061355807 0.9466606510233071 0.48724084369343584 0.017569015203929658
1.6990251183294465 0.952967934407436 0.3812251825681842 0.01884525226664886
0.9183920143492993 0.9513462061326657 0.5369563839293335 0.017096131569955767
1.8318147313970077 0.9477385757529324 0.41487638501532 0.010527387470132835
1.1728003362785422 0.9431552216091237 0.5306720586827745 0.016053052153045984
1.6149266653671566 0.9449655003379465 0.4813714721555249 0.02177232666050182
0.8472027587464672 0.9488640276403306 0.5190652024887962 0.014505279469599057
1.3594432913583154 0.9485238444382265 0.49463528341966584 0.012862898556178228
2.136165014994866 0.9456202830583547 0.3073664322628594 0.019118959534593433
1.9380462310318078 0.9587317770687853 0.35697477137095635 0.008970720599630586
1.6665592102016689 0.9388038383417658 0.4604289771948349 0.014815634288692639
1.2082197631936602 0.9449827215350078 0.4511937941387897 0.008773178402617373
1.1347180940360644 0.9468814538957264 0.5631424827934312 0.01955958775943747
1.2123969477139738 0.9453728528759798 0.5952403832981514 0.03255670553955257
1.605496717941075 0.9510378898462483 0.49073346197957746 0.016876035997544937
2.041344409531381 0.9460365802328249 0.34723173245412975 0.015847710195289702
1.39394332959604 0.9428428289811068 0.5087125608210327 0.022290435808419804
1.7947128412788915 0.9442318988154116 0.3695888729042876 0.011561812754973944
1.6141328549533138 0.9508131709861674 0.4635455075085642 0.026984892886153095
0.8882286178776962 0.9498758347343943 0.5496470654733592 0.014750445894848004
0.12545346966657203 0.9474746415294053 0.6088645042486694 0.017997117821063672
1.658460818564228 0.946978852916814 0.4423591912322896 0.018808873404265358
2.199519218304483 0.9464658523455529 0.3133583124391426 0.01858343355548398
0.21981130144935984 0.9503061915734394 0.5925886225294561 0.026978844727631384
0.8356708611408515 0.951209981342915 0.5496688501960654 0.017914918720623806
1.3738457137851414 0.942647047025229 0.42812831440591215 0.012548754571276025
1.187522404085443 0.9487932786966582 0.5356315079426353 0.015090743111704653
1.3311161611144653 0.9480672117219276 0.4895663110370022 0.012231698909470616
0.6504832444372236 0.9462906158727157 0.566673295598078 0.015160618348515136
1.1050149955581998 0.9465621700756277 0.5145396234358239 0.015598360595406325
1.3669037876151469 0.9446780407282951 0.5355358304742173 0.01581243072937618
1.770467191661353 0.9373968374334637 0.382999746872982 0.009182521156182654
2.093735782949087 0.9476620063322947 0.33625248996480395 0.017118452332314075
1.4941645147575824 0.9435063034595929 0.5140544146896409 0.013860477224541262
1.6146146852146486 0.9503715105325033 0.4467745957494638 0.024458007559288935
0.6789183801046059 0.954522709678199 0.5325604165566764 0.019890915183091887
1.662873953545563 0.9530736829175669 0.45196312062169636 0.01656485043711044
0.9249521022735236 0.9501082621568525 0.6119573452575219 0.04657030856065715
0.8264799600608916 0.9494222841812213 0.5928825893527094 0.025266294751902136
1.6067933578082614 0.9483116258685484 0.38876116946559985 0.02141554692430906
0.7319224049745587 0.9428934842720467 0.5189105385887631 0.017085795006315567
0.7553290640968567 0.9427068871672944 0.5572290342213362 0.01687931329783766
1.983806927470229 0.9504233392751477 0.3556414742496145 0.013383617448014083
0.711234998089521 0.9458454467908287 0.5181052648670869 0.026283066063043006
1.3463934283749557 0.9410518664805122 0.42986024400048717 0.015072190347099638
0.8771423275939151 0.9453248301778144 0.5714380707063073 0.010483329452420996
1.3518289950575046 0.9460613389077077 0.4873131182849328 0.018154689327239515
1.2367547001426737 0.9425370448017357 0.5178188680996838 0.025119637419034967
1.269869701117576 0.9503160074656704 0.4633891415800777 0.02115135360513308
0.6630742362039898 0.9491050843435472 0.5283220761179251 0.018208856343451246
0.9820646017750861 0.9437047812892576 0.5236848992565634 0.01511545805576195
1.0429011825598506 0.9454701844658703 0.4759729287352028 0.025213805829285296
2.109509845629509 0.9507306730662731 0.30706384048283986 0.010290651404877706
0.9073765643573609 0.9414729298730288 0.5995516227218751 0.027011059748583297
1.53545349598217 0.9450040043783059 0.4746754129397377 0.016065132185280113
1.2977453908999481 0.9436874110641563 0.5111258562417365 0.013558009542941063
2.0715195344353456 0.9421133795171475 0.3146924742705017 0.010366719211995204
0.8620898513426161 0.9474114085486496 0.5598091849531313 0.017448532749239107
1.324233987882317 0.94625464694585 0.42140970990425775 0.019900278027491617
0.8797682619662153 0.939037001019534 0.49281735211039956 0.008837280209000965
1.0430378188624458 0.9465699367331791 0.5894666269346452 0.0164981906534718
0.4704787581040266 0.9441841223268596 0.5713963582245507 0.012512713289310006
0.9234650147553435 0.9439456009185332 0.5784764066596164 0.0128473898254894
0.4132805597657925 0.9507846874370124 0.5752473009237611 0.013431599014730011
1.4993794288240712 0.9410685300302151 0.41382870729384774 0.020234273750277657
1.3187163150003016 0.9493810236048983 0.5688852029294631 0.01490555672935191
1.4210330032135876 0.9490880108502356 0.4758143294478442 0.011462647641191565
0.8053483982737211 0.9423188283566047 0.5528816761555847 0.016965982197209333
0.8354079773895372 0.9547402626000265 0.5448379541624613 0.009488671977956638
0.48083365832920927 0.9479490198244978 0.6085901320863555 0.024518562415903007
0.5581788892037981 0.9423859029317533 0.5932476008890389 0.014822942230185031
0.6912630385010861 0.9541738353141245 0.5359886332610853 0.016314685052005447
2.000283393062278 0.9445036897896317 0.32020516878077826 0.012478675743734355
1.3710786164908935 0.9448007820547987 0.4895513995255494 0.008997632458806032
0.5886711124708963 0.94455094151638 0.6084818445760343 0.0178723220888068
0.3897792965292211 0.9479179607118411 0.5737297779714425 0.01684562940722142
1.5111451402267304 0.9434232990734555 0.506913297931087 0.019875982981066475
0.8418260593618009 0.9456423017692468 0.5567051218363875 0.016966051553671112
1.0789841829051219 0.9502372108928033 0.5694698557075872 0.016035749934736596
1.6281166850901745 0.9425371556850507 0.45880662324143956 0.01968366192279867
1.100221397382699 0.9445001948682591 0.5375965732649938 0.015558713380051652
1.3002398293067685 0.945753464166971 0.45879650105976577 0.015835582557654358
1.6368110054448646 0.9419014023637284 0.45039385443049096 0.01719923518080792
0.4481527515216483 0.9439087763906318 0.5704602750893131 0.014592411647590332
0.9031320538014534 0.9420501544856675 0.5845130434849242 0.012183339260778024
1.8372188520264152 0.9483121274049394 0.39268788088477835 0.009920310221692374
0.8078940703892716 0.9424966664260308 0.5412389361703115 0.019055430625123927
0.9317040340275732 0.9461989263209896 0.5735784603738214 0.01178274272620692
1.3666265729700755 0.9549212197839145 0.5147204701389689 0.010832856566583034
1.0328312643867517 0.9543850432577916 0.5772948219697106 0.024821230377866158
0.2503637634641575 0.9508253610450822 0.6013141267345526 0.02517829673022954
1.438329037134489 0.9493224400448478 0.5050699773830388 0.018913694149845634
1.5730453362012304 0.9519648048380219 0.4105272682142535 0.024465907616896227
1.632147084723092 0.9442740025086103 0.41408819482419945 0.015888677140836638
1.2668658597717486 0.940921269195782 0.5825943348689762 0.008362176340202795
0.4450998337506213 0.944387383820543 0.5577465860734526 0.022783383236620925
1.4946331469220355 0.9436844422941031 0.4969110350993526 0.014517099547066094
1.598964918827865 0.951310781578476 0.39411371328811856 0.017920429310248977
1.1900672877077259 0.9415726108190238 0.5102568780239892 0.013610055253190336
1.4177972720193286 0.9497548269449528 0.4256281598446412 0.012616608062103152
2.146798217852001 0.9477009876449777 0.32610519984532743 0.012355754567067882
1.5355668694820277 0.9544625792237819 0.4174118666122708 0.01637948177996519
1.7418682095734168 0.9417139862973625 0.440817918955409 0.015544648277214827
0.8708861755925345 0.9493275481487162 0.5359471905004788 0.016134169625500967
0.6994981129256709 0.9465029088439484 0.6070447093457427 0.0520731494733085
0.6311658620602247 0.9480840750817487 0.5333917611324239 0.028280083184040204
0.6667256775785956 0.9489167110237973 0.6126309838264529 0.0326669207419313
1.4616189203918066 0.9440517637938248 0.5186503161905279 0.013229711077541152
1.161601506352297 0.9509769214418162 0.561171602012029 0.018280077223002143
0.7129131758522287 0.9462150719302782 0.5644700602655106 0.01847345051801089
1.1762602724254307 0.954169354795935 0.44912692104075147 0.016627508720124848
1.1464041681175479 0.9449985701797236 0.5572214124221619 0.018993808261476234
1.4008637069234082 0.9446802986296029 0.46172357163626526 0.012324180549930749
1.1743585985563885 0.9443988303952412 0.5364424109721049 0.013525064096885807
1.2880003614607667 0.9416595523188821 0.446184272092579 0.013791244110604353
0.5103386832039435 0.954064608202166 0.5692490026596646 0.012067602876194839
1.1665654869514444 0.9490971211984905 0.5641112685837364 0.02119730459179637
1.6231134724652365 0.9478387818663261 0.4697209872953597 0.019227546678371683
0.3508639930429973 0.9414463540025981 0.6105785170728721 0.04062602824245232
1.3754678638464057 0.9445543887022136 0.4437396165596833 0.013916674171907673
0.9081945930644312 0.951708115583642 0.544652354433704 0.011377512249316539
1.0912141817075542 0.9473055354118172 0.5670420387943106 0.021063124144915523
1.0986015707182721 0.9430693268764828 0.5976596313966589 0.027349515163690934
1.0886392888041991 0.9425314542487853 0.45732698408142963 0.023908574715113467
1.5116413072318566 0.9462467428656527 0.461332328018644 0.018649793357749894
1.4437734762419199 0.9537729031327046 0.44308639727717075 0.025745005723362968
1.0321661415742347 0.9417865109021867 0.4657745719002906 0.017851580725378128
0.44704122581931116 0.9396291907602569 0.5940719586185724 0.022878255205506837
1.4248551267598526 0.9429325818816378 0.4459167934686512 0.010027875694043344
1.0814411095605914 0.9398965965802055 0.6095383374521715 0.05015681345953713
1.1546204093232941 0.955126115243428 0.444544980879856 0.016756763608645888
1.4450668583928383 0.9484759571230384 0.46673040424414425 0.02914216281377199
0.950870140274094 0.9444924855342516 0.5445241455191874 0.01268406093737633
1.6883511171190069 0.9464328104054812 0.41693045355493574 0.011600704388831378
0.30623802909861353 0.94913550818398 0.5934103731501023 0.013466075125239734
1.6661317116881766 0.9483991732826015 0.41646554131744945 0.012892741274281328
1.0128578896793015 0.9443369067962895 0.5193761600370889 0.011149847788348627
2.167940641222854 0.943291055459177 0.32107768681376353 0.0099341202375589
1.0398574715253543 0.946269671094633 0.5439244592010439 0.01457547122187386
2.092511684311468 0.9519093207010075 0.35374816386653746 0.019100718297277584
0.7662802710977403 0.9430668620051234 0.5636434104047807 0.021510550781373327
1.2502377533120106 0.9477917223394693 0.4615492665714826 0.029056446682291445
1.4227424671795545 0.9469200167306056 0.5445556918508332 0.016487718746828577
1.4931923946360326 0.9421055766979606 0.4796255352475708 0.01734514585689572
0.3880025316535251 0.9458636087606487 0.6126370626797547 0.041473730628566005
1.0783226672687052 0.9410811368585817 0.5388299580910676 0.010766644010254716
0.47604032074208347 0.9481967987865192 0.5884509339277502 0.0136635195953106
0.4356561345696446 0.9449025568651035 0.5550175531706384 0.01888327196199812
1.0242333196146356 0.9422328799641309 0.5483111366320151 0.023896688200832874
1.1306296030349092 0.9525957263033626 0.5982184441181335 0.015776785676470974
1.8799941104285205 0.945084386611848 0.3847229121972656 0.015685308455775687
1.0709028320152316 0.9558062560588674 0.45936417913346145 0.025398720096279935
1.8861160715807552 0.9474117705165036 0.3942261261364403 0.014952239658166997
1.33145122314757 0.9447883210150245 0.566985087920828 0.016595258795261872
0.3374320983493121 0.943165709466121 0.6100478157011779 0.037548379045651066
1.3630337786649858 0.945346143160928 0.4538271564587383 0.016577197137288807
0.8222236717673062 0.9382829646679672 0.6028971387801182 0.023884307629863873
0.6608019298204076 0.9431615843261328 0.57998923902476 0.017771142158452904
2.1977614099883596 0.9482746050792423 0.295340024822343 0.013575311578728188
1.7304799850436772 0.9410892577982598 0.42080398977933375 0.02406924996332222
1.7465343121138845 0.9494911316873054 0.3851096893453829 0.015011020552498495
0.5434403005316754 0.9417214582510601 0.5815471032591291 0.015866337342213547
1.708505167960542 0.9574680140157712 0.4056059558688087 0.015661693085641228
1.3174796294667337 0.945908481202846 0.4479143519048597 0.01606964393067487
0.5899587261984715 0.9433547399046862 0.5316152781226889 0.022811530355465615
1.1709629948803484 0.9503362156006159 0.5127444377661061 0.013554514189880735
2.0800945085053644 0.9468521476087197 0.3184802302538408 0.01454139918620988
0.5812134081615644 0.9474015935440702 0.553379531737266 0.018457528146617344
1.4424627073084448 0.9402538128523086 0.4134517174835243 0.014495084175230355
1.3560367214854565 0.9534683445209373 0.5280181236225 0.01472412984906829
1.3012959930168668 0.9444618128189453 0.47775635790000975 0.010044805794372894
1.6496229731422407 0.9457826623196105 0.4195536363651728 0.015190246170083814
0.6875988623167212 0.9472065494681542 0.5864144601969062 0.0171778164894074
1.990656053346922 0.947709780511261 0.33347768469317607 0.011185211074947032
1.9700858997192217 0.9499233158770858 0.358849698341857 0.02595939948302762
1.2589560830394237 0.942914296100731 0.5878644241832379 0.014751755623121946
1.652011452723714 0.9443189250078142 0.3976813879404307 0.0211237162168231
0.37836753143548846 0.9531950849580555 0.5923569998313108 0.013470504535011847
1.1905996955022757 0.9509190507718377 0.4895208201947845 0.01239179466602517
2.299914578663692 0.9424486147660147 0.28397296766025737 0.01259139403242566
0.9137726953043975 0.9518135013428275 0.5771690900553733 0.011416094119162907
1.4886159044908656 0.9371982198151224 0.45742953869895964 0.03045582080663884
1.6741219827180926 0.9431787204684089 0.43147538800525603 0.011569546565192807
1.4631672674012803 0.9396293965991661 0.4248992522448651 0.020079842536222293
1.2177409680492044 0.950139063406177 0.47043230847080564 0.022213004583998833
0.7506497797989211 0.9514492355858967 0.580257687058621 0.01150671792310522
0.18288601416536263 0.9502509576142898 0.5883813627321306 0.012096588773040744
1.5011188943682447 0.9383829666409711 0.39487441818780167 0.009643992907093859
0.452425298384938 0.949244488194557 0.5520527963527817 0.017228409509809223
0.8449854356807218 0.948031647785548 0.49588019966239305 0.01636940770872374
1.6941185125793927 0.9492093287290277 0.4019855297655134 0.01487399347407055
0.74136697380804 0.9462019360030506 0.6075823112605914 0.02737260425944633
1.7266323922150764 0.9504512542352579 0.3999605882451998 0.014675387012797554
1.4282679599254908 0.9470642321082563 0.42388329092940663 0.017142606343791878
0.563589005159231 0.9432386149914519 0.5920294276628765 0.01663826091932593
1.5127264258353657 0.9461049737217453 0.38766866232471187 0.015833933377247204
1.5756428802240865 0.9505257166061051 0.3876510293344935 0.015012714134774752
1.2465842676187588 0.9535164475527526 0.5474874229878205 0.008113379584835208
1.6778644612217901 0.9541479755598896 0.47293441914386064 0.016267572491149723
1.6844307096904865 0.9434026727065452 0.38774153162840225 0.01438606957590708
0.7304112951153847 0.9503313502974435 0.5875985208404095 0.010834758254862164
0.7655239474581772 0.9425298204440025 0.6062023896472248 0.04280265397258455
1.5534716221066833 0.9351721037692112 0.4387465914717267 0.021521970185488758
1.0742578400716516 0.946725750316814 0.5030016444717093 0.022252691180415323
1.062245965147911 0.9531681964823108 0.5854994572822458 0.01349499381842265
0.9949932797726015 0.9460342019558967 0.6014520944130238 0.04214199701136044
0.5099827647302886 0.9454422589553435 0.6064175547299326 0.0314232143555899
0.9445937496696273 0.9417942420788759 0.5940694552035852 0.019987075047746394
0.8010784963616785 0.9481125346976912 0.512050867585249 0.020730030338374634
0.541330749104543 0.9411086954038449 0.5768182425956662 0.014960443459455332
0.979591495520096 0.9405458576285437 0.4877435753735299 0.014027834400921714
0.6112711004520962 0.9433137107844533 0.5892052144503551 0.01828756836795855
1.384551916461146 0.9416694946965347 0.47690985396120195 0.007281076154130621
1.1288356402390047 0.9466790673003485 0.4538768098918209 0.020875383239256213
0.8744964271956575 0.9482257955047515 0.6164493052676239 0.045775047334677424
2.2669085527530624 0.9495401588010499 0.2882962685395072 0.005892774184924359
1.4111756542683722 0.9450579857162487 0.4144891885403826 0.011141031333669593
1.2303363446747861 0.9419122629765196 0.5260440953311301 0.0205227651139185
1.3189216429183408 0.9493413004817125 0.4314634942086574 0.017416111633593738
0.8014117869716592 0.9441554409821131 0.6149104453922489 0.04425674089350042
0.892782843130678 0.9472529103743381 0.5264362219304113 0.015855878892411232
2.068877593923099 0.9442804786462293 0.33960673223630744 0.01483146796188318
1.4813505235179616 0.9448616734069054 0.4737989784922419 0.03364791463198913
0.4811734165557766 0.9477275079862459 0.5758969577511455 0.014775172257949132
0.7368357481867618 0.947616028017054 0.5797713224177992 0.011959026341714283
1.7358163558786852 0.9457043037749518 0.3669378033128167 0.0177764292497078
1.463419726485341 0.9502817623550804 0.5376708174355257 0.01222933282170732
0.777066151036971 0.9452235133393151 0.5780779049708448 0.02136798300877535
1.471030820646128 0.9435878946612463 0.523970715855511 0.010241588208542643
0.8775367208962263 0.9505209773064754 0.5884622129859861 0.016214985511929052
0.6317591892080106 0.9432215649000089 0.6077041179685464 0.04954007380005965
1.7694555933448612 0.9478930335185307 0.41060652964608446 0.01843748024004343
1.5937203513103557 0.9510536715002488 0.3828781927857264 0.017168026573935725
1.3053840009754758 0.9471805919594248 0.5222980798442409 0.016461005326094742
1.0279260252261049 0.9506715804713817 0.6048271791335689 0.02789077156109594
0.6922060828577042 0.9452789653229872 0.5200268555740138 0.017463522583740673
1.337443126457089 0.9492563514171012 0.4386101698750546 0.01777174893888282
1.4544738647673316 0.9520026297934561 0.49888531944251385 0.015306768011621636
0.4972330161092464 0.9475742500718835 0.5890859462460073 0.013144234007836623
1.0068846110089393 0.9463285175914146 0.5597353496114664 0.025641174021332123
1.0254950792560027 0.9464912383398976 0.5771382555376753 0.027481921306260967
1.760460964748589 0.942510405111957 0.35660945706816644 0.016429618582258165
1.256328526439632 0.9465266527546584 0.5576728398629635 0.01284873690775576
1.4947078998556804 0.9467213061865635 0.3892482718602497 0.009763639908386471
1.9211595679915294 0.9416590647927993 0.35214725246173306 0.014422491810916219
1.0155033085355205 0.9419376326418046 0.5827500753088102 0.02677086403544344
0.48485677183020787 0.951908089491841 0.5824727603711891 0.013646076794419834
1.6764217568478768 0.9489966694256077 0.4043450342567448 0.015501023766702574
1.1525108006910028 0.9397285072973767 0.5715372445807343 0.021951640595735924
1.620423893194281 0.9497456311783431 0.4397430631202636 0.015346085651525388
0.9399127622483893 0.9432224079429077 0.5601807900725057 0.0074149827455628585
1.3119866802855062 0.9503472742150809 0.5548322248177564 0.015133089336547886
0.5989133236008062 0.9497127364276846 0.547381529403632 0.02190727963347
1.517803947582654 0.9431241374494282 0.44874571336861246 0.027731270654569408
1.7891410866923199 0.9485461955088093 0.37137842073316724 0.010283758971282995
0.9117928315770102 0.9489137062887095 0.5658962715905926 0.01113977801839951
0.899532064651288 0.9519200400578618 0.36444190441473473 0.025455998581127823
0.6803898767979443 0.9453635575957918 0.4828034596423919 0.021069086417616775
0.05803590868652586 0.9461640932960531 0.5882770436659441 0.010662828995337742
0.125151930068966 0.9457218846394945 0.5114578573412009 0.012480815302572845
0.9589900675713382 0.9536443269901611 0.30974744399064286 0.00927937370309788
0.9887800003931212 0.9531048939858053 0.37686321765281644 0.016373282907825845
1.4333091771495434 0.950910107107595 0.2939655848737077 0.014711291823061445
0.22669998499700633 0.9566419330300515 0.3672104634827923 0.010607690670029016
1.195046570424313 0.9423995814722634 0.39494972554374774 0.010263274091949975
0.17833613765484022 0.9462744271104448 0.5540571352189018 0.009025960272603854
0.7332667714254654 0.9478790514383519 0.4308747328390846 0.03397712091999787
1.340264614594581 0.952552210150982 0.34247927108302134 0.011922689918491556
0.8469927697938144 0.9447911067310125 0.42614486156036097 0.0172376435055544
1.5149657632742775 0.9539200569487228 0.2872945337877153 0.0177787662964172
0.2260133903493283 0.9416863258380694 0.3202129173302075 0.009333494869644061
0.34197917570046704 0.9484353405493468 0.4974576647283374 0.024308613267687323
0.08024309005072489 0.9563284208172911 0.48516868220537185 0.016804233703326756
0.6375658073331351 0.9463784425255581 0.36158168539122615 0.009131285641547566
1.352944129937897 0.94625828520853 0.2897455896526641 0.005828612990687541
0.4276829989384204 0.9400871061498054 0.3552508437681214 0.014025716284902465
1.2578326714103854 0.9428499457021923 0.29009443878082264 0.012461465942117339
1.9695561067418554 0.9471654814998254 0.279119166310234 0.011920258075198755
0.4928647115054957 0.9362923383547488 0.34436948781019927 0.01637320548899301
0.9295019794905564 0.9430618660405921 0.281681378961912 0.015542535397008611
1.369096336691792 0.9462560636667341 0.3455189374573066 0.011530408613831356
1.574803903808377 0.948554305112403 0.2644727065874357 0.01348257243523859
1.2660297466264503 0.9473901750603884 0.297177769986621 0.02009696117306593
0.5801065739788988 0.941384911795109 0.31051211799085937 0.007168265175305733
0.23118774992518906 0.9446975162214531 0.33454435303738045 0.009109401221204265
0.19663975839396164 0.944184558297524 0.3954861959880935 0.0077058335762984044
1.1778032905201246 0.9424305262421901 0.35936529250270827 0.012366048769914621
0.3159025818252042 0.949433459739528 0.45801454356593185 0.012049152135339474
1.2583224119286838 0.9425124492759145 0.4273368881472298 0.016466819567448623
0.5734461327180931 0.949554647086571 0.43558676663337553 0.019986856309719768
0.22738141654014074 0.9421218542107294 0.5666932243280111 0.011324316088842261
0.06494576268324415 0.9482324794303281 0.5339156054820263 0.014467765587290333
0.6107943225735584 0.9453067343941216 0.347397421540481 0.010487823591932491
0.6515229218132504 0.9453650588478167 0.4673240170148138 0.013604701951319588
0.7101009262334292 0.9468174710876943 0.3148998307447495 0.01176773354161538
1.3035582743538703 0.9554215681713208 0.3596508195086269 0.01154376778525993
0.2382050489925455 0.9432149184766504 0.5119461512779429 0.004422185970420328
1.5450060994609165 0.9522419247099094 0.3786223707616752 0.015086721149178908
1.4624370257492092 0.9421501104082322 0.3030372677925977 0.014339686366272218
1.0952143524769467 0.9452027737458516 0.3409258248864485 0.011009153941536457
0.340365259573058 0.9426833193227819 0.5419624788106182 0.06196344209646995
0.951560139063605 0.9430593321601948 0.4100905274061926 0.01476804006779261
0.21543222485833824 0.9447398824619693 0.43287307361968197 0.0072128354118509395
0.20979655075684916 0.9456969877660875 0.503527878600345 0.008702622386008057
0.20646945486715104 0.9435414370733302 0.40240660876198686 0.006825567196146966
0.2774090182121486 0.9428967136651575 0.542589009977981 0.011389665469879054
1.415166389046536 0.9482635753033418 0.2759196835147326 0.0156442088556019
0.36855453841824687 0.9514547809185822 0.39281333770789106 0.0348266085053761
0.3538628262282722 0.9493608847964077 0.3022246099081973 0.01913126838914746
1.0797883467210854 0.9444382821680124 0.31649313303784427 0.012631664384122351
0.28901077626365385 0.9509681560411214 0.42900308190985703 0.012863994826643394
1.0022118467205297 0.9461408471518875 0.3510273301700385 0.008420478283115432
0.3780844064411348 0.9576621739125817 0.4229794132067149 0.009311452853248072
1.3465708506183396 0.9463076089941233 0.2781702274734259 0.014398747875998671
0.06243079393482391 0.9540084793335003 0.4877075923356125 0.01286523769979961
1.1156624475593255 0.9521763687983748 0.37558260702065704 0.012026408305433129
1.1170952945559003 0.9451498138036029 0.3909966586294693 0.013767715850603879
0.03510434916849896 0.9440489299499432 0.28889435287979565 0.018843590346088884
0.7241171275586533 0.9414825664127754 0.33833404818608176 0.01847386695141359
1.599593871147568 0.9500844565741516 0.3028003157368691 0.008721060947873335
1.9548147102718458 0.9408372540719904 0.31416934540186675 0.012034518542749631
1.5670480471468302 0.9492160976054793 0.3590825121672137 0.010098444201267117
1.3574964559737026 0.9480979285687507 0.4059467617852466 0.013087001746995792
1.506660255022056 0.9492522948839426 0.38526729488563805 0.012771479995241542
0.5630051500096019 0.9490820037555083 0.29480202184559634 0.005311917491704513
0.5615498668794104 0.9423344145631454 0.3497171302015872 0.01585910418066076
1.1057559725512875 0.9438249654183245 0.44826740293032297 0.016523736740217742
0.8413278525446898 0.9407040395526766 0.4746465444527001 0.01672501249682385
0.011094639448560695 0.9500752005785191 0.5295216052712605 0.0843391295728359
0.6975093160048828 0.9422332959437741 0.3048301207238474 0.006821580394355306
0.5243068048704155 0.9527068792957485 0.4427858803342192 0.01435026543654905
1.1016424130606473 0.9452640583860438 0.4214892447929944 0.012734293523227493
1.3618251472348333 0.9506046549370049 0.3580421927601446 0.015060473101252594
0.694128843469377 0.9468717212864844 0.511530999069196 0.026392763574918675
0.2281853699300889 0.9480524910842444 0.5277245489983943 0.006435774246531697
1.1763513123836278 0.9430233480734588 0.29260806223875707 0.017947778915134428
0.9126309552163587 0.9482369564204312 0.4501319000419963 0.012592063442305833
0.4174558280250405 0.9512421933293524 0.41871135006655935 0.012905606896278364
0.5405019247379581 0.9476174550544295 0.3872436549862669 0.012138824391324849
0.49379170284133117 0.9476322968792668 0.37005902846766214 0.021662571220796466
1.2374661811265153 0.9414521461645121 0.36182117647794104 0.01382318155687106
0.8890774548795974 0.9556296461021452 0.44666520679380645 0.00872623640179774
1.2370402794943822 0.9528162240372225 0.3038399594991661 0.009019989513593698
1.0671772010922065 0.9469595348957718 0.3297345511324894 0.009457546104792942
0.9484415913166496 0.9397985282977106 0.38386883283908607 0.03940848605923762
0.6090720050512121 0.951701688183199 0.3103870359517397 0.011566516986423761
0.8745475766641801 0.9510932561120445 0.3905906814357871 0.010926988771383388
0.028858228588133576 0.9511224922325784 0.443658396365392 0.06376944114403738
1.7049028431290258 0.9454439814004361 0.31762138319844113 0.0032986245994113743
0.10885343538993364 0.945957235373796 0.565476822706424 0.016874162788005884
0.30422909317213465 0.953102200446801 0.4860580704279522 0.00775044239622572
0.21698319402516453 0.9539849011306757 0.4739000504441057 0.009154655459431234
0.7162926052646328 0.9497512589796511 0.4039180611458808 0.019988195179302726
1.208804370524436 0.9503054418397769 0.3302183276002382 0.01980968696560725
0.31804328363041146 0.9471706117160512 0.34709301081015337 0.006678905730081218
0.2644254860166826 0.9468145180174617 0.4553350625530133 0.011882705062623402
1.1819783170436196 0.9399790155190456 0.2899666949064727 0.015236318554649369
0.863526386711244 0.9444706139093767 0.4449492922313567 0.010178918656794732
0.5392654942711032 0.9509585293106458 0.4549870751690937 0.013091473291519872
1.609715054964123 0.9475544983706137 0.33918404809480707 0.011044128649830788
1.1274343610185036 0.9498654058136 0.36719522856032694 0.012751031623950032
0.643867294179608 0.9428974588464781 0.2584878327110235 0.007665133512106011
1.8861631248263044 0.947813007279063 0.26486159869285264 0.015289437842261711
0.39598684462723377 0.9458098795904512 0.2647885487238494 0.018912967422946524
0.23156764400662974 0.9522427606836824 0.38177604715727065 0.01597330712914774
0.9494958005249317 0.9603018237143738 0.35124056154031646 0.012524543442142015
0.6814645114748353 0.9427152809917899 0.3311957404358715 0.00847951072805891
0.3886078865787663 0.9427304130281077 0.35982193283483443 0.02747292057152648
0.3120060664822693 0.9437295838754725 0.5639537614613924 0.03071149699594068
1.2997635919038657 0.9495312728646524 0.3635512933798622 0.020227947989693688
0.8990644714519368 0.9485708869829086 0.271326559044196 0.01557663814771015
1.6808757694939924 0.9448518206274099 0.3003657838736823 0.013489833454912777
1.5034597589544358 0.9446359219723445 0.3577625834245643 0.022988048519625638
0.0985265863364904 0.9519800523357714 0.593300546465522 0.007066600448385036
1.071172714294321 0.9476131453552517 0.36441795074648514 0.008069825410518044
0.6367700648620929 0.9507861266259598 0.49210458149189645 0.009691588789934879
0.07925643365484665 0.9575105514520253 0.5002540265286758 0.007174036560094648
1.3851555863183398 0.9455605988049632 0.3850240796144875 0.0085381334862685
1.636982324105065 0.944718111817819 0.31107202224585423 0.009338261573987403
0.8278723710110416 0.9480550961216369 0.41198891895705775 0.02795158853212123
0.2151445016178972 0.9503087035473259 0.5375216368071379 0.0135270470260672
1.377555031821673 0.9457116697215602 0.33559717879436807 0.010604352335858248
0.48478904388419897 0.9460731857556576 0.28963268163666256 0.02039734246514229
0.13946447050896627 0.9495327230853922 0.29430457202094706 0.009072428444314811
0.012837558148408335 0.9436418727692509 0.4805729736410219 0.07020171073146733
1.645921081746411 0.9462015715848793 0.28219428868039836 0.01220253086474773
0.7798834419302164 0.9438607593367403 0.49434177276479974 0.02396485984165992
1.0921858837390073 0.9452083419605807 0.42642568841145845 0.020729599458778558
2.0110574256230613 0.94795593680117 0.30896884834619687 0.011985425528501807
0.4051684473543604 0.9455891818563702 0.5514100719378016 0.013513272200505688
0.4807435127812843 0.9437902455425302 0.5245148959743042 0.015654733710761377
0.7282119337337704 0.9459912816921705 0.32567364700356183 0.020769839184960254
1.2747668876622038 0.9506671674137941 0.42175821197806357 0.03211402834056048
0.30287576825297147 0.9447692819487192 0.3906154155882419 0.01627944257895754
0.44760119850379276 0.9441696876368516 0.32436715562894186 0.012536743681027612
0.9016362635634937 0.9452878906478587 0.46427749553927183 0.014880084616256459
0.25512406293954093 0.9442220918813539 0.5124382247485872 0.005035321448878461
0.05088975207911062 0.9443975568489367 0.44700370983999954 0.00871561878053767
1.0378401304662732 0.9427516031232039 0.3064943366380925 0.007672208706559728
0.42547521656992915 0.9476368764803172 0.3354654592901033 0.014357396006602836
0.058294384433380926 0.9439367534857791 0.3213963566354245 0.017439077862184158
0.19135209060657593 0.9466446420565361 0.3949234819199518 0.006986423391898066
1.717424524102991 0.9498745204351758 0.26532670333230984 0.02031481008069711
1.1957320459070235 0.9500736948752677 0.424231472943218 0.011981505174305594
1.4606610626933383 0.946158948173004 0.28848854414422087 0.01506543925546546
1.5743525570705945 0.9451735593974506 0.3511451078197102 0.011162633117308033
0.43746958922300905 0.9493618818088567 0.4751584173997846 0.02286301764178519
0.9865477132390491 0.9459799091915774 0.3007010714929608 0.014865870975108332
0.13853976283248273 0.9429078577656846 0.5085982484606849 0.00936626691160843
0.6724632405108862 0.95124790015385 0.2834523652692412 0.008119942358087613
0.5922793637051795 0.946211009223508 0.38593131457239094 0.030637711957715877
0.6189291532345078 0.9481701331124972 0.47785056809789433 0.016339295016566013
0.44410692609769675 0.9416790747639416 0.28954316383594086 0.014517714654171931
0.33761676902686527 0.9642781045261369 0.5274502253910358 0.02038765832092665
0.551094691705528 0.951760392139635 0.48567883404283546 0.006137870157923871
0.9222408836712261 0.9488457966351006 0.29407505680950174 0.016521493873211227
0.0366045293758854 0.9538109344992655 0.5228051079675906 0.0064403879850610385
0.281025011653567 0.9437404672399579 0.300211398470751 0.01055340583533293
1.2859600774350939 0.9523162836213704 0.30082871530849553 0.008808686927437604
0.11448748238203907 0.9513780952724215 0.3295146997480343 0.012334109109591191
0.8929726452852301 0.9492613541395825 0.470853169210791 0.01357757095758882
1.0470179202416965 0.9503168551466227 0.33775366835756027 0.008607934944430991
0.36062818559937776 0.9508609327953451 0.4104237898856046 0.03216628446631882
0.6941353468402469 0.9477285813202931 0.4718657529348561 0.02281017535530494
1.7542493011687808 0.9480767491117364 0.31365049536797845 0.017483147758800437
1.718828021468863 0.950769379301006 0.36164883156694205 0.021215633356278008
0.3550862392440284 0.9499885346501535 0.5564229213674615 0.029808589584306922
0.5076128088383406 0.9507300153810888 0.4481870317324797 0.004806999373900414
1.9695696931452162 0.9434241393791682 0.31818884446409196 0.013276996455042185
1.6488408625162485 0.9539907825443059 0.3745531575388569 0.010720004068546002
1.2534807930158418 0.9429464440853403 0.3815135053300445 0.016150243805176316
0.41431553264702087 0.9546960197796172 0.5289522127541495 0.009878662608774942
0.15450948906265483 0.9435902056090855 0.37344060546928537 0.014314956054994674
2.173157832928179 0.9463895471650535 0.26801643389259006 0.01684364176491581
2.237970823149941 0.9471968378243638 0.2615211735038365 0.013499717271019616
1.0598334992329073 0.9469407438380554 0.29320121659056925 0.010183124057401039
1.5635341809782721 0.9477423784089426 0.3195253372379736 0.013304940368402884
0.8371075602091713 0.9455086202609039 0.2780979335093597 0.029022314522778547
0.14009462819344096 0.9456335795689423 0.4656582523146014 0.01303396768239594
1.2863112846244797 0.945547589565112 0.41505043257628166 0.026655552345161142
1.4186888336944699 0.9441786796092156 0.3904524224286455 0.010794463900949918
0.4670462385764028 0.9475578129002343 0.3600435390177011 0.011194753260686249
0.008877683080794934 0.9434825659382451 0.5765260187099435 0.06755237638723588
1.7120266744654489 0.9566866857783121 0.35941345692504206 0.02502381887362401
1.162388654282839 0.9446446729426972 0.295642354783352 0.015785802338682604
0.33611149950683883 0.9439430513465306 0.31635042813219855 0.009331326597645025
1.1997798598093647 0.944613238616153 0.2616978775826908 0.01933802262831091
0.04198927453011937 0.9482487858375064 0.41417801519582803 0.009330239386460718
1.479165211192873 0.9468040973450108 0.376366891198616 0.016795320312741835
0.014336663357966354 0.9502042919241679 0.5938752695805027 0.06864206750463064
0.5760620347393433 0.9470073589043487 0.32754160931888976 0.012286550340482557
1.4248872972802469 0.9412132323280931 0.3136717697967308 0.01350903361011699
1.2584300052382285 0.9453285164080975 0.31336553048420457 0.019026517047213722
1.1492903375362857 0.954380251855246 0.2784182298150171 0.006900440582128207
0.2501755659508374 0.9425078722463343 0.3250906150876756 0.007468997310216558
1.7596659120003522 0.9447494241502858 0.27041190254848546 0.019534037479629986
0.2780692864790668 0.9458174763462779 0.41337090126117837 0.009585865560839471
0.06664085770607037 0.9460977935324061 0.3491419765550241 0.01977423831845458
1.6506643725849335 0.9472473613272273 0.3384381093789818 0.007919859176510958
0.7945318111920372 0.9490759597293187 0.29189785224411435 0.038961466943913024
1.058657462134458 0.9496351716937087 0.35536761084908075 0.005528739942125069
1.4255512260282408 0.9433319050004313 0.3508904534906267 0.017002766114162366
0.6662119639782587 0.9563023372324428 0.40103314907058074 0.024075078265698213
0.20372045631101435 0.9472917389589908 0.4926023658597046 0.008623485666612906
1.7353854331810306 0.9439211983960468 0.2906023419114834 0.011325422626249882
1.2789570443822336 0.9506000722146483 0.41939667653512785 0.029909290170168166
0.6234966638341785 0.9398081409392025 0.3998136132413122 0.03799365600446743
1.2442286206602198 0.951901516500436 0.4047149372584347 0.019912863584888234
0.5964346324584024 0.9484426270490196 0.27901207323080185 0.018426605296658898
1.1622471960931766 0.944305698864767 0.39123102746310173 0.010263374600189206
0.30278174363979476 0.9460427803916 0.505719459259146 0.0019389611196247226
0.17879288444697047 0.9432579366698748 0.28573742042125744 0.006193224045613864
1.1145605405804144 0.9449899958740603 0.2960790856059053 0.015603081361131001
1.2304206860362767 0.955248224197477 0.328764299760217 0.011446059163776329
0.5387646644049958 0.950609742116569 0.5167583106761577 0.012405624493019839
1.6249014128273274 0.94944628264695 0.3783996765123624 0.017549521099761944
0.15192458929471564 0.9465896470137647 0.5744603859466083 0.015878761295978306
1.4832253740841685 0.9497808028355672 0.35836652313504386 0.017984414060124215
0.8997709870658567 0.9482474577663251 0.32946929101979333 0.019755166552404727
0.6612881472310049 0.9464976438457576 0.37820345564888147 0.011601460119649373
0.024247435081301533 0.9528592747301114 0.5416565115754204 0.057882832930758375
1.9386483766164895 0.9451757746805435 0.2966575637858632 0.014064940769180122
0.7407024979052201 0.9480253241281386 0.39096288303602417 0.009377934158109764
0.8672233125404702 0.9457907990654383 0.411326515136382 0.01721315626172151
0.07017840034820526 0.9514215024377133 0.5676720758359711 0.013475095264376399
1.2252385231436576 0.9439022696075253 0.37805195549445203 0.02256458205518798
0.12562349000834602 0.9466747495785625 0.2927897782260179 0.006424521281279024
0.06680253837084327 0.9482513993414541 0.4128983821320321 0.012029974308720994
0.5605885405022218 0.9408587762810854 0.4486811115552736 0.01378130797032227
1.170702979620069 0.9455431884324978 0.4210177861359377 0.01402113212364543
2.0951758452311413 0.9530322883229548 0.2966539487888921 0.013690608748069676
0.21517265242735711 0.9555580803901488 0.5699969463531221 0.013541477305020004
1.183642944664636 0.9410352797226955 0.3050549178351859 0.0124563542171265
1.1448592089005756 0.9531815593477796 0.3916058260646691 0.011228781227730144
0.5045070902221017 0.9484067775079589 0.2946032664018426 0.01286070683166872
0.3568660511923083 0.9509915487362018 0.3224825937950042 0.010348882744779554
0.8164247627873081 0.9453039719516401 0.29641182000804095 0.030941563662154836
0.3493029728930023 0.9437579355684022 0.4116814539483788 0.022572182580583675
0.40675847734578313 0.9524403270482581 0.511504119105499 0.018711432844709414
1.0038920973894436 0.9494955532149413 0.2997298327173384 0.013374905384436895
0.8399682990691085 0.9520187522709228 0.3329540825192376 0.020326532359365004
0.18316412998094192 0.9485190722161783 0.28070689192942716 0.005331919116849996
0.20180204455184025 0.9434771771815437 0.368628655808685 0.019606073844726176
0.8461030281153553 0.946872528180964 0.2638075625515739 0.027169081550421297
0.5981449148354456 0.945047992235497 0.5028411901899208 0.014069192192733658
0.6053840035340939 0.9484345168922901 0.2997897179529213 0.012708408298606613
0.2358707277695024 0.9523648435051879 0.2841952910157875 0.007085290347406798
0.3519228216910831 0.9432913705568394 0.5158600969994419 0.044610628303032904
0.0375175631967571 0.947879963728422 0.47675372038435976 0.01115902796980427
1.03081311298306 0.9482076907772783 0.4535293828863094 0.017888940014648975
0.9845475679604913 0.9507055872791415 0.2635696887625351 0.014429792445795108
0.15584521697612436 0.9510979663649767 0.47461374317370447 0.007049472379294881
0.786401139719943 0.9408977494323536 0.49469205817879713 0.01747805288910206
1.0090937501894521 0.9397706142564032 0.2843394529657281 0.012569505348488547
0.7988264748922937 0.9507162164263632 0.30488392428978695 0.015074151406364483
0.553611219457429 0.9519359689334287 0.34282366944046083 0.008767417550250938
1.8879384205128056 0.9573038646005522 0.3253235711376167 0.018836096102616818
1.8972534897709192 0.9423800429676279 0.27697892098695365 0.01039846023985915
0.9101355910363422 0.949007530351038 0.3077712373871869 0.01914879928942085
1.4331692712307578 0.9482500306903194 0.3841452536756211 0.013419037789212806
0.4844858050765063 0.950323731424453 0.396617816259153 0.010974321177391578
0.653048573576024 0.9481591173636428 0.4455217470358887 0.02719151786954826
0.1711574501478604 0.9433670175181794 0.27233349446696653 0.00567722780775158
0.5248044047099213 0.9467842111599903 0.46737086448879106 0.011566833659241561
0.505748357784333 0.9508072513073449 0.5230810788938656 0.012315001983186248
0.5890715002002999 0.948755869532523 0.5177558684908811 0.012962857339679213
0.14875749808320887 0.9482154254894419 0.4914660332626203 0.0065889866127287686
0.4896010761146785 0.9424010253776909 0.3868958972236744 0.0064793383464743426
0.5160686810143952 0.9495291497063337 0.4685779350919302 0.008269644003208395
0.7144709374449744 0.9442827925312549 0.2615792923836798 0.009316723624250964
1.4398263636751083 0.946859765345172 0.2944579881350108 0.014562199869393198
1.4512135636784695 0.9514135957426004 0.3323595042660913 0.02164712312515047
0.49692731225101955 0.9491218545029452 0.4110772031400454 0.018306779064442114
1.1423100813674005 0.9433509624580585 0.3501421558878614 0.013919545651386136
0.5775041801899989 0.9442857762587572 0.41004814425382147 0.02461170844848974
1.203584818868532 0.9460238711026645 0.28891310485403116 0.011020877569545496
0.788099614984196 0.9478315286515404 0.4174262443098638 0.0230452768400216
0.9388637452206507 0.9429076548379922 0.3899851176251306 0.015086996493752145
0.44574470991631093 0.9465082607736522 0.495676434341219 0.022739069541223404
0.09832826696270146 0.9462112861775599 0.49759920914552425 0.012668987062488417
0.3921658025681996 0.9513485950677464 0.3077350822481318 0.014335351564290682
1.3789615980268763 0.9431645627034857 0.4070484032075394 0.011011409682729349
0.0016640390220116368 0.95285408817322 0.3565374262067365 0.05470296906624259
0.4230987612180601 0.9482331002985283 0.34474756959990366 0.02302222980487273
0.9856006437972172 0.9409951245731624 0.4643113848158152 0.014877633573020866
0.4642399509599367 0.9440820585914049 0.2698581972363874 0.021261764100595527
0.6820633344828726 0.9420187880222142 0.3488997037849167 0.009282695773557887
0.03430911264737774 0.9513676102563826 0.3212957401319031 0.017730056197955483
0.9945541953468474 0.9447794020422109 0.4550110816654778 0.014182503210778121
0.9425443388651227 0.9526467695629931 0.4492081098909615 0.0096377116168875
0.05296110754532389 0.9451707468060067 0.5395145023710346 0.011289060773381617
2.0091920063263986 0.9412015728803659 0.2706106656917322 0.02063272506158333
0.3605542920267493 0.9492453395473219 0.2931813790974087 0.029830120071690835
0.9936046143581119 0.9490284414963864 0.32817520958319746 0.008302557563397683
1.0537632808215243 0.9443372203624771 0.3879625629818799 0.01359716814202719
2.151543376695812 0.9431727333669753 0.26712686804530056 0.012792307364204654
2.1350902170875874 0.9516438052636528 0.2807099410218739 0.009012415436533404
1.049562954208582 0.9423768929314134 0.390151363615144 0.01765362333108072
1.218786444497446 0.9447984600927628 0.26660365015380955 0.015023740874679605
0.7550666615358144 0.9493010443333803 0.3001787013752742 0.011635411583796995
0.7307911570460632 0.9478345691155935 0.2898218096813247 0.007404413048530112
0.29998053715043327 0.945588848678591 0.31335203205386497 0.009093255854017332
1.1390639575690136 0.9497604549857451 0.3305793450328796 0.015265052774035242
0.24311895108756218 0.9433074089025917 0.3325254372563867 0.009273770239976905
0.8159248784266318 0.9425251048075087 0.39342569220858103 0.02690716664312534
0.0077793586647309666 0.947384484370133 0.36928952614513016 0.06349219376850984
1.8931370274847574 0.9493704608792072 0.33548215084302135 0.026627884155278378
0.5273731326818699 0.9470888492622239 0.35467773998859103 0.023170884118908087
1.657862449694413 0.9457189051480617 0.3291558064062105 0.005657478529555222
1.4006491905440193 0.9476217410807796 0.2895592259344488 0.014654219402002318
1.6256087807858455 0.9446012590794144 0.2918038574286359 0.012287553804862525
0.09809935397302025 0.9451418258096125 0.488428239344265 0.013176348101190671
0.707213466051277 0.9461149530332832 0.4674276546027228 0.026588521736912226
0.5252645889058977 0.9499784270502707 0.4223914568741639 0.01743232514289983
0.45028888485068047 0.9445888135601872 0.2756928160950933 0.01661180724302124
0.9961180247143685 0.9493862719788463 0.30409421757896465 0.017653048221083
