x y z curv
1.2003569451256306 0.02560999613974084 0.278914691735553 0.0058887124746172075
1.2075253138302917 0.02210689019395337 0.29201820056712274 0.00918487137313248
1.073968621553326 0.015590179212032781 0.3128184788734086 0.011259947538230326
0.8969166936564854 0.0171738704425754 0.2540947586655447 0.012663475160727336
0.9574502102724067 0.025110452666849817 0.323626671183458 0.021401035990162506
0.9485992310661014 0.018970040016354037 0.246462777884903 0.02738599282538856
1.0127908193599267 0.01651610366882946 0.26074459830832125 0.011193850215298356
1.1133102236006942 0.019632296713420642 0.26700237271607624 0.019078302118748253
1.0307943241530317 0.01746522891099611 0.28073296045125273 0.010707254856295543
1.2191494280022106 0.018224301416187815 0.291517723492469 0.011946848736701633
1.12493817819386 0.023068229067442284 0.2988811590508536 0.008818967620117274
0.9997651113129041 0.017166010622413182 0.3126885457909012 0.005455735157188395
1.133469073193788 0.020716902255795092 0.3290774882746496 0.011970323581703295
1.4733949158620798 0.0122551324102196 0.3169915849082564 0.010362746879434444
1.107070903535746 0.012830130022286265 0.29741357544328656 0.01407166609853767
0.8580756184039872 0.015157475923768482 0.26567272578680645 0.01029720988050854
1.006970357382585 0.016501205324228538 0.2929636892685281 0.005115971951158017
1.2268723885859505 0.014725737090339624 0.32622490238994634 0.008277269840707159
0.9183792804027741 0.011432314361465837 0.2796794355861166 0.006422076685702896
0.740560907389012 0.017827448296852125 0.17721086755222337 0.024473920297004195
1.2349417280014907 0.02377541718323619 0.16182922873693412 0.011623568747094557
1.1098468860961168 0.018306139821598132 0.17434575171175712 0.010999332139599024
0.8384116136229212 0.019831448532989692 0.17372683599119773 0.006927704178194998
1.0495546579333237 0.008692535470993327 0.17182615064775983 0.007504400168838258
1.5026803352029128 0.024594092890189163 0.16627807140078596 0.012929664423892777
1.5135874234921545 0.020956167091938933 0.17194203541109224 0.0064768511299004156
1.423136111513431 0.015217000635055131 0.18204213468472014 0.010366667734955036
1.1886415397306855 0.016422017086075557 0.18496177334778485 0.016464976838534658
1.2191630877371418 0.02286105173562639 0.18232606931295534 0.01638804913659508
1.2796725645770846 0.02026900604733182 0.18264235071896637 0.01771661219416172
1.2902383885287692 0.017893117527182405 0.1816936883788472 0.015696068546967614
1.524468757764241 0.01673856467260124 0.1807724712961702 0.005777062431956094
1.440612007275125 0.017459926309998892 0.17699190326846803 0.016905094279882814
1.4506930718598767 0.013397275762036764 0.19077705200539583 0.010081461672870978
1.3832674244764702 0.015110247129332594 0.18966447932336142 0.017673342490571797
1.424048056504305 0.01739482017488936 0.19754905987818427 0.012478852330021451
1.36588086672184 0.012263498977891064 0.1808141698311428 0.011023308584616302
1.1913132424296482 0.01660417029599813 0.19148675880579863 0.01666553843580502
1.315263732912697 0.012154291486454782 0.1981655282541973 0.00921957900636433
1.2375883279901325 0.01865877863721686 0.1915122542055405 0.007857606341646976
1.178904911438538 0.02359314628990496 0.19838761136517047 0.011758972530953442
1.2094592965958484 0.017273058696252477 0.19798976886678432 0.01377673055835108
1.2738720456233328 0.01850286828822659 0.19828933402890425 0.009186464806904533
1.269110269095509 0.016044960917958095 0.1824564569752924 0.009879076525958316
1.2210567633184282 0.016771454983849986 0.204280182257461 0.003614786349354393
1.3479982831295751 0.01870470111012123 0.18953767592490472 0.024484186469922238
1.4900317534137102 0.01486718263263296 0.1933782304700378 0.008489838497335743
1.5109403246788404 0.014124102731676663 0.1892622265064232 0.006810262353393035
1.2969326761149955 0.01249242906553649 0.2008312457255923 0.009856562501906023
1.5249417628192543 0.020152653357252085 0.19712785871412083 0.008084577137783263
1.40613234721648 0.020653508964221134 0.1933846739006857 0.013230020701352332
1.3416872099634267 0.018298398126659177 0.1954939227498536 0.018561136406825156
1.438975170742853 0.020015700325209027 0.19245172212507997 0.01693278903155417
1.1911080943243915 0.01639363134363182 0.33144265997129163 0.006176537044217224
1.269579837772267 0.022015804264306625 0.31627109455169256 0.009385787520515616
1.3615190698481847 0.009715178064389311 0.3315560330267303 0.0030785610314906843
1.3769745899224906 0.016923358837657877 0.32750916730884205 0.011100824415176487
0.9767256563677001 0.01622496178804754 0.330742348067449 0.008165673507201127
1.1419938353218742 0.01669551759240386 0.3284942719307012 0.009238140938854734
1.1657662192401317 0.019895374112573302 0.3331062452459284 0.007844154600372168
1.1093498598879046 0.01486569758460281 0.33208715981478526 0.011794040080146194
1.2594331028278636 0.018117658170231914 0.34182577465670455 0.005176159574236631
1.194338221420343 0.015663836334508005 0.22629233878176916 0.00649085371930676
1.3075755898521 0.020892720587738573 0.27226400474928764 0.0168290709310382
1.087285363119136 0.01360936448013872 0.23817566097690146 0.02048600891355164
1.0751709395438596 0.009767456128444343 0.2229824527086252 0.024182017280922334
1.0736808451043467 0.022341661742041673 0.2393907170417789 0.015193484738286639
1.1527757409995225 0.014792719262565663 0.26360365205204983 0.008195840831525138
1.290030837106502 0.02170950236219676 0.27855495908302585 0.01789035093732792
1.4248372631637332 0.018325362745015103 0.29125288046420916 0.005607104709601203
1.1846779542399115 0.01939827298044431 0.25207338969394694 0.01262999903727505
1.106622190564178 0.019049784593775095 0.21447000535079805 0.008825194579399728
1.128255710477826 0.017745773698672224 0.24025121586284826 0.008297162974429019
0.9733252710704978 0.014006746924417753 0.2238843457384766 0.01679420024397724
1.163192791758336 0.02069443417151365 0.21390736619942977 0.012000821861525604
1.243414935988141 0.00966377805241938 0.24448541914456742 0.0054919310652744675
1.1251733765955643 0.013285188742815882 0.2525564248057978 0.007465630628372783
1.1883173758999763 0.022362864684834113 0.23757296140237974 0.007168152958669054
1.2837530615525756 0.01087754457267767 0.25049921023641514 0.011319807486938019
1.3930565516111657 0.017044206444001984 0.2922909935640489 0.007912301222158262
1.2964204147893508 0.01571155389730552 0.2609198489192862 0.021967011115302536
1.2700851649057494 0.009263601406213734 0.2510975486725573 0.014146410501061142
1.3017544735864375 0.021146951898890404 0.27741004840297095 0.015767209393116377
1.0881272440402163 0.01119566255452908 0.2104506250856635 0.013558656288136087
1.0549566133651906 0.02241051313975103 0.24192478393101707 0.025581668635126627
1.355579307705725 0.024378718908216246 0.2861770449355737 0.005652234163743399
1.1791475670274054 0.026366328992379236 0.2175739347234836 0.006862384190720482
1.2053632746890663 0.018608812898008652 0.22751224821576044 0.006709441300263818
1.2165775152438074 0.01648414729605999 0.22916269978316983 0.008096328437572547
1.1436932093179333 0.014209213549055636 0.20953372929991873 0.005325110031750963
0.86693766996948 0.0222710076105142 0.2151940706186687 0.005381435509165008
1.0288689901963315 0.02505343047279091 0.23633909820118332 0.012455194824597218
1.0916586232529597 0.014461806848173801 0.2430718352002124 0.01672694171376657
1.242973829175372 0.014432123099183403 0.2548137962367129 0.00878361446905604
1.3025314160619474 0.017829652077346773 0.25321872388351846 0.016358008684987217
1.2057945880420846 0.01866594891768798 0.2474043987775427 0.007633474139623879
1.021327248178686 0.019526103616608413 0.20986399712634635 0.013177625311678327
1.2164621869764336 0.014604559870690273 0.26362207528251824 0.00606828105487562
1.208254286006734 0.016215263555027462 0.21122385211757985 0.010394943297782558
0.9269796350820096 0.014934751880243551 0.20961777067953036 0.021666231164274106
1.0482221483354293 0.020281145739422347 0.2160881217513721 0.02257258291528785
1.2380736281468057 0.01435549972191932 0.2705040689895024 0.010052645449938873
1.3525821408617558 0.010830136849006832 0.2746400405432309 0.01157823948939774
1.274925709408381 0.015082161999374146 0.23980909240832046 0.012634255109635725
0.906908276101402 0.017505589818207413 0.22707219578594176 0.00988514813938041
0.857257433613299 0.019602729678863832 0.2068537686559114 0.011056395066750005
1.0005960868853365 0.01574537075117863 0.21365544348468365 0.01749001077285668
1.373476549988837 0.019193356840350426 0.28077172880512646 0.013875196295387145
0.9884800288630153 0.014966853910756767 0.22042137732351313 0.021515711804688233
1.2187379474093911 0.013698277748682212 0.2718847031197964 0.007844284344935356
1.065915501020757 0.023964067758020097 0.24417928047808782 0.021371127336768266
1.0163410212522468 0.013408774879612922 0.22818394087722468 0.012536194618910576
0.9202666040704367 0.016654596515671215 0.21666116609284664 0.024378497155997277
1.009865849123264 0.015615608526469926 0.22295864590605485 0.014060788127421892
1.1992062881089078 0.01600533660049925 0.2576588171014032 0.007716000670087244
1.1371274725370464 0.023314267519812047 0.23353606606493676 0.007688712049758831
1.3041951710220012 0.021444089967919633 0.2814461327510534 0.018016757684635232
1.4412817233054933 0.02196703710680647 0.304654179585945 0.014433943458182821
1.1622956420782677 0.01777180059155795 0.2371889753474902 0.01362548508337751
1.1565027494128848 0.022109070514782794 0.24228662448907592 0.00994117006571469
1.167959158731332 0.02273372112755637 0.2526220608590083 0.009365448430926586
1.4038460057316033 0.019520440746115125 0.28919596536207337 0.006193917441904118
1.2310389237148505 0.01618198763801157 0.2267413112921829 0.005855114223843608
1.269125555591426 0.01925177124432666 0.2555466111254551 0.010501401120313501
1.2166866205955735 0.017784646566788388 0.23377147823670574 0.005859180980882745
1.028431697195662 0.016566587952109007 0.21083561606575982 0.01968225649917412
1.502317410751802 0.02911982739639039 0.15219743279359585 0.0005883017583089105
1.4750570428207113 0.016426659530821112 0.17347976886139735 0.0036274506811044154
1.1823762972805503 0.023810624586097028 0.1719008757859459 0.013399579233571096
1.2058360671019548 0.022898597835024466 0.17688634728119979 0.01393107801468631
1.365201258576305 0.02851420895794783 0.1666891124091536 0.022760553435976844
1.3247628088800012 0.01341983159229073 0.18101374658805564 0.014032059578153695
1.5004468562260118 0.014014470635358198 0.3028715465247374 0.007984152596700411
1.3385830039002697 0.017908901336156254 0.2294716947945994 0.009682722227826476
1.389641853945496 0.012701513438952308 0.22463784625734762 0.008240905636596593
1.4603849458622793 0.02362523424452033 0.295843193677093 0.013651501061084387
1.4868833027868578 0.013719541518355399 0.20636185120307518 0.011093186559890786
1.434351109585111 0.012904100810210173 0.2256818357972477 0.009268156323745372
1.3567874498031791 0.01592223720893645 0.23035661309167235 0.003336747264448175
1.4998225063806376 0.012682310349624698 0.19942704297698172 0.011348933559277354
1.389933654278772 0.014626465489569744 0.2570429821971969 0.0051674835357884705
1.425088173076654 0.01706964980282468 0.24492605220729669 0.008520019518295572
1.4446314979513866 0.010607999609394783 0.22660273767426142 0.00833644472895636
1.3191224838203048 0.020228618322555892 0.2178243706017846 0.009621531247055642
1.3416794820904638 0.01645568639717362 0.2163661259529903 0.00896122139497576
1.508956968413107 0.007524278085063228 0.22828552150566733 0.010276450450184764
1.3590278816552839 0.01827664287109142 0.25154750283701816 0.012555791638827042
1.3351204079375099 0.014553944049209597 0.2626705512063586 0.009063517057691949
1.3399364675697985 0.017633544701219753 0.23072319659134694 0.004615733577070602
1.2516102098998636 0.01918390855362293 0.21447673460116748 0.00955507512134587
1.4705689282691323 0.020285392664868052 0.22933935189493 0.006890290088639121
1.4589778293481643 0.01658000255155202 0.21092160031513413 0.010516449749471232
1.3063645478940118 0.02364065774007419 0.2292126421126499 0.014835309079980864
1.3031164291084263 0.023028190056735356 0.22897108933761534 0.016153869400575234
1.480155010868599 0.01948348280833649 0.28958438284027493 0.009549805303948262
1.5213556926343994 0.012023821959252074 0.31516779428756686 0.008925366784236968
1.3482121259042046 0.014623231983829782 0.23907230122211381 0.0029103758778702693
1.2953305230347367 0.0198316242061351 0.23764884798639324 0.019385027814084806
1.3787636960292342 0.01307223358914279 0.253177779321282 0.01068990140290008
1.4979538301321123 0.013662203428099241 0.26990482279419725 0.004820810975771535
1.3702503552615148 0.012376684466539497 0.24571028236269457 0.008814791571651959
1.4771964238548334 0.021420534150274183 0.251886753734857 0.009626863635083312
1.420171734076492 0.018592355225020493 0.24651440315555284 0.0070334600897785085
1.4874628897650632 0.018495895749675566 0.2697480523508874 0.015214420461567405
1.3978121972734119 0.014960644298460304 0.23868957149475556 0.009589540504116542
1.4407866285906872 0.019850936360692264 0.2911873836020954 0.012427412160329823
1.4080819566197045 0.017824973000398578 0.22581552492502907 0.010330847783076538
1.32415328330499 0.01827438634111211 0.2315621297672759 0.009811085885530372
1.3792240766512012 0.015359001128658976 0.24095312005961378 0.009758908321485599
1.5178079962123523 0.012469334225958688 0.30049279382974126 0.011233323946134344
1.2782771850554449 0.023272087665576802 0.21456016078313475 0.016832925149014872
1.4667051735002488 0.017437694037060688 0.22014253365428285 0.009871286251158478
1.4541081244739342 0.02039962968233628 0.25007217671294024 0.007987503409986505
1.4052194205362691 0.014778157338770182 0.26758480203370305 0.005089231279029796
1.2950107961525728 0.017382557459502096 0.21363307684773528 0.020203691559204477
1.5204678797618045 0.013604530930464234 0.297257080511719 0.00884421136069329
1.3008483929577417 0.020684064109044515 0.21585554374093338 0.017899121653625463
1.364051531925263 0.019540107232456482 0.2052706578431953 0.012225880322148882
1.420303362247385 0.009660546497882182 0.21666630983688404 0.009719589985993805
1.4840815607847535 0.02115657020868984 0.25751545210359245 0.011559165870471393
1.312862965207603 0.019452895667289992 0.2134030023038204 0.00928075334813744
1.4193504263306116 0.013506706836205782 0.23246607591047483 0.009538301475779266
1.4658124226023568 0.015186565080308159 0.2734453445987363 0.01137212199838028
1.4428436581971402 0.018392580266844434 0.24716837075374867 0.007894419821320693
1.266520004011853 0.02117245501075983 0.2146995662417724 0.013920442453553707
1.3922231732525794 0.02095436077145597 0.2779968255754865 0.010744736835394396
1.519032045781271 0.01963122631118405 0.2585921174515814 0.015214466569186826
1.2483323999678506 0.021552844326676274 0.209542786653725 0.010045111463292386
1.426230871986904 0.020192810056767097 0.27083918645087157 0.004670966718059879
1.455314692421443 0.022280710687313434 0.28462284442282665 0.00917458590065244
1.4695166721479367 0.012462871650234457 0.28400324520713044 0.008138233284129479
1.392131430586776 0.019767503502148936 0.2666521411878362 0.005250797626680114
1.4344088734669143 0.016224479870492806 0.26003882702049996 0.007756117548280088
1.492219576363778 0.017698247167731253 0.2549923909613218 0.020208914881774665
1.5387524050530095 0.009720187540304445 0.2247863342978397 0.019994233146157094
1.48291087851549 0.01639620250127304 0.2275634871991765 0.014008658059346032
1.2700813627933436 0.017540460849156114 0.23156148632708357 0.010532146527249093
1.424960399796592 0.01882623880303771 0.26349620131432017 0.004054965801816432
1.3720588356701084 0.018239638737680353 0.215665253945584 0.004769782856596542
1.4202752169888393 0.017847921606239915 0.33454406699171896 0.009308160523266454
1.5264999511793558 0.017501756240512038 0.32238248902752176 0.008751623257943686
1.3978607038749802 0.016749018024498307 0.3204661988825531 0.00990314685035183
1.4041378195701717 0.01576015712761332 0.3320785484917464 0.013248092450533348
1.4383826162293054 0.018843104718962906 0.3318059167786886 0.017754895226382034
1.5100305263022906 0.010218048859772151 0.33614481604688656 0.008616486987323875
1.5008894428270199 0.014591530397991133 0.3213516884328002 0.010576121135230113
1.6272459720197796 0.025436874634109832 0.576263309873512 0.016120868688522676
1.6117652183188558 0.030672890076490877 0.5841386911515701 0.027591149031258012
1.625211001789247 0.04489200559212809 0.5979667413254286 0.029113074579940876
1.6312468494871017 0.06565900215160664 0.6169166757645456 0.003529349718405371
1.6244989560344005 0.10209997009225391 0.619360733489916 0.0002169772967956574
1.6193123431384966 0.2584815811601847 0.6240182087517178 
1.62408060848419 0.016899533198864048 0.5123279103398293 0.010428069605103212
1.6309327831673306 0.01663692478328044 0.5075662160161438 0.004885814511567423
1.6190348767111364 0.02640841367861955 0.483074599311735 0.016440009912937027
1.615958131398446 0.41019185325663343 0.6215617249082648 -5.738272151182064e-14
1.6323459664802997 0.7032973626974854 0.5375331964734937 0.005200485875103448
1.614804300635633 0.573213035329157 0.6256771408141486 
1.625257971513299 0.6236407215215756 0.6303940910320479 
1.6222416218454159 0.7092413585986765 0.62319176103909 0.11084189818752001
1.6233232172598846 0.022081380176904968 0.4459521220616492 0.013908028050710753
1.632940585648551 0.6631096658177607 0.4489933406723561 0.018332980025000375
1.6247136005959903 0.026457499288298516 0.4357158861394441 0.026587991898559205
1.6225619992473048 0.6804479162500513 0.45197561739638226 0.05002465607659316
1.6251896283793472 0.028588301908199304 0.4102889232643839 0.026584156720923912
1.6259008558992458 0.024363839776749947 0.3743477774521815 0.0212323646763093
1.6211003587138322 0.6646445289214948 0.38410734504784705 0.005770028620979929
1.6184144004681758 0.6617809536603523 0.37954947018749996 0.0030896189593974392
1.6059210958648826 0.014827707244394034 0.33815608803341185 0.01534348452753306
1.6226887063058502 0.020667503627302533 0.35507014478305804 0.01143875537947575
1.6233423254732564 0.023328169922407854 0.32570300602162383 0.037874266856071696
1.6289953249239035 0.03075026258150349 0.31885490577308145 0.020815406945481434
1.6101919597570833 0.018400681133652518 0.29875607824329325 0.029178434516869325
1.6285694852445345 0.025713270167421875 0.2236506669266771 0.009216625291345018
1.6235138423175082 0.023629264002425265 0.22097909855884035 0.005832460526536693
1.6293711617574462 0.03151096978161714 0.20647206369605123 0.005564207232976624
1.6224922355141744 0.03171729211629831 0.16173439737744918 
1.621068038911033 0.6306506852864985 0.2499142737419855 0.0016038376683191532
1.6175219433183317 0.625791760364771 0.23596467656504458 0.009921959503248097
1.616472337345776 0.5986243982245747 0.6276988022924592 
1.6324042632689055 0.5131248553236993 0.6169628519941908 
1.6002200351834988 0.4083845404756648 0.6183668661992101 1.7494937396311756e-05
1.6064192341226258 0.32449604245073543 0.6197185462296467 
1.5505521979670343 0.3477787729860973 0.6188335868209107 0.04721477351905747
1.5778865198548682 0.3962482054575688 0.6204624243953152 4.962101213690087e-05
1.5819883343934469 0.36079278091462075 0.6176671509311553 0.00012517792762708406
1.5905543360609602 0.49688372756494337 0.6274344279922124 2.799286270553861e-14
1.5695774804984481 0.5084468819102984 0.6293653951944802 3.650226676940712e-13
1.5626752068205103 0.4717829886642532 0.6212699157374301 2.887006723629481e-14
1.5731626693505831 0.30210131208477753 0.6209401541698814 
1.5791818061062048 0.24918822402507748 0.627059326723457 
1.5766424241969226 0.2113772708969223 0.6238962523101877 -3.211340948835979e-14
1.590852281186223 0.19339392590276064 0.6261440293258352 -1.1784531444780983e-13
1.5627484473194546 0.15065255319871884 0.6264213034748785 0.030782797769132078
1.5801999624026226 0.10515823897086872 0.6219208336845408 0.016393475774957297
1.5812582116807756 0.07801808269121423 0.6247517456214619 0.0013765975431671875
1.586506544780313 0.04978017968765566 0.616741127977674 0.042956770149093056
1.5958795532800127 0.029663689035032827 0.6056868708918752 0.02211689066321627
1.566819119809536 0.011282354851571584 0.5848299516864657 0.020378138061469066
1.5844317734998112 0.018056189268416848 0.5802150288519479 0.025653397798960077
1.5895648087070244 0.01939795443866141 0.5768680052936509 0.018290857056300874
1.5871948063044878 0.01007034957249616 0.5514162544390219 0.009611911355795548
1.601230873472428 0.018445556432740574 0.5508642322289704 0.013002395064751962
1.6006883348129708 0.011423935072495601 0.5290246893865285 0.008300108216161001
1.5837520259558855 0.01094082465909617 0.5176591830590987 0.011007390578254079
1.5685916859658464 0.016342052369088873 0.5134653747321893 0.008299057448369701
1.569109874450873 0.015182800065992662 0.5478731364890331 0.013082909304576722
1.5745680673446691 0.02048125415142604 0.560911075995293 0.016378139164597405
1.5646339647924123 0.018926923672923226 0.5160769605722453 0.014593963890488303
1.558831927792061 0.017301841777966166 0.3105384176308181 0.010442497364764419
1.5603126891538428 0.020226438836713292 0.39186548424159867 0.01266690088836439
1.5666723371947953 0.02231145330847699 0.4849753423230724 0.004940912396542032
1.5704336737783866 0.0210745410528249 0.4631131573997722 0.015660502815914877
1.5901061605252567 0.02256843356300338 0.27696233468807807 0.01862362767382527
1.5800058236098162 0.019885615218818455 0.39548636554524724 0.006403752141076995
1.5891067772477272 0.013467313467239929 0.3581808767631924 0.01313991803622185
1.5858363899975565 0.023316556006661753 0.3215240896977333 0.010555344142336033
1.5825150281341636 0.013032937850452925 0.49180301908435636 0.013287413380104788
1.5682696512194176 0.009587055461878593 0.24899221777020247 0.01705921156385846
1.574556912133716 0.019107973045360375 0.29144181389140256 0.02036447183370547
1.577091154407423 0.016353790214213248 0.25364945451034016 0.017635447782052397
1.5729999212628853 0.010202342376308663 0.3700796106548428 0.011488336654739877
1.5641868222711584 0.016354037661742475 0.3077632096756709 0.01775089973314587
1.5737473622994171 0.010564437627859661 0.2736003423676276 0.017868355643453817
1.5701556578120048 0.010298260551808 0.44515082365210856 0.01004069407327271
1.5842482355179097 0.02139157632667763 0.4559903326354139 0.014154107534648736
1.5697009727766496 0.01795235124076913 0.40362265113009455 0.00909220304103805
1.576054277943169 0.020943499357820233 0.48467324612133506 0.011926270063049277
1.5602436812977203 0.023186537932957565 0.26376276855162517 0.017695243245482696
1.5737059323666467 0.015333932973283677 0.3150713791332373 0.016738194173429546
1.5720565424741864 0.01766686438215323 0.41897749647878507 0.01440520606648871
1.5609756302528102 0.017194394331342996 0.24693894275233297 0.022040621294445395
1.5666659620797556 0.016446389163280842 0.21971489412041537 0.010250521977749978
1.57365513445509 0.018253104894100418 0.2066745108411805 0.005792083194904741
1.5776785121151893 0.017664526302590272 0.2264678539832378 0.0071982372091047905
1.5754193674358472 0.018434742865311382 0.18357978748951465 0.01317263406947755
1.5686003252362946 0.015113051756908469 0.1810766614440153 0.007983719408786893
1.569469284642381 0.026211291980161415 0.16247415679941535 0.014009961769830681
1.5655919248192576 0.6156067405395512 0.1714845025985462 5.4847839905554395e-06
1.5751868274502285 0.61201671991837 0.17635807130236797 0.00496386897473776
1.5985058381466934 0.6213626027596056 0.18161776070544994 0.00569603984792313
1.6057621360821424 0.6182448483843926 0.19770985053706885 0.013388468088076274
1.598648001361408 0.6239520441460282 0.21266865202550483 0.009570341186364191
1.5864178828827156 0.6359907455177023 0.24216433700431275 0.0057141456992590755
1.5786094895230518 0.6294649065030993 0.22645328426487463 0.004838487207211593
1.5631382349545349 0.657086356065984 0.3494839705308097 0.007367853068396309
1.5599805174418202 0.6771520817317884 0.4026818445064209 0.011689699113546392
1.5693842038312993 0.6409777138328693 0.2633012188305272 0.009850333405769162
1.5664279126831442 0.648434783466882 0.3061880129861278 0.0025023180818434616
1.5900730384373796 0.675454313708624 0.4401290524703948 0.007979592800181793
1.5812927204855025 0.6712629051849824 0.3751822828523947 0.010383948683497835
1.5852264617648908 0.66507201584844 0.4082264707119564 0.011151879526065372
1.5792590393959784 0.654760777888765 0.34515959136587315 0.008255449270263764
1.579366854504679 0.6431743691392585 0.2830170403457325 0.0018548788452325232
1.574886618798301 0.6478388618632235 0.3065805553495584 0.008896026208121325
1.5718308618465464 0.7055267190586048 0.5127216810009424 0.007212567697072982
1.5685216292435782 0.7010569192160222 0.5248627631891313 0.008638751821480842
1.5778084916175377 0.6655573675991223 0.36710516837532836 0.00933005970067682
1.5795646860825596 0.6965102366235199 0.48810062238461166 0.007383745452793712
1.577484431413578 0.6670346713132133 0.4120066960636014 0.013395142274403995
1.5609375227892472 0.6667956109969729 0.36870219562329887 0.005366123511158129
1.5655291319725457 0.6923595063522632 0.47229426906375127 0.00744414155326656
1.5848909768622472 0.7012740066797559 0.501806776065079 0.009579117580390735
1.5712756390938887 0.6695516119738101 0.3923714845997219 0.016783341190128604
1.56111190000554 0.7123036219361302 0.5751106040906697 0.0033645388307260286
1.5684816238222867 0.7112996335351116 0.5614357467038424 0.009089180726146178
1.5832014651122743 0.710149586927355 0.5328135534034282 0.008741535324690679
1.5603339293593357 0.7235537332952057 0.5995349819315166 0.014000089031592857
1.576317892435482 0.7204798462541532 0.5891512488582185 0.013942775010632806
1.5851185669719743 0.716269022565495 0.5813868145790536 0.010203353121666408
1.5680589627524175 0.7210923167551108 0.6142381439997414 0.015443786712892009
1.569971185414728 0.7153933625027921 0.6235193994258411 0.022717462149177525
1.5563134022728704 0.013865806936032208 0.5477510143958007 0.009673166068813457
1.558949837344066 0.015676141294875514 0.5300658593653548 0.022512156270208483
1.5475044564500735 0.014439543588315087 0.5634122024989987 0.04524114975119976
1.5489084118391043 0.6403804463289021 0.2365535093156409 0.003432650082054431
1.5491160029490667 0.6194369957634204 0.18353799149904718 0.0029792463914399578
1.5532095573136788 0.6174868787225152 0.18168382717906104 0.004987318285592257
1.6155993089002074 0.30703524081799255 0.6180879105395474 
1.6124603454914805 0.360749506133081 0.6176195414424343 
1.6163340722070407 0.17926593299523194 0.6279603648810673 
1.6061782289353006 0.08631813087777146 0.6188933034394748 0.0024967629466141686
1.5983435453071304 0.054809352748127586 0.617811532953333 0.04039905603302088
1.6312079716074566 0.11739218243124312 0.6148647022142553 
1.6095415187263136 0.044509914472739186 0.6077176289514573 0.03798057017020222
1.601350975652121 0.02843476543805735 0.6060350213759078 0.01614808656524221
1.601877493919628 0.03022749954862462 0.5875898921517043 0.04166628186605502
1.61179647057674 0.024256332822961996 0.4871739693958736 0.022750276993047686
1.6119394221317145 0.02303137588502765 0.4922865383860615 0.020637514347728248
1.617157097440352 0.02529244245279272 0.4745955556517654 0.015478741126820695
1.6169634481360975 0.0204711160592177 0.3331790726477376 0.028293477075597682
1.598952113296213 0.013462134041942849 0.26937921941190696 0.016489009311171615
1.6183646624648695 0.01911187503636353 0.4574879619755506 0.012915700838044553
1.599824313550086 0.020308066082563764 0.5748318834717429 0.017854456482882593
1.61017316053701 0.01795385087411671 0.5670384940549092 0.013422975154283015
1.5956679575577455 0.5024432167831948 0.6280513194971142 1.9269399885649406e-14
1.593966800700878 0.4352779055261967 0.621861988787809 3.811852762677624e-14
1.6150332443410496 0.44932203287696937 0.6280656582077739 
1.5824701026520998 0.7113169511170809 0.6297313491244556 0.04923374400949368
1.6109150521650657 0.16664665289353292 0.6243269021303824 
1.5908861713000475 0.11628655268242732 0.621183247614979 0.0024452767008665147
1.6279823883987163 0.018306197788997076 0.5346438133864881 0.005393464041574561
1.6018660840960617 0.01683636339352051 0.5424477477742622 0.009341062208074472
1.6054931681164055 0.018899403310346306 0.545569058275475 0.007969955368588452
1.6092183481584104 0.017667382142935374 0.4519864616919596 0.013441796940734302
1.6015478004630705 0.01657996474350018 0.4731468625996622 0.012674161012161698
1.6025393805405916 0.023968162334036498 0.4179760124530833 0.017841062613855502
1.613015777927935 0.012958190643288918 0.40175648838668354 0.019797176450430578
1.6119026211688006 0.018111814983143112 0.4378108999665933 0.020113807842734425
1.595801043732779 0.023783258734535948 0.318881670017739 0.016984316975489078
1.6064025380684364 0.018645055460300524 0.39983961458846096 0.020528095299980644
1.603128296499155 0.02282300868305398 0.42283260913095877 0.01724466225914267
1.6023291987717843 0.01823413413887135 0.34969007421070836 0.01592649324373876
1.607949547468681 0.012380129289472463 0.37506811721061223 0.013282591382727091
1.6118934641319749 0.014427187626758337 0.3170484455406302 0.027683604940810163
1.6245451456011972 0.015864071135485755 0.2854537616906183 0.03337918583236511
1.60715569463439 0.0174193869356803 0.251086998991929 0.010974827683607703
1.6082249376181628 0.018860372095418527 0.24417338266808006 0.011108600837242875
1.5833940145019987 0.019463656336212876 0.3414363205881745 0.012678203531922026
1.5868480475549451 0.014098054642418669 0.3681867604312803 0.012158587936966486
1.593329713347533 0.024752522842821506 0.4245254141679329 0.016001847062006205
1.5867250439678653 0.012904111057363717 0.38525352606421176 0.01132013852346041
1.5928899621370485 0.023579271035663138 0.30146866587657484 0.013997555600407168
1.5895500093090782 0.019871341332297177 0.4396819414940874 0.013829557756755132
1.6058376628422824 0.01823669116823791 0.4687805127032604 0.0148031668804017
1.5903115850377212 0.016190518827136673 0.2282696783921017 0.009231723289953397
1.595831024026813 0.019225608605616482 0.19827147044766194 0.01432793916204566
1.5913623373677024 0.012521958096741427 0.1924632654005436 0.006873494331149702
1.6103199694967112 0.018472879778074616 0.21556599923595957 0.015046242871370432
1.6166541369993415 0.016642944828923208 0.1762763054103119 0.004806562471765389
1.6140780303464954 0.7062137373431946 0.6391186934194352 0.08392442788654134
1.6219141195579978 0.6253279973411602 0.20472267981655154 0.004281444720094076
1.621205790417324 0.6093059851450229 0.1697657894824284 -3.550218426680578e-14
1.6102124463899228 0.6443280787235871 0.2782849256975186 0.0032563317037564237
1.6245600252363235 0.651495342875167 0.3277808050949806 0.006265092334239445
1.6056371820157718 0.6817868914265768 0.44342784574381955 0.05001621631260533
1.6259455231510824 0.6745657092441861 0.4191740691439371 0.019094536251062482
1.6040899164789935 0.02184931699966975 0.16807088983246582 0.020411792148114057
1.6052975400846732 0.7063062524738886 0.538166448959521 0.010203233045134869
1.6120329406291611 0.7065769989927335 0.5365699031641585 0.003737801879467793
1.6080364110463057 0.7147079998944457 0.5777131869556597 0.01816869948304033
1.6065019260113624 0.7063708334858272 0.5562404981055543 0.003733874806195127
1.6214910726642173 0.7093208527147493 0.5671216943624137 0.010740151870521382
1.5975739664057391 0.7203012321626964 0.6282139537424144 0.0502577022493681
1.6167720184090109 0.7258577830167298 0.6279094173939377 0.04794882681979366
1.6200845555587151 0.7159955215468367 0.609233927019621 0.0752436395069474
1.6018856093034266 0.6994299822402174 0.516159935268573 0.009460875215317813
1.5995069577919705 0.6701579686969497 0.40277357668936226 0.012013221564110655
1.5908093033907398 0.6528123854759136 0.3244172078175782 0.009122030042543536
1.5955610686230886 0.6577593800569033 0.34267627545189366 0.01270634510158675
1.588504748544216 0.6858221361778561 0.45478449603210663 0.008515883704493707
1.613876106023608 0.6969548850848588 0.49849754786272304 0.004434813913526935
1.593190407850938 0.7147626468091939 0.5623761097078087 0.006024238042971232
1.612797365985492 0.7246695418318196 0.6025421028744005 0.018407703961129618
1.5972600617041752 0.7137698141591418 0.5980133558421027 0.024141633288515697
1.5950242132005203 0.7203454439683468 0.6170951812542903 0.037354730084719234
1.5836015102814573 0.7176086060695517 0.6159190957261631 0.03299691974316308
1.6057195656195842 0.6720423538094618 0.42808352040847963 0.03396766102783876
1.6125482654702943 0.673964834403579 0.4303662533621026 0.034978517341997736
1.6007671944449735 0.650391231458757 0.303826833497298 0.007828311159073224
1.606648273133701 0.6618812162108256 0.3564768430779157 0.011476698492061923
1.5916861202918864 0.7031574530615294 0.5083417527241946 0.012445457189286668
1.5934495733901122 0.6945292324312206 0.46714658471994075 0.0040335211266197485
1.6093957232427538 0.6600651094242482 0.32153981727299974 0.004649925263804341
1.605302391124198 0.657218898330558 0.33971377997139923 0.01483654119645244
1.6026286929447136 0.666598223818227 0.395618654574665 0.009809141928840578
1.601631200616229 0.6348277833803694 0.2457742586609806 0.0023220870111976054
1.6028811299471943 0.6249124384723095 0.2201831435263443 0.007920389685753659
1.627476768367866 0.6229565190642368 0.22338197163943135 0.012023161206345192
1.5231451423376594 0.44452788895969914 0.6016276760429496 
1.5210844541544228 0.4022818189906099 0.6036261176203273 0.0018662753052806052
1.5336136820577577 0.40166493831065475 0.6125418082137483 0.010559844575744423
1.5189807082412985 0.38861850410635773 0.6018915836799383 0.01209862222803841
1.5168948143075143 0.25226889392605056 0.5419032187844578 
1.5196062293169807 0.3523206963115689 0.5616468980129099 0.0013366112714214076
1.5244296836633349 0.3131362338134771 0.5605429601826357 0.02110586747220426
1.5238943865634282 0.31393142876085395 0.5762655840019599 0.016182375758513067
1.5261472472987785 0.33301565337035066 0.5975008568506225 0.06326684451438308
1.5243116206627034 0.3239945403072876 0.5655483203723064 0.012557127796369182
1.5242252078526004 0.35454807891324397 0.577126000269712 0.00848911201692138
1.5167593536447157 0.32204205960893934 0.5385863865399337 0.016021657712882442
1.5287547796071428 0.35157571134126414 0.5983006620614465 0.0636874022744215
1.5282932165073464 0.3285238089389894 0.5748670435149078 0.004051453428101985
1.5313316138548296 0.2979409602432123 0.5447814381269311 0.003900941591204532
1.5189409313316984 0.33665561399192856 0.5542757766232271 0.006426120626794221
1.5222657663567676 0.2750299030555405 0.5288342357439894 
1.518719201462827 0.21396683733895536 0.5204725397010287 
1.5355317901634824 0.6322500309430613 0.251311530308431 0.006404723414327057
1.535493561386334 0.01865277275928883 0.270946679283582 0.02078882611470309
1.5352991527871676 0.019869910948532736 0.2295758670850999 0.0262364209645283
1.5260998960827994 0.3336191404627909 0.6130971693291246 0.07205899232572865
1.5276739645846604 0.325661850901613 0.6044121829919866 0.06396639853320106
1.5247998406126066 0.27661352507614667 0.5727790901235709 0.007084698376821253
1.5227919870498714 0.2036355599661998 0.5346672767522591 0.0045153606637925656
1.5260826029491612 0.2578945001138842 0.5810747679955283 0.016886170224870687
1.5304702413195528 0.28091898306968943 0.6038839437738712 0.05874974707384528
1.5266842466369315 0.22013040438259387 0.5687091793569751 0.0028614376132738806
1.5232009240334485 0.2347677936306811 0.5597323119405969 0.0066731842472260855
1.5259242426570165 0.29833967864430483 0.6105715232340742 0.02345316898334134
1.528219150218313 0.26877066551363715 0.5974869153633453 0.051575695514031204
1.5210729182670182 0.14925911412219883 0.5181268629032592 8.502544832858095e-13
1.5277746058224582 0.2622002210818397 0.5862038072957231 0.0376998214993335
1.5239827312904817 0.24270086112397668 0.6014246667403279 0.028316869819577282
1.516609923597988 0.18428387979240668 0.5603793193598466 0.005165616045137899
1.5249330765944822 0.24490098532900556 0.6093463334481377 0.020913568331309553
1.528260985916174 0.13379121686403436 0.5429332230584983 0.0045927787449853595
1.521805501678603 0.2034423390239196 0.5756556098035608 0.018684795592957024
1.5232616009666844 0.14577772340137046 0.5339701174472504 0.0030429193306395793
1.529132599587591 0.16415228053036948 0.5615977460893661 0.016254913433810088
1.5242805095169618 0.2001929096489586 0.5901830522897895 0.011432796424513779
1.538580217568363 0.23609503967420759 0.6165626938205865 0.01524398348280639
1.5294943078600103 0.1562018623563245 0.5519819442968394 0.015873226988006077
1.5309725482717595 0.17555545458574165 0.591082701026859 0.009554927154977402
1.5323224267427085 0.14840752954478706 0.5630843003855764 0.014209806559278483
1.5221836456694138 0.2124757528645699 0.5970309438618653 0.032069907792660605
1.5267540255355407 0.11118543007605604 0.5515108415515584 0.005047993658747364
1.5207359536447205 0.06169609846353469 0.5185688083742986 0.006544247172394611
1.527251563058719 0.16187035428429944 0.5814756594048481 0.015887035106102558
1.5281174734581997 0.03444236301837446 0.5145251919339232 0.06441171783279359
1.5265171076223711 0.09094021132764894 0.5451269879350406 0.001040921940549743
1.5320163294754559 0.16152597208977412 0.600667142313943 0.007217435606687407
1.5298801956623165 0.18690484640745453 0.6049532138496908 0.02411235384812843
1.5303785881441223 0.13771905097477743 0.5773776400656422 0.0033640479000538693
1.5283351929418127 0.10761310814077682 0.5649063365673725 0.00180217604707257
1.5259497949665672 0.1259675149800585 0.5699844638479109 0.0028472209694569615
1.5331363977572632 0.02705000977092983 0.516873765411632 0.07313118339525
1.528731764501921 0.17160785961265382 0.6105193590933568 0.006246519666833339
1.5317004108188939 0.15755268262897068 0.606533460588184 0.09020372146858453
1.527347932796899 0.10471870001053231 0.5755987386413739 0.0027857729017240944
1.5257862910575648 0.1280165019424594 0.594458403622244 0.004316479700791225
1.5200792351054806 0.052467254719351444 0.5449505580534758 0.00795219540140235
1.533212654058805 0.15446511023940002 0.6218303761083385 0.07063690051941111
1.527072163257409 0.0807139006399983 0.566874041880422 0.0008002481116503687
1.5260002144363924 0.04271296556540776 0.5334316525310877 0.004888992419692108
1.5258200626268008 0.12641379233348377 0.6026588107124221 0.014229648652713004
1.5277952489762507 0.10957397212291693 0.6033846967550598 0.020086633529912145
1.5228794681851505 0.04321178057802111 0.5647926117054257 0.04550603301622622
1.5244649237310548 0.06878831352584554 0.5951959756185805 0.005691763229208484
1.5229307637811338 0.030386461630250276 0.5693401174358583 0.04078091657336659
1.5295838222750515 0.01773630134786551 0.5575694087905467 0.03629328495809645
1.5272247108475316 0.09208337846666323 0.5973477134212238 0.02651065003661097
1.529205451179595 0.024353409644148907 0.5626871971505905 0.05149745932433656
1.5226110295106599 0.05016672675692525 0.5866939587098252 0.0431358955251682
1.5291368620034747 0.08290612808633266 0.6157653255107769 0.030705300894974703
1.5295587823639714 0.10632831584515848 0.6076249691769301 0.07591165324338593
1.5276391569244556 0.024671887879870236 0.5774227129617376 0.048609718689898274
1.5240372123464 0.026556209922083 0.5893973679876485 0.031803903750735316
1.5288271131627211 0.03518021213236562 0.6037299989528037 0.044792918156035984
1.527827001030074 0.08218133010895473 0.6113900191161137 0.037633935902072875
1.5233060785819965 0.07181575676752837 0.6165261395821198 0.027687442516149526
1.528956262582243 0.04874360969883255 0.6114545514326597 0.052707921356338505
1.5379394197381586 0.3820616258322535 0.6170249262568519 0.01604122485663136
1.5491625366676123 0.29022838107975774 0.6153057396870275 0.03355023946202122
1.5566208326892783 0.3415478721211438 0.6172979848614844 0.05857218132310433
1.5316974531360565 0.19765137325421164 0.6238298514447381 0.030990222127728406
1.5473728916843363 0.21568648111965597 0.6232408223674067 0.052644021759196205
1.530553922429284 0.21597388484768923 0.6177576347147284 0.025403651465754618
1.5614642844074147 0.10294701040446472 0.6260262295374054 0.00927660135819788
1.5545277497422612 0.042238282153730176 0.6219670952155196 0.026721662100354905
1.5422891511362176 0.09775293402712999 0.617955289125654 0.04965775551654685
1.5578138275619444 0.08679869783942601 0.6264813710387341 0.013794932982314578
1.5393481643305347 0.031092641517308502 0.6097777960560269 0.047436768381885853
1.5393496075846913 0.014462601458695828 0.5863857212355085 0.06521268729046617
1.5474237922569223 0.020823687596612066 0.5888995452002961 0.06711742636047308
1.5595729902957065 0.03618633460281655 0.6057464309110444 0.01648582744774845
1.5559086447338089 0.013776706448481597 0.4290563686675987 0.010691420720275954
1.5479410173196428 0.013014358404100972 0.3800399230615392 0.017974601589326674
1.552138948768849 0.01928718978944466 0.48738145068991323 0.024554146593262088
1.5694967531607502 0.01740054587251323 0.4002497410520749 0.011022031874574323
1.5685709375992656 0.016040926866379063 0.3273912464388098 0.013927346671285973
1.5577632655218971 0.02205782810132335 0.41113959188139587 0.014617817074001354
1.5584388808881646 0.019518360097988997 0.3543615953388244 0.009245556495287984
1.5562530116343016 0.020052203990251025 0.45933689615932727 0.009259362095770118
1.5360043056791595 0.0184951986269661 0.518243630865553 0.05154388912342173
1.5415147482391314 0.018616653790595135 0.5152945164117553 0.05349389391288716
1.55264088329673 0.025667264862422615 0.17304038737069088 0.014402500227028357
1.5475096474248653 0.027082286331827514 0.17117424313568277 0.012924644723964457
1.5641560633997758 0.019221917064900042 0.20116107708419684 0.010735184448045474
1.547293976702962 0.01322308876219677 0.22911118826611462 0.020772315980527516
1.5541807785177697 0.01897156606096104 0.3327424470661469 0.009218137318319967
1.5406325048558007 0.016123750011624416 0.39891636473613085 0.011675065386984628
1.5437356142936047 0.013699174041719189 0.38450173095865997 0.017129254038726935
1.548308949711281 0.02125173183631655 0.46832431664715013 0.010322581188942312
1.5457087935937999 0.012224435472380096 0.31322091082612596 0.011104873653590645
1.5433821295196901 0.01770249038192389 0.34114701464154873 0.009504158888588505
1.5372753645698534 0.015059002453173747 0.4245982529312691 0.01694634829310319
1.5375571290026138 0.011992915869527936 0.45636014239025724 0.015238350772187173
1.547012245714747 0.05296907982174957 0.6289832123941608 0.026001594474365702
1.5297514203750937 0.4559019670440345 0.620467821286873 
1.5364241314338247 0.3625072240964534 0.6155700928055262 0.01671363397417666
1.5352707171503968 0.2704645667810205 0.6114525894941567 0.05475446170820251
1.547524325967848 0.2669345922699971 0.6201069575364424 0.05640697802323725
1.5359067679357221 0.31946541170358894 0.6138907668107713 0.07334473126737812
1.5478616369083347 0.39768838848985405 0.6210686046954005 0.01310731902755926
1.561121841915429 0.4021495042742874 0.6199537346860697 0.007315414240139343
1.528399848045575 0.14880663861867316 0.6198298715173362 0.07752586224579662
1.5325475048559645 0.13562931951384888 0.6196764676732105 0.03980580218839196
1.5380675241283932 0.25050273561396813 0.6160972949734377 0.033874689634402065
1.534837359485849 0.019291153988203816 0.48745938468709143 0.03349473544526294
1.536047941572972 0.01926501579490795 0.4709957411592584 0.016043257020461988
1.5265139608471396 0.018721178825916437 0.49248959708752305 0.04734835572579158
1.5518675952335057 0.023746616074509518 0.2875137089589722 0.013655206911961652
1.5420001870674758 0.020033651400220655 0.3257283029260626 0.01126022677962091
1.5491780140156 0.021279883537764062 0.2583038308311233 0.01855443978577262
1.541458115041398 0.019855096037318748 0.2802686051723776 0.015308852779759222
1.5376494419778945 0.017280853801476946 0.2004244806363159 0.01121969114868316
1.5488915599236435 0.013485855437919013 0.23619421886526393 0.015948791439164178
1.5614448100773766 0.7126919770521745 0.5667231494139175 0.005069438391999548
1.5533028961513793 0.7129230223820411 0.552192980881152 0.009043555461477452
1.5519557493111755 0.722355198725731 0.6008044510582189 0.013771395618094767
1.5585990492125479 0.6559908021397822 0.3239088151486294 0.0035427009704562668
1.5525667689523237 0.6379274115055784 0.2540113062760273 0.010683951917048361
1.5612087342738459 0.6891489925041842 0.4479918912641241 0.018983614196842333
1.5591973328886988 0.6937493470493338 0.4995436571100988 0.003921226082081162
1.551953445163908 0.6365430546659558 0.2615484723505649 0.009873398354517915
1.5568932704092984 0.6380839618918751 0.2718376096513314 0.010519531115915545
1.5484158906837753 0.655428279037481 0.34868355855626565 0.006475797661808205
1.5465287110577113 0.657427523740971 0.3318852068875776 0.0026793903682088564
1.541652403271948 0.6267598705008299 0.21145529597781806 0.005950748916275864
1.550155013596855 0.6948148875734522 0.49724540849249227 0.006252808269257808
1.5465083159904927 0.6917407910682508 0.46953890717196534 0.009318808116828564
1.5410436561605494 0.6511477861794963 0.312683514905417 0.006118539067428973
1.5340319343005158 0.6596888361323006 0.3599674236728754 0.008358525421008862
1.5452081075856068 0.6737044186200858 0.3886524530711441 0.0031770792870135095
1.535471972448917 0.6521817653066151 0.32782509546855415 0.00486507878523661
1.54869174461895 0.6934189768254609 0.48728508205786886 0.00624008349820986
1.5630588745432512 0.7001066337117047 0.5242375416558882 0.0074101552646972995
1.5369013569250327 0.7176218981641275 0.5689600836560547 0.007195850812347864
1.5426066875946762 0.6829706603453488 0.45980544465982753 0.010652962569409882
1.5278952572183309 0.6841928977748131 0.42726784402622686 0.015270866258225603
1.5479934624126006 0.6948367153560212 0.5051544208846799 0.009268578177251588
1.5349913151023817 0.6973632184303318 0.5204562871273949 0.00837815624945149
1.5528860210351512 0.7051805868506578 0.5386526027922247 0.011599899139973054
1.5318453343429699 0.7245740638046487 0.6146760093166146 0.00946175802471081
1.5296443813316205 0.6785633325262588 0.44817193965425856 0.010040152700367082
0.020857706797693363 0.05476952451384998 0.12085949487311995 0.0834419477760202
0.03079593151592559 0.06350678388268526 0.0421453361899512 0.07535658546988747
0.04517523408437183 0.061984106765059326 0.09570691880375486 0.12038867889853434
0.0324811099074811 0.059303728561880736 0.09942734919796724 0.09115313213855102
0.02695926580401452 0.06318791797589401 0.07289325322418327 0.05319921587892978
0.04578215864761244 0.056987372186282303 0.11730019585539841 0.03959514300295929
0.0425760278515765 0.05874668217828572 0.024227760849716604 0.06570557186710567
0.06144020926323069 0.06413361492461765 0.06358213689578184 0.017674872605058622
0.04010182287963184 0.06393100412146074 0.007527191961034303 0.048889033027858846
0.0609995059958184 0.0656390586397281 0.0484414017639659 0.05003829591159071
0.013280281001274458 0.06900203770679951 0.010982565965345387 0.04571126659901823
0.05742436340007991 0.0685116390424944 0.01870415013787037 0.07272787194679106
0.03392125072560901 0.06481846604301798 0.010860802188868736 0.08207936963152061
0.04290481246411486 0.059286420988933886 0.04210620115635577 0.03352303932575283
0.052635527768942446 0.05905917077753703 0.08089891178362625 0.04508143960378284
0.02212836039771459 0.10644780620675415 0.029993660851451623 0.021320992028252255
0.016152991952935066 0.09805751872864986 0.11720285226252283 0.012701571509425025
