x y z curv
0.2200218044951539 0.7143953907595249 0.5186372097158692 0.019447926133385557
0.8321072929525687 0.7378151778093174 0.7298258552441064 0.05217631822595675
0.2333095040640809 0.7359606129978633 0.7031279740740737 0.020050744192316443
0.30475186696649503 0.7307952654149307 0.5973338566495995 0.010426943405346868
0.09737525061293167 0.7329485775553647 0.6377142871506319 0.006886595382740739
0.03087682751689635 0.7411933352863813 0.6643506151281336 0.034032601336302426
0.701027861012922 0.7323225088163228 0.7126906743793716 0.030713517872348106
0.5420233333165788 0.7368315694209137 0.6717491795433719 0.006975277588854429
0.20823859217487659 0.7261930504770553 0.5809358655123561 0.013811481314922174
0.10377500331815517 0.716518024915994 0.4796187331760059 0.01375554449386303
0.4147823576126925 0.7356658618750304 0.5802848665290822 0.013410187614747583
0.21740689298619295 0.7245425235803727 0.5784353420831856 0.011786634163158751
1.2064780575470442 0.7002209220158158 0.2230739026025359 0.009651365506148629
1.4718072158579232 0.6982325648168228 0.2434497473126624 0.01684220986455911
1.1700632008406915 0.7047306395251346 0.2219124612468619 0.014502784731264087
1.3068642209008454 0.7003396239525828 0.18445645827569035 0.027230442835819272
1.2115439180804488 0.7005942155172143 0.2523398933474935 0.018068752158708578
1.3210655613063713 0.6910449628204333 0.19365112019508246 0.026805694807694
1.655463988815249 0.6947117495958398 0.1950754151757164 0.025698871815082614
1.6474708097739068 0.6995274322490468 0.2705569798003178 0.00836054231718874
1.36903891194497 0.69891369015937 0.2025695749483029 0.022354968906393324
1.3074847556861346 0.7029854026458382 0.3077929927586037 0.011732979829236802
1.5707510741860726 0.7040785566937727 0.2664630138023673 0.004380400286880728
1.3864804248568627 0.6960086513290686 0.19220271934364289 0.011980529026177448
1.4928409044914577 0.6995411937163802 0.2617535824584555 0.017127764347720786
1.2452203446362764 0.6985390559159952 0.24989768383065808 0.013112597439644939
1.6325532718831612 0.7017169176657094 0.24548637026778133 0.008488600630390144
1.645829652438553 0.7115199270212296 0.31682604389849717 0.012525788225058322
1.527880092718882 0.6980548012868509 0.1895641352488084 0.024881120034654144
1.6201248750101362 0.717686589392484 0.400582540292912 0.015426758177202373
1.602246884885611 0.7097280934400226 0.3927962949516843 0.011984408556174806
1.5680613638668695 0.7121155071781935 0.3341565877725602 0.015542112072356985
1.2580575381615386 0.6923348835057497 0.23195873357127433 0.01490439490374963
1.5885995549891234 0.7042906279782736 0.28477289601417477 0.009506747965904803
1.1326590018627474 0.6990433797314517 0.26934677599688367 0.008109176267174804
1.5671843970268005 0.7117556058714561 0.38016603306378205 0.012647380075865777
1.004471035986846 0.6982277459818876 0.20944787222085412 0.012639607450254864
1.4832616979532003 0.7071016227293461 0.20383632309687263 0.01806126772454856
1.1998056887420183 0.698198552193223 0.20043109126432554 0.009879102022517393
1.6372567116292107 0.7026191155048671 0.2866917085188871 0.0014182730989428932
1.2968712997360023 0.6983054285803229 0.2006060216072772 0.01237735780334466
1.3326067350934132 0.7019291279749675 0.316932632542473 0.012345707387081567
1.6423900228998747 0.7015205780560942 0.21147159209738625 0.007072873925696639
1.236423344344648 0.7041858276937557 0.24044712147965727 0.007784286547989412
1.5979713973949508 0.7021747501913964 0.23939726461509725 0.007914508762723996
1.2698481465928597 0.698371895343251 0.20482099314566374 0.007017157870150466
1.6822382071629334 0.6926041402707219 0.2017122918149927 0.016423858412056125
1.4995874043025168 0.7105449046909519 0.3234245183807592 0.0062152039647764435
1.5315473884896607 0.7003610328610741 0.25039266475354366 0.01168881105418557
1.4060729850743918 0.6964496701325159 0.24292391689094284 0.007010977722452437
1.6596797691265088 0.7011410187975428 0.23969288101947248 0.008014122537379827
1.6701786277145911 0.7198790717796358 0.4065009443775365 0.01696007326699776
1.4532299253708854 0.6961994704643102 0.21814114939259058 0.017856865469771773
1.6024071729899403 0.7076866566107037 0.32044396113467266 0.010406421857676724
1.7000251946982095 0.708371400595318 0.37937380915739166 0.028411455111080407
1.4953479518448698 0.6990357260602351 0.23231537115140716 0.01883729046298702
1.4715242827297845 0.7124082257376848 0.3770225544476929 0.014982231653113626
1.5770531159344678 0.70503012848092 0.29040837478427706 0.007347799582787243
1.4588648217820124 0.6953791853380898 0.20129453241114376 0.018789246899796188
1.26453664149136 0.7032629771638629 0.27866788618205107 0.011240707532368648
1.2679318451988364 0.6944598580279365 0.24451309265072543 0.011732671506899852
1.2573717947244951 0.6946166487292089 0.25554732104747047 0.013068655432549798
1.3060777010584859 0.6927553675256422 0.22039680555766283 0.008116600789629651
1.4011543152393036 0.711067871545333 0.3044172773232092 0.017805503627178802
1.5731182849531684 0.7079099714012472 0.38369319733785734 0.01193156196589966
1.2882571018123152 0.7034836432809268 0.2588357978568809 0.006408017095130127
1.1096794910436167 0.6959495690284646 0.24918646898284585 0.00514782582193017
1.2596370426365666 0.7000577481856445 0.22111354621665338 0.0135736316888065
1.6834584409271636 0.7048693736773253 0.2410074524844738 0.012280635334386104
1.6913638480118602 0.7089852265248918 0.3171653160532988 0.005521192860936642
1.180931454719836 0.7033889241474923 0.20739457779257472 0.01043885967354976
1.5257581883657907 0.7188484495699289 0.36518238493404165 0.013990456836528307
1.3142027291232232 0.6985541403500988 0.2495113799010979 0.011306042792638422
1.0649087907458976 0.6949318878779662 0.19433733646963694 0.0125955434885089
0.9729747639576819 0.7056402613056221 0.20529665987821186 0.005030565338036687
1.4405462006215835 0.7069067014240822 0.3012027067866418 0.011356988887118226
1.2854754293021688 0.7028344733405003 0.313448701965316 0.013886810861710385
1.5510026452223484 0.6920186739695335 0.20281184346667355 0.017418224882905738
1.225719666849832 0.6939573118285315 0.2100359819103592 0.008837030520591102
1.3794477208190379 0.6979549817293537 0.27366188808144537 0.01911982513759576
1.6838500703938952 0.7050762916444125 0.37077405292533694 0.005307886703365743
1.2968964591845002 0.6988672239286952 0.2870578107866596 0.007353520381021017
1.6923347046370978 0.6973004040474009 0.28123671508425163 0.009700606124553288
1.2125940519104605 0.70288575462715 0.27330552611161185 0.005919517419081215
1.0060958444168195 0.6940611461849809 0.18982304038849487 0.04148237136207981
1.4630998653659342 0.6984074437959646 0.26186447501952637 0.02320832346231388
1.1366046085907304 0.699631026420352 0.23916166311528403 0.014798119200620881
1.5771954754198143 0.707211410279539 0.36577369285848405 0.010860491856535539
1.5484117014000773 0.7063972378951504 0.2803561194845029 0.007193483323816395
1.5047242639975544 0.702529393628017 0.2645512240158828 0.008023315534688364
1.5477564417839393 0.710475063251604 0.358295475029408 0.021258021422297654
1.36197409295775 0.6922842515924255 0.18929210998266935 0.012216467373749458
1.4899683992668968 0.7140219003606779 0.362890084868565 0.019600491916933294
1.2796115811412716 0.6944238190297183 0.22005862593869518 0.00813181921722294
1.1410600138297604 0.7020416392984573 0.2433707790713177 0.013655008457097077
1.4262336498406425 0.7135055364010217 0.3250286975982852 0.009831109248343337
1.1709437373109493 0.696767428949843 0.2668566290340103 0.02036262373781482
1.5632295219458512 0.6944390664273441 0.21008932371941008 0.004371286332828146
1.5940791176087175 0.7078867960918034 0.2953539570985872 0.011004965884429847
1.5106751510517498 0.7012216054970942 0.24978115703762782 0.007834604914148753
1.4579182064909038 0.7053859604944224 0.3167871337096029 0.007128597124128286
1.4516958690648465 0.7087174981520854 0.32960780156792324 0.00855989780512261
1.415621090883487 0.7005834075037287 0.24532158919367728 0.009649178212697495
1.49082784743619 0.7029428108993202 0.30592006045219067 0.008496387282239238
1.5656329968445688 0.6975902355180553 0.18111927698414332 0.01505149837067162
1.4153911112250765 0.6992517118813059 0.23742036053664878 0.013328099961434142
0.9217623342936038 0.6899913663495971 0.19031924106773074 0.010292039523861712
1.3670934561650168 0.7046554203870725 0.2702989075146169 0.015015639615552565
1.2083270658482248 0.6988339953538805 0.207345891286079 0.010429090389643424
1.6371162401984145 0.7086340042750282 0.35583206861070976 0.027989171585546077
1.4704097310535864 0.7002943847087995 0.2782146259024493 0.010636243230965126
1.609303467058501 0.6994114713273809 0.2762411694075244 0.005904957421305256
1.3556504836620853 0.7098859818732651 0.2564378769639918 0.012053160910901311
1.139897787009748 0.6957321342450763 0.22552528151373596 0.008313291808021987
1.4409819773104766 0.7028892637087211 0.2897476327102373 0.00850929483266427
1.1687477464444715 0.6973217999903445 0.19505709620134074 0.010913092743990776
1.6446221480134158 0.7211544826779237 0.3634518645819642 0.00394077792047318
1.3432946190835096 0.705996947142171 0.3223829427909412 0.01452269641551795
1.4611992843620019 0.6935884200312262 0.17916457406857553 0.01739296978737625
1.5150381402147888 0.6991384739876844 0.20339631780810244 0.010597493297300097
1.6739391662027503 0.7155705762731488 0.33625569574612946 0.00473735266130517
1.6812523872907916 0.702561475328279 0.18655530030110962 0.010222115043658827
1.1753498474552284 0.7022589413918611 0.2074917355172387 0.00974027199486791
1.4619740745996623 0.7089793644521606 0.2962501448371477 0.010002501275902612
1.5268054794553663 0.7078623330196618 0.24508399588114163 0.0017850625749598588
1.6592317109465637 0.7027052137464476 0.2170703869145279 0.00862937784329872
1.074807137939502 0.6988851887044087 0.21135206981596805 0.007970952389947336
1.380587506206313 0.7067183434832213 0.3411428450243032 0.012471203285265674
1.5152024339064412 0.7013154131183483 0.24172087567775033 0.007525464751557424
1.4729886918060646 0.7085673584098712 0.22078109049664685 0.058495020481345715
1.6132586393025483 0.707969501375414 0.3758630990732205 0.024963577281789832
1.1667785576296248 0.7058018772490983 0.2340237675903467 0.016889929653758358
1.4606510134516562 0.7198589751635567 0.3703447768992494 0.013302349920806257
1.2275928479762435 0.7025072729986758 0.25136607083425794 0.009392970241639422
1.4896070999534814 0.6975887357687941 0.2623718382587275 0.014698493158529696
1.5443328457497696 0.7170208208687853 0.3446408068888095 0.021344407743707147
1.4380393615303844 0.7009845797443445 0.246993358532392 0.022003750143209946
1.1169391717076456 0.6975649262085538 0.20381907743362349 0.00651783899924496
1.3277305504933676 0.6975921470718729 0.22288871486184586 0.011241706828645155
1.5804053187313947 0.701706429738565 0.24534036274541718 0.0066510348239137655
1.656853446339374 0.7114785516372072 0.4240070721640058 0.008625177008394002
1.4866339405221722 0.7037857682058537 0.34157962023507754 0.006430336192622543
1.4279941365528284 0.7017818827227075 0.2325650348644475 0.00772416177437549
1.504820381415563 0.7130827515450002 0.3632021946506893 0.015836819676695604
1.658960575277359 0.7164901541985046 0.4062897938150484 0.01065928740605933
1.55421579640376 0.7106498149513341 0.3173086056981146 0.012413675719470342
1.1420486092718332 0.6936896130901244 0.19260530813644913 0.02273585635009565
1.617810501625627 0.7060879826624249 0.357925390554334 0.025454023087147948
1.042282490418682 0.6950262769318896 0.20976396246696885 0.020451178804009897
1.4195353193211173 0.6986205148689226 0.21949562111012472 0.006376221147192912
1.4679311067338927 0.7103574258099881 0.23435634805049488 0.016627483986135866
1.554486532770559 0.696031361834557 0.19583752046040215 0.01765423229816414
1.4935838582444483 0.7061030046771909 0.2933747825320332 0.007848121385998628
1.4089292270227667 0.7041836211166099 0.32569999827349483 0.01232873975603383
1.6724953194001981 0.7055263813838974 0.2677523658883576 0.005096999373405718
1.5789179880438606 0.6990872914051611 0.23442921347629256 0.007242988419277847
1.5629328525950115 0.7075847169863881 0.35937602739648045 0.011247540825792116
1.3475212072950318 0.6975550142749565 0.3012747827059389 0.01026831522832545
0.9847145983137601 0.6978817081577608 0.18957831678261713 0.0278307950206669
1.561950263318101 0.6965167797745118 0.22294781513974737 0.0031666438795236187
1.255147551679014 0.701457079414106 0.27559887683073137 0.009859236500424244
1.6737758368732758 0.7114918037926717 0.34859222199126194 0.01788381066141278
1.6362620711138216 0.7030070847889717 0.2778960805519964 0.013153681067521973
1.3081332509606345 0.6975338966837314 0.23920804720044014 0.005577179691065203
1.5305729452135914 0.7112876371082991 0.3024475265374712 0.007477257912156792
1.6967489704701155 0.7171076129455946 0.41177685916816037 0.010013376670491177
1.5978129868592612 0.7005011619211384 0.26438084205834994 0.007778165088888151
1.3820614370931712 0.7038128296715721 0.24262944246622709 0.01424415259785694
1.6084131327991193 0.6938126021984086 0.2079326562665273 0.009015540376850116
1.4002129769242784 0.7114733134427393 0.3065671584062875 0.012619626878419306
1.6538256132965532 0.7118694909463004 0.38045100819509003 0.019259919626583095
1.3480877625364551 0.6978130965930448 0.28098630477898445 0.01132266029857841
1.384361321733073 0.6925027125928598 0.20552308632037397 0.013765315754015468
1.3573258992836423 0.6962402144417084 0.28462698037669776 0.01585823951396765
1.1448809684379355 0.6979676555904856 0.18686626337094056 0.024190817566841258
1.6200078235499966 0.7048522929762074 0.2933641632966291 0.0028988430365980288
1.5781331615688128 0.7048771330681111 0.3070666585862645 0.007277064572244119
1.4984627121283538 0.6983611278152391 0.19136263704231204 0.005731003290286717
1.323295537167128 0.7018851815867725 0.2680524517271525 0.01699598010670065
1.3585444420633324 0.7012232068627562 0.30580761176025895 0.012176286781774256
1.6776032453046776 0.7140792750359717 0.42058474932614187 0.01744710873156143
1.230697023333912 0.6926276324910741 0.18901781537317067 0.007132856919513309
1.2243400087312912 0.6950903427437565 0.22572546131935442 0.01040906408829154
1.4675867450769187 0.7047288827206785 0.3334423547556089 0.013084101938577019
1.6591917636229705 0.7032336320279876 0.28963667301263313 0.01002359784391183
1.6123997559005003 0.6979334660119942 0.2643030438367838 0.008634586072318168
1.6863273089198247 0.7073450611323037 0.33415678967621537 0.015615281062275279
1.699911581675329 0.7124023323715591 0.4280922568631462 0.013353228951954121
1.5086735653691734 0.7013543199960502 0.24296730957239718 0.0086707100955272
1.6227204457728637 0.6941946558161308 0.24756728887771023 0.009354362697390806
1.7049889736501496 0.7072756653563568 0.23680567160270533 0.004249686855191982
1.2207895725402564 0.7024944446281737 0.2653548847269335 0.008202205851238733
1.1963116289942948 0.7088290507404222 0.2333459874506386 0.008896501920531118
1.676374760711763 0.7015918143680847 0.27810953257071086 0.008957312109136074
1.6302363049642412 0.7121007659723083 0.41215686054856215 0.017248086573340905
1.6389104274616166 0.7003371792187375 0.18718895658910076 0.004037708880737942
1.517840635227657 0.704491110915834 0.3403503689043985 0.01828807446885697
1.6721208547395325 0.7031119983326614 0.2526527929471824 0.00781694086903617
1.5059951353297443 0.707253918714567 0.35171622400386177 0.017410161319190466
1.3733027264777893 0.6966181580238403 0.23568534642844344 0.010507119015892293
1.1531191957316045 0.6969155927522526 0.229704596418767 0.01178036193355571
1.6881396521620635 0.7053358568852713 0.2604918645936969 0.009987614389575768
1.412791252131777 0.711220245830496 0.269478999539153 0.010079055705826904
1.3383284546418064 0.7014307976761815 0.19697713975565148 0.021621841562722562
1.050746519260419 0.6931712958136654 0.2061321862450005 0.017919259425035736
1.431331632510104 0.702425877745997 0.23404191820995437 0.009953083646887802
1.0413606313042127 0.7061175417404721 0.22858481981278403 0.011784826712245176
1.5869874507324613 0.6978691904849708 0.19527724905575367 0.008329837388209763
1.3709849536287428 0.7140772525154383 0.32863233526606067 0.007715632207362396
1.6125407092399766 0.6990566653991993 0.23168060735992851 0.014746564870801742
1.2378620951364774 0.6999521170527607 0.28389117497673355 0.005446784811185965
1.1030463012505134 0.6949643825158865 0.1978421475827402 0.008199002843897352
1.2478920893106145 0.6940607315265547 0.1921684206318064 0.006086032971982442
1.2151885582845359 0.7043643169693701 0.27904153304952306 0.005183307504466384
1.6193469068441673 0.712567572240505 0.3232644601822393 0.01241710134255163
1.2798972596255438 0.7003178708510622 0.2901500742899263 0.002940668940853066
1.588266442404387 0.7057854324503282 0.3769725302065712 0.013777684780614348
1.5988427279596646 0.7093184566260544 0.29866582418581356 0.008296856547281352
1.2486322217693635 0.7012057412475371 0.27062566811639105 0.007130721548138602
1.4265081470098817 0.6974791676670401 0.19322123512999184 0.006833378203397115
1.3352558651337463 0.6992703545475795 0.2697514308658257 0.01769617059719817
1.5450955311228554 0.7016890525937091 0.26672402847851046 0.011619868745725459
1.6001773099210381 0.711877953212832 0.3723125467176256 0.014690745575483343
1.27734843381375 0.7031475475391592 0.27389398191927333 0.0128514761676348
1.1119186258742595 0.698155554744856 0.22588568848084567 0.005493322953074369
1.5250720029273386 0.7070949636029848 0.3158594164518265 0.014986335307070728
1.156798843902286 0.6998324310907887 0.21569541911036927 0.013832306410522013
1.0630421856500576 0.6999196331171091 0.22051158061342882 0.020795862257401945
1.1054204174838764 0.6988798871839583 0.2354558948395371 0.0056012506043900305
1.5603024903233307 0.7137865438851139 0.38685714268367005 0.005047348701940068
1.088684354511524 0.6995651779846042 0.22435846895386033 0.008403363309416063
1.6767256653799854 0.7011361654847206 0.29777028693218455 0.009237975584170848
1.57783568320388 0.6996275315103466 0.19810469852789664 0.006477233394323746
1.6299005452051596 0.7169385637509561 0.3959516087189148 0.010130428891161575
1.5919993382294397 0.7023333618806603 0.2505620982772852 0.006927895087973832
1.59886078104542 0.7000729342547531 0.2067319333633248 0.009324982923607847
1.6237275124662027 0.691209054517638 0.18673116949410506 0.009758123461144885
1.638512792572945 0.7126880474032827 0.3983919612206498 0.013326403824399213
1.1312349433470548 0.6910753955978021 0.20342961045718572 0.008576498852258582
1.4211364677687208 0.7038901316984798 0.2505359474793974 0.015048966379078718
1.3202269000619242 0.7035136056991996 0.31779071500288575 0.010572168064011794
1.64752137443664 0.700677179845014 0.27845994056719753 0.010070688348800249
1.0023704922700756 0.6961420246194394 0.21930239840060908 0.013041326429315922
1.1915570549226424 0.7013676276474213 0.2704975832333219 0.02919838807065067
1.5199221163631305 0.7012470003372344 0.2746171803163947 0.009266025063472778
1.0005844817672933 0.697314362896408 0.19205801344499385 0.04084565372370839
1.527152835917247 0.7069032596025632 0.34033928659662827 0.016946579703448386
1.6983672979272888 0.7201104790355827 0.4477695296839223 0.017293260706353567
1.4048533020363034 0.7027638113997303 0.2660559325909523 0.01220503484174306
1.637786104086546 0.7063153588367872 0.24514357051366803 0.00437987954450381
1.0340347596486563 0.6885245750639948 0.20020208642307263 0.014450041855841545
1.3145761892572887 0.7036274474535645 0.26105682742636166 0.006725146900360907
1.1473344093344573 0.7066298450428972 0.26568597128966187 0.014419950777816189
1.333706069786017 0.6989524435167996 0.23277518418764218 0.013586530668256838
1.0937885042678992 0.6945361115397654 0.1835192986837793 0.018026942127095675
1.5451594655009848 0.7108091379369896 0.3023373208323745 0.006805571532573933
1.380946218772302 0.703009716764582 0.2613243595564702 0.030095784731058436
1.5937084793324388 0.7164930116941847 0.352745572447575 0.009161236982555958
1.4410694680553986 0.7112704475784136 0.2704345706006215 0.00839359718172659
1.6902888452410205 0.722602297724777 0.41024075993945086 0.011598124996026148
1.6361638342379243 0.7053357250275266 0.35010172259603634 0.018083496838078954
1.3483215850706316 0.7047877649693187 0.3331077762038145 0.011282463253220134
1.6101518874732383 0.6944493138062848 0.21828408612386635 0.01022543676169014
1.673587772631392 0.7129414343023103 0.3823951258185599 0.02214651647237503
1.5690354202043282 0.6977960424087135 0.2549002251259903 0.0022024532800921505
1.527818630646916 0.7115082407104486 0.39620279707296946 0.008763180823550716
1.5917285216161947 0.7094915069958551 0.3371037011321234 0.014621098252031112
1.3371243807169286 0.704453283149264 0.24616581258063883 0.015886980659433524
1.4208113372957372 0.7135825226060672 0.3474053525953535 0.00870053606043192
1.3560945092423327 0.7003475215020122 0.20910358217870437 0.015878720897372182
1.4422639615777009 0.7196243104873541 0.36427766916011967 0.01516011425996042
1.1294705233634192 0.697791378231604 0.23307045929920364 0.01069262687691729
1.3993332039574233 0.7073318882736666 0.3280502586896376 0.014717291137625299
1.3901643865359792 0.7077273506118963 0.3434329462507137 0.011951861319438581
1.356633024628817 0.7053490999799522 0.3294269420258821 0.012181474084993813
1.5879103652475457 0.7023560179780824 0.3206811344308749 0.0050605901007961555
1.2044326890765358 0.7001341869202431 0.19379106974397764 0.006708076546374832
1.4081887559016266 0.6948137324106926 0.20827887403077644 0.010731933512759412
1.4888298665311146 0.7027187498314245 0.27913393837336964 0.0069507434477073995
1.4716355762171522 0.7095611006341574 0.3418886798243499 0.013025071474275668
1.1501391982670148 0.6999213177056963 0.24438124238564757 0.022441777050582354
1.0485402158117518 0.6949721816295437 0.18986420124411382 0.026543928719317503
1.5230900178365165 0.7004805755734576 0.2884292091654383 0.004646326905899518
1.0573143416208917 0.7019850368674714 0.2305221952603382 0.01815735434677411
1.7158950453055877 0.7128932021940239 0.423792138086801 0.022642841572435044
1.5451025879057398 0.7117392335809342 0.39371755693323846 0.006881039716769928
1.174197356022718 0.6957526079433265 0.24758712622789036 0.014683730683218515
1.2543298288933287 0.6972968232894371 0.20832347411858068 0.011951755240346898
1.6953517089366041 0.7047510257638856 0.3009332151318226 0.018826371870565052
1.157626479641679 0.735484462205855 0.7196591808395825 0.06305782829393372
1.1278136379926689 0.7258114643640612 0.6496397449529678 0.01088158277639735
1.538686952282062 0.7352583060400774 0.7025541874042941 0.020907801726474225
1.470030234791537 0.7239806312477268 0.5661822537028929 0.014641263829319023
1.1894144654397036 0.7392950314082161 0.6882718469671381 0.01745516655914776
1.296055421740052 0.7371734416981259 0.6696777668188295 0.020055994700112503
1.33470552417723 0.7341750775689787 0.6481762912353632 0.019984045363761454
1.3988823130689552 0.7239659347513243 0.6050265258467967 0.01734769443462215
1.222757585564604 0.7236758667528463 0.6573826086441649 0.012130420784305252
1.5409384265918038 0.733665277601423 0.715629620683626 0.06080953999507277
1.357171433884399 0.7396387761800409 0.6804371611092849 0.023135864200149524
1.5650954126453165 0.7233709029969296 0.5054542439079747 0.01083466651743036
1.5086337258740665 0.7338879219458561 0.6812430556747423 0.029817090415101968
1.7048613013543723 0.7327533933802932 0.667364116139162 0.017772588590945666
1.6462198620127184 0.7187833394298099 0.5598407329178609 0.012904566788009348
1.1930764436475658 0.734028896020437 0.676096289424924 0.0250358671906565
1.5950693322114298 0.7166246163361427 0.49996494736786223 0.006162321164707458
1.6509374015233031 0.7230522572515594 0.5831368224855195 0.019248780129518386
1.2736105326135256 0.7310101493016337 0.6389434364047097 0.013905478114265681
1.112750931808462 0.7381782353956376 0.6969264247742605 0.010793474004177139
1.2696864116416524 0.7301882145525569 0.6577042842890231 0.018092632912182906
1.0781466054887707 0.738501094927936 0.6962144456252423 0.012515295372885628
1.6580806663733483 0.7342066077386082 0.7046675568238633 0.01824585617418129
1.057527453079019 0.7410689468210283 0.69936104818532 0.014597054671759395
1.2031936166240687 0.7244691409673573 0.6192225344348327 0.013776388105242485
1.263326794373174 0.7414816952911963 0.7158648777176349 0.01871973550014174
1.3124163220824354 0.7335565087089709 0.6309338960227562 0.017103085973546275
1.2933326293626046 0.7278596227207035 0.6058900673656353 0.013750479525265164
1.5744252584989202 0.7271407102671423 0.5560429411963391 0.009744310750139432
1.3427705947072586 0.7449481884861716 0.6831125589329936 0.012623640879583146
1.6332540969304916 0.7211363788751267 0.5318859858981837 0.01611018354873899
1.268753957145216 0.7373383727594124 0.6909474841701851 0.010774560817420483
1.6991302392454948 0.7303797748335951 0.6663068575273308 0.01556322496553202
1.5331110886735517 0.7409047546676737 0.5989280529246966 0.013408130946340335
1.4917087891714689 0.7250135139035949 0.5374246035206941 0.014111364528764155
1.4782733155651222 0.7396273841887816 0.6969424786287288 0.008878678875674628
1.4709018951718185 0.7273787620463527 0.6280261272405729 0.009082343358529248
1.2854252179957433 0.7340800173022817 0.7102468346816512 0.020698813512205715
1.347030330312496 0.7343191671025486 0.6581274429567907 0.018883244932107777
1.537345162589569 0.723531087204556 0.502540761807946 0.0075336243359175265
1.2294106798263635 0.7377823570439394 0.6858405286089482 0.013516847191103023
1.2850490513803512 0.733246424315517 0.6977140687226889 0.0164766601069367
1.4758581961397332 0.7362037073672513 0.6836433249808104 0.008556664726985913
1.6886177460546414 0.7278455755574531 0.6006740461278709 0.017725501609710183
1.710209912037379 0.7185353217068232 0.49058770056572043 0.01810105172419954
1.7005106691153176 0.717911930476714 0.47644094612790633 0.01637863831399558
1.1577011399245438 0.7287052359223031 0.6489412117725001 0.02083690152413887
1.20032862038865 0.7384638039525658 0.6840725464568331 0.013639664439173131
1.6873471110554208 0.731779324330826 0.6326187269435637 0.013782333839249936
1.6666957172514028 0.7431033187837105 0.7204228515060611 0.0220464677659494
1.5698651605177325 0.7309992021813919 0.608411275432672 0.019450207958802194
1.3171468868156109 0.7332195757250907 0.6648130503516011 0.023570868691565803
1.7268154276870789 0.7407044415115152 0.7277581505701334 0.02903349481296834
1.3912891250448176 0.7315774487922452 0.6342419508793475 0.008866800290070281
1.2700476684814799 0.7350906896159513 0.5981570352310469 0.016007903888042917
1.658156211891137 0.7181544418796084 0.5712955328697767 0.014764520937541005
1.5909676544424294 0.7333872491887772 0.6429414272803886 0.015607371782989031
1.7108443245962301 0.7377824069138514 0.6504932359172666 0.02105335516190218
1.4013852147376855 0.7293825640516892 0.5588273519115163 0.03243881917642582
1.4203744416425792 0.7405428036572035 0.6760699383523402 0.014894239361622002
1.5375630742834114 0.7287924381624852 0.5179362135902361 0.0030465984988412294
1.390008756369749 0.7407993128045248 0.6464777550166169 0.008892417783040306
1.500512267609612 0.7370590827982243 0.6561107906418 0.02353266648278395
1.5493844200094153 0.7215152349812205 0.5638266652832401 0.006768910051116125
1.0305546106437211 0.7342579871806716 0.6958573376525395 0.02542119664411714
0.9747476033603373 0.7414818196060448 0.7159944752709174 0.07144314581543
1.618471538987723 0.7270779707647897 0.49058164065204585 0.013812886807019862
1.5118725093667713 0.7463721713750846 0.6566963841593971 0.009320386962341162
1.5760427996382373 0.7206113468885925 0.5091750573671502 0.008418808010420747
1.3824391473859132 0.7251936918233944 0.6056302032106955 0.020686082265753532
1.4434396386948956 0.738136267878354 0.7016110875216066 0.011244432284658991
1.2336839425905055 0.7351745333472101 0.6768378066021925 0.017077128410382197
1.4557946617811965 0.7326476269635303 0.6194229604137041 0.009634442791614276
1.3268966424609596 0.7345392913987214 0.7142021868268253 0.07985435560235395
1.3927224729439476 0.7262007788258161 0.6060386456318113 0.025333003353456066
1.2016491564575367 0.7345430440283135 0.7072818022399221 0.020670145643680943
1.7053367246250029 0.7431140400519907 0.7100064898935704 0.022233671806453473
1.7070747347375348 0.722293720973557 0.4698299912164468 0.015193244969061982
1.3382508493778245 0.7284860791751797 0.5855504801348235 0.021550830006935667
1.364761216339761 0.7285854078010586 0.6082927198502022 0.014384233102124033
1.7125123380052818 0.7275653183521238 0.5529791953018347 0.008538040045784616
1.705233994854565 0.7220151965117381 0.5076149098200512 0.01195082330635673
1.4185170222727552 0.7344331167819973 0.7081738236774593 0.013970702888329451
1.3617998547952812 0.7353459915189484 0.5970876453282916 0.011907256610899676
1.0661776318145733 0.7341241478836628 0.682196479707904 0.013300646687613915
1.507971212597797 0.7458634792024285 0.7063685607740662 0.007001288390683907
1.1385077054863713 0.7350183979025526 0.6721794723488972 0.014115011395019644
1.5219152457611158 0.7304969083378198 0.6802747871428099 0.029681635678075836
1.4596549951153082 0.7338197934055927 0.6417430649860048 0.007936462988373819
1.5131522964717625 0.7393770468440723 0.609135779725888 0.01249318950748678
1.3647477313470122 0.7336447988381225 0.6898416037988764 0.01738601782818411
1.4881371095549545 0.7303956123663099 0.6565180752113735 0.016382888912165723
1.4918182404424427 0.7326168970209099 0.7019262435353832 0.023146912169275412
1.6751209092443309 0.7230415465955354 0.5383683540551103 0.016101793122080647
1.3302527931728632 0.7342467835334844 0.7195734097800683 0.0836520004985322
1.4287010014020631 0.7221149107432441 0.5852920562435482 0.027562537178767117
1.5808712665505902 0.7340735609489932 0.6763760122648945 0.015055681917479023
1.4176092564904696 0.7307785192362405 0.577331774885693 0.03036207371193454
1.062855542038539 0.7384845150854105 0.709292465263205 0.025500759587857198
1.6335893176034435 0.7249744040156525 0.5876633926270061 0.014178092835563165
1.0957017120552357 0.7342637640150715 0.6821643339980004 0.009799568646052309
1.1861699271509891 0.7309750033842721 0.6733849483009917 0.02445782170317492
1.1035986652572356 0.7307435654134588 0.6955509338244663 0.020841806659762284
1.2879681000937002 0.7361424247263574 0.6628413199876602 0.0198264294846044
1.6812581395978816 0.7342725286509676 0.5767588974215455 0.01078838521693345
1.0282550759220288 0.7441075764185145 0.6868170355762058 0.013363722628311522
1.6150607638931829 0.7511793994287502 0.720454539640696 0.014253114395146671
1.554644612862102 0.7253735299890137 0.5897399829635538 0.02000647150653972
1.196580258318119 0.7419311427113986 0.6431268532389802 0.021466944488021545
1.4478539673570068 0.7293103253107219 0.6556929075540329 0.00642532408726015
1.5500993111908061 0.7431598892178531 0.7017446292122802 0.00904807971921799
1.5362187937916159 0.7250266654830827 0.5252541184268836 0.006127236933904132
1.5115541911399697 0.7330336398258754 0.6778203698124687 0.03269293906708635
1.5935691397269671 0.7226528510031989 0.5446733714040121 0.005144091444057259
1.6480609016396701 0.7333675208983248 0.6585400169021888 0.00929569859011235
1.486189865322137 0.7235073222764872 0.5930148990941764 0.019299490013367577
1.4746999850663207 0.7261250848770366 0.5981734167271434 0.007312106468751683
1.630739383379954 0.7268348055359779 0.5098974405042216 0.012886872359145093
1.5848207106801668 0.7236696069408887 0.6142611501787689 0.017645718031623927
1.2858848147364266 0.7307158859269252 0.6206557948012305 0.01861708584914787
1.6423073682283158 0.7379666345602441 0.7214624152229937 0.04506718007798167
1.3955314244327433 0.7199104667619693 0.5705193840088663 0.03468974947884541
1.259924684229925 0.7348098955067234 0.6228354098694634 0.01679909604868066
0.9862198459777597 0.7352760961418536 0.714329877911155 0.08220724262138242
1.7277119485253312 0.7373856921660831 0.7014013072157553 0.023585133772760506
1.3787242597246878 0.7273097110084403 0.5962960224058826 0.029625417316141798
1.5594617409724272 0.7395070930248808 0.623055002535257 0.023392141469302123
1.140821255328698 0.7345316058635896 0.7015606832059621 0.020818798171317075
1.6702462213859335 0.7300872030236565 0.5768313624795217 0.019529583412171127
1.2088705008307887 0.7366377522573797 0.7176956358804603 0.07985816019022993
1.5957776919208586 0.739192955793326 0.6690314269653141 0.009735308513628048
1.387964964832792 0.7370733742997195 0.6934184479050381 0.019485264104456942
1.7332717483299542 0.7345476004524284 0.6766944557343141 0.035108091127118844
1.7171950276796262 0.7268109491579702 0.5889484416191414 0.033464088463737676
1.5955932369546144 0.7193248301824969 0.5186378715945369 0.013098696408300995
1.56830634392988 0.7285997610780155 0.529647120574886 0.007012556874625584
1.5239288120888772 0.7358811319790064 0.7192784079724801 0.0473643511897005
1.5945292155099482 0.7279766991744265 0.5887182264614917 0.016263536510018897
1.5409331879351782 0.7289684095564394 0.6792944273242795 0.0139885015002189
1.41178464131845 0.7369376107391122 0.6513060342825526 0.016930937779925243
1.3974745383983354 0.737269421215596 0.6804730809493608 0.01638964991729992
1.0118646952201333 0.7343954690156793 0.6945535127419251 0.011025138258900127
1.671848082955224 0.7345361259862974 0.6749705911730379 0.014033223081193725
1.161907732995289 0.7291168693485492 0.6340301876223637 0.02546713885387515
1.702112482088061 0.7236999820374564 0.5195152012414085 0.010716016647010886
1.1758443449166889 0.7372119691174329 0.658091519183804 0.01709832605197264
1.2585569031069974 0.7406192379867225 0.640584687591368 0.011990206655437591
1.6645268735518617 0.7280891494223749 0.6128346036635384 0.005483462357408227
1.326636332959179 0.7325626527937579 0.6993000072551857 0.02239657904620215
1.445279444782314 0.7310296974587475 0.625472267522566 0.009703492367288999
1.541398211161129 0.7303655340919897 0.5464765636386193 0.004114055743079708
1.128931796744071 0.7402338547246801 0.7168181126857469 0.03344451921794287
1.48470866935041 0.7249091783300904 0.5573176553332629 0.013831301035774303
1.1529939515011665 0.7286780220566867 0.6820502549783961 0.01502263478798998
1.5695099775840489 0.7339295267478748 0.6786842564261006 0.01929414146701772
1.1458713337454731 0.7357581631915827 0.6626875884870908 0.01599078544195334
1.6147679643759199 0.7193067325776824 0.5185074701523282 0.011758815181207114
1.6675802626810845 0.7273365506377847 0.5890995507202161 0.020930994937730235
1.257977809736881 0.7365935779778309 0.7072908243011867 0.010574187486261582
1.1044305220116244 0.7376061793313067 0.7238229176715859 0.04740700613172473
1.515929654799429 0.7341485032449465 0.6331490009060182 0.033194762272597975
1.5169059363643975 0.723306208868637 0.5763178393360994 0.02897170436609942
1.6247241729908535 0.7217168751972544 0.5697874574902421 0.011052535802499448
1.395966013282573 0.7193268605528241 0.5847230801711302 0.04153398993526904
1.6624370585825776 0.719223393680793 0.5349810781668549 0.017368083844775985
1.0965201446606214 0.7333609991769527 0.6711640470758402 0.01234158752266662
1.607929274223429 0.7259812194493939 0.6178746722265533 0.011281069761512982
1.4587449832354589 0.7323201524769396 0.5868618108968141 0.017507978206557438
1.2898294642433366 0.7342562455728762 0.6747860361600253 0.021845837326815522
1.1670147015254042 0.7423809646062824 0.7022263232604856 0.018038608935826175
1.2392380908866363 0.7360025050514263 0.6498090035511157 0.0204663992060684
1.3363393989757102 0.7258977756716625 0.5955525511046853 0.019654206597079595
1.712996936120959 0.7392780908155949 0.6273714335078024 0.010369722107071341
1.70643012375963 0.7438180896663706 0.6945980786868923 0.027563407470625467
1.2442539470485225 0.735757903841703 0.6983425260687146 0.015495873347485463
1.1820423233592718 0.7392939335772797 0.6308534708447993 0.024571296333797347
1.5033555363309286 0.7367463261388811 0.6925042979927232 0.026439383357925214
1.060587851986005 0.7400017506139247 0.713608763709935 0.05699373203452742
1.43003058903146 0.7393181587326942 0.6765154268312684 0.009932643575485312
1.5285353986940193 0.7235160664237487 0.5408146652538653 0.014262608780150602
1.5742078484461721 0.7210182434338362 0.5840116235270623 0.011126333765211356
1.427006871036667 0.7285875486547806 0.6100191876500989 0.02237041484600766
1.4065815381971405 0.7302577599991865 0.6241523818633836 0.009047867612016468
1.465143492812669 0.7284069861890452 0.5481685007555528 0.013329419338556473
1.4906072972932236 0.7241071269726633 0.567916783836893 0.009585849564398851
1.2866322480405408 0.725695482562113 0.6013090801717637 0.015708600813030753
1.457614815077087 0.7283205537892565 0.6647732613257552 0.010308423021558169
1.7208278757912014 0.7197496732638401 0.5295391191207972 0.0023996800889965054
1.117953919049441 0.7390054467051159 0.7155260835651557 0.03795353825773306
1.260665052306389 0.733640805069256 0.6035203625158727 0.01930258746466702
1.3727915459989672 0.7429907077317592 0.68420256993964 0.02294502446836218
1.3463928750514649 0.7250451533714348 0.6160057020002275 0.008864552062713757
1.2467800126533866 0.7337172886513783 0.6551546496249163 0.02464995227501994
1.0606763329228095 0.7339120171148897 0.6733421560478543 0.013930448487436664
1.4795958305666186 0.7357161696067115 0.7051548474498971 0.02819440511579393
1.3521485698982862 0.7337594905589431 0.6945720100243442 0.016988678252506724
0.9348885360305459 0.7450113303413491 0.7261662900718748 0.034516493916874565
1.7070889552544237 0.7305775013455629 0.6048145867109691 0.022430724183967795
1.514097901436255 0.7236879821046414 0.5888468580446965 0.035919373366095825
1.4509579045045566 0.7337225328537004 0.599511667688868 0.016066733615236587
1.6012860791036643 0.7459108654736786 0.7160327539351924 0.03774678286218949
1.6636237752784908 0.7300005297040526 0.5506275306785013 0.015091978011185149
1.6598571123419237 0.7300827766751077 0.6506493184857838 0.008587849712812873
1.644841582350274 0.7178329529451632 0.4755248182299425 0.0054875515185577525
1.292956046384953 0.7381445926915159 0.6265808694936589 0.016758127828153693
1.6330937175871871 0.733583555836946 0.6391534462428506 0.007999666684285783
1.6225448615137477 0.7308717900752806 0.655702840897606 0.011557967214748057
1.662636864662 0.7256118151309237 0.5085597829530851 0.008462363470069902
1.437124560113666 0.7420873713732178 0.7161138371010167 0.061012910187768776
1.610823658629142 0.7335625042897053 0.6481665797043347 0.015670685665464913
1.5510950776785568 0.7376446831312928 0.6133885580761919 0.020325211433657498
1.6961911737070878 0.7256228926132694 0.6180253118334366 0.011732345733474064
1.635124159532758 0.7275716429727271 0.6755586751345615 0.008900102356339635
1.4413707628485173 0.7294952281160334 0.5965582803579145 0.021494497672262573
1.5314243389216735 0.735780428668589 0.614419170739489 0.03187790197891596
1.348221290754586 0.7268314045412212 0.588011501129873 0.023306564367574965
1.0179445456755574 0.7334292011413326 0.7207157778201028 0.06459050016264205
1.3711695157762511 0.7336857739987872 0.6574392938287337 0.017577788424943286
1.453935263283005 0.7313819644117682 0.6877548401692307 0.006120693874554054
1.549138700575007 0.7359869662926558 0.6634633561228211 0.024008482217845448
1.4316324683007715 0.7327169510636184 0.6551460359859346 0.012778459073593916
1.6796135059844117 0.7261207464271285 0.5567500887449548 0.0161353868075084
0.9976685315585136 0.7382146062914723 0.7090116980588909 0.027265794405922274
1.3770403843232897 0.7298816501296272 0.6365036659395454 0.005965633568312382
1.5319432274752287 0.7319715051405722 0.697071530862724 0.020933971857447876
1.5946987468510134 0.7245162023790084 0.5828838033507916 0.009180212296006197
1.2222259453417765 0.7452621507556457 0.7168605668135875 0.017675997824695065
1.6525200312289414 0.7319771210302354 0.6444629888257608 0.0078858479631799
1.4756473873673734 0.7293983657298275 0.6442024753352511 0.012545188677779307
1.4755062664271599 0.7305458008173463 0.6630186857828734 0.00986677148164974
1.3253319376758925 0.7357435427209101 0.6255945736957447 0.007908407252552036
1.6795581244443614 0.7293870713883377 0.6453094055474681 0.013229008543177403
1.4335031036432087 0.7378792043078894 0.7057502956667367 0.020569482450871642
1.451555185248499 0.7228634920785503 0.5422267005634721 0.011547514664369783
1.6197393824432844 0.7388865642168418 0.6886804580155976 0.024077980493529366
1.556289608833037 0.7278135434433571 0.5737991363547086 0.0279857840642607
1.0202567798731186 0.735096658916234 0.7075874434821405 0.045250038195932665
1.3293801170977042 0.7267301733524562 0.5987822225781013 0.015403912352311432
1.6557196340352598 0.7189217994865927 0.513297801422954 0.011793829514693875
1.6413925844802792 0.7317380595136719 0.6000395659684913 0.019474416417919183
1.270580527078707 0.7297063046858437 0.6294000932618733 0.015039051411753646
1.649908810235877 0.737396255707455 0.6911342080789062 0.011588162037482667
1.5619592409429341 0.7309339228202059 0.679809357440542 0.012025078878845824
0.9398674916472374 0.7374861128616672 0.7001893673071081 0.025371047709243602
1.4218184709691193 0.7393775365940469 0.5743761213805764 0.01457110562493411
1.6986668891808665 0.728918303245428 0.5724887597708342 0.007033149761985252
1.4923181937659786 0.725534539871292 0.6200230759274127 0.01603393516009691
1.712019544983913 0.7408579050243046 0.692149440821393 0.030701723652332907
1.6911541233523517 0.7255539504834868 0.4701265345732609 0.010287433672924083
1.0846630997583282 0.7339169999600011 0.6676389874377817 0.007378237286568462
1.0756536959136636 0.730659296087862 0.7249574118953637 0.08248475933357767
1.367060527554394 0.7394784179622201 0.6786846258817799 0.019785438042918536
1.4592284937375417 0.7396303676655037 0.7161930711265158 0.028317501662031935
1.6578669234523888 0.7190602278692896 0.4766436555582249 0.0133437158187237
1.2356320023563017 0.7372342779212064 0.6366954272492807 0.031334552133625654
1.6383695636585185 0.7263520560184312 0.5437427565475758 0.016896862684975172
1.3159626646755103 0.7356970606861396 0.6398412614587015 0.013828939045255716
1.3015173202599866 0.7416487908608155 0.7157334857175492 0.033557984974147456
1.4621857062869936 0.7341938132280769 0.6814646270133892 0.007733662694347785
1.1307754254931603 0.7406145383923876 0.6942588899337262 0.012877545535124464
1.689687885511964 0.7321528582135741 0.5447072947719347 0.009373851284556818
1.0398317558210162 0.7406110642810779 0.7113321991305764 0.051299608752150866
1.6134740412915238 0.7246388368627047 0.5436882026457175 0.012790572507541778
1.5795226573509977 0.7418382284541803 0.7174393140873847 0.03566465737849721
1.5761213105681648 0.7380307368496047 0.641154777907092 0.015430712511239595
1.193614170982968 0.7314226408420942 0.615180598892774 0.028403707419083313
1.5709446461241008 0.7335277887255041 0.6629620291071882 0.007313566890990938
1.4957325738195495 0.7381509912264067 0.720967779467988 0.05007600523555084
1.2199825650869842 0.7418331022828294 0.7042161395589094 0.012656933762690295
1.5605648292955416 0.7388464812369692 0.7246826631055581 0.024984009236989315
1.623581892493555 0.7285908600076608 0.6637571212930159 0.011499589863411335
1.3450360896692821 0.7383188268566917 0.7080406017200862 0.020350742457534453
1.6579388347792587 0.7208287166299047 0.4931241194541845 0.008072245917891411
1.034402686716564 0.7331169485122693 0.7127049008292251 0.055294712641671635
1.5648014596089885 0.7412714045408496 0.7104059198517827 0.0263607149544918
1.4613891212788905 0.7256316944228739 0.5747187596990958 0.015508803727071432
1.694386246949683 0.7378442033577769 0.7198074273415178 0.042823666199256864
1.726086329998687 0.7347649672281313 0.7117775884788131 0.026482066285584027
1.6428520600458232 0.7290376980376133 0.6185144113934143 0.012021305221683173
1.3800366529068977 0.7437918083671499 0.7156754236742623 0.020552549350196538
1.6765589404187025 0.743360727607721 0.6999959888169843 0.017496226287510984
1.045636155513255 0.7352772535810063 0.6882236594961175 0.01730045505732662
1.368267183373657 0.7351542518644042 0.5808048857960981 0.012761651105632378
1.5751521500185188 0.7265305542444441 0.5572239673434729 0.009854408246070728
1.3331139558506129 0.729943300951698 0.6804337495934267 0.01441068870161795
1.6202300628242499 0.7255682205134805 0.5576992966000074 0.006206769864425337
1.41957213068072 0.7373458361713027 0.7006894262846179 0.01761239560061532
1.704902809160391 0.7280370356363453 0.5371817546071924 0.011460998840774889
1.4353932667340743 0.7351983489621587 0.6343718186501227 0.009445966431904132
1.415617034253356 0.7362731218201212 0.6283096060393628 0.007722373476093541
1.7176246281404193 0.7289712279678316 0.6109695820855795 0.02061492239808103
1.2175445585580829 0.7307052298555292 0.6323287451876263 0.027626255633020735
1.5378061766187427 0.737511694652697 0.6325898036103891 0.01787740346551245
1.2064150668187295 0.7329224405543573 0.6656017471077512 0.025690699470957198
0.9780444041506952 0.7326178952743743 0.6880694990327515 0.014983598793150567
1.6580416458815945 0.7312956799740146 0.640215150567204 0.00894870133101418
1.7060509710572944 0.7284709548431045 0.7286804984672651 0.04570178156934287
1.627782062391758 0.7303728600073995 0.6747277684930397 0.016156830731108067
1.4965803642506434 0.7329452641500449 0.6292478340776614 0.014970749879684844
1.674593127501736 0.7228557193424638 0.5139989141879198 0.014274017919642985
1.1411230771786267 0.7369488311852345 0.6916783943678847 0.018456981456161686
1.1423636021072638 0.7273981074246227 0.6478398904719097 0.014532328270101659
1.4322858908218117 0.725800162884109 0.5452965295166206 0.017373985716467713
1.0952054253393348 0.7312237497800631 0.7121709049055189 0.054458112802501894
1.1464671242161912 0.731617663160435 0.720993069997736 0.08009356793573452
1.5970815596858194 0.7237585238066696 0.5693272118099478 0.006886083096072751
1.5477184761636351 0.7319389021460697 0.6563088797437092 0.017568074103863893
1.7215310608710903 0.73401185149578 0.622352732500899 0.014783917072189642
1.3053026102534353 0.7434655138820669 0.6537214543974783 0.007430370476640933
1.1452628148576451 0.7382568770241379 0.7106470531270181 0.022040252939353723
1.6440141323702104 0.731992720175411 0.5991806346930416 0.018039712928524642
1.1686880512207511 0.7309875461315243 0.6650774736962172 0.017203090733598728
1.5249003265487537 0.7393538347266004 0.6540090560319376 0.022588142663522645
1.6914557862584993 0.7127138541022827 0.4924720402820824 0.007408137968312474
1.6948259006845363 0.7248737288872299 0.6126840378207993 0.018838832692388764
1.369294072404499 0.742978334023091 0.7086567879613659 0.02448029258547053
1.1103559039114927 0.7383539714855248 0.6615070138411714 0.01373618198197985
1.6545214910010155 0.7311775429252807 0.6685292090257449 0.008074097214380693
1.6081992375486376 0.7320514550940252 0.6401004426969268 0.022639496620890237
1.293811320895194 0.7293594276006188 0.6856003378603415 0.02188178689559109
1.6882305015412804 0.7397892007852906 0.648595892782287 0.013800985230336222
1.4015978446655668 0.7297874258992951 0.7078370056371392 0.010792340034593605
1.624368369274532 0.7176912814383817 0.5272669603515524 0.011817377322048272
1.444947739801778 0.7271984969771682 0.5677561048336134 0.027309780203913864
1.5724591713477476 0.735917327081351 0.6915660473631181 0.014231639739706009
1.4039278363989107 0.7435701421684333 0.6624159647817892 0.009836752825570663
1.4670139569968403 0.7298954286363561 0.6109601761134551 0.007862100180083322
1.1754738620141298 0.7421786862909697 0.6959761104438167 0.013696044389332756
1.7125840929180904 0.7291563871355337 0.5426003578753729 0.00947382730571966
