x y z curv
1.5145113183900532 5.5452977892645725 0.5802077094921007 0.01865974250989737
1.5019146964987358 5.5453539430522465 0.5765264623780924 0.0079004730184179
1.5175241025570065 5.543031806532136 0.5755496494185642 0.00822898179941039
1.494774831183502 5.5430664427074525 0.558769765675738 0.006179420470982544
1.5126309672224707 5.548968366381075 0.6021063756839589 0.022876899275798803
1.5296600743990758 5.549045342170022 0.5832890238014687 0.013049926458092121
1.5371508406726666 5.555234096846696 0.6017385881931667 0.019954465860640536
1.5346229085140042 5.5537888653524 0.6167118770765878 0.01635212439912364
1.5294960342392077 5.556324127419274 0.6472144817487587 0.040497147247183576
1.5273864540221949 5.55183997503526 0.6417383637624889 0.023178722372901733
1.5303121303180196 5.559672765167516 0.6660267962346402 0.040477978838019034
1.5275866676865089 5.555048878827668 0.6592895468061573 0.03116365548080478
1.5245077191481557 5.566687974025972 0.6916876075488984 0.034216753850986964
1.5063113403717445 5.559360370028262 0.6995211536686665 0.020967915924086557
1.5309894916824587 5.559398552352452 0.6775149757758178 0.017307650034730834
1.5200739661836036 5.552905114154653 0.6759007295960382 0.02537490808441132
1.4902274910358522 5.556160829885631 0.6980652378677916 0.019845366220685383
1.4841573697307768 5.55510535624851 0.6878539595552927 0.05545573183957455
1.5102956841290691 5.592790819195828 0.709463924208013 0.009950595164302047
1.51260627556407 5.576148274553477 0.7052480660389383 0.0238180508691363
1.5322236460436651 5.640201409683451 0.6999376390979338 -2.6448848314435804e-14
1.535221934614415 5.574630554414 0.6867460131332787 0.0380726503099179
1.4546691626096433 5.641584941921599 0.6982202541219007 0.010950926643786456
1.4606251790580642 5.667736728531368 0.6961450073249149 0.007366198986398117
1.4658175023353215 5.592597441069023 0.7023676991404509 0.007042424751454186
1.4959681739789856 5.5812163573235125 0.7056071284408502 0.02720484471005053
1.4683034828239605 5.612491619152853 0.7063540310423676 0.014832892301054966
1.471171545119114 5.566000494825755 0.6892824888381994 0.0800091857387527
1.49640941696223 5.66561741785127 0.7100386723981482 -5.083116333570239e-13
1.5035944028774733 5.623730433613838 0.7045986171320449 7.022240878438369e-13
1.5223438755259577 5.780987627390337 0.7045663007421229 0.00011239596125094772
1.5307978679443077 5.709867196513331 0.6993717789911806 0.0011365919986266245
1.515583568085089 5.792950860887094 0.7077608785461956 0.004944975672099489
1.5183226990044538 5.726927668081881 0.7041696153268956 -1.0919643796468248e-14
1.535009145484896 5.678235638111611 0.7004267982468134 -3.1762035944562824e-13
1.5225794334172729 5.840296970544044 0.7154610426632435 0.0031749516301388956
1.539758030506346 5.870828696104149 0.7035697630635526 4.52468808467886e-12
1.5237073558540397 5.944476880346793 0.7105503824758654 
1.5161235430487585 5.870508873647239 0.7094747588593571 -4.6999872772866104e-12
1.5461866814996372 5.833077904674613 0.694639147446209 
1.5492096713531518 5.696799513501367 0.6923721042314236 
1.5459731114889903 6.136342111297364 0.6974009663303044 2.862198372228194e-14
1.5510132733666806 6.022734620549873 0.6914262790286533 
1.5316048621893676 6.027821723221389 0.7026987639255498 4.56214616574034e-13
1.5502374999927664 6.105749436329188 0.6919181661724545 
1.5480286553645688 5.738012973311785 0.6911328556520638 -9.694244957601983e-14
1.5394983134046782 5.770137034630207 0.6942503737047319 6.585700347193191e-13
1.5131905503325165 5.967200819469054 0.7119166775377688 7.501317490785698e-15
1.5353463187432548 6.158716949216549 0.70330330163405 4.2777045028551404e-13
1.5138137534341143 6.055655823691474 0.7070627221472296 0.00017150107654461395
1.518290248594413 6.120398110452985 0.7092858792787121 6.397315417643731e-07
1.5056768118998007 6.093923697346501 0.7080422061958446 -6.281160072053992e-14
1.5137843162073712 6.186917233667777 0.7091272401953373 
1.5054946906198219 6.139997692464524 0.7139599705210392 1.6863531182192167e-13
1.500377177124895 6.051961611667806 0.7063826730111067 0.0031751743222415887
1.5041169100314542 6.243579902888874 0.7123328440620179 
1.5221283080473713 6.3391433517620195 0.7116137186779741 0.006495936446144939
1.5424551081022915 6.355459288136373 0.6937859189586761 
1.4990902236834256 6.37252393655112 0.7093153731955646 2.3835020911605093e-13
1.491565312933122 6.350471276062817 0.7066333883001084 0.002408652035477977
1.5025489722093537 6.307885480520023 0.7174815026077637 
1.4896401666065244 6.3354754632112105 0.707338803613231 0.003480906051929305
1.4793803716836318 6.368110569153199 0.7059739407919648 0.0013524005276990057
1.5205778281246516 6.417775614219219 0.7045183677008021 6.546689897676721e-13
1.5040975327704131 6.427055875510548 0.7095561285822793 0.0025399717879501416
1.469506183694684 6.434271418343702 0.7104087847284326 0.003402759195908953
1.4506601358605187 6.4094894138704746 0.7088654623524396 0.0013674933005460167
1.4587101081300315 6.425478097526505 0.7064437378267285 0.0004762696579702975
1.4516728342038103 6.393127530203491 0.7070166168939395 0.0017495881948054728
1.438330143786181 6.377381596202962 0.7039692091180276 0.00045094527510643537
1.4249161513682578 6.384705792066021 0.7044570237144845 0.0004691107297439497
1.4077147476308483 6.369821156768029 0.7044155111460527 0.0010419522637036785
1.4075821414647498 6.420137633891649 0.7080144720667004 1.1564066010725793e-13
1.3788230395003656 6.394516765001538 0.7108059070048539 4.961037111133213e-05
1.3622384876345668 6.390318114834125 0.7094055096954882 
1.404469908746311 6.435970849500686 0.7075715857975675 1.365834532394441e-13
1.3315538075624835 6.398673873085092 0.7088770725911463 0.0021969989016575246
1.4045631191678827 6.377478657200518 0.7047066615340859 0.0005848047028493749
1.4321787184091643 6.350304472112872 0.7013877495017572 0.0039042689453321995
1.430397746286014 6.326649295274396 0.7010043680778828 
1.463138289612414 6.301249082275425 0.7071540658614189 
1.4627836169004558 6.332425389798482 0.7090586575498692 0.0003824997112859934
1.478983438152864 6.0723056324779625 0.7082662566751916 0.0026488658306486616
1.4910199517563913 6.152455986907344 0.7094382251960183 
1.471655999980971 5.958150293581288 0.7018121112135199 0.009444255741674477
1.4909670041151257 5.992157606143468 0.7061513913140751 0.002939468746684133
1.4580112127890466 6.121849219699441 0.7016956779069267 0.0001412727602201332
1.4601727685717594 5.961223345083093 0.6990208238542112 0.011759624393219033
1.4925129017577723 6.016751200799454 0.7072710416797123 0.011997466417494542
1.4595781050817709 6.178873848350446 0.7073609807974732 
1.4692895675942845 6.004767607001395 0.7067924784443421 0.0009041603400561104
1.4856530978789826 6.053370377422571 0.7080330665550911 0.0020075041022255555
1.4811088087159716 5.964496334800142 0.7064353209967115 0.0010304412109777695
1.4714364882678037 6.050328146221389 0.7048777959004092 0.008279211899169813
1.4944895688728888 5.8258337179426105 0.7069842569356062 0.004305936188570838
1.4978813227152028 5.727796727316514 0.7085080504092015 0.0034192168087073377
1.500772860335608 5.815657370284485 0.7081900957617112 0.004372217866984449
1.500650495618715 5.790575512474083 0.7064557847929978 0.002352153370208451
1.4929881398592384 5.691556109375192 0.7053806741896285 8.918294298801603e-09
1.4895512007358125 5.793206911296487 0.7090272454520757 0.0025126668057074055
1.495752833796614 5.842494643909418 0.7078470046383959 0.003385680294065558
1.476108594548163 5.672936356545998 0.6999962959877649 0.00030114042092529997
1.4704145525887204 5.923502157747916 0.6992756676374057 0.0033604625710601647
1.4539770914662917 5.758140849764746 0.7035927208179058 1.1610009534826573e-05
1.472888023386317 5.9112358984817694 0.7078418264974787 0.005124859244037548
1.4568975175269439 5.849338083348857 0.7037398165874603 0.015225803879595233
1.4720934805037151 5.889512384279587 0.7088514740841816 0.0024725056691378977
1.4692026552680237 5.93706484494429 0.6998954148516404 0.007282754348105564
1.4651755420771124 5.690238278236332 0.6941187444023288 0.010897219659596632
1.478074401236645 5.846767504956808 0.7054137806318997 0.005061411995421954
1.4727172847111987 5.727090643178693 0.7046084897332991 0.0022752218369961174
1.549456260993434 5.634718492929084 0.6920358749985246 
1.5445253526883291 5.568947445487129 0.6550309390591036 0.02048290761869117
1.5532667090335301 5.616196581970203 0.6744041694020446 
1.5364533086560663 5.565103720734502 0.6830910019699894 0.022279490823521545
1.5395794313671856 5.558989107726105 0.584492487750587 0.008640011494371146
1.550291263048497 5.557203320690308 0.618245111549093 0.009965226001289173
1.5526408348398255 5.585969557831459 0.6505506681302274 0.0131957943036378
1.546569084863282 5.5595382054349045 0.633051933516511 0.01942985071733616
1.5387553482533094 6.412534695945318 0.6959318715345931 
1.54206158949773 6.2671572991277005 0.6960465564194707 
1.5482697365567528 6.337455426527702 0.6909664030337658 -4.6041409190088856e-14
1.5468420418550513 6.305147088521708 0.6928278097340886 
1.5599891446284568 6.266304932218992 0.6801128926721687 
1.418207088165886 6.464972637936236 0.7102758910451228 0.028049147354747662
1.413499378876621 6.480947185607304 0.7022764341606877 0.032560527710857386
1.3754376266188988 6.489150241467383 0.6876598672427758 0.028128424714001864
1.3715684398070291 6.4858323788164505 0.686387661708986 0.03249031363625833
1.3977086316707206 6.486863643384576 0.6837646665401869 0.02178560472778969
1.3546865677674065 6.484394542290211 0.6851685736710643 0.013147039943459332
1.239471453640467 6.480646701359522 0.68238826311837 0.03033576858597
1.2015840224341041 6.491808278033806 0.6861364159033263 0.008332478037891377
1.1882592003931327 6.483967986795937 0.6887830735598335 0.037527559597481754
1.2683448031788533 6.494071173794482 0.6895478878488824 0.013422380691475274
1.3173354267092672 6.499259587046117 0.6825089819322987 0.024751454019613695
1.2729334179825251 6.476246963677338 0.7022404353547149 0.06354623295202344
1.321871474584312 6.4832331265038095 0.6946444053242681 0.050967662340347136
1.1448644154553937 6.493173192524227 0.6832652844538621 0.03446381166382837
1.2888748537481112 6.491176896496151 0.6955539188184139 0.022461293753109936
1.1551462190360653 6.4869632574758 0.6882870073470158 0.04097680435836264
1.11874503796615 6.480159008851507 0.6883745653589405 0.0567579591765985
1.0955320893908738 6.486953586931197 0.686951829445566 0.03493829672756753
1.2036780576552333 6.481051456156282 0.6964761486669225 0.02598205928531801
1.1605785494826621 6.481494405958993 0.688274152684271 0.05836531743558513
1.1346118916872596 6.493073863130998 0.6848185896529749 0.04080095182799545
1.1700746026284448 6.488374751490583 0.683090245818043 0.042964195240456804
0.9936486016241203 6.487015125131134 0.6971335334912224 0.0366967181282391
0.9883191705345599 6.482990917911671 0.6821364483512476 0.032055340306999594
1.059402061484176 6.4810955088441204 0.6961753558140472 0.045576615536640795
1.068202993875376 6.483017250603006 0.6906390412050688 0.048930834680214745
1.0083443677230661 6.481882312414493 0.6972680645252808 0.058116869804286875
1.043509535930457 6.483692339135702 0.6885498279580509 0.02496627726325682
0.8942010536054328 6.485263240362704 0.7008916043074731 0.056475176307693
0.8243625299490875 6.491744730871534 0.6888944960599644 0.02908673088808387
1.0259784769980698 6.487751389368906 0.6932784673546489 0.011510723316650462
1.0836257781423697 6.490318584586699 0.6827323592868078 0.030674621143225736
0.9606481231156819 6.482518083764334 0.6983987745933675 0.07627706428928403
1.0813274203763523 6.486762800069446 0.6923040856744359 0.05296097615952144
0.8995149829787981 6.4861845197875665 0.6922412312657606 0.03987881664267944
0.7992838485838678 6.486385203944692 0.6941392972418029 0.0433173024397336
0.8878802604610563 6.494221018080262 0.674562271812336 0.030785046816876008
0.7797515035724785 6.4810060050187825 0.6914150643572066 0.05340582559163998
0.7904471264130754 6.482545764341562 0.6877562294955112 0.040016772940383125
0.8460754773283694 6.4870208373444935 0.6871724573495073 0.05909210110130779
0.964754892943694 6.489634151970883 0.6927644055457374 0.06144476515955726
0.9192265347996416 6.493031637540507 0.6861733156739379 0.03131058914836776
0.8309017307533015 6.496929068175426 0.6790337041745859 0.03320245003021708
0.9952318153482977 6.48686879979182 0.6865423738782445 0.02996327362255256
0.830038750149344 6.485448238375434 0.6948373168967816 0.05783419784529858
1.2173130198367421 6.491896569716884 0.652391139369564 0.014665019173874113
1.2393255354975095 6.488808019925309 0.6554869964728453 0.015664622676568717
1.1444286659013827 6.4868079324503665 0.6694570941007414 0.04199946516211537
1.3036167288507479 6.492047434422884 0.6710795578204611 0.017091716625047496
1.2928406179664313 6.491380067258918 0.6357426492170649 0.014934188366139706
1.2544670201381438 6.489075806770077 0.6549126273969293 0.015532691364452345
1.2830115656477192 6.493533182972458 0.6715386691907422 0.02689645700778555
1.1812343691462552 6.490624212670809 0.673218095752976 0.019699715465514422
1.3124987773474144 6.488006276155664 0.6588806510884591 0.017835110863419868
1.1924295606846795 6.48955568091038 0.66529868420507 0.019993891340124297
1.1183873827905213 6.492461982647742 0.676348199638526 0.03741859879946279
1.2500717972001378 6.489986632137374 0.6714323955962527 0.02048149140428501
1.2931306474241615 6.493921169199916 0.6731178184319487 0.033833402731734595
1.2593489118238739 6.489206908918606 0.659369067888022 0.012528021705011222
1.2690751067662798 6.493632395070299 0.6526929516752653 0.009402891185400362
1.3100723249438884 6.484240280736426 0.6429897864421951 0.008454347295236534
1.2090209969568186 6.4880623356694045 0.6749673348047991 0.015699032009046775
1.3296362661372472 6.490667658449502 0.6439988359800511 0.009076860032374186
1.288315635414878 6.4923692483498945 0.6447315216602482 0.019187011002355214
1.0919348011652097 6.486875423103062 0.6851311216427435 0.0313464286156956
1.2734460800471414 6.495963027309628 0.6496560130610357 0.013974253122135332
1.280038482866816 6.496869440334621 0.6318544049907924 0.017167540302975192
1.1269865024222476 6.486027931046796 0.656046349640434 0.021213575644521886
1.150661893722769 6.491220882828276 0.6517943252295991 0.017081085778054835
1.1844456290756409 6.49645057236329 0.6566780842861044 0.010163286597394836
1.2061326693577294 6.481618826203888 0.6250590438740744 0.009695040513982837
1.1591740998152755 6.482914224550324 0.6710194173172277 0.04203931236232235
1.1177964789400547 6.483137945168039 0.6598432758528684 0.01649434046651403
1.1501109063704422 6.488026341361985 0.6546264482055542 0.01897743594309181
1.2272343070555887 6.486307561888216 0.6403491156412954 0.005487596220266256
1.2468570245990342 6.486864494707311 0.6355212005632206 0.010526399106674172
1.1673002310546674 6.486299588172189 0.630101677607536 0.019791486801453557
1.0998198126708087 6.480666953325288 0.6654977451873231 0.01411994612576572
1.096868661147927 6.490655596621805 0.6496471410415011 0.011899168655743095
1.1126383624426266 6.485785242782129 0.6352422475924231 0.010846995949092261
1.135216922802267 6.485556941610175 0.6289322909773192 0.009030877483044352
1.1164923203789998 6.481138904731983 0.6512273345538246 0.016556222263525818
1.2156147510592528 6.483567785447805 0.641192030400791 0.01154940574336823
1.172112599692209 6.485330083400064 0.6506286980966741 0.014845832668233918
1.113384014710483 6.486369694623299 0.6764500174846058 0.052758765691304985
0.9960332161917592 6.490808083197719 0.6670635042970307 0.015247178103442107
0.8354060045604011 6.486975277776164 0.6506283443076143 0.018787748182876658
1.0128257468522246 6.493997110105729 0.6700392522247205 0.028486091742583496
0.8168745600610929 6.492749671547436 0.6720832502059755 0.030430775493692063
0.8097969393823713 6.49074900881063 0.6739138829281834 0.028387550251906674
0.7698895929080072 6.49197742311165 0.6443908519545309 0.023739812712741313
0.7984159433813554 6.5007433037740245 0.6484057152974236 0.00601665600341268
0.8985296379002217 6.4929655267480575 0.6861740076215672 0.03263770759136235
0.8247663246288909 6.491938466937399 0.6397524698804677 0.015419866608483494
0.9786112305967442 6.482813143475383 0.6754064046104591 0.04307682209811236
0.9652252698405618 6.485087357854122 0.6646021238043341 0.01802715058719817
0.8832637998542402 6.490604000611959 0.6688843261403405 0.0289664528562235
0.9625944843705698 6.484851054042622 0.6645910932446705 0.016319918494505554
0.7864986591798563 6.490240857722705 0.6683804702714219 0.012682893687613868
0.93244301305252 6.487161938814509 0.6703878258692236 0.024072035728606552
0.872237954381509 6.490981928782526 0.649640294251582 0.010257355902982582
0.8996438873642046 6.493870872643597 0.6672108688499514 0.02415574908782475
1.0039239248272722 6.488291253733308 0.671965297373557 0.026751100807213293
0.8712328770573932 6.486199698227383 0.6419063932230409 0.011759712860146012
0.8625934972416194 6.496600601432928 0.6713963313309759 0.027112707635231135
0.9087684352050308 6.4864934205735665 0.670315407166521 0.03619384031781895
0.9315026919413538 6.497130826270197 0.6625969061895162 0.012167070160509096
0.9246638976145105 6.492738110147323 0.6630834145567047 0.014380431721078524
0.8513396754380065 6.495455782596997 0.6648343705692141 0.02089428486939318
0.806468162914766 6.49069168383751 0.6639010448029978 0.028119403749307624
1.026199539069885 6.488811969420921 0.6735145823144207 0.028674869345106237
0.794946562202101 6.496819703911887 0.6686041063943213 0.011100603961279409
0.9498689249604628 6.486503034553633 0.6755926207542728 0.03677777013934203
0.8329346402154192 6.486744459078097 0.6546107604009388 0.019600175113975132
0.8573205852872847 6.492990597881931 0.6568878386375215 0.0258995301078662
0.9034266522423614 6.4885372614115715 0.6616132734005034 0.014697383423028383
1.0509289457731246 6.49321217869217 0.6367494114706955 0.014293570371941159
1.091813545012517 6.483532096029346 0.6582917976701139 0.011660326567505087
0.9027542002142152 6.493238608473286 0.6353439698579794 0.011753973725705606
1.0032536957390124 6.490930642802354 0.6687278746431686 0.02611712460776477
1.0624697088288315 6.488068950245983 0.6671646471336614 0.012953895817585832
1.039232947517976 6.485449961327169 0.6383283263485171 0.012928298273117016
1.0369265462361386 6.49681167898889 0.6601075124169482 0.012198827869666829
0.9317936747648565 6.489079787001983 0.6353352849513044 0.01863901452268065
1.0088347820743346 6.494036618621344 0.6363325761963513 0.01843465913552651
0.9693796913063435 6.488403635422996 0.6514059065984428 0.016282479358326156
0.9512494764042364 6.482569744877253 0.6565891733957998 0.020521663239696716
1.0295337565902283 6.493902032906248 0.6633529607088888 0.014808191934731567
0.8612342884625543 6.482920937257859 0.6284688101378005 0.015575001493264037
1.0062864882853202 6.492165434671339 0.6523572588429981 0.02041652189707262
0.8499628060621262 6.492274815769035 0.6402681158588712 0.016977202940901034
0.9680029919721617 6.489028315049077 0.6346728732437181 0.01911607516244029
1.023970869117242 6.484097921172017 0.6380296932712921 0.014275564210503112
0.9949282394861203 6.483008118057764 0.6407041140143979 0.015312769466281607
0.8388926552133479 6.484848969704432 0.6296244501515972 0.014829983636241455
0.8915934230165968 6.484508381633047 0.6347517440703039 0.015739823008461665
1.0926105775848929 6.490373442363272 0.6317261994287859 0.009476440727049326
0.936951787001804 6.489230254599405 0.6452833576603828 0.018643716880735444
1.0094023057433166 6.4918660604923035 0.6503328502440822 0.02166932500539161
0.9558457133217122 6.490671109620707 0.6482832644482501 0.029147852297187637
0.9883393512512326 6.495366103949984 0.6614212005338398 0.011869838373304957
1.0644617451970082 6.490561702074593 0.647042011704176 0.014291833687453808
1.0727820630459535 6.489866019921401 0.6612719218131424 0.01305108881033598
1.080362591662068 6.487826401411181 0.6747373954645272 0.015073043730483425
1.4198257919595632 6.487344565997717 0.7013110447685342 0.02974415685249127
1.4381634128906275 6.487674569601118 0.6796176240488766 0.01676426034501757
1.4441057555537518 6.481842071672471 0.688289470858697 0.029547823837516966
1.4607311963716383 6.488288638355172 0.6888677842159667 0.016443591884833988
1.4833583151526917 6.487361924265653 0.6960836638727199 0.04861208482457559
1.4877233786111854 6.485182181514603 0.658338764370905 0.02469711340961243
1.530754962532148 6.480640594695518 0.6653021077843697 0.03314695812121386
1.498502867136326 6.487026914527256 0.6631223459087526 0.031216832761086506
1.4908399776996581 6.477895732656315 0.6749020922445801 0.05007749093865104
1.479212281160732 6.4882537015923765 0.6414802235447906 0.025040289377186144
1.5023840924032341 6.4909840562069565 0.6734216880209613 0.028266504188267448
1.5085901431890314 6.494777175004006 0.6677262061038343 0.022491717410467436
1.5187286663638473 6.483814290384896 0.6307540964609748 0.00906432580322184
1.5054677910280527 6.485732588990075 0.6518367815889361 0.025830884792007843
1.4265230817619214 6.489714888206587 0.6418602141401227 0.007335739018107565
1.4316673063617715 6.4905865940820195 0.6642433068988712 0.0063488100871645
1.4324278680239384 6.487305944162743 0.6755640458861808 0.014996058234044282
1.4461868417982155 6.48716952200473 0.6489808623212143 0.012724647771568206
1.4635496798127496 6.490143479791183 0.6546737792993764 0.010071459106374267
1.4501706973316548 6.4874328447410985 0.657831558480121 0.009254873202069821
1.4579628934451432 6.4924863255870395 0.63396228920163 0.013391183453313969
1.4208043540980184 6.493109426237753 0.670364655769276 0.0075272504998662535
1.4141842244171365 6.490321744481602 0.6244675422291868 0.010915004096881734
1.4165584706273764 6.485053807235528 0.6359217970415851 0.007368812655404013
1.396012966365352 6.489469685471019 0.646668569498307 0.005320671966636333
1.4168449499539293 6.4893645955137105 0.6716967417870093 0.009901588039378247
1.3362660457322442 6.484376403411874 0.6479874545774441 0.00769025485128288
1.380320680957688 6.490198368386888 0.6746433122505265 0.02533260628608554
1.3500389433348547 6.482574893044158 0.6678041545373987 0.020078796047263363
1.3523784423103664 6.48656768774436 0.6820106244144534 0.03363957006314658
1.353880988868107 6.485115028682572 0.6524651973204834 0.007080786668989877
1.3673938117391582 6.489053322702002 0.6449238223044688 0.0073093434366357825
1.3940256447758428 6.490558975548432 0.6588139170780679 0.00512608134361094
1.3542628933383034 6.483866292860474 0.625861090334004 0.004549652422815788
1.3815414906629142 6.491824475244868 0.6627732229288074 0.008087842948328124
1.3336348717542046 6.487220765920766 0.6238461517909276 0.009611542971858454
1.3667774763675822 6.490093127675106 0.6601949785752201 0.007549464310759489
1.1050127285966853 6.479025597083307 0.7075053990374962 0.015076248099744068
1.236099858772259 6.478842655277461 0.6978541710977515 0.027358498619818695
1.1288162415534577 6.476013719410683 0.6976855147518534 0.02380154295489032
1.1922477268262264 6.48482535374259 0.7001865935068838 0.03345608735803873
1.1140781472840142 6.476912148912528 0.7003980795500871 0.04315498831893201
1.216047880902062 6.486263012818572 0.6957851261197192 0.02644743171942592
1.266273726272894 6.476219458644531 0.6987794854328838 0.05414181149913475
1.2286494188412913 6.471353418315674 0.7025090943333725 0.05678292535800327
1.1985538512150684 6.477710412836942 0.707260567412256 0.029869074651976798
1.3053484811577327 6.473494220219742 0.7089834919917176 0.030301212253562974
0.8391302151725576 6.484896177110823 0.6866861727968527 0.11123655214573917
0.9736702699702385 6.480987108286197 0.695953507281921 0.06183023648331464
1.0119939257331947 6.47854678368624 0.6979030047917748 0.06232176361328709
1.033405044657829 6.483898575401459 0.6911288564546261 0.015795662151315764
1.0333752986752602 6.482832204308948 0.692639633492844 0.021426367852905758
0.8615917930543547 6.493615686766225 0.6927224215103455 0.029526752647161276
0.934302529753521 6.4801777118061334 0.6934491439760826 0.03816892194592392
0.8866497715518802 6.4840008633770205 0.6946214271904692 0.05841465359333407
0.906151250635082 6.473384753496503 0.701745901340041 0.034208865909562965
0.8242301303362927 6.474718987038075 0.7032149662753757 0.02510799177405388
0.9850108863136798 6.468573351776803 0.7056223707598448 0.07317989220108174
0.7951582559842042 6.475038725774415 0.6999545157560542 0.045038803805878276
0.7932490281343691 6.483670553136198 0.6979639363752806 0.049155737637584275
0.9206903463174714 6.47396856396762 0.700822208599446 0.05161908462457558
0.943571314476203 6.482536920951251 0.6991295369716557 0.048408359815411674
0.941008674435756 6.462001332507255 0.7088590047641613 0.0055631238724193465
0.9006998366475003 6.462034758316751 0.7094023254552523 0.012277154194675998
0.7880021612362617 6.464674617072585 0.7009097294868195 0.05578253279513363
0.7913013797863887 6.4588193703333 0.7038779461025231 0.01958453878820657
0.9169480914763926 6.4629231500719575 0.7047280243021622 0.017984761257140883
1.0131072812116524 6.4721660329467605 0.7009150192144336 0.07811082629888709
0.8142654482153282 6.454190147218875 0.7053101859090921 0.007618965216763881
1.0323459982513004 6.473589950831137 0.7090149783018402 0.03943476875711637
0.7842488495712461 6.441779437703215 0.7092084255264917 0.005761809660370062
0.9361493083628674 6.464470864864301 0.7048083067500477 0.0351512101321326
0.8828088450230087 6.479090254459224 0.6987364170501282 0.04383345331042593
0.8680037326725616 6.462954782768349 0.7039892121442899 0.006810149840094689
0.8365655359807288 6.450626821319765 0.7050802287736972 0.016267904064549487
0.8542315385809062 6.479414460250251 0.6912571085509225 0.05476264045622861
1.0788664631816498 6.441333994203527 0.7056317511719433 0.007283186615550761
0.9704148409373168 6.4511267889147685 0.6998417472110213 0.009437081209226785
1.053470965126521 6.460978132372839 0.7086260185019101 0.024250211493054362
0.8521089516552004 6.449811052039815 0.710027175617968 0.010587771481304553
0.8821885009128211 6.449509703713163 0.7079321383864684 0.010377310790331669
1.0410873821779243 6.470668088539201 0.704152227570876 0.04357844891052366
1.0636372380032741 6.459162856948666 0.702494615384577 0.03074294387579285
1.0214505545299875 6.445760326932838 0.7047995046924207 0.009997637463514362
1.097920187581717 6.465735621303352 0.7067190437279268 0.03840354622369055
0.9871005877484661 6.461097817167762 0.705837143391327 0.045237478760483035
1.065589283347081 6.45447064962137 0.7050459172817746 0.021026684913978164
1.0098734129107025 6.449317380057619 0.7020041915968158 0.015702593466799867
0.8655199040908622 6.4519830768798 0.7098079716266128 0.015294903327815483
1.2367152140147928 6.464861740278443 0.7063992468174441 0.029033687373023788
1.2776845689395802 6.474191725453332 0.706822986753655 0.018584793309005202
1.1674617090352137 6.470593668528968 0.7049863017851221 0.04624068075938283
1.14858983226656 6.469729634515095 0.7002569198527836 0.04687438529817929
1.2159772195262004 6.460651983858857 0.7125934933821545 0.014152673748107242
1.3191178159426682 6.470593528802993 0.7022356635661517 0.020176676113316163
1.295357677907482 6.470830306395952 0.7100595499496792 0.02466792663579702
1.1876846841233615 6.477012243120625 0.7060218501806951 0.0344148654140489
1.1248702241990234 6.4680517129535895 0.7023115074358526 0.03810458891468888
1.1629895530373953 6.445173224651626 0.7068455625413794 0.0044939686746177515
1.1404347881652974 6.465199493358327 0.7061850693299525 0.021056029504328257
1.1040876608505354 6.43288256281729 0.706184866160928 0.0018739979448147359
1.172840013210382 6.457504561144511 0.706370812830994 0.04022466804634986
1.26461807550256 6.442316906372311 0.7080322590485315 0.006831662922361052
1.1071881452864407 6.471013897790206 0.7068506877600783 0.056967283933181026
1.3411697684113413 6.482596860694608 0.7009464382147433 0.037627167332515275
1.3829341154135626 6.485012303258681 0.7064369669521625 0.014538163211297696
1.3689294448811622 6.4806136698919 0.6927858756312469 0.04588932555947683
1.3531031042896549 6.453122954721665 0.7158824756374912 0.01900335540269055
1.3878773309886192 6.466697031927805 0.7055831445548049 0.06854167256167336
1.3948981873042134 6.477006175635977 0.7039940434578077 0.03549015774143619
1.3311431778265361 6.4515844881481295 0.7125285217762243 0.03774803263797752
1.3357064091962534 6.472073557403143 0.7110265256027429 0.019417234380468655
1.4728830146128515 6.443934125102571 0.7096841722407454 0.007404792687971169
1.495265756630377 6.457838951343885 0.7050825977876428 0.07204860190528323
1.5239178179682513 6.456437639626919 0.7015937265697835 0.01422479721887696
1.5068031693656208 6.468914545792374 0.7053905805795845 0.04748098951473472
1.4812705888204034 6.4815110969343035 0.7038816803149883 0.08502148186342777
1.5128191424053776 6.473528950575126 0.6997407973725838 0.03637350256766757
1.4931934380888088 6.475331630364549 0.6988156407079357 0.07809926307812394
1.4401931966368386 6.477236231920953 0.7015881666826903 0.03562557000064363
1.4767203807346996 6.476779661456104 0.7054090539754927 0.07213571169918186
1.432360785260633 6.475870260266475 0.7067976321486927 0.04230405226054833
1.4530869410765743 6.485656017139952 0.7066573943885726 0.0177038753430913
0.9447100830749411 6.422981578957453 0.7103524431192605 0.005200450744399036
0.9327252297912626 6.438391770879895 0.7110099262475592 0.006860571738225969
0.8328210375714417 6.441005998485141 0.7067588034197608 0.007467637664508272
1.0292155109480905 6.412944937209509 0.7061629884417111 0.0020070540520074026
1.0120652688815879 6.4341158597197134 0.7050247984389106 0.002229071408540021
1.0124524391175234 6.404232712429094 0.7045967151890744 0.0015464542919461106
0.9116649868694686 6.425467779621611 0.710170415405201 0.004810036741275739
0.9981729618161437 6.408858487291757 0.7083264901259656 0.0009250009233608981
0.8976127394543925 6.429922915768658 0.7070321213732302 0.002996055369042345
1.0752421194310844 6.447254198483627 0.7048385369707033 0.017273232226602986
1.0386094249151447 6.401195741226116 0.708165318094962 0.0001585292665944042
0.9761513825299244 6.428044139959639 0.7083055350917838 0.005680654177995713
1.0557283859911446 6.431676399190159 0.7068159277418122 0.004469344425961082
0.9100424839923639 6.419390415271699 0.7119488667563378 0.0008955861442898465
1.065855392810773 6.410485935262083 0.7060108706169976 0.003234550182100261
0.8075835571183052 6.415203498633083 0.7065823585435039 0.008287450909057758
0.868026965461352 6.394397567181178 0.7047883247072748 0.0017107608640546327
0.7845655402712 6.409749146972983 0.7088999223130296 0.002545367339250161
0.8257061341520003 6.4239807046152295 0.7149925434114691 0.002814188264296212
0.8876627140725669 6.38905000108067 0.7065162397779163 0.0006036808450458245
0.9453698622245021 6.399136876854665 0.7079555907455631 1.2627232791428458e-14
0.9695601054001314 6.39417114109164 0.7080421330140197 0.0011981142778428272
0.849086361062021 6.386541168589771 0.7051766993519142 0.0016108532774475812
0.9908749312523635 6.391262593859661 0.7068419738451818 0.001804949331625587
0.8908689757475953 6.363217549890399 0.7076020374661621 0.00010089688840150944
0.7805982768905044 6.378986467283167 0.7115478867442405 0.006700493738948401
0.8545799446883503 6.37519524541969 0.7039096722725818 0.0014417380176986892
0.863619866350963 6.355704634630241 0.7040477903832204 0.0005592966152137628
0.9775702486364969 6.372582813365568 0.7094508021972742 
0.9210645269351524 6.372569579074464 0.7102559973035695 -9.530622465404888e-14
0.7770087767714485 6.345666763235022 0.7162871593742384 0.0043319392441398185
0.8443509650343727 6.3652107403486875 0.7055236400970866 0.0004399756116591168
0.7933939552184643 6.37960878414213 0.7080757090637158 0.0019110923927614567
1.0701866750809754 6.357750758127129 0.7093106201972358 -7.470027158299953e-13
1.0310862941781989 6.35583123115555 0.7063104237286559 -3.826272813467562e-13
1.06322194143711 6.372874821296517 0.7059346550218326 0.0011833059746656392
1.026310761578602 6.3649553052134715 0.7051667541463701 3.0974927242287266e-13
0.8788447075183945 6.32139859806669 0.7102181498043201 0.02483986177948412
1.296408368337897 6.370573951634681 0.7068498120791769 
1.2240472480183158 6.35430706107822 0.7095426791828598 
1.143826384891536 6.368111546933996 0.7123758264739845 
1.099643665564685 6.373993058964308 0.7086804834308682 0.0021041223116584225
1.253209183559786 6.43765169457894 0.7107651731237247 0.0003989439201131862
1.241820640890986 6.425142834701803 0.7082814222596139 0.0015673059315904365
1.1407445085365804 6.410931366883525 0.708321770926504 0.0005407425879894068
1.0946831025314638 6.429756076073754 0.711117014045405 0.0011551198529353537
1.289091925812136 6.440880687522351 0.7060294450950632 0.006800428950134243
1.1065998739899947 6.3937289660202525 0.7106311909377232 0.002833425530650992
1.228199774309003 6.43623477817524 0.709203015818844 0.008324329588821589
1.1286515196929157 6.395819904548169 0.708453448875712 0.0019170570506095272
1.1781803406131055 6.414085885517938 0.7096023721531068 0.0032005926876472546
1.1524214907966313 6.441094917445449 0.7082262741680758 0.0025539694310770552
1.1865901224133797 6.421935709491226 0.7119564865787043 0.0017915100476556419
1.3191878253472447 6.380736547620517 0.708774266234743 0.002366654933982039
1.3171366358061463 6.418270538522564 0.7071776955417273 0.0007581141303730877
1.303902544660841 6.386095463477007 0.7043405904228662 3.9283648725047405e-05
1.1793832245344416 6.395533019201645 0.7127467386125029 0.001757699440206202
1.1706036832855105 6.389928184483274 0.7088070074495075 0.0007693628351467062
1.2060719693438737 6.417378801455352 0.7086670842393352 0.0011970443793455079
1.2269771322441758 6.408965393174618 0.7111322547420657 0.0010541011038931757
1.4821206907205051 5.54846638542331 0.5984615056011849 0.013177980059783606
1.470727236856834 5.5433847079338445 0.6043516688348542 0.012360416601541087
1.498365830535093 5.548073863266428 0.604677243265279 0.013982599823035697
1.5159112366144407 5.545795459103235 0.6107543244645919 0.015731187027827716
1.498543246725538 5.546303755782998 0.5918069703791449 0.014340091160606588
1.5106581224701368 5.537709799200375 0.6221574071018969 0.011788188536128362
1.4863777592367846 5.549820690423651 0.6475937628214964 0.02281687318545046
1.4898929764419395 5.553461661930668 0.6575492868297033 0.02652879022072001
1.4988295039017745 5.545755652478515 0.6767443340831097 0.022154235356697936
1.4841398969700794 5.542215683182398 0.6109971821702601 0.014406227273199764
1.5197118873742117 5.550220131536976 0.6374677252264032 0.024585466546718514
1.5295145546643039 5.54979259944465 0.6284960807201537 0.02661689369919167
1.5162975224084574 5.547218118662358 0.647095858388922 0.026914142397919064
1.4989718797402227 5.556060240571654 0.6487200071562188 0.027157349905256756
1.4509751068456331 5.544463297477525 0.6485603521464381 0.04809173271778105
1.4844306500925548 5.546921628735067 0.6767821126460666 0.03760724186690217
1.4510250351568352 5.546197348387081 0.6673622529090762 0.057074476571984
1.4694361410440795 5.553930831201159 0.6523635367355645 0.034366384729935105
1.4669265342359323 5.553053941315053 0.6342100713520731 0.009537498055195616
1.4652036503625234 5.551412125973274 0.6796351654882601 0.0868498880604964
1.4815450730656619 5.551991554378965 0.6562843478236043 0.042700197907779805
1.4466383342800724 5.550306053150279 0.634033981253898 0.05854744963321123
1.4281523834913699 5.538200687520241 0.6270646249935196 0.015586306938324577
1.4296057799344402 5.550807820268103 0.6556683783393806 0.05373041033007127
1.438076775439081 5.5488446025843805 0.6365881875731985 0.074166154554423
1.4277888596632125 5.551074765018129 0.6079455667005305 0.057079075081343536
1.4509587389482204 5.545503433766807 0.6155692698074205 0.02508884440093779
1.4584068083754458 5.546980594235762 0.6198048461204247 0.027494153128088047
1.4300010446011588 5.550871280968098 0.552236562335144 0.015029790423131073
1.473214569134756 5.539810921535103 0.5604249130683722 0.010162670661977203
1.4533173221962776 5.550849330153654 0.5823044722248557 0.009379311395721903
1.4409177600440324 5.552429775003066 0.5374107906559232 0.013298355975967402
1.4612827955240126 5.544125509965714 0.5643714328372815 0.01003697909356441
1.473849657062731 5.53977186440338 0.5752365218482621 0.009984270581481996
1.4698020506734937 5.546523225747088 0.592171243746569 0.012256588194964764
1.4629945028815718 5.541603623862252 0.5497369602750258 0.010375318697162952
1.4307648498727334 5.550788614454272 0.5821203073416829 0.015899038961100724
1.4192259282809576 5.546768462756906 0.5557502552298738 0.017832434929961505
1.4411069590971974 5.5464489158284325 0.5939304815120203 0.022637927834862525
1.451461665480958 5.548111349489433 0.5767609582476634 0.011578947101588596
1.4667740610749838 5.544452401530112 0.5994615092247116 0.013410077893022319
1.4498523778183439 5.5484974429566805 0.5769323285957095 0.011368732350628465
1.438969810701538 5.549876487381406 0.5685989396307961 0.014692861818645998
1.531550143670367 6.487199933453964 0.655430496515676 0.015239183490283772
1.5546028460797914 6.469836091389748 0.6503039901487011 0.031494766595980855
1.544468231602468 6.477732239808192 0.6845477350036151 0.009850451490943305
1.5309894289978139 6.473881741241795 0.6837399243019036 0.030136223365796095
1.5340777952037858 6.465364721331793 0.694705922820421 0.04722243392631285
1.5557378560778357 6.453730101910805 0.6757029387175064 0.052247762669711
1.125838412433303 6.494158314866493 0.5865658293926447 0.019602865636997736
1.135045063977427 6.493123446961317 0.5997360015496822 0.021782601177956076
1.3092814987233807 6.481789076496545 0.6238331212917334 0.00935044387358257
1.0993734517164042 6.48867354258508 0.5928269113197051 0.011298944601601966
1.1166398099428552 6.489573697700675 0.596472666729635 0.013303316071490986
1.2098795280819263 6.48769136621999 0.5775878068795447 0.0128078321229509
1.2800706803029198 6.493096898974303 0.6129908188831608 0.01958274424640528
1.2429733459802157 6.484976157111354 0.6054933265140205 0.009198572219710226
1.1780312409861262 6.485497454051039 0.6099153927416268 0.015576804759395196
1.2010843839017904 6.48965755345548 0.605158783917012 0.01153507346694934
1.2199969484740227 6.48824896410436 0.6242318375924569 0.011628953858589931
1.2296298019343597 6.488587798746255 0.6266581748134572 0.011732307690048169
1.1099235226378998 6.48811224899286 0.5699747593831836 0.009106014972663128
1.1465356325371432 6.49544872801477 0.557629668074737 0.013027233570324643
1.0958573866448789 6.4884446545950345 0.5543181102828325 0.006446286463885691
1.1177029166363863 6.493713310402908 0.5775031832683895 0.016526828884424825
1.1746654896757356 6.48872808938852 0.5773798450810487 0.015357546535801174
1.2055799284198907 6.48731393344438 0.5932406226948376 0.012152026426079893
1.2583740409086734 6.49167991514549 0.5995372118051964 0.011574712377937094
1.1746222979209946 6.4856450789850495 0.6317020112291981 0.014933397311714289
1.0885068353184633 6.4887291477261755 0.5726057739987837 0.009520216662288188
1.1509584718055634 6.489244477760362 0.6012609449887951 0.017745182631216588
1.1860083105171284 6.49125984461065 0.6145225648505935 0.009827423920511032
1.1457296485867123 6.486539213679473 0.5746227515679593 0.017684168437940493
1.187634100351207 6.482726123056123 0.5843660807498262 0.016326745182806655
1.202398496246141 6.48567474432028 0.5901270134591234 0.014072963838102989
1.128901800149652 6.49608983262396 0.5873036602333496 0.023867254822121074
1.098626812786083 6.488001080423244 0.5348533081801393 0.006900082704665129
1.1234732019816955 6.485298431090321 0.6154538707723608 0.009138561832094085
1.1636105933470857 6.483412315147402 0.6093312446704857 0.01609976238385274
1.1826772489687887 6.481150858427059 0.5932231634226358 0.01079366269383457
1.1408802230631723 6.493582596111664 0.5981606483002346 0.018935992391001896
1.1727391973269723 6.489469402181919 0.5622356559218785 0.01355788317289155
1.1542551913895316 6.481645102162301 0.5718969398318609 0.012102464803738016
1.2698039971431703 6.486877200674895 0.6277228448720975 0.021206175210284957
1.1536881619005963 6.492284560641199 0.6199287445050781 0.012827755777193367
1.2228880319037196 6.4788509223841775 0.5882681355030701 0.007320239880119017
1.2653257892390486 6.48561628555401 0.6321507015882598 0.008158664077408576
1.224392311694986 6.4834536763464214 0.6104209725437201 0.01251325015889333
1.1052080591519278 6.485032734807505 0.6294751805668827 0.009575857170715709
1.0984714192712897 6.487028767009291 0.6137005485077991 0.012963450163424633
1.2847238402825034 6.489286808260627 0.5859812487051886 0.016442148359026965
1.2815826218589237 6.491171444200442 0.5534308667360167 0.014723899361134864
1.3182717114274725 6.484705096520408 0.5690535422422138 0.00991465002600747
1.319684957574855 6.488362280486896 0.6291852992849681 0.010951638379600672
1.2068716962562411 6.484139288737875 0.5681372116868624 0.01410062996362425
1.1622106685079445 6.4881174869914116 0.536012795665599 0.017368683192546405
1.2932486457648975 6.484086301338329 0.5819444185324609 0.005345595486920339
1.1606830627183207 6.482872207808418 0.5655003919176617 0.015846805927586922
1.236391050171492 6.4888196026955365 0.5656924363432354 0.012784398998800767
1.304074018302104 6.487123072720179 0.5363902652677595 0.019907052635132913
1.1848009880040125 6.492891718643216 0.550672896544118 0.01321647500263442
1.2711708528221255 6.49501768218643 0.5500427826814821 0.018393911806588777
1.1299709535699922 6.489683764483024 0.5492755356046752 0.0152471172437203
1.219612075370979 6.486560099178939 0.5655667641384463 0.014042853639749726
1.3112656957220143 6.488679220229956 0.584296862830094 0.011155552945451824
1.306783804100471 6.4824923594824275 0.5479088771619465 0.014627887021931693
1.1722872255137209 6.486901818276484 0.5457859928952733 0.016293247615334242
1.255052316648521 6.48235446560506 0.566666212608915 0.010370142507763962
1.3206585449306107 6.486768174534419 0.6118395967288879 0.0076188368854111475
1.2587424697524927 6.489970100407675 0.584966667813568 0.017459250008728066
1.2887889732985929 6.486985802161094 0.5967065583640647 0.013131086218195018
1.1963032106833897 6.487060627999177 0.5450176004244808 0.009888797562842038
1.2038363130989451 6.484973606654715 0.5380373431783932 0.01531715097040325
1.3090352509502494 6.484128709866173 0.5634867050293808 0.010945666503342704
1.2314173337157994 6.48504974540039 0.576229219596635 0.012613239618687152
1.3253175735866374 6.492798895348777 0.5474183631190207 0.005833954346290903
1.2508602072154302 6.4961919902988425 0.5431535968970419 0.010246206632508107
1.2179867605618715 6.492144162949086 0.5458956328046923 0.019089475312371658
1.1240048477124172 6.490567307266135 0.5300749961059257 0.008801413220405854
1.2148219058603174 6.481609742017587 0.5230064343503456 0.012314220854256104
1.268482675754961 6.492255541468905 0.5698806778773037 0.017585472837070803
1.2089676584135398 6.48658910642826 0.5562704355082139 0.015259343196192394
1.3028347409628571 6.493428748394396 0.6011208233003414 0.007124215126275384
1.1113485541890291 6.484761792429207 0.5406344651369551 0.007484597277742423
1.2373340642069892 6.489745228897528 0.5303152897592488 0.009989253578409855
1.2487896610738585 6.489170363048095 0.5838944526659526 0.01437013718568656
1.3286729707358544 6.488462318628742 0.604068631942344 0.010568029056892475
1.309561408080944 6.483629350333145 0.5499354525021365 0.011496815932331473
1.127732020639423 6.492161165573352 0.4754118841681084 0.009960663023236274
1.1663954235580962 6.482363511164218 0.48420206564639995 0.015521341833482064
1.1180084190044035 6.49259546569982 0.4202387505014919 0.00663184647996996
1.2067119128789556 6.489195218744888 0.4302830483710271 0.024934425542778912
1.1103787989089091 6.487288488405485 0.4855429071185599 0.01346962188753956
1.1832628338891857 6.492036128382713 0.42502014568681634 0.01115539666810781
1.1710042410853685 6.484713484524646 0.43169971338856844 0.006778778453635696
1.173061925799493 6.485784281655455 0.4475719448367589 0.010520903915700472
1.1148225678993688 6.4910094478166265 0.5062150486679703 0.010642346509141528
1.1354829051001305 6.49250768202104 0.49392871559926516 0.013712462724411787
1.1936421123486656 6.491101508786372 0.4475836284918449 0.015155970000944895
1.2162208677569988 6.480521874771142 0.4499484376044319 0.019963216904476826
1.1184880308202292 6.4895874413554315 0.43617786247830936 0.006240880705199741
1.10062237694917 6.491627488816222 0.46075707043615255 0.0122436635029348
1.1108866669859194 6.485329173857832 0.4900015405893162 0.01285063248232274
1.1132277555976542 6.485909114328753 0.48920134297603945 0.013066322895527085
1.1581586784772648 6.480401797210193 0.48471389396224085 0.01730150471756375
1.1415069476918362 6.484793044570116 0.4604179125378621 0.015212974613098562
1.0891800267485512 6.4925927697063885 0.4389923010570002 0.014526234337266923
1.0970958528980812 6.493353871944504 0.41627696790902996 0.014203641374048536
1.091799950273737 6.49152869839736 0.464231635535314 0.013480391484742766
1.2255899410311126 6.487011222949915 0.42443034168413973 0.022998184285481626
1.0913052816566373 6.482937218333293 0.4888959683306766 0.018055118802739765
1.173827098271008 6.493655993164502 0.4727831460128354 0.012935894872066846
1.1419437000215102 6.487446865279709 0.42325272069899983 0.004970357195067044
1.0962477365762664 6.489620576770903 0.4675417072400088 0.015657060419553864
1.1197193753475518 6.486035300940135 0.45556810465433806 0.004708897885098041
1.1502268435605154 6.486071916190044 0.45233926962550836 0.013721116847352546
1.1813895782846342 6.487854429077042 0.44404266037668705 0.01827934634827062
1.1884873274369459 6.4910444651095265 0.46741222051586917 0.038375073212543236
1.1471138709874178 6.488703865234025 0.4305950037944899 0.005252346634465968
1.2312044131520579 6.487750342388961 0.4121892257966062 0.026246107157523638
1.1350611890833975 6.488476257717446 0.44264931196347457 0.007873215594421052
1.1304913597156947 6.488387075743575 0.4401785793179149 0.01018609783790396
1.1511297331867436 6.493998063726814 0.4095152964935062 0.0064248612006150745
1.1053464363418335 6.487143441909269 0.43028907863039095 0.005297425490182487
1.170663103345138 6.495907089391702 0.4151448862748596 0.0071731710622664506
1.1628399979266815 6.490623978368212 0.4713750554914968 0.023402492951485665
1.2699396953785962 6.483735449344676 0.41666961298655175 0.010427192006985553
1.0901961017522073 6.487975266495756 0.4507324731298313 0.015488175748804494
1.2646124923770727 6.491656855457671 0.43849360124860864 0.024585740110857655
1.2363836988314114 6.499413023950384 0.43472582124630127 0.01192221306561821
1.2452785543332854 6.487190573396224 0.4579037792009099 0.026762601009186215
1.2707392217004352 6.489626704248165 0.4971513455523826 0.01856942327906982
1.2625529454734088 6.489915475567541 0.5296715637144542 0.026957404384846957
1.3180046809464945 6.487981627930808 0.47707750296509943 0.008557335302446662
1.1837868653848174 6.493473726996899 0.5074823943656397 0.016076594385359144
1.1910571540661345 6.480281661994189 0.521140715235208 0.011308466054722363
1.3175488530731168 6.49361540461504 0.41815455491452136 0.02034682921364098
1.2000910883406806 6.489398747893966 0.5082009765861047 0.023540949237587216
1.2904330242222963 6.491978467525349 0.4264911432869194 0.011643012921973223
1.176114104776204 6.48664757155511 0.5118038782468306 0.014411455143031094
1.1778136315240413 6.483083378048857 0.4941369758634393 0.021433026998413967
