x y z curv
0.26309815464141495 7.7472178224607235 0.5821455596870708 0.03177964043347772
0.26898031914875276 7.751626404841046 0.6207059134215882 0.0214475242020094
0.2697853425326085 7.7732151925972115 0.6285117044100393 0.010513240881558606
0.26712063294956867 7.853065047191098 0.5967400061856363 0.010289253104649926
0.2743947167426567 7.796984797481385 0.6064567449350212 0.00484128174910205
0.2695703212062777 7.828482475834591 0.6048623601895565 0.011646027378819672
0.26908702393263784 7.820991425581371 0.5943791269785936 0.007750293565740059
0.2679822116563745 7.827873829020063 0.613558637156346 0.011714730153544028
0.264887893202346 7.801769079128848 0.6181020693281144 0.003755858958320038
0.269543665584264 7.805198646912207 0.6003946355023683 0.008983794738099009
0.20995699821349947 7.70840253067182 0.6984035734912822 0.008715753540066927
0.20703236809863926 7.69742941837122 0.7267496046202697 0.005677075518975679
0.23063234376523187 7.71229877239755 0.7128079947674355 0.014799233012496008
0.2248044703065955 7.701340763699925 0.7476094327082264 0.008847280707733744
0.19483368231263173 7.705716094877958 0.7486691452933432 0.009057266643929024
0.22186758827341754 7.713797463124308 0.7802260260095981 0.0403855369850787
0.23048211520884018 7.7164688598568585 0.7681298576402963 0.02833995832022507
0.2087088644274143 7.702143164549281 0.7749569033098537 0.014898051996338924
0.21350495171001485 7.707175768874445 0.7754204640933874 0.025535759427697553
0.19539969647562702 7.7052771039697605 0.7727388228617905 0.0168307072176227
0.19124482978594856 7.706105074852844 0.7608259471206674 0.009207729784610612
0.1738539261734731 7.709021802306506 0.7774755563753363 0.009747213006130174
0.16892546331425337 7.701774098366281 0.7646124595991098 0.011215437465288181
0.1523007093129407 7.700494836004124 0.7685071180981047 0.01033136129692472
0.15531029765320428 7.701682523776973 0.7190988718471107 0.009484446917770235
0.1626848206796428 7.704595474232565 0.6957141873783083 0.00396011026910897
0.18926054498308162 7.7067996147577205 0.7105239934697353 0.007685451075612519
0.1623538742081274 7.703884344151353 0.739958592626028 0.008682798812592084
0.17456802586315126 7.702980140435953 0.7082971993684041 0.006137876952858632
0.167401060875898 7.703423586808328 0.7388932838210063 0.009153418063155238
0.15228950206816044 7.70115666996926 0.785109094416272 0.008725612917065459
0.17681375144764044 7.709091833700414 0.788230543849894 0.01242069164891724
0.1743486978312883 7.705430169787341 0.8063629051480278 0.035571934055018295
0.1927688903722058 7.713301716820094 0.8113311276384108 0.015472788014493907
0.20413059729194039 7.7146729289602485 0.8321989460443129 0.07980959740155397
0.1542844084312532 7.69481434121831 0.8250343389225839 0.02718699670868457
0.18907611913059824 7.705384671017719 0.8288679762524481 0.04730528882648664
0.1570525464295231 7.717199777099948 0.8352612739778055 0.054576873206244846
0.19717033658502722 7.716658596270536 0.8417535862597961 0.07486879445180346
0.15336620725574326 7.736385136679705 0.844245970530673 0.008059404781847539
0.13867531835364233 7.73409273848566 0.8412749387881244 0.0197783077752298
0.11618350557090341 7.730527406634859 0.8438904456002081 0.023243197882198436
0.13750737395089632 7.724543026992645 0.838698353329756 0.014127047636994954
0.10213902340912388 7.736867326681896 0.8410777762881363 0.02696608874286655
0.10482527439982357 7.729075566174061 0.8372021161904843 0.03754997604763573
0.17285791039979567 7.782424094643605 0.8428682045933594 -7.852656731747701e-14
0.15306440255315593 7.826640245480827 0.8444867325456974 0.0003616462881025291
0.1737103672268708 7.8139296981261746 0.8471294147330165 1.7422484160440236e-07
0.21490814835193275 7.814528326004682 0.8464560470094205 -2.0722312041985288e-14
0.22352579364053307 7.832480326695409 0.8408217024104232 0.003914178680843815
0.22342305888297376 7.787895908316947 0.8353182963446463 0.016959605655326726
0.201238645715446 7.770160896550878 0.8362882297492555 0.0002066171123656589
0.20078131741462452 7.754130820024767 0.8354703133025162 0.00808559637244553
0.09056496258397842 7.764297332952364 0.8394727475776567 0.008163201993970337
0.07660485463709245 7.789155672387823 0.8516024133998596 0.0043163003821575585
0.08356928645107843 7.81318806690762 0.8375108554143795 0.013775605202278867
0.07147202245318328 7.825054026440193 0.8395158024463061 0.015124741488145783
0.14738182638821845 7.7627901757385365 0.8456175193432699 0.004020639445994184
0.11562189959219014 7.7623848430323505 0.8419693273528405 0.005978328115321334
0.11897869209792834 7.755614945723513 0.8439441020671147 0.008658038675716032
0.11499682813270387 7.81866367300168 0.8463333849686444 0.012625518696217388
0.12631031639258722 7.823534974952152 0.8456560457509636 0.0015450043951967872
0.12457068002046617 7.801841032773619 0.8467489318773608 8.76052595091068e-05
0.11757329326114027 7.779555286787255 0.8478265852391029 0.000610599845995795
0.11093581001939558 7.720347961458053 0.832968281125134 0.03099163139693884
0.08559612455276402 7.715773707892331 0.8294745278563951 0.03135507258269938
0.1504417676733415 7.702582763005037 0.8269007175907844 0.06112089953463558
0.13277397729971074 7.715792369981453 0.8375508531298884 0.011365384694942264
0.11402786094525869 7.71877267804943 0.8318220885180835 0.03275462588691133
0.11644132956742935 7.6992034373646705 0.8116591323484122 0.010941536480594729
0.07979450120943335 7.712520539051295 0.8114037681577101 0.0381263060308333
0.12312599922396525 7.712555613060671 0.8233604047462576 0.05314710921703776
0.09589446106161964 7.710570369701344 0.8175652619223821 0.05654099665096836
0.0563368699456878 7.720566753208179 0.8207145338368963 0.06799126663130343
0.039410511525340364 7.7278981781844855 0.8211169663157584 0.043281800299491274
0.030983029838671926 7.744525080897374 0.8132230168573533 0.03434336743951238
0.06928158590377262 7.7142261462315895 0.8325636087182393 0.04203099270956747
0.05806737800286588 7.738554517577756 0.8442458680200525 0.0448435901681417
0.04844505163215506 7.746449882683207 0.8381089202104955 0.048070977900381485
0.049163423031754326 7.727399737509372 0.8415824080728406 0.06359441024021996
0.0612865034372897 7.791420835342068 0.835766136272576 0.017199648043785168
0.06355698728111565 7.788543745440643 0.8397031805256986 0.019164036694517956
0.052287641165543804 7.811232016702154 0.8364196470562957 0.022863971501815017
0.03830999024682252 7.806286594547761 0.8357050201546448 0.018468235471280816
0.042932087897004555 7.81608949772541 0.8295135482951852 0.020279864271352026
0.03708753771047193 7.744916524057276 0.8214947678913828 0.05196434505175187
0.03677524967422705 7.774330911517097 0.8365823002216486 0.05456161267378566
0.03734435087685885 7.765301737938518 0.8326455286857354 0.05252354169959293
0.060429741803014594 7.768334335322073 0.8413068709806256 0.037580324629478766
0.037406764878895424 7.7687013312781685 0.8334598042040533 0.05376589663035355
0.05516656163820207 7.757830499796016 0.8343224617331342 0.07931291775230982
0.03247408598388853 7.749502759350622 0.8103487254223134 0.03649404147920255
0.023321336551906054 7.787431337084553 0.8142420484399618 0.02580195586323736
0.023202387287737266 7.819743957999542 0.8171733568418832 0.030461673415916938
0.027376662066791138 7.766814927852934 0.8183338809711619 0.03993222714291664
0.03217761869617301 7.789318440336338 0.8273743641213815 0.07083967839849128
0.022634176675795873 7.782344155739184 0.8222564429340813 0.015656608092381313
0.2162919813947206 7.710656035208879 0.7842048232976581 0.031659333529399335
0.19392192764457183 7.713807343841979 0.791979605741236 0.013364131210935742
0.08451959646480837 7.709491956456052 0.7859517786074156 0.010082994471102929
0.07342728081682184 7.713304533742366 0.7928161595186793 0.028682120259066975
0.13465850607271693 7.705333878759884 0.7956371976865704 0.023221571199884727
0.12671118781423243 7.703290173033205 0.7866126315022499 0.021153830530506793
0.12164316473098863 7.700029655201105 0.7813858229955282 0.005276862621291432
0.07755793579861064 7.709591226248376 0.7049808196425043 0.01835065746601017
0.0775039209677119 7.709776003688828 0.7321157672265872 0.028331400920101838
0.08569121379886575 7.710402891379196 0.7190645125411024 0.010691121529762135
0.10578239575070764 7.706549406060817 0.7150736719323854 0.0074155522470079355
0.14443025949256064 7.693208086081773 0.7425001985988444 0.005202837196214193
0.11487052290845187 7.701302274122912 0.7335999946541045 0.013115330643571012
0.1302430550887975 7.702048697162174 0.7266425509837934 0.017346833300248898
0.11261621109621885 7.705540604247332 0.7215894735582469 0.0071531808749177635
0.13538619070882957 7.700889551679952 0.7145699935803773 0.015588968528853518
0.13788223237335165 7.704681997289201 0.7681240867297022 0.02363785897250579
0.11241752554850304 7.708626007425605 0.7568754644523604 0.01762230777620461
0.06279442602655526 7.71577836792265 0.7714162134986211 0.033004713697830035
0.08562739041780973 7.700659699806667 0.7522174185145665 0.019724711566997954
0.06077163585708856 7.708182592170041 0.7553460521503836 0.01617604796040543
0.09361256015539175 7.712425671472578 0.7798478840415236 0.012454467767674367
0.08735202798386378 7.701430722383193 0.7564975174401464 0.021068340226802693
0.06748396672073505 7.710400935528146 0.3011375829401097 0.019065610588827015
0.09528964833633777 7.708942057453858 0.3149493452398482 0.005648631580809252
0.14458560758353706 7.69729699672455 0.3630495683551721 0.012159347494367695
0.11691885964971394 7.708005043862699 0.34488524670824994 0.0128662068878921
0.1174582462698102 7.710627830769491 0.3553395575705428 0.010615567314117726
0.13500394167062943 7.704313962898001 0.3347981592955479 0.013890645907411445
0.12302777935455161 7.7048289753179215 0.340022647867203 0.01049687246686803
0.09168751600652753 7.708354971402442 0.2885200948421901 0.002840501356965861
0.15091247167324504 7.7071467497273485 0.28268188544449296 0.005601256267841263
0.21678738437733722 7.713207176499699 0.2882475364555299 0.012892150132890022
0.1993227512432094 7.704681697508985 0.3672568813031886 0.006430507847692332
0.19384931764026214 7.705984707489785 0.33483703858802755 0.006404995917647542
0.19696516305609527 7.702897039587476 0.359793600468085 0.005294001779026759
0.22920830078024146 7.707313816796315 0.3283452178061362 0.005204496700820117
0.2070466891424474 7.708017668996563 0.33064506478048483 0.004904352247269415
0.21397420929608088 7.70679898542699 0.34610679218273527 0.004337959303381967
0.14657682537132705 7.704403619076022 0.3299852992573935 0.009592190956172352
0.1677769727851314 7.704823034072101 0.3274299285658898 0.007765223385176372
0.15726695369349142 7.702582575437062 0.3515502796809664 0.009531130893518841
0.16129794687545 7.702750257331263 0.3669753520227679 0.009636107332914971
0.17252884094271523 7.708208279746381 0.3455502586471716 0.006294982566184221
0.1693154724079266 7.706016357645174 0.2971565902307414 0.006667136453732183
0.15461326922784585 7.700842123919105 0.31070186364885966 0.004391597518979449
0.1813173650175504 7.708673064397095 0.308031774897038 0.009395522632198512
0.17559908761945367 7.704396098895772 0.31226772024735167 0.008280211501906602
0.2208776937144209 7.710560718188469 0.32222899881527123 0.006931671905890361
0.22141288888650662 7.712573314431039 0.3184857802505234 0.005990961768274335
0.2232901867684815 7.715023757113431 0.29513204438038093 0.017161117757589436
0.19476409358083308 7.713426791363405 0.30607326166533827 0.004506150089526108
0.204585851673824 7.7103261242986125 0.29701772600922605 0.007572749482333477
0.045218139538491506 7.723808372951266 0.7449242611208222 0.03331182674784319
0.07021812353053837 7.706728294774041 0.7410466218305661 0.028012660976650776
0.05907264329876999 7.711681630379198 0.7230193678040348 0.030157747774565355
0.05622217764316341 7.708020663790158 0.7063065541507247 0.01801645929224583
0.04478967611378313 7.726998768262375 0.711927567873244 0.05235981478199987
0.04754556759006751 7.722551856312633 0.7070781041530269 0.05539470769274643
0.03900630002115278 7.723358738639203 0.7369820607491966 0.023784958509131916
0.05647099781387968 7.720314659234868 0.7492435818869562 0.017915797968701665
0.05542881216608639 7.714211449331338 0.7688561333810408 0.026286668897920654
0.03828800918802441 7.727382498947717 0.7715674541960289 0.019965718237774745
0.045328723024403085 7.7305894106278314 0.758901880731321 0.03191529378661812
0.04467690922012685 7.73427624870077 0.7757676766884903 0.02708613527064377
0.03274693213515565 7.738756741280437 0.7511899229917248 0.05298033892610143
0.04448846364660434 7.732603090421498 0.7486689720017035 0.030612235936530233
0.03477033303996087 7.745533789371212 0.7057588645582489 0.04254708947355464
0.040371541531924474 7.731714018351724 0.7011324038492467 0.04496130886924908
0.02000707835383636 7.739234430219023 0.7404822932951185 0.033632352943524055
0.024872356207596626 7.7393162622816645 0.7246488494275826 0.036413188493549555
0.042809267355562806 7.728224370838278 0.7304373696917807 0.04886201690473814
0.042494594045011096 7.721148043564853 0.814350022564389 0.03189100103894984
0.06125122286950662 7.7114512792351135 0.7950648441906847 0.025592094111120133
0.04877424868111436 7.73189536734247 0.8054104096206965 0.054186978993798075
0.03049028350571097 7.744038688743362 0.7955301687009407 0.028423593536387702
0.03112549050243216 7.742171483830776 0.7788394493571276 0.025009596554209534
0.0571025520651777 7.719707189510927 0.7858586145958933 0.03589390083228065
0.05002445242303817 7.720700244981153 0.7938187275422947 0.02732131430625961
0.023957894702296107 7.796662626567906 0.81910615496454 0.03264639968700342
0.024504597382693137 7.816139491584552 0.8115430385236102 0.03364480053446452
0.0251610771572018 7.784465258040807 0.7979308583670685 0.018895551271144315
0.02965132912641324 7.786355157639553 0.7921303564058492 0.018920061675039207
0.02395442712592873 7.8050195270434015 0.7856184768385217 0.027107816467994206
0.027517644032876078 7.787417822506261 0.7953294064206838 0.01787436850740434
0.028483324609823 7.781507134049572 0.7982390976804397 0.01965915641373332
0.03052270416000934 7.759092599882391 0.7852416407336608 0.02456335514487462
0.026474035387842734 7.769665368414154 0.8030631593220577 0.020688593110872414
0.02727152792294518 7.770124813260831 0.7964341895583907 0.018355337024761317
0.027739422390264085 7.751111098257818 0.8038079695201914 0.02523490494251941
0.027655234425775468 7.761506453915399 0.8101365734733915 0.03432936624002768
0.02234042391006585 7.816221743152617 0.7277071754535107 0.026231589297148278
0.02894942096855877 7.822200188487387 0.713572372003539 0.012870087853403819
0.018820092175466673 7.814965515710768 0.7446680683506098 0.06463338163905882
0.03193838157188924 7.757040064978363 0.7366010585890848 0.04148963420216317
0.03899626279127168 7.757529933085303 0.7127886120057285 0.03923975853456275
0.029361053253182813 7.752036099510406 0.7399169975808538 0.0454316130234651
0.027581285045525577 7.773461884142503 0.7166640476775626 0.04105522936359455
0.027543089800253096 7.773075662251974 0.7415755270906769 0.05089165540268942
0.02604151923864629 7.76836829130096 0.7075535303044639 0.040756984321549394
0.01761053162010924 7.771078129154753 0.7772106888222285 0.02785674416784396
0.03265044862138698 7.742333610523223 0.7700872998537375 0.03907192047750732
0.03127414216073761 7.7759228072771975 0.7616120212128785 0.02419121102115029
0.03154040193686867 7.769345626641505 0.7645671247511415 0.0236864327207463
0.028901839045567226 7.7510735579354515 0.753851501330816 0.04381249531801165
0.017224410557488808 7.804016934769373 0.7745832492841026 0.03305879482943884
0.020273769350913084 7.796599235414701 0.771176753555765 0.047094352055299056
0.018478577131070095 7.784402314242611 0.7590702853752567 0.03499495777506708
0.2448194559643127 7.71445474630586 0.329470542437749 0.010648124848768769
0.24769418680510547 7.714737902180341 0.35801060352377323 0.008492728408328175
0.2482633424818731 7.721060105064526 0.3703278801212694 0.014122343565803648
0.2444669605944126 7.720588577597488 0.292563577890979 0.016032639374236633
0.2454101329265661 7.710662020364714 0.3184556358675037 0.00828673980309982
0.25813083677715953 7.720753603472783 0.3419681338288894 0.0077700341100607005
0.2276747275368333 7.715828342946314 0.2802117697480075 0.025569265505052965
0.1925394400839734 7.834705548054092 0.8464445048365906 0.001784688687523208
0.21810066689943022 7.877892523778954 0.8375169449033828 -4.027578617389865e-14
0.20520201950690015 7.905967111490586 0.8460840396602061 8.930303866399832e-06
0.2325522577535109 7.8909226953871725 0.8345000374478746 0.0042466571184863675
0.24714425272956442 7.856802443113476 0.8269501921091269 0.031384055038842854
0.24002161012092463 7.942401707702307 0.8325128222914734 0.011211909856150403
0.2542980389081678 7.922435869958192 0.8259503039523649 0.0167262879396054
0.27012295134115744 7.873326469361063 0.8236139227244765 0.02767651937354796
0.2575159769459835 7.963337717414943 0.8260565851214317 0.04054313152116179
0.26014390025097633 7.9464299083038785 0.8185612426745376 0.028830369371906053
0.26498107321649345 7.8734333861101815 0.8003429637592828 0.032789006912060964
0.26592000805871585 7.88842776466096 0.8126890153113344 0.0537606648440584
0.2633994014068778 8.01599536003917 0.8097108617152912 0.008753739244948178
0.2611021740874192 8.039136843334608 0.8093138523549788 0.020507392588244334
0.26190359584094197 8.05671634774035 0.817953074269955 0.029573292557074703
0.26282583318416747 7.982305257833913 0.8118595932204773 0.009567750931936157
0.24970299070466323 8.0611970072115 0.8260383535088565 0.02666225591588517
0.2601020247505578 7.99539053966089 0.8243770222664344 0.006278961894196559
0.2583968242612531 7.974828584287747 0.8301575494327135 0.02767776828417998
0.2557245948875397 8.02803968584462 0.8235081580676042 0.016297656907581805
0.2616818006574638 8.084435311075561 0.8294692285185558 0.012998994360356885
0.18823178400980733 8.17719251990256 0.8442137149621912 
0.17464237574643793 8.194295831904142 0.8449533910515472 -2.255059877990547e-12
0.18205146784786028 8.176534001573298 0.8435580583006659 -1.8546086664285127e-13
0.14299566772758626 8.186711328074741 0.8445496532236989 0.0033744972601306225
0.1251657758437133 8.194036257108234 0.8484678803756289 0.0007389878245176015
0.12454088972336545 8.161925591477015 0.8421683958869679 0.004531927021406591
0.10389005919294353 8.134436792818866 0.8484224595600102 0.002000564410655526
0.09378135584375541 8.168913350077947 0.8421403883875426 0.003991618665363547
0.09368238770347279 8.152476497563029 0.8443623507015544 0.007568157128130023
0.09998091850032244 8.123959229402454 0.8416423093895329 0.002013926427018296
0.058803574311716324 8.129120955276017 0.8323298915568591 0.011458629376175084
0.08088712911003326 8.140842168001074 0.8423473203831447 0.0051710720626488025
0.11603893822150363 8.198151701986278 0.8467135927008659 0.0030327665052496057
0.11563454056593417 8.207332935819428 0.845247898157649 0.0044911733217664375
0.09510493696175869 8.18176624701977 0.8429648677754267 0.004802718311589417
0.07955913184833657 8.210834947922931 0.8410145629715325 0.007604806557419175
0.08764915666099488 8.208183630590522 0.8395850798071192 0.005480342728888226
0.07096142806217082 8.19324097706789 0.8382089348318488 0.005700634934584347
0.16157950294307136 8.120368764602079 0.8409054875289004 0.002357357601111565
0.14775814355118252 8.147076369063315 0.8458609116907174 0.00195768001133643
0.16064593431468302 8.141072439691165 0.8457350114064175 -2.531684070824003e-12
0.17281114588165344 8.139903059371353 0.8464946635358895 0.007342613534409495
0.19931878966452776 8.244587492568101 0.8475811089383499 
0.06811159050859295 8.231375279978833 0.8445246311462186 0.0059848091422193125
0.0692847070209946 8.212225096470792 0.8426858451863767 0.010536188792289881
0.09514920347921543 8.227887097155783 0.8450191533354817 0.0052241246053463565
0.09060984907875702 8.257963977662795 0.846495398020799 0.007078631940734494
0.09629385605937048 8.258030355400992 0.8465207707190291 0.007946096911837041
0.14311103189833116 8.244882557308268 0.84853093785771 
0.13871912946960724 8.22799926568595 0.8480306693281467 0.00011060259089078706
0.05601000585338334 8.167980942205887 0.8364033814522677 0.01277114585079513
0.06799138938524735 8.14856522568115 0.8397850063509095 0.005776251596313576
0.05926160262833387 8.107743311429111 0.8343104458990694 0.007381216444459044
0.037348693498161334 8.122898018663678 0.8288862774648182 0.0820789483596881
0.03564266676288249 8.188449167626365 0.8390287772709112 0.03839745731317328
0.030963665892964988 8.186127111446282 0.8265607833867816 0.07091517203584524
0.02245885957206015 8.197860633911239 0.8134990718728653 0.019929249426634762
0.023516700982887773 8.214033546618998 0.8283202395793315 0.0386550803921299
0.027411402002279338 8.171919400592927 0.8263181520867772 0.04223456763142988
0.03131156042456465 8.193085992378942 0.8283860322145844 0.07682016619136615
0.021160037009550194 8.163045948248609 0.8206209363251781 0.03429459647655954
0.026416035067580976 8.125494691221755 0.8240274773418473 0.07223723919515918
0.03132403385439211 8.140621252354277 0.8263843254971739 0.0553667991296358
0.028233717750512536 8.161654786279108 0.8234632713022879 0.038201768576365626
0.0322652450498062 8.134125580318285 0.8202517836978102 0.05428607247842215
0.03382525482692493 8.135242031351412 0.831269015457726 0.04480889554366624
0.03983686138149368 8.144556462996476 0.8359794982166611 0.02619645582713697
0.044327600132031665 8.167964731514491 0.8311179994403833 0.050151621500193255
0.044092752673272 8.254381679280899 0.830854879721717 0.03387030364548234
0.034406221805727444 8.233104400715018 0.8289501243096801 0.036323814446261114
0.06028812274137034 8.241207765358416 0.8375969877049949 0.010037496076295801
0.05526097515656131 8.229913633027067 0.8350363821837485 0.022182793921865514
0.06392753092120168 8.211878186980623 0.8422810232646029 0.014204085526718715
0.018684886096302603 8.230771653942623 0.8035267976885164 0.022599469926149553
0.02652323839166056 8.278352345930527 0.8118611917399262 0.030463141713567034
0.02642888773980819 8.241650224031696 0.8180180162978092 0.0686986165577006
0.03120777981854614 8.218799219598527 0.8201665733485078 0.04417739529821865
0.023444134451766116 8.263980289446943 0.823025982197213 0.011404643149230079
0.02049465679070037 8.13795419631773 0.794095624084202 0.04997240577648818
0.01858036104963789 8.152082747289763 0.8069568088658627 0.04619950338608826
0.02568141237058816 8.175016330149411 0.8072038091991555 0.025153820641566963
0.025267590392607314 8.180647577495632 0.8111705931062428 0.032047044275770896
0.026278431932437753 8.198674462916346 0.7990448557895845 0.024493776696945108
0.01868128556954942 8.157345008957092 0.785628832860375 0.04323656717279623
0.012810942510489658 8.132057094048799 0.7569428455326245 0.11143064293792215
0.020723040493329382 8.130039597925624 0.7356396992902958 0.025059091801778427
0.03136946606064883 8.114906180140778 0.7147837366957672 0.010036655231025114
0.022585297417060234 8.135648002910107 0.7216194716660917 0.037973281260649396
0.02727167039043747 8.14711637457739 0.7290354196227367 0.023023272442067456
0.023534885608383453 8.140277187162168 0.70480671708383 0.018152828477802606
0.020289725059345586 8.136614947675415 0.7005226540057273 0.017109272633077894
0.026649499885857193 8.155868017588803 0.7005069513094857 0.015500816766237368
0.024061696586608117 8.156056946579424 0.7093808452905125 0.018438938655971467
0.024509010972242676 8.122387735512053 0.6939142306822533 0.019786029466986016
0.024461405072080927 8.166776280519935 0.6814134611539792 0.016187222434223957
0.02277311621016377 8.143964618817156 0.665895176756409 0.019359744960536846
0.02249937584278539 8.169374198004052 0.6655415276574757 0.02155231743337874
0.02092517258026676 8.163643780245149 0.6485614044423634 0.007827750351267839
0.013981985688730526 8.145935515638499 0.6902972461788998 0.00991912565952077
0.02365414032370031 8.152084617443794 0.6614951912979327 0.01602443266224989
0.022313620807846192 8.124137224595213 0.6292900809027893 0.011586311801895576
0.0295058452287738 8.156005344437283 0.6388294098020022 0.008072652647604253
0.01762644771542379 8.123872181625043 0.6622594859847792 0.012317627172096455
0.027280609070522807 8.167937864071435 0.6311650577430581 0.013177461361792969
0.025685134853264846 8.141458573110418 0.6395123656144008 0.009121219050779766
0.025892091673243387 8.13250647252543 0.6228071589722401 0.009370328139419673
0.02629082668781682 8.136328710568499 0.6580964990535001 0.014981437130903198
0.028693853900700075 8.181447022000942 0.6674049236452613 0.018810654505625985
0.028030935232293035 8.168280050577247 0.6922459276052071 0.01567700867490732
0.02313392577563373 8.187163178129747 0.6554050849589033 0.022153986988593288
0.03446674617471805 8.202818652325595 0.6642145851494746 0.01729650103947782
0.022897902799058158 8.183375376630035 0.6344011105541205 0.024875443049087655
0.026277753004442357 8.183751182066286 0.6926069517905977 0.023602187316013754
0.027712998647712737 8.198888627521727 0.6335440524496759 0.025955635756883432
0.015284138070951801 8.20678478534044 0.6657749789327544 0.015825984268286495
0.028671340500012864 8.20145514462415 0.6882026857905936 0.0218350385418576
0.021900302961050357 8.195826953883325 0.6499627865396318 0.023839171232958273
0.02404195842815448 8.171995631493175 0.6256708083029402 0.01474918345007074
0.02293425284176153 8.1723997623356 0.60021211993637 0.02020452818287498
0.02962324951561037 8.182753815077156 0.6139975807379555 0.01290284471799195
0.01794752779512843 8.194456526922657 0.6123512934076282 0.014364945435560576
0.02861750631689594 8.188480328340214 0.5727386904954627 0.06025283346882686
0.02261968185236356 8.162525071521168 0.6097405869923933 0.01750176427318677
0.027301228129381502 8.18780862349152 0.5987820561886376 0.016064472030370903
0.02311912088051782 8.21551534231247 0.5999034748132317 0.020611414149010736
0.021269467771159047 8.189712881210129 0.5822388529171255 0.0372116130345656
0.030485975019014004 8.182819047094753 0.5594989515459152 0.042003260975689884
0.01735717518427628 8.210304758830395 0.5566070475405589 0.10917422742664508
0.021683475914792305 8.215518316924845 0.5660759721556621 0.0513238384754557
0.03126447895086317 8.200281834631609 0.565789522867678 0.052107423373260714
0.026832058718145584 8.211765180678846 0.5229612976733865 0.04251778299609933
0.029523286431027463 8.185829076244488 0.5150388864131564 0.007640030447150833
0.019614331417195707 8.18957794330745 0.49058153733000676 0.01717531396595683
0.024949126696626193 8.18679749144238 0.4987152632183462 0.011795152582280677
0.021190180776153308 8.172231394443545 0.49827904539848333 0.01774908491939768
0.027106048574714395 8.171376528374807 0.461633488936506 0.01864179826846139
0.02137742820895979 8.159290344934924 0.4888938026215747 0.01718442743736186
0.026267484506365832 8.172266454396292 0.48155256064639335 0.01613039179109815
0.019475048690162037 8.147455255269998 0.5164092635053047 0.04268860853246403
0.02149658861369208 8.130922625165633 0.524716129039002 0.026586041690436883
0.01844394597147196 8.144018329141868 0.490004439380291 0.01366602694813511
0.024482647665586266 8.126533389699079 0.459307157652059 0.021653985718337706
0.02883274564975693 8.149246190013532 0.4649246742452931 0.019201651936911653
0.022355973773419135 8.139946660322831 0.4394250625782743 0.010551817630590004
0.03039364227273514 8.138278738635353 0.46933144545751243 0.017402252854835737
0.0240199172869722 8.12613595128399 0.4571274940387576 0.01990280609309637
0.030772439441573353 8.132396490591658 0.4835466906342437 0.021131732912080956
0.03153124466822271 8.137239422644114 0.4920190811003718 0.016748693780230875
0.024508827306225868 8.132852607527997 0.5135066720308262 0.009946197521184903
0.02879240334460269 8.163846145511831 0.45947000087090234 0.014436215894116413
0.03052561994343872 8.118011462401714 0.501642917961075 0.020658178294833473
0.016382335720766625 8.145179048076354 0.4177701018113685 0.008933778733144512
0.027969939670486128 8.133592923865635 0.4367518374082946 0.005962738683170273
0.019613040303730907 8.166108127420433 0.4301085513660604 0.006974666718559618
0.02048761852591611 8.127150230238222 0.40268418073522233 0.015338600321062275
0.02005518571178308 8.15073278413542 0.4304312664050783 0.008800188633462167
0.020032860498415368 8.146923770346296 0.39923524959233725 0.0035865457629942997
0.02144989132090066 8.16570075238462 0.3812646808631853 0.008350227453630512
0.023752717420563264 8.141868044730817 0.3769767321282258 0.005175401744117226
0.02013630105675508 8.124843596636904 0.3895570943889459 0.017408367384358053
0.02171165262147102 8.14565260612949 0.3729043210159186 0.005798391103191038
0.023464678763661113 8.175521154818766 0.4157290221311125 0.005987663199851129
0.01896622865509081 8.165454380418751 0.42700199183745413 0.008514725329533707
0.019901827144509433 8.170038966604727 0.3907245514963548 0.005760772246056005
0.030307260564343935 8.209604888437534 0.49296492860320756 0.018201930492661608
0.026937344919917557 8.183093012827523 0.46243956821350557 0.018523500965470376
0.014109586960891058 8.206573549327063 0.4559409933924967 0.012355379943533832
0.02534365189616924 8.198429523921991 0.4706606937755813 0.021027677398061023
0.028703277701784352 8.203287145226891 0.4817676027236769 0.019390679830741563
0.026956484353780206 8.200562215296603 0.5089559096118196 0.020700664002936797
0.024757024349810725 8.18011020015213 0.38654139088643585 0.005605354251530479
0.02552234305481476 8.181482877894068 0.4286586662249667 0.019899454000768403
0.02788835884845305 8.19184153608116 0.4389041705600414 0.018470392782569952
0.02183247844826284 8.196719707948404 0.42465171248720546 0.0162570895369564
0.02360785950153772 8.204119387438451 0.44488036337169823 0.014361449393398335
0.02796046601506209 8.177477967840018 0.4450824854995279 0.015274586815813042
0.023886702024225194 8.187942640709087 0.4104189370502822 0.00680177749849578
0.027385182676420053 8.199144358606315 0.4078974045234716 0.006048732031772964
0.024502724394624135 8.196579424922545 0.4193226745848587 0.013127405098574053
0.0190205019270104 8.181223239604966 0.3641068896913392 0.009180375250302786
0.02474213379339218 8.194558206788964 0.39828819590508896 0.007573538703737549
0.022525017045891327 8.222884733454697 0.3831563186030652 0.006237661211011743
0.02575925357347252 8.214030017564033 0.4078870497863621 0.006093187167735954
0.024773768231546436 8.210916795319935 0.3993200130216219 0.007399603701913244
0.024472833262280932 8.14099457409187 0.6239350764043328 0.01138244312762437
0.02863072525245815 8.158395860502358 0.6237422790847165 0.013846700101117219
0.02171024691352119 8.135460842588024 0.5941657931057884 0.021212422009073844
0.022930466511466074 8.122319581393143 0.607672193379449 0.021773405276461925
0.02993703211358474 8.148718753104488 0.5968251704399747 0.018954361644551245
0.012705804046834619 8.133212918895802 0.5721023298954352 0.04703412108114749
0.027906999170461754 8.125894546713239 0.5831873930491591 0.04128506490288609
0.019444319086146092 8.125484966696051 0.5659526528660275 0.051761248089146235
0.02556727875320303 8.155641575620743 0.5694502822368529 0.05300169648257857
0.03191258403381552 8.158070459854757 0.5797486500524126 0.04275623794710448
0.02205157426957616 8.1448878311235 0.562917429491043 0.06377622466844508
0.02358726421752902 8.17153249480616 0.578937818571283 0.05940983894777442
0.018491479901505757 8.165344283317872 0.5942781268339195 0.02352905502181921
0.03194377103058102 8.23374985746368 0.5942192030446813 0.014624016045855006
0.02232710893842476 8.209650335752032 0.5772541350535974 0.05860700020417363
0.026817135380837902 8.21679340640417 0.62055179087111 0.020030683522510247
0.02101905057159378 8.227463968500016 0.5834705511269718 0.03738575351681382
0.03159712061483434 8.22787711590597 0.6026978165408736 0.022780281366491382
0.022474153508079082 8.24104288350379 0.5651789276828698 0.03384208008879718
0.028608383366921314 8.22529111124751 0.5939778881252664 0.02196905228343082
0.020339299707263146 8.207028150728657 0.5500383713772041 0.11367475286932682
0.030921789679385848 8.25129805427663 0.6141221663234644 0.01776099954105438
0.021092928197897355 8.262699465999784 0.6029931590863081 0.011894070472868022
0.025336144470954593 8.244874565267658 0.5884471744212318 0.019169829631876033
0.023434059421897985 8.249958706751086 0.564255550110773 0.022862881136344815
0.023281291652846217 8.268389480277362 0.6247522345318564 0.02166666306776021
0.023000582216809312 8.243759387898805 0.6296394191184626 0.029412711001095354
0.03546173085638756 8.256249937963227 0.6510376478171057 0.017027985615299095
0.028457745598146924 8.257877418528999 0.6344682867643195 0.026592249583552788
0.029804025950528702 8.246504865325258 0.6418125811273395 0.033776207536965565
0.018347565346270866 8.25592150522192 0.6721582188757634 0.019680006209308556
0.015152067393146016 8.256793907263477 0.6900583388575358 0.022186899637696277
0.023900995569798668 8.264145636904313 0.5816151404641285 0.0291728869325668
0.02148582994480633 8.262141244559045 0.5735610180475992 0.03217434886312128
0.028774900839387437 8.250274887189688 0.6845339235281772 0.026266198171348346
0.025688360121982046 8.241476189863272 0.6602878434041239 0.03501041779090005
0.026305311655077143 8.217045807049383 0.6811007618493492 0.016291507516945632
0.02595795621298251 8.225579234376815 0.6382046952125188 0.032002599917076116
0.03197806099556956 8.221537299857452 0.6327311491453432 0.02301119838113018
0.019569636182980646 8.217216671923792 0.6556460339736219 0.026869100697881138
0.019435379563926443 8.225880714800562 0.627028880242958 0.013638714894037075
0.027618184041081455 8.234201124603148 0.6464463617998022 0.03166637885992304
0.023256237862988995 8.230657256683868 0.4249072549402642 0.005832462984865343
0.027006868096692126 8.221761136113155 0.44052893831286877 0.015046767955037354
0.024954321892340276 8.225326278378853 0.41327471657616327 0.0066079699218065105
0.029835778374596427 8.216068333464342 0.4329366765535653 0.01269556474826223
0.02532477141757855 8.224962160982791 0.3931467727293114 0.004857712913676398
0.028204500334253688 8.215744110338186 0.37636155978142377 0.010308358183719807
0.026314802957511603 8.218041817804256 0.39561075955496605 0.0064127835725892365
0.029377460210476644 8.248546059309131 0.4270249136015015 0.007636621478939678
0.022784192134825482 8.24851327617711 0.4163995221448289 0.008329639409426859
0.02595402944272965 8.255474929190578 0.38427370286859247 0.015940312313206306
0.02584894995412116 8.257347153941566 0.4451003586199847 0.016056158071071462
0.0238492801620473 8.262720222058912 0.42388434161807065 0.014571202288004287
0.028687442227804047 8.260948441679409 0.39210174356346833 0.012407384002419903
0.023132996915112124 8.244236214131881 0.3893762811125382 0.0110431054465179
0.01967980485285144 8.265594724363096 0.37640112886466315 0.014104839207006595
0.028494656496771655 8.266115507257087 0.40190185058908995 0.011810102287067206
0.026512030986076067 8.21536958353806 0.5072834870231245 0.01946222367979408
0.02272361011124125 8.252855765801511 0.4814325045431218 0.007508989895425264
0.019657947785238397 8.231787982854797 0.5046896186554185 0.008211846778771001
0.023144677805082114 8.238798151642541 0.4533727078827045 0.019838462476091657
0.017933297422672016 8.227078476435704 0.4695432235803566 0.01789169318500669
0.023700879550938705 8.21473549288683 0.5165647548344238 0.05059240508236487
0.026690481016039887 8.214390373093542 0.4852329718717837 0.022311601898761437
0.028540273530922047 8.215068943877966 0.4646260532679828 0.026156338244848674
0.026642758377392155 8.266100984478886 0.48515379427708183 0.004393063672365904
0.01922594746510262 8.263546863795645 0.45878934072426303 0.019360530446148706
0.02341843452679565 8.26987098410209 0.5142270758430416 0.0015123690293669583
0.02059459118880528 8.24745357128342 0.451658109937829 0.012655323668753434
0.023926003810949406 8.254431138413457 0.510767979205742 0.005335990242800557
0.025057625665084328 8.247216151532712 0.46077407147651966 0.01503673381740246
0.02571061431730659 8.259627805962818 0.4799414450374131 0.004553616222237621
0.02774869283894292 8.131033990071979 0.7786063149535487 0.08186518375317085
0.022616050607576203 8.208225580655615 0.7714983823625351 0.07485495548135637
0.024360078330520604 8.201616103704593 0.7477259580886192 0.041476376528336585
0.022647228435153953 8.194250990230014 0.7234475040447371 0.02729516499246337
0.020306500988352977 8.211530045326146 0.7248805515484633 0.02498090568904768
0.0224761289610314 8.190758140103224 0.6996358589199232 0.02206443227514113
0.01971548891035867 8.176598682190827 0.716234967134676 0.017380506609257527
0.021683282036477586 8.17164084689024 0.7391194276249397 0.055588219849363116
0.02506173006118896 8.181939619848706 0.7509060219651229 0.04419280482938697
0.01577724994761387 8.183153891344968 0.7146315377768904 0.01213313027584307
0.022599357362287856 8.171274286500076 0.7282437753348489 0.031189616382647833
0.03044792810120288 8.200339618505495 0.7358182189913769 0.022666851501385664
0.017197387382585937 8.188232161826615 0.7274689812604294 0.024896912709226476
0.022234811536055957 8.137367433277484 0.7781682632555096 0.10943878988529222
0.020824143284518905 8.175260517733726 0.7896647255530077 0.04246442569314096
0.017112582545921642 8.261477358091904 0.8040043493806978 0.03791411159087519
0.019157091894930423 8.24327469040466 0.8057455915156414 0.038784660963250124
0.025183332824264278 8.255647722430185 0.7837045510099855 0.03852844311113298
0.02420789283488118 8.232734647682461 0.788445905839502 0.04901466124519845
0.02915037653810266 8.206487104380942 0.8038654283373672 0.017516026946556237
0.02505495428056015 8.263125992973603 0.7084811853057198 0.019201292048591542
0.02689501572726405 8.249538062230428 0.6991105562655431 0.027190204336541922
0.029484839432971834 8.244503165577754 0.7420784844334724 0.011964098828010994
0.03385827071353636 8.262062856307963 0.7214631011321387 0.022622398844749862
0.023177500279425483 8.218447445468952 0.7070921129478522 0.016406545748044458
0.017374385211757038 8.222787588633041 0.7224323479265121 0.013355724512907691
0.024430938583852826 8.215868180022413 0.7287028141743591 0.028097909500366915
0.028211700106695464 8.224787234939422 0.7013538497813714 0.016532800044768314
0.02649856599317959 8.248329154908362 0.703639685716258 0.026380976874833744
0.02548091551599439 8.233018594648676 0.7137390252403584 0.027455812486085345
0.020066662829691627 8.228854495597 0.7543185723812998 0.06792629237117669
0.24280327847330835 8.307156904224119 0.8409347717406301 
0.24109859763176825 8.332166760418264 0.8388972733176069 
0.23787486145354717 8.04787426062234 0.8338969740462568 0.02328383422689906
0.23251911248812765 8.054778368628897 0.8368825341634448 0.0013907849377318446
0.23845439473968777 7.952178376973403 0.8324780202204572 0.03408506638681646
0.24308032124431467 8.014922665835693 0.8454320015867692 1.5920542301851284e-13
0.2694701473607931 8.020645287214414 0.7725634377969297 0.009477452777453054
0.26713770409145504 8.041173574229958 0.7505160763350361 0.009956672810055358
0.2677479801339043 8.010012010626136 0.7698719061226063 0.005600777810352237
0.2715728502532209 7.9879816036134 0.7688121859877618 0.006681178124172383
0.2717173992097539 8.05123278502883 0.7670874132804805 0.01135282248386401
0.2711213259723404 7.991797514163196 0.7143252390667839 0.008354258803043255
0.2683624399234595 8.030761975068515 0.7219951014583866 0.026244658068120187
0.27294726935414826 7.99208260730237 0.7639268628543849 0.0021115846136972893
0.2786720314871917 8.053052147676764 0.7311717359143841 0.00519112945029541
0.26590542644706394 8.033429756175359 0.7300820497637525 0.026081133747965207
0.26801385486344154 7.986735623719233 0.7393365665571452 0.01069507720401865
0.2665978650368534 8.013273358144565 0.7343135455174407 0.007207196986519632
0.26542656581584323 8.02476003525381 0.7483852017744886 0.012956331508520259
0.2650891613505434 7.983335040626411 0.728609671278339 0.007813227656691879
0.2670650601602881 7.969332274941077 0.7285119656483995 0.0067049894802839035
0.27224831983249104 7.913511506962485 0.7181957917734634 0.007899342357285004
0.2690085432144304 7.956276719037049 0.7329310608895326 0.005419538829095183
0.27157493333036326 7.940007892888059 0.7313014456851842 0.004704379142649383
0.2640158762631037 7.9595882694906415 0.7463549815077952 0.011828486869408631
0.2617772000142627 7.951870590214829 0.7492595373115172 0.00439486211031227
0.26772443812655855 7.950709775120611 0.734564230268745 0.005176284141891182
0.26559976072164815 7.931997889305178 0.7517220508598731 0.011021792812218241
0.26598078201552794 7.924681743958202 0.7460003034428964 0.01044298309006578
0.2667585077306576 7.90960665065214 0.7366622773401355 0.011520545659488755
0.2653944535557734 7.919603994661085 0.7504016102618027 0.01078091527890003
0.2722249965158383 7.9159350855425625 0.7680860977266094 0.00954028550802367
0.27001244257165125 7.890129133511059 0.7351245412995299 0.015598870684618694
0.26232499081191807 7.94331950153928 0.7633605270142719 0.009861111593466036
0.26661744415015737 7.935355015811585 0.7657127129051037 0.009192740196107194
0.26694556284681753 7.863413651462311 0.7249860022744699 0.007957378699029002
0.26765933141667964 7.8802003914887155 0.7237419793069482 0.00925002898313405
0.26619083176195096 7.8984510998768584 0.750097848738617 0.0156466864777584
0.2643677554917811 7.873545323821957 0.7489114822325729 0.013494701861998974
0.2682207233190088 8.057962550491517 0.8056495699962182 0.017365823521656734
0.2647056653416752 8.068837560397867 0.8098916891657681 0.015972760106438298
0.27317939849205736 7.979180104648964 0.8008998887679926 0.0024791126120393765
0.26092435660102165 8.04039346823224 0.810642504464839 0.020478146595230434
0.26989801932336754 8.042659256374675 0.7960695014713605 0.007015831169739844
0.26569887176842855 8.017042481841642 0.80327479147752 0.011513798320068576
0.27060028890800675 8.023391895820778 0.7819822326540358 0.012107100804356194
0.2723659887855352 8.05806703779852 0.788708276402784 0.009690318173824831
0.2637418179880564 7.868863493515526 0.787615694511142 0.020501710901035617
0.26756865306517164 7.925782788928514 0.7978823698654787 0.01275171490735021
0.2620164530726575 7.9052654313753425 0.8057687969993843 0.015492256690113611
0.2673981272923363 7.9197966882614805 0.7959049272898236 0.01016798656514871
0.2658125341533337 7.889034787310094 0.793783029285244 0.012660552924785698
0.26700561186638966 7.9440909930337575 0.7906587797827792 0.021589715618962137
0.27256033281180575 7.914894073862826 0.7727553302797876 0.011421042265795826
0.26542011952377614 7.962026502646705 0.7929453989083068 0.015546962697802941
0.26657583075000724 7.904536440928513 0.7771618748359592 0.012442504822066991
0.27612615170442145 7.881850236391292 0.768030030104463 0.015758263997950352
0.2671708808120613 7.922438397340847 0.7796721666123437 0.012603815316290014
0.2716139433102484 7.971870167262979 0.791739225050878 0.011010618975952305
0.2640516055474618 7.934355829569719 0.7736408474476119 0.006951384524060346
0.2609163702284639 7.967992840687251 0.8087986104517311 0.02689409579692963
0.20039259603710527 8.432018945240774 0.8459257029553591 0.0016324164024835014
0.21671514677346637 8.467542674537553 0.8434388116134905 1.8481515546727662e-05
0.22882158150158333 8.482794674931876 0.8434104381062425 0.004583954001003805
0.2161794610022475 8.483688899324747 0.8432260561987229 0.0011868406812379003
0.15083864550387216 8.555243663797446 0.8433825624696314 0.001734283434404797
0.17680868259801147 8.581632387377754 0.8442609061210702 0.0021636381622650923
0.21260707598799486 8.572449211602807 0.8412752618330704 
0.20945786628685908 8.548365320683946 0.8480680765853605 
0.22541870487794075 8.51390805786713 0.8501208314775115 8.903660906253133e-05
0.10547058768528228 8.533822349550293 0.8431724806332472 0.0010287471497235504
0.12565237294290266 8.529996638167086 0.8447421115189735 0.0037758129599064745
0.12196845186218368 8.503862675609302 0.8453353435399041 0.002015103786622484
0.0836115277592136 8.541778451942095 0.8417141112800954 0.0027826065978866017
0.08648341604809552 8.521632160783673 0.8425219308608533 0.0003952840974876284
0.08814062049276042 8.501763351456969 0.8430095642472796 0.00170037892662524
0.11945124313588064 8.562684496118868 0.8477749922533151 0.0004207034830366343
0.14187210628870464 8.579928157183392 0.8435566580750863 0.005468909368797784
0.11112532776520717 8.473060593916514 0.840899475061281 0.0020865826739945403
0.11994103669526157 8.458620784249149 0.844536732086823 0.0010788003300598653
0.14700104879178263 8.420353877992069 0.8408137971255455 0.010519289293392513
0.11368356527901073 8.43307467752537 0.8431824091483787 0.002548744602170398
0.10977136207435285 8.415641333723155 0.8422652114430065 0.0014000080399120978
0.09277670370570923 8.417373130326931 0.8400261870884085 0.0030199004264757794
0.07144500667402685 8.409788836492412 0.837484635583179 0.008903643036548496
0.07800981518520339 8.457724315064931 0.8369071828164684 0.0228571789519655
0.09749304296819392 8.468981218918106 0.8391159547808124 0.0029418505834177214
0.14960344321257363 8.490477930165005 0.8488303254996805 -3.194553123916838e-13
0.17666947889773682 8.481689501524004 0.8438505434188962 8.749614049518592e-05
0.17844942228515753 8.46971561878174 0.8446442692118687 0.0016120660537537932
0.18542696842964398 8.408935432879709 0.8492572656874678 0.0014451091464006821
0.1514637679619088 8.438931601531497 0.8411899655469371 0.00017513261338942063
0.19084604073537853 8.422870149132503 0.845022052255578 1.5929879338203787e-05
0.1804317581712569 8.449749875585454 0.8438438372881543 7.285621726797651e-05
0.06757234350826777 8.428703010357962 0.8440861499424588 0.0013187187496872903
0.03903504557308064 8.457214454870218 0.8324080687973204 0.08691836194645111
0.03957365787237889 8.409838617965457 0.8352029286549582 0.04553272669544897
0.05305300726826321 8.42972545371977 0.8342202097778139 0.02621633428332863
0.054690597069699205 8.469235009480595 0.8467982880502759 0.01245220788116875
0.058174098555596285 8.449815928681662 0.8318837242266569 0.020739799836711037
0.03957957758011672 8.469211957530925 0.8303016837844855 0.06299752048637544
0.056601571496264 8.482117452209877 0.8383344334718419 0.04399967383283349
0.05933988579505934 8.486498149123282 0.841924340515978 0.0395612935932311
0.04284617379866389 8.464003128601723 0.8341740043966296 0.08522616377607974
0.03893566434770626 8.49914543530184 0.8336088174630935 0.012031434730698108
0.027534357605706206 8.472599405817533 0.8247697479190351 0.043647325087502756
0.024497274463282374 8.451368455495803 0.8244041928468125 0.07134227020808663
0.02467345077882851 8.39757355656225 0.8214481506649444 0.07633440025310823
0.027356621820596953 8.42513925539927 0.8112141275938455 0.05105858659460109
0.031778856259202085 8.490329616343741 0.8152697927558118 0.044025393218224025
0.024939740535610953 8.428462847307223 0.8278744964593685 0.04606071389255164
0.03644195981376146 8.408438849599845 0.8280432287034993 0.08287841561325099
0.03660926974858901 8.4448607264726 0.8307274375641981 0.060767468463601884
0.07000637592944188 8.54823649245728 0.8406100448048958 0.016257777578772573
0.06381255265669208 8.561447960811133 0.8381354271714466 0.011068615711464922
0.04590059699862471 8.555083597008606 0.8258097246551359 0.07061144114566921
0.03626047824058961 8.50740603948841 0.8156501069102222 0.04881781236283135
0.05192128526101842 8.531032453376534 0.8375496996141227 0.058438734515447566
