x y z curv
1.565566986997582 1.1094753178230499 0.6992576789457652 0.012280174155855673
1.5978506231192284 1.1139644113754819 0.7240607476494064 0.02630132325919028
1.553138007435568 1.1082702529704518 0.6964169430397021 0.010415611934654045
1.5849089949549267 1.1202148767158648 0.7403676428468308 0.014354487525764927
1.5723437713408195 1.105557620143421 0.747459176777952 0.017603356487661807
1.5717250531012221 1.1155549470067598 0.678216464554728 0.005978161265647802
1.5590949652440753 1.1153031641391313 0.6389658268719632 0.009069871431327672
1.5861352019558292 1.1073476154027413 0.6821008966761971 0.011252642755332116
1.5591445251322613 1.1141627432514523 0.6579593096869735 0.010876353477996861
1.5607420147398292 1.1095480413658967 0.6736946449208815 0.010550247217599357
1.5959374013240777 1.1148388483628768 0.6289428848306473 0.009447450148239145
1.5787730908079574 1.106026483068606 0.6494826415037844 0.01840483731884448
1.5560386694920032 1.1094940066871113 0.626902931076942 0.015664668686581208
1.494624462125172 1.1134584922344202 0.7947633972428989 0.01724424673044109
1.52536167594481 1.1085080953199713 0.8243904040415923 0.015050350420605279
1.5033739258509309 1.1170487975339234 0.8205327168285702 0.009485705285593459
1.529252991382324 1.1062024455455552 0.8146784239759668 0.013741675078284858
1.5349116680744626 1.103662478557599 0.7972302777627196 0.017280620586707894
1.5401951084133512 1.1108405462653954 0.8103596091303169 0.017355153486940854
1.5164568608578033 1.1060637710272527 0.8023917024435525 0.013347324628530893
1.523427542362009 1.1077434539597826 0.791923798937016 0.019684301082765508
1.5438319219870675 1.1081859401969105 0.7952382969865303 0.0169944683838992
1.5599701899882263 1.1084539578296981 0.8092937263640553 0.01621790168237624
1.5651709261305031 1.1069924440613743 0.7938405331462876 0.018719067909074426
1.5708692469493397 1.1043829433572885 0.8211997308295406 0.01859484057802599
1.5810655908277493 1.101719009540438 0.8109060177159151 0.017809848833862645
1.583012765534528 1.0987956733338469 0.8233534071128562 0.01981366674380462
1.5926883860686174 1.100170531975458 0.817299336240735 0.016119900541510693
1.5601012954828062 1.1101508361127412 0.767419791719909 0.01751382468050366
1.5810284067697833 1.1145117540202891 0.7900134512273614 0.006196669668518662
1.5910986678149341 1.106322391950963 0.791883674378341 0.01531775984712557
1.5389068323102635 1.1089653222348652 0.7480366067450351 0.014632547106662517
1.556540902826866 1.103877353967199 0.7816857125535223 0.012869919283791756
1.5701150321197954 1.1073104575783441 0.7440486938210188 0.019226069000009536
1.5823530740989882 1.1086034055329734 0.775714209447361 0.023197919349109926
1.5918704299278517 1.103540738326716 0.7576660626300066 0.025270986210741874
1.490516420691631 1.113896574202331 0.7630074681453212 0.01883284117219948
1.4916405633981735 1.1139188639163145 0.784797203044924 0.01550591503981623
1.5140260534378691 1.1024362840008919 0.7865886232472349 0.01192607807010556
1.5261108886678572 1.105691010379468 0.7812901020162379 0.0159457912200529
1.5138258552567212 1.1086319760322976 0.7518270337618657 0.01413666660956956
1.5262891504393863 1.1139774575143977 0.7628832314413394 0.009593169806599812
1.5388353022623655 1.1067821385181915 0.7784864425448372 0.012849718929600884
1.5411730816215292 1.1094242278828266 0.7390234375596195 0.011829538855695087
1.5341926414838756 1.1145737579563262 0.7718112175111119 0.012833023635443466
1.5226983777140377 1.114453386570442 0.7574548985394406 0.011877592878597944
1.6167528788728185 1.1036736810321959 0.32327767470506663 0.053936819554640254
1.6212438477356983 1.1061128766604145 0.35846235217985956 0.04045199707838017
1.6391230090323907 1.0923262269833787 0.3150461010756725 0.08017785608087905
1.6142951847125722 1.1026252991453285 0.307063871471983 0.027537805778427182
1.5974266946126698 1.1149314582252374 0.34828631070535804 0.02037621712595939
1.5415046665786618 1.0994018138278476 0.29811539840358864 0.006882889070328152
1.508358174484335 1.1018563790345144 0.2937101179143948 0.0071241578553911025
1.5364493181402876 1.0998845628749363 0.3037127268666875 0.007641257726262961
1.5135123140467892 1.1070592985783936 0.31246593505943 0.015484042961095377
1.5690137277308578 1.1038787303899453 0.29657972565745777 0.01095594147741586
1.5468034792870586 1.0995104065063193 0.29934517855196985 0.0069128307223518945
1.4892295905200077 1.105458623091716 0.3341805557578653 0.02374176500160871
1.4905739616305347 1.1079005419175747 0.34287769868539963 0.012872840278600386
1.5154875989283147 1.108811394299375 0.3308934390716916 0.010448796491365448
1.5301515881693315 1.1114357639017138 0.3426398090114114 0.012821140547522885
1.5029879492892908 1.1046933125325369 0.327565301960732 0.018572904204971354
1.5327055027157768 1.1082534442145826 0.33287247239388523 0.013291087953946672
1.5480510573005084 1.1044732500454162 0.3579359641007552 0.015439560100023357
1.5510441774307788 1.1056665137580868 0.33315553115490304 0.011132840730981731
1.5747846287476752 1.1031620015124295 0.33552109353253495 0.01498149220536611
1.5898022166710573 1.1052627098204566 0.34725623035455605 0.02315898742567433
1.570040156653602 1.1058395984834049 0.3577613093897251 0.027299225394445133
1.5645100352933146 1.1105374926530582 0.3267284213418809 0.016649188431555193
1.5902463233513713 1.1148574871872678 0.31682401487551465 0.016528156993714467
1.572417772308789 1.104366941395613 0.3122539839488632 0.012255325533277569
1.5203668857577757 1.106969100231519 0.3169635516032673 0.008900715053308542
1.5543122177746413 1.1013361414863705 0.3223780321320867 0.018897259930395895
1.319036385874838 0.9970396007833009 0.8476996587626721 
1.285028652120907 1.0055165577736624 0.8922231885628505 0.015486744212221336
1.2923326997245912 1.0014305858430812 0.8849513337109726 0.0161227299865026
1.3374831667605624 1.008347247220644 0.8876218947231365 
1.351841022027146 1.1073105751385974 0.8744531980086542 0.030240554432775683
1.3259788182296068 1.1095490108597625 0.8790253755443961 0.02183509860882656
1.303465084162493 1.1098337931460158 0.8788200199123947 0.042436010989625815
1.2833785852213515 1.1085912077863964 0.875768067364274 0.033537686618855624
1.3324036054945048 1.1104438259173701 0.825783976716028 0.016824539325989426
1.3435700855955797 1.105150124883221 0.8309291010364935 0.011181786494247498
1.363492726172196 1.114887141659262 0.8343031343040433 0.012968361239408997
1.3303860635955227 1.1077326914523262 0.8528825447129224 0.013404745313645897
1.344842778307333 1.1102710838461172 0.8569616544542269 0.014464799706428479
1.3103166754821174 1.1140015685385731 0.8370328424461067 0.011280817611441498
1.315317815262436 1.1101471237061382 0.8496477961513306 0.011878297447834689
1.287069319336518 1.113516283799276 0.8494069032005207 0.009798180615114309
1.3106943949918195 1.1113894765760644 0.8572929805671812 0.01758788795373861
1.3070344899873079 1.1082455586051874 0.8656127452045576 0.022211801843608298
1.2962975770301384 1.1144874122136805 0.8667216326883684 0.019744522469202632
1.2875351622984346 1.111650044706049 0.8770696908852778 0.030067069528880982
1.334666125676677 1.1084110582372346 0.8767595293182474 0.021335870596958285
1.3500744586606408 1.1139214915698619 0.8656685811316391 0.02078498337812742
1.3174908899712963 1.1168007790769274 0.5345296526602592 0.024934318925846088
1.3182496408697926 1.1261221464399318 0.5170771909315569 0.028425936132450997
1.2887510654941825 1.1116525011233795 0.5350672439072419 0.024724771744833608
1.3150826803069435 1.12470662166242 0.5050859599921568 0.04045589838627547
1.3123772958959945 1.1169831045571552 0.5174628928806717 0.031741383403204225
1.3050654560566288 1.1114131395151994 0.5510110613672667 0.022543776728505185
1.2880924260860738 1.1110673518739014 0.5079621134592155 0.03292257833199775
1.2987050981219146 1.1157863830878825 0.5057170056067081 0.04615178178847353
1.29181772701685 1.107051863110962 0.5217202413735054 0.02656993484213062
1.2950904922199473 1.1184921516306083 0.560728680123924 0.00925962366521752
1.3129077353499408 1.1101942649946492 0.6109368658759066 0.00021664112140115944
1.3116750846199237 1.11837202159632 0.5793957764903497 0.052668258861117166
1.2916870589480363 1.1176333422720879 0.5867907870414255 0.012547484717197207
1.2908361194843343 1.1182035974037137 0.4097859654694013 0.017437764702295223
1.297927820545163 1.1091784091351293 0.38551055485357605 0.012531612073796782
1.2781565703117082 1.1156996425456747 0.3971830998342224 0.021997940586166297
1.300051720597362 1.1096045761337308 0.3774786884527283 0.018250001602417184
1.3091352301094712 1.1140108601290464 0.4433570188954049 0.045451134960830766
1.3083316620238437 1.109667431208746 0.4343746834608511 0.013301150697810108
1.2765528463653453 1.1243522532731522 0.49670100905888975 0.032081793599546875
1.301380959194027 1.1111511823365012 0.4537346230846933 0.022606353216610392
1.294882457251013 1.1131755081944152 0.478304944758358 0.024770016526000915
1.2841183358677284 1.0988640089628678 0.4465890105037462 0.009219934632256732
1.2934753492427298 1.0168185308472688 0.8921738302631774 -2.1546867259382657e-12
1.347356790913858 1.0458437383390429 0.8909362147211167 0.0041032490144628396
1.3090813062056532 1.075322377876698 0.8977260383839292 0.015393746813949678
1.3027815953007964 1.096794598111499 0.8937330562209844 0.01956217805897831
1.2878512190041345 1.0831125023780488 0.8969409071271506 0.016328723357728423
1.3373436133129142 1.065756956678233 0.8911545577065537 0.013955415596854802
1.3458148074717193 1.0998742503187613 0.8928866110973785 0.06935808991380688
1.3235252343260295 1.1012512410879616 0.8847271524542565 0.0710362364824312
1.3086910913880112 1.0961579533785408 0.8903320268976093 0.030523872791626026
1.2804458405299917 1.0935001702155993 0.8931854431858042 0.019417286583014334
1.3664205005138832 1.0930505654823113 0.8957618188264045 0.08474417878211375
1.326897551398372 1.0926318127234826 0.8898195732040132 0.04870728850107475
1.362973396002153 0.9907305735898164 0.8023135990342836 
1.2938793844743617 0.9938163428685063 0.8111897684825806 
1.2808361165194226 0.9962028634939041 0.8237256982115259 
1.3488792930464233 0.9871837479918822 0.7850459447376821 
1.3440322062654617 0.985527056017555 0.755259601409429 
1.3609827293055663 1.1085747850220655 0.7768977528029739 0.014218868608148043
1.3356548854254666 1.1185404483677712 0.7841966523097469 0.017080069747333917
1.307334000730984 1.1189898325556629 0.7805056209161122 0.01906603457845475
1.2985420614961394 1.1187130867339885 0.7584236657795215 0.041960655520828234
1.313057221739501 1.109654265490266 0.7646232344637904 0.018764585615318782
1.2924286318061462 1.1069738563537135 0.7812439002846517 0.02244501262492069
1.2992749666404724 1.1106876883621648 0.7673177439606392 0.05468161193603108
1.2831218186781592 1.1104729699901694 0.7741960415508281 0.034656255422500344
1.3213319191737767 1.1178663294988156 0.8287188778899263 0.016443979755173872
1.3014991127136721 1.119011873866483 0.8116746122048784 0.018275549353305522
1.3045672244301463 1.1093726476683177 0.8194416425447765 0.01388182103867964
1.2763583958048084 1.1136703549474858 0.8147186510968015 0.027456761784046983
1.2802155243194406 1.1095713194226355 0.7876897855426392 0.02841046111253864
1.3210308262646937 1.1116712925160963 0.8042792288378391 0.029001150687399765
1.3343248611682816 1.1116170259559655 0.8190507961960429 0.014822373442552142
1.3209364145313893 1.1142717173147427 0.8124426056035263 0.017966702550930882
1.3518688746936056 1.1159133608068421 0.8018803771599309 0.020676521869731002
1.3553022239295092 1.1073063326176655 0.8206590679898871 0.01791889460268047
1.3443050533976744 1.1188494997830647 0.8097565644054999 0.023917784278889045
1.3600759104484812 1.1158829517071247 0.6625162672842815 0.02274425933810934
1.3166883326171053 1.1171798068503436 0.6530783970302412 0.04917196882098526
1.306126084276625 1.1202636287792431 0.6289786466641373 0.08489449911940046
1.302311292125673 1.1127676344607134 0.6760110347183068 0.07222912611641864
1.2904667691149658 1.1081299901605761 0.6522237874682449 0.019653370007550307
1.2991515026987972 1.1129341507984833 0.6623318334174706 0.05251761585150271
1.3110337656042068 1.1087930029229356 0.695313549950762 0.013295229636663226
1.297141881793946 1.113465212139265 0.6991743659722052 0.019838026993333615
1.3492359171883557 1.1196697080972275 0.7418201264241309 0.013647108239241994
1.3003900351875237 1.1137747232668715 0.309947057539178 0.02721100438008385
1.2775724252054583 1.1100898566640665 0.31884087747997825 0.014922448420232699
1.289442913064951 1.1096099985803283 0.3338790149445217 0.018774706459831758
1.3111153084996823 1.1179589385104989 0.3290869445426689 0.026026291389142267
1.298996431596515 1.1140948543237363 0.33999149017996205 0.01322883301969928
1.3082133740888542 1.122501135617959 0.34350469220730556 0.02601193056261187
1.2832204224170332 1.1068576433136326 0.35138538590162177 0.013908144870628022
1.2834938119287915 1.1094208786554562 0.33479098670872276 0.01756482559206782
1.3008869078577305 1.1156233546981689 0.35243424329013934 0.0501621952669829
1.2776051413211715 1.1203671312898906 0.30051642400606626 0.01638468885300945
1.1935434420005049 0.9948719732563309 0.8520634184523825 
1.213209142453328 1.0057544762110506 0.8883622700731453 
1.2476254446226156 1.114439813479128 0.8832424438666165 0.027467932860551356
1.243090104779557 1.1081510908125431 0.8686534972346809 0.03152515499726746
1.2000474455661156 1.1133553980467719 0.8803389837202787 0.029229995941008485
1.228804546237932 1.1072735098177204 0.8797757155426699 0.03145966765794499
1.1925954192543469 1.1107829857823242 0.8741938380557684 0.03086344215937854
1.2205011121584184 1.1040180682598368 0.8661417399585424 0.03355982699528105
1.1762426187490382 1.1116622310812383 0.8744972675282277 0.036425744634823794
1.1809088613709138 1.1071067485501267 0.8793852846237656 0.05026688602578549
1.150513164837501 1.1087289106158003 0.8795201973077946 0.04225623025045944
1.267113271692663 1.107663475848632 0.8848065802928924 0.030852388674496144
1.2657041345024818 1.1088830750231882 0.8257819501248331 0.02175839165217637
1.235563207405544 1.1153269621492314 0.8365421379388167 0.022726285519248726
1.2278935449583062 1.1065110168849595 0.8507143750758571 0.03184848211295167
1.2559185691225312 1.1153921583906798 0.8575040238651798 0.015565327281806778
1.1717063192834385 1.1122229268509098 0.844862692838575 0.011227792965217231
1.2072655643565524 1.1142639410087245 0.8479762985883946 0.017283148099674604
1.1789147748827526 1.1120878702029529 0.841278194790907 0.017747487413669254
1.2087700275590922 1.1147004362405102 0.8481546157622516 0.022192435066969985
1.1698932738709735 1.1195197264542103 0.8309547852691173 0.009429992053194803
1.1669853248330708 1.1135733787632796 0.8670110919243231 0.03546644632505668
1.1917756156551151 1.1200807823361443 0.8573586065334392 0.015558339204014752
1.232925392170938 1.1028903883433514 0.8653354804995227 0.02475515725325927
1.1681696259118879 1.1138764659124532 0.8533319545644713 0.02608682561255174
1.1593174992568942 1.1069880593169295 0.8613975676835964 0.03355488561174175
1.263190138830034 1.1131720847874296 0.8580524423029082 0.01704926509904062
1.2526486998398216 1.1135999933898333 0.869399013048122 0.01969903545249284
1.2763515809755939 1.116783077527113 0.8643773145487197 0.02190513069074586
1.274005588672069 1.1194644192085366 0.5307340693067255 0.020988988798606063
1.2473903814573593 1.116155254342844 0.5127480265399492 0.02407755478009526
1.2690577152798366 1.1122413489320047 0.5151753567206193 0.027892201288851334
1.2613747981159682 1.1109859146295529 0.5089734830478384 0.026649038705255215
1.2676619067919976 1.1152834844360566 0.5262108192329974 0.026544358082789068
1.2337588358254186 1.1214515271753787 0.5087074863570412 0.011196728190815191
1.2552442248708513 1.120355545367418 0.5539661351516589 0.010646895725946353
1.2483655619133034 1.1128701131756886 0.5298777228084166 0.01472178857442877
1.2335317666955592 1.1107254000697364 0.556793119571688 0.015133663070843238
1.2381250026045867 1.113585645276316 0.5218005727170103 0.017253721203272575
1.1555933489225543 1.1204037296133822 0.5166794784380659 0.01155703366660421
1.1710311691560338 1.1193908358854345 0.5509636727303616 0.018094574178836063
1.16388302461566 1.1201076561198284 0.5544771647634874 0.011942524969946603
1.172202476814421 1.1198843889302204 0.5530413620396658 0.015564249310229114
1.1877326667571637 1.1144754103512442 0.5312351153517285 0.0120184186091547
1.1806903399966848 1.1199341291909044 0.5072033167442455 0.010309510219283375
1.1553475927573442 1.1168228597042555 0.508701928016312 0.011141118039128515
1.1876627796756534 1.119595226379529 0.5143494316746874 0.009353387013095222
1.2293196912856 1.1199498771528587 0.5406948146895952 0.015110721109996695
1.2156411272934657 1.1149490464518417 0.5157099595163854 0.01100726735447559
1.2235896822784138 1.1171730831185585 0.5340103954890547 0.015106910097243595
1.2078760752734283 1.1208624009637376 0.5038039475218283 0.015389813212071517
1.2038581762835618 1.1222682764669192 0.5485468154008154 0.025674578725796742
1.2057093962180447 1.1180122773334928 0.4914856447659018 0.010910332686449059
1.1698518358079655 1.1068311557742747 0.5628445116894558 0.0204338154735705
1.2090017496223664 1.1228034041622192 0.5696242499249413 0.01635318075074622
1.1762368491127493 1.1099029185439198 0.5809474693070112 0.02798997850528641
1.1917731383532155 1.1155195611974897 0.5645553597738769 0.026200825465061084
1.2216241496941902 1.117536879133028 0.5879135094516557 0.02501827849710218
1.2077176211301406 1.1085637621192743 0.5890976269839866 0.03026363328364157
1.2010935228027944 1.110014342547579 0.5765676631972855 0.02853817650938474
1.215400232563884 1.109393575512868 0.6011867831158577 0.02605205683572354
1.2001379020412344 1.1104421673983662 0.5926707648834247 0.02772579717596353
1.2182601793299261 1.1220980651920325 0.5676613389934165 0.017754896720958018
1.198180873739018 1.1150385905919524 0.6136562780614263 0.010358968889243945
1.1493208700157318 1.1139893671384633 0.5770121924905438 0.01763815250676953
1.186471476283402 1.1075590452917496 0.5797779918215492 0.01807503378994237
1.2097369850957953 1.123996115379122 0.625376200340343 0.013201915061204486
1.183925616724044 1.1116254815974689 0.5953169440760407 0.027034631318180305
1.1573497077468307 1.1154416394088467 0.6175938218130732 0.017445231609564408
1.1685411000515789 1.1109517414380385 0.6054996268589389 0.01329259800155819
1.1853683688655767 1.112657775884362 0.6175580735088878 0.011399981191009444
1.2599674084847807 1.1153413704427657 0.5847429445910955 0.009726945845609746
1.2541941763735267 1.1146108301870283 0.5666376853140555 0.0160234902609172
1.268085235686978 1.120848845591272 0.5817991548282943 0.002806390217961597
1.2778153294074328 1.1166784651585964 0.5552226306001725 0.012140063192825852
1.2888906052954587 1.1176874726590111 0.6158250590624272 0.014862464092241815
1.2405262257335923 1.1086022729416731 0.611968608340878 0.014771954865727974
1.25449323948055 1.1116209848515781 0.5986468226230814 0.0069127442165952055
1.23523746567977 1.1160547530185845 0.5801690977403036 0.019418525169711487
1.2665883621426093 1.1139301341548051 0.6224946782602336 0.008699016876840417
1.2387145840160887 1.1117316323185025 0.6059391706733455 0.02240918221489704
1.2369808203851012 1.1149262059450409 0.5947213365790078 0.01953906821126102
1.2325348165501178 1.113729957785937 0.3658616917351203 0.017073462469553907
1.2758503697197157 1.1141851092769803 0.3818679705694908 0.013316471655079251
1.248866755856839 1.109970735650983 0.3521597369123196 0.006590640799167252
1.27101206655175 1.1100751454002666 0.3679064139751647 0.008817724184888366
1.2421776134159035 1.1140493078509386 0.3954455082714063 0.017005352650523775
1.2759391284706039 1.1071032212697463 0.4189609693693859 0.0296204438221506
1.2559457767977333 1.1238658986802523 0.42169908970346515 0.016063897769582405
1.2552633507251856 1.118495327014747 0.39510750799017824 0.015340908967726313
1.1768195597062288 1.1150262415995176 0.4092743301184991 0.019266882521108107
1.2063926127530815 1.1226630169387426 0.4074208589103155 0.010825171170358965
1.1825270432792188 1.1221599471993715 0.4031280121332638 0.0191951771709256
1.150370006019805 1.120995837560885 0.3723244834974889 0.013609570484732096
1.1555924523858756 1.1119699853070713 0.40464270372058875 0.014920302027011776
1.164948172123101 1.1101310639301194 0.37440705054028217 0.012299331510528073
1.2188827883730022 1.1102365196806212 0.42131251157665517 0.011907313029602844
1.224728325924654 1.11500721856283 0.3592472938928862 0.018819163009692996
1.192002325733422 1.1091772071137005 0.3568674807479236 0.007341450937230525
1.1969727304610152 1.1098582126117813 0.355152576069338 0.011498420141722842
1.2310745262909812 1.1156736473023077 0.41692875142665914 0.025546225431034464
1.210811437510994 1.1111125065056806 0.3646268120344807 0.012831897743477661
1.2016896295903141 1.1121230354591773 0.3765895844164834 0.010993374824450978
1.2272758297210073 1.1126753504640923 0.4003249261518543 0.013956977523314252
1.2284748697686743 1.1172827956584628 0.3835741601122305 0.019594610167105547
1.191251040614123 1.109845630692945 0.4163755876349033 0.018104268682223427
1.2130569883987186 1.1151909327661493 0.45517746802609166 0.009654168087350416
1.200946299822977 1.1145059079474242 0.4560625096068926 0.004053688561852258
1.1786574725835293 1.1112054948731969 0.42895341710076995 0.01172520519360476
1.224685797580673 1.1108909126324789 0.48807092877246583 0.012136732947482833
1.2109484334374165 1.1116807545388905 0.4253490283743319 0.015895875547880904
1.1794857066565054 1.116690322674204 0.4165577099192206 0.016539885812616263
1.2191791275057717 1.116347477029706 0.4572349861741495 0.00846583448916394
1.2232494444046056 1.111405417497778 0.4764121492958371 0.015903997312282928
1.1984757050311503 1.1118125186154013 0.44254211014886224 0.009979908312681604
1.2230430155655079 1.11375149119982 0.43116302602023826 0.01856412269644248
1.1592383045760162 1.1111550502348697 0.4499175269216291 0.01078977717491083
1.195788267038693 1.1123607604321286 0.46662780714373664 0.007604580298736344
1.1783864952151526 1.116207269977213 0.46912109241201194 0.010221618597507334
1.1716027580863844 1.114082878002939 0.4595538927165897 0.014358202454840102
1.1582951423722851 1.1127145078814455 0.48094288732039303 0.011270847558246241
1.1640734906937782 1.1229183439282038 0.49339507463677124 0.010538814450878268
1.1615256560523077 1.1132455509345256 0.45907887479615883 0.015189883505566156
1.1686107319430987 1.1142595249083334 0.43641316450097944 0.0118831533371441
1.1488719831013083 1.1134383436188253 0.42034107250778197 0.012480491928282171
1.176834238439223 1.1175127709473978 0.44810755855311335 0.00558551687608236
1.1998835065106284 1.1157437911233026 0.47794957027859075 0.006303372406230604
1.153230295252648 1.1080422610967222 0.46668688023498256 0.013645769639931197
1.2217849238942184 1.1141015890667654 0.4955192165866177 0.011694133768406606
1.1889206555404943 1.120887156980471 0.4940192500656551 0.00927022141726049
1.150995649638149 1.1153085139773433 0.4368675912690962 0.010576087958199767
1.2660834172102489 1.1036759070051168 0.46580453706310515 0.027318110624581456
1.2675375574029806 1.1106734525503434 0.42987211772489803 0.030372117183359665
1.2783529286859916 1.1088498182374944 0.433339456911035 0.039748533604013384
1.2733644278753256 1.1103887310534872 0.4770426633781547 0.03859811797048185
1.2594377346184504 1.1119495766520495 0.43849150372373197 0.031099799639199083
1.2433614871839922 1.12106906758934 0.48727195694834813 0.02262190494016299
1.2261579344733282 1.114673233521754 0.45958409989159993 0.008644479129586102
1.2459615352239923 1.1198729173663808 0.4510403613646497 0.019938305721245258
1.2580644065818116 1.1106565685033674 0.48849565338382855 0.024662878679408265
1.2609762250388878 1.013835935878188 0.8929206982228316 0.01274215412383297
1.1987959617078383 1.0542753678901393 0.9037256922763092 0.0002369711439350692
1.1796472010221062 1.0567231848076448 0.9010419793350971 0.0010094451390852165
1.1610440959101125 1.065991294857731 0.8964195062693233 0.029519833145678045
1.2563842778105332 1.0401698764647334 0.892106823500059 
1.2756025502088169 1.0840679851231163 0.8938155662829826 0.011924184020787291
1.2175391784065481 1.0978560674270381 0.9082822860653229 0.01260371471327799
1.202736980108347 1.0907953087552344 0.8984492614737443 0.057392001250331504
1.1690179014433495 1.088191283558568 0.8975715621058575 0.02201266955703768
1.145627492770035 1.0885153740383176 0.8970087184094864 0.02785144549816515
1.1965386343767224 1.0736166814126538 0.9006685089664169 0.03481319475472228
1.1715232947211855 1.075714625766104 0.898926725063882 0.025927205660569337
1.2376047564670938 1.1029535342807888 0.8932584274936972 0.04013936043238655
1.1710610444782066 1.096029571466067 0.8874158800714341 0.03801810086388465
1.2144906755671632 1.1088303934339505 0.8857435684702686 0.030796138400315195
1.1769716218256985 1.0944085179457335 0.8867013438138677 0.041614131857609205
1.2054925591509789 1.100003552257279 0.8869917829001087 0.05101880808568316
1.247089659101868 1.0976459617469352 0.8941125293790448 0.054149711211688045
1.2542539237457604 1.094129088603306 0.8947538186412441 0.04505990510730758
1.2657020443581164 0.9857215257824231 0.7378922981231644 
1.1865618458718785 0.9880560892569152 0.8120345552334024 
1.2177895496890174 0.9926976493958944 0.7807345955549678 
1.256102007944174 1.1108912994447708 0.7383470835396198 0.02792737168444462
1.2631658390865532 1.1184967167444615 0.7597512300890618 0.029657273161210723
1.2854601765185671 1.1092434696052336 0.7622166993200935 0.05016267000703042
1.2424477003927916 1.1098666082854685 0.787685908262643 0.028781555295449734
1.2584261413164528 1.1183241106900785 0.772602737267614 0.023924953038269758
1.2279134057225622 1.1177418994409092 0.7789014158121249 0.03330450559213356
1.2699479322587577 1.1102321248249072 0.7921655304508075 0.025908039874585974
1.2427751903263464 1.113287148852085 0.7649270862189288 0.026002880834707188
1.2409562935802043 1.113772720483638 0.764901841063167 0.026008720977425633
1.1691475949980614 1.1170310633548186 0.7679737748066127 0.031426180086479474
1.163333153859546 1.119129765041391 0.7539964994253942 0.04119585390733523
1.179079607213347 1.1161615471565118 0.7715191679842254 0.03187450514030386
1.1721191737652377 1.116980071260746 0.7555429471608259 0.02611666160216846
1.1882698034087718 1.1103850989898834 0.7836189235089669 0.015341535068304556
1.184892708979804 1.1163064974538432 0.7542853595934762 0.039501972770643726
1.2194728052288006 1.1113113723698869 0.7718041282364602 0.03738601656311222
1.2043707592175492 1.1117760293753078 0.7702757051424267 0.027272371283237205
1.2088042896605635 1.1098190818896871 0.7596176455165045 0.041480708096623194
1.2158215451581829 1.1074987776762144 0.7577099582543833 0.04232661052337763
1.2074358578524675 1.1228161479879872 0.8048984250085911 0.019726589660298662
1.2225660678021688 1.1080848218043426 0.8038370567600288 0.03665494814205961
1.1949217179537008 1.1081242893128536 0.8000949532762069 0.024814086700331014
1.1736078781448216 1.1145240855502236 0.7939707296837075 0.014513945640674491
1.1984817113897723 1.1172863562047788 0.7883123649031373 0.02380915755575948
1.227627788160129 1.1172748448274048 0.7910606918965143 0.029448127839090264
1.1569521355479921 1.1169660960711927 0.8035583915054761 0.012322151690133922
1.1876982556255034 1.1120896838736876 0.8264506300592318 0.023553174599462087
1.211748402220021 1.1059377700809374 0.8194256122776643 0.026075111545364415
1.2219169824723408 1.1037472619377955 0.8226732943723845 0.03132005661172604
1.2459926341550862 1.1089788639094018 0.8078720557273854 0.03190049396639569
1.2498435164550137 1.1043632786632107 0.8002525821412126 0.02496110081180608
1.2459680288594814 1.115131935695269 0.8371885754696222 0.02419665374857217
1.269695964676146 1.1215570175528364 0.8160300155468068 0.021783593434970112
1.2595677226359974 1.1196411027366093 0.8195166947694811 0.016566753242972822
1.259464921454604 1.1115349915976858 0.6155974631416726 0.006602139817361381
1.2634567390144367 1.1160785204247292 0.6673286218652145 0.011537122626683655
1.2688724756062224 1.114888922423321 0.641415437010181 0.01099798326962742
1.2467959737191092 1.1130653901032772 0.6393109010454904 0.004545939398833167
1.2474219189396774 1.1173199947577388 0.6741763729749798 0.003638336161877488
1.1983270973795563 1.1180932767911582 0.6718202018608604 0.01576764793098029
1.156750511093539 1.107671946625421 0.6372694977329831 0.007504591217561645
1.1801724287217676 1.1149584794001504 0.6630552152434207 0.015497130493625472
1.1662656273893781 1.1126076599076045 0.6715361318868452 0.010003611923890838
1.1589171252491977 1.1157584628801072 0.6637342741417865 0.010620904063095129
1.159369452584885 1.1114621371380562 0.6311282231034377 0.012080740150131102
1.2080049330856053 1.1194326960928254 0.6807022465600666 0.010149024117888306
1.2256617531825416 1.1073279526966822 0.67343057266989 0.013002056890781245
1.1688617982502902 1.1202703317639846 0.6870608065328621 0.009902335796935554
1.220997932944387 1.115462510465366 0.6391034162204666 0.018109234588425317
1.2156486401411033 1.1162211865206115 0.639910361066884 0.020114178902056575
1.1953064161831821 1.1149558881007138 0.6520599574686986 0.021392321423343446
1.2102992428999628 1.1060114988817524 0.6572028574399784 0.017259142326311868
1.1831626205957237 1.1179855089005988 0.6468998014961806 0.016907571126346617
1.2250826196116875 1.1122253455631876 0.6451901222428497 0.03207424865853958
1.2348492063100147 1.1115624631108532 0.6596798902393247 0.018731995007581097
1.199222357517181 1.1192575940760106 0.6872264815366866 0.011317058350911765
1.2000132028797192 1.1184386309877195 0.7151560998531433 0.045783632756587034
1.2235263164185248 1.112178627998075 0.696296310978159 0.029684737488818974
1.2061075386353841 1.116709403694846 0.694955794479692 0.030105285160144938
1.2026746100627799 1.1167836627161611 0.7208614457409269 0.08155062953533679
1.1869378405449045 1.1213198397580453 0.7375956758322619 0.06976464606061508
1.2594527679419394 1.112976166734997 0.6921786604256082 0.022832267839298453
1.275415110245161 1.1189235164408031 0.6831199081383333 0.005698109292857338
1.2390097254107513 1.1219921825927668 0.3098085309673232 0.018178621083346874
1.2691737877379872 1.1121637072837571 0.3152065841706688 0.02678490883061943
1.158060771655387 1.1172206689121151 0.31289522277083964 0.0038872299282695887
1.1740643280980974 1.1166658036487906 0.32612925522792097 0.004871664078842321
1.202254754875446 1.1153002923083508 0.32836733868778767 0.011275005636040227
1.1538330303046593 1.1173130817844148 0.3204059331186004 0.005074063179018175
1.220047659827844 1.1160980329952894 0.3181476303938445 0.012284833127601234
1.157682777619877 1.1165432506182913 0.32761049605617865 0.005302265589912413
1.229845218077079 1.119106220252951 0.32573999541155707 0.019551832372525012
1.2298524990407511 1.1238725872517292 0.3497255127695093 0.009835167337496151
1.1787388297556702 1.1168341905823314 0.3306148833104543 0.005287407674155309
1.165728169808779 1.1184479642808467 0.3640553146344023 0.009564991668163011
1.1595620670562228 1.1133588421007687 0.34769113699690235 0.00957095189640988
1.1821365035854159 1.1139050143643137 0.3528447819067865 0.008339934166758172
1.1745727969199082 1.11527939112654 0.361651922206694 0.009110101470073604
1.2483750768427784 1.1171217091073975 0.3233300469287949 0.015646499130021165
1.2696757732145711 1.1113945257575142 0.34250014636421167 0.011260805909323636
1.2540786613000214 1.1156921939529232 0.345550982140885 0.0061259648943901845
1.2447279761749797 1.1149554044275571 0.34735014357102245 0.012003187698316965
1.2654433936025284 1.1098206225140557 0.3507381973746091 0.013953327774030268
1.241750830135645 1.1121472309149445 0.36951341517156405 0.015643734134206295
1.2716886191519532 1.1107667221442186 0.3658991956648579 0.009037688982211954
1.1974488288714589 1.1145585506938434 0.3160060237504406 0.0033413617296828295
1.173820148669011 1.1159098915039114 0.3040984227101927 0.0003214461936494347
0.9200354614705049 1.007404980610027 0.885534880295565 0.0030669130876594054
0.9535131556189145 0.9986058799276045 0.8789367864851525 0.02426560770755333
0.9524186095431171 0.9981173412615219 0.8374930881936465 
0.9459616391291491 0.9994164760945667 0.8491422585891404 
0.8838175797856489 0.9975561624303313 0.8338235273409558 
0.8709952161739778 0.9984257236758144 0.8572601090801665 3.862396728403488e-14
0.9850618791303719 1.0006120370167702 0.8751899445256405 0.026185941867101183
0.8438899419954534 0.9978404910807323 0.8702633526175423 
1.0118440669340667 1.0006589347087012 0.8656562960818333 3.6413524498625065e-14
0.8407224986715962 1.1020236256589504 0.8824181619404879 0.060453123683240816
0.9369999259302961 1.1039303504687155 0.8820265515189827 0.044357801241165395
1.0073948267272705 1.113153219398605 0.8828132617944155 0.03654197266793144
0.9530303741298428 1.1065596289899324 0.8750554456885493 0.0281031789612997
0.8798076108262417 1.11119732477264 0.8722492419959442 0.040661398496430835
0.9121896323494018 1.1122224261618283 0.8732890229114162 0.04467517042875978
0.9295794298759691 1.1186151099044812 0.864893908590927 0.015556782173076007
1.013263348047664 1.1124012054437218 0.8770370106489577 0.035852479790727705
0.9882988440470304 1.124130935737283 0.8703026897951089 0.01517234623850726
0.9650165650583216 1.1123806987791047 0.8837258918313408 0.02169156160385759
0.8995130098801667 1.1165893217561191 0.8848076675145633 0.035118247941655176
0.9658838104364698 1.110708636241443 0.8713431710403804 0.03593357795506065
0.8357020028650101 1.1114440006352597 0.8521992380518938 0.02894527317153494
0.8588626855923678 1.1167698230674343 0.8467346759658961 0.022289736572001118
0.896330778290948 1.1188501583584998 0.8406698530768006 0.017612543512239946
0.913110879818827 1.1189640639673355 0.8379109788400019 0.008467873119591482
0.8540456944263035 1.1094308833123177 0.8220397590025755 0.025490524530549515
0.8768426674475998 1.1195766185069747 0.8396942269236941 0.016029794177164942
0.8517701003885512 1.113459025372176 0.8425724598395822 0.023037108888061864
0.9667693880757038 1.122732244727372 0.8479405947630188 0.015580087663804741
0.9696534055163638 1.122816411218962 0.8368228874760607 0.017528196833888208
0.9836731719625927 1.1198237275237304 0.8554827793877016 0.02174846129395498
0.8906922875943252 1.117410900282209 0.8471086222162272 0.018445326180902163
0.9450740604756295 1.1217663450784647 0.8335389575071865 0.02108807149906919
0.9157255198399432 1.1119499643424642 0.8544238109384162 0.01460693881218676
0.9947346089334358 1.1139881490416674 0.8458625966113518 0.02180620012691377
0.9888165514865506 1.1163840442319939 0.8354866569436353 0.012404158606701961
0.8770887895764085 1.1201151126032942 0.8570861618940528 0.01418443079614823
0.840045239755888 1.1149912804102107 0.8684987200259333 0.04172610078538888
0.945647840602214 1.1134887865577334 0.8652277588184267 0.016287293589965904
0.8914189803862657 1.1160464837770674 0.8622633105866623 0.029298400964287215
0.8511747756019321 1.1143474380337024 0.8543636760296194 0.026005153528847514
0.9327870914585328 1.1139556493653835 0.8560134053562531 0.0101420357723859
0.8583057610205013 1.1191891055305934 0.8645816850063508 0.02765062185678668
0.984177251521993 1.1136729530595209 0.8732735385944154 0.030703053916663888
0.9631600817471603 1.1118930837285022 0.8734303467845985 0.031663411271566265
0.9556832386319397 1.1176182575380469 0.8605493275251145 0.02095918693859136
0.9987199349793019 1.117390977639066 0.8587025966506994 0.022137426301059287
0.9185969300249563 1.1125022221082526 0.8685535272276597 0.038361371179222024
0.8922200844253353 1.120064073914389 0.8726516634998923 0.025137111137678976
0.8966937611693493 1.1252255769201729 0.5658494034643777 0.008528389270804328
0.8782067754156617 1.1158885099131084 0.5985158562628923 0.014176844757016006
0.8340945443528436 1.1119689732204103 0.5801584448058408 0.009875951650043662
0.846276326250122 1.1112261346786367 0.5688348898541833 0.012856806171372843
0.8843279881507464 1.11622093649122 0.6006516167899307 0.01446999641791073
0.9359177309237788 1.120777864750401 0.5807948245156608 0.009641469978579115
0.998736020858203 1.1192719005741576 0.5665693379186398 0.014016189527499267
0.8942065268305193 1.1190023326708944 0.5794389916408783 0.013394607973621181
0.9079340033625993 1.1157750697235023 0.5906285594317582 0.017325038174492713
0.8865127260935097 1.118335885761535 0.5771268779230593 0.00979168444154189
0.9457713850699531 1.1156329259295952 0.5746156319574965 0.01146843854945036
0.8708972610768919 1.118915566061918 0.6079226375846382 0.011345554913986117
0.8529869835717234 1.1174654214111297 0.5658747807021541 0.017918139407085212
0.8617399808630114 1.1133031942775948 0.608651193700178 0.015920097413804266
0.9141416937200743 1.1220984300722168 0.5778247059167863 0.017415623169012972
0.8643980097447486 1.1215973009111138 0.588918303360044 0.009101138648345934
0.8392288604071723 1.115515484236826 0.6144031554583862 0.02680734552407041
0.8455681613030592 1.1130330920431615 0.6069290495195371 0.017628782143659594
0.9431927894258243 1.125933791462557 0.563644231829006 0.01028587370987432
0.8867688803251796 1.1227254962768392 0.6120520840667262 0.013693931621609784
0.9539881630812787 1.1187159749972388 0.6035694326238495 0.01711035669537673
0.9734927854924253 1.1155051292930307 0.5695273057012067 0.020853970474079532
0.8605111477234045 1.120484816114205 0.6249209156881285 0.012598749474961302
0.9090339547872788 1.1186268707241478 0.6070481613963294 0.01305352096071307
0.9712328999372062 1.1236683316109704 0.6074906854970217 0.020146700108126598
0.9499022979869131 1.1177973529931933 0.6024121726418941 0.019975410175094042
0.9856180904581524 1.114863823686183 0.5860437196154756 0.022671555558748658
0.9220979219135038 1.114738660357277 0.6017673676499902 0.012485298226835324
0.9936777851316885 1.1209153085625743 0.5819492778627847 0.02032679792727248
0.9550513179821313 1.1208648423344276 0.6172127926128087 0.02237715503314502
0.9419392542623064 1.1214170160632442 0.6158644841789125 0.02082141374517328
0.955474657393145 1.1180281792443807 0.5857881282917897 0.018323533671959734
0.9930767336206693 1.1080722292561758 0.6161379285476823 0.0303663890821801
0.9731078806502259 1.1169169280662246 0.5801085002876243 0.017897375033996358
0.9328311030030515 1.1173729989689039 0.5925870271942847 0.02013395204979859
0.9704976009524877 1.1179914462389304 0.6122300373548741 0.023794639283601444
0.9900706133277694 1.1103043472074068 0.5959807098481584 0.022637525343801375
0.9777079312608833 1.1123954570714134 0.631990425170665 0.022301340374584214
0.9934701957703133 1.1145238432671691 0.50147157824733 0.023082244300563045
0.8920131366717751 1.120965858390527 0.5078578872152317 0.018648986103446133
0.9337650559276176 1.1172276003810326 0.5045056492312923 0.021346650993179946
0.8766955071994877 1.1204554002277605 0.5377031819460263 0.011086979548094492
0.8866553660276744 1.1189302297545292 0.5198497818540571 0.016404056374058354
0.8404896358600735 1.1173256786022772 0.5273694377430823 0.010091168867219343
0.8800600229173612 1.1220718072424722 0.5018271630062889 0.011781209450729243
0.9088265033792741 1.1196443809725314 0.4930626857087435 0.007690925564171322
0.9238407663109168 1.1093360819413058 0.5222224748690848 0.01574855499776503
0.8655282429368182 1.110647155023034 0.49472649634266946 0.010634036074583592
0.8543251095857329 1.1178918733533056 0.5407872481018813 0.01483268177261129
0.910449674528839 1.1154728563042207 0.5200031263323251 0.011159182008099849
0.896381977432088 1.116081199396457 0.4928306308700062 0.013160684815145509
0.968805112334535 1.1227095202029274 0.49816265387111747 0.009134342783702145
0.9019931980882658 1.1134702131096792 0.5092571995135485 0.017021194327582184
0.8523815636617511 1.120999408144264 0.5202552277198476 0.01509592647008576
0.9807818742048794 1.1160726179083729 0.5408393065287694 0.01703580372379055
0.9354627079283143 1.1086541955850358 0.5282057930190404 0.014933805902485268
0.9684822729729058 1.1146258138818654 0.561111904070028 0.011689007252010374
0.8617401904251862 1.124344843766079 0.5466184769398938 0.010168519751028223
0.9908018834109419 1.119963181053815 0.5241699263812029 0.014499074656193827
0.855238088086444 1.1208323738612063 0.5564905996860905 0.013089303079312152
1.002302885842152 1.1190790613879975 0.5101659147517715 0.018423713614557274
0.9125470901175672 1.112598746046227 0.5472123794244977 0.014714568812811302
0.9235791690730728 1.1131044385862927 0.5438060797188884 0.023044274850745856
1.0023249599672714 1.1161861941713176 0.495584478441654 0.023587152517821584
0.8744630013321217 1.119689407030902 0.5634745635640646 0.015246675506303717
0.9348099033251434 1.117099730095767 0.5459738646196781 0.01929854211558426
0.9715889057069996 1.1123905355109813 0.5222889419330127 0.01892566277895824
1.0070958702025679 1.116782624360516 0.5153105796687748 0.01663514886282678
0.8910375679246342 1.1224779295922567 0.5491634017032712 0.009414418711981523
0.9731017070936123 1.1165937438102416 0.552481965040861 0.011854875164846873
1.000092556041354 1.1189094662419203 0.5542466769401042 0.017243070445326997
0.9501599503616133 1.1227546472028338 0.532148139326061 0.024815636681836614
0.9119483734973189 1.1150225528539683 0.5535719350525006 0.016240576193406873
0.9546100340823026 1.1154430846711962 0.5215069381872681 0.018011948894634183
0.8646079092244503 1.1137165472464972 0.3678205181278501 0.013406655033592589
0.8762394037284378 1.1242516688490833 0.41132551299583375 0.011868676612532011
0.9915571953824058 1.1204418644021932 0.3655291690548707 0.020372064334488037
0.871048921082684 1.1153301069987405 0.392209181734567 0.012574377121217332
0.8602902120166727 1.113237824145045 0.3742574850035921 0.014722775253551335
0.8799868495583398 1.118529870205252 0.36658856238309717 0.00813313000564487
0.8592825353386705 1.1120884324893814 0.39139489825240137 0.006588489189156082
0.8421863056868473 1.120117364796497 0.4102006014526471 0.011266533497115075
0.9090968389687046 1.1168551637914998 0.3727968480260881 0.019382801332801163
0.8875955081796433 1.1170748892237898 0.3754179717569762 0.015729614689572204
0.8301588360022412 1.1122772331397697 0.38874180495760163 0.017043520753493205
0.9619145326394789 1.1250005210154865 0.3728675332303199 0.012592082860002341
0.9113073434526764 1.1130785051083345 0.38144480276224346 0.01540058021263815
0.8408907049373499 1.111855762299889 0.3811597779751053 0.01659283606846459
0.9238874377441191 1.116215797200656 0.3774825300045557 0.014213583481437742
0.8394566342426135 1.1213498538138176 0.41849258042918863 0.010037374837320406
0.8459519549313481 1.1153618270362367 0.37931425230159677 0.011193731805681388
0.9355979136986691 1.118706926148338 0.35842434122296646 0.01630321092360482
0.8966459453808436 1.112518047741688 0.35921878187011347 0.0064138194321385796
0.9512532985173557 1.1091261687194425 0.4140276624249989 0.01932154023431307
0.9943152057595146 1.1193076284233376 0.4183984134030998 0.027845608362529122
0.9979464532629876 1.1163216068814825 0.4056478517332373 0.024143792987796103
1.002330924167617 1.1177031017412493 0.4094571322561684 0.023382112576808903
0.9338687152446474 1.1253085372464686 0.38579732019628293 0.030484829873264604
0.9602113886684639 1.1178819414170535 0.39924441935564264 0.030083191807867993
0.9752198031100048 1.12338616042353 0.4235145070854811 0.025723486667080783
0.8552231488269165 1.1223870062976047 0.4146820981905118 0.008655628381343875
1.0039434543086048 1.119283890906471 0.37280294771020295 0.013051918526903135
0.9248552482585964 1.1179708995856026 0.4243216933352864 0.022798036427646877
0.9399607091946528 1.1266605489596306 0.4062607040922919 0.020928001251505405
0.9121526201804026 1.11589004691732 0.39649352765853896 0.025690629468289775
0.8992141803826579 1.1249400015799862 0.4015936499844792 0.014781156442602649
0.977672593571475 1.1320365564922876 0.3928340376016593 0.006094119642867474
0.8915334625629854 1.118008835065361 0.41483487794834845 0.013062598630654928
0.9125395719578333 1.1174385719362323 0.45549024137598004 0.010120107281134596
0.8579642509467278 1.1215814862165 0.4344466292082081 0.014869829098186911
0.9336883575437509 1.1150916148136667 0.4401362093962753 0.019979374871744098
0.8425293628947076 1.118356013617462 0.4700117723249327 0.0192760776485332
0.9123122441489729 1.1150875680032044 0.44282287061737036 0.00793749483262401
0.8886971619978103 1.120524318587868 0.4707835722091151 0.01778543067787349
0.8656057331797918 1.1173707864046583 0.4826232005625985 0.017285273391973305
0.830391566257291 1.1194311203618204 0.45228290314583525 0.006262814926075152
0.9576456828125812 1.1101257521855743 0.4333167157345445 0.0200899855660795
0.8381103505666533 1.12287666311863 0.4381173293908363 0.00837724350815538
0.8717565084598637 1.1175855657058966 0.437348731453201 0.02052981087935022
0.8899227187699376 1.126072800967001 0.4372236550561458 0.014612063889653514
0.9369387286086731 1.112860205246938 0.42362851608271757 0.02354638749078685
0.8895033161170591 1.1166809213427833 0.45282579213799456 0.018465908665282707
0.9842268918581967 1.11838040684212 0.42558042536995383 0.026326560087163546
0.8523959594655675 1.120279681875619 0.45296444223096055 0.012153289474319106
0.8700198702579602 1.1087601658176995 0.4566764644998022 0.01012494107026818
0.8370703856916882 1.1178749863180837 0.4701760134504951 0.020920819763329473
0.9943210855294318 1.1216835177531645 0.45021641227912673 0.014740498972352025
0.8437664998400325 1.1234555847998426 0.49492929384017964 0.015250492381438443
0.9878409134136035 1.1097670565394828 0.46356679936547734 0.011720522059837193
0.9470033751971046 1.1097388922556182 0.45861884263049074 0.006384499015237848
0.8473182586345698 1.1215213821715322 0.4867535650786803 0.01876247131950749
0.9660762898132287 1.1137503942508917 0.4414747750560739 0.01453914620242808
1.0053026381344883 1.1174168156956776 0.4427597503707194 0.012802934905699885
0.9664819327021706 1.112746765677164 0.4568805826107132 0.02173944190612966
0.9530342589281678 1.1102775759739723 0.470732747394685 0.012964501091601022
0.9512745442209591 1.1119310743231154 0.48789985989716594 0.016327669982007957
1.0076557841357823 1.1171465986656153 0.4785971263985853 0.014241534279211184
0.938862839570727 1.1183354310107643 0.4781448803781139 0.013179699680983004
0.9740262155390131 1.1138547224168318 0.4824197785116295 0.017831250627056303
0.9675481724039308 1.107430338962944 0.46614082799339446 0.02146466494859116
0.9193104336672518 1.1193559993094395 0.47014526286814695 0.004649703617137337
0.8925125893878457 1.1192632620738563 0.47275094026414866 0.020718052036953146
0.9921054669792334 1.1182735312447702 0.4542527012761766 0.016896390685664443
0.9012397511131777 1.0300582794532736 0.8958118917749021 0.007243422960967741
0.9439242084011251 1.0162121903142969 0.8902116913544227 0.0027019049506080903
0.9733518533899412 1.0214376795251074 0.8922481242804926 0.004614580596346056
0.9569173049956319 1.0625893915506677 0.8938629791606758 0.0039054620803672512
0.8774853821901665 1.0671816242584773 0.8925645615190567 0.001467097251233366
0.9887012586845857 1.0628252019214117 0.895285047283285 0.00532992379521763
0.8979204345658891 1.0445954002981144 0.8974947262934995 0.006027337465461352
0.8764012378717294 1.0437586019934213 0.893872069222764 0.01998158376313496
0.9201170286024083 1.0430062150542265 0.8965839926213178 0.008067714480607993
0.8455792912361441 1.0395372905474896 0.9061046514305203 0.0008818610299034832
