x y z curv
-0.006192522014745192 0.8238487131928708 0.34318873326309435 0.016326471172275335
0.000977144539005152 0.690351681540693 0.3149031524938024 0.004426659151610198
-0.002549639932971999 0.7188239007904701 0.3427091885595911 0.012646224120611997
-0.008997838741111581 0.7301161859047001 0.3092239334418313 0.00771273580236537
-0.0023355325137061006 0.6966407018168059 0.3369660927403244 0.009699695247563462
-0.002464304431426845 0.7436415649446146 0.3212561924424014 0.012251318409639918
-0.006569479126101793 0.7901344945899289 0.34149980783411954 0.012555592262448782
-0.000739070970812373 0.7637572089689191 0.32114643822496286 0.015477273740816448
0.0017553002340171438 0.7237180894970167 0.32231751012394777 0.015190940827897093
-0.007324986073957723 0.8248374677678048 0.32102885658913516 0.02004131738212956
-0.0004883095596177485 0.7792555995594851 0.335739393606129 0.010651617621704827
-0.013113126231279392 0.7862014013421416 0.31015747042437497 0.004089122412364848
-0.004653687970538035 0.7369083167378138 0.3344736827651108 0.010887021878613375
0.0023448416175165672 0.7127946104063311 0.33123033757464254 0.014153751293445118
-0.00619177261288816 0.8402838361135347 0.32718144750220485 0.022316333062887224
-0.004347001995760669 0.746036577852133 0.34653031055310496 0.00514386600057208
0.0020289848739964782 0.7024189920421888 0.3138136881899279 0.011265060539830209
-0.0017099565945004058 0.6933939179475402 0.18888026081976694 0.01248095168411913
-0.0047167913663148 0.6793300820250856 0.21841642302742806 0.005533165082543656
-0.004604557701766424 0.6716439031925082 0.19200657244369557 0.00633603493455778
-0.008390807208852753 0.694270353034848 0.23495602617930195 0.008841181565286991
0.00016238903086447946 0.6585079340567915 0.21389342063531233 0.004437813879892904
-0.0005977032242733647 0.6347235737977166 0.17799749511504548 0.012681352581129169
-0.003093192293314327 0.6492855648308922 0.19245184531616732 0.010385783115480178
-0.005720118792720529 0.7550374678748952 0.4479506029679379 0.01720941552887642
0.0027242462570574674 0.7743178469860503 0.45703668562752625 0.010121319635793597
-0.0004266333057066089 0.8098993108089256 0.4742888309873748 0.00506682027423904
-0.0031397448426768904 0.7403471871140225 0.4414075227039929 0.00960871199185146
-0.0014700641702279792 0.7717495641260166 0.4474346049650903 0.012290777712671327
-0.0058659961658463645 0.7849602331439958 0.45628709660273237 0.007164847228240617
-0.008065423639977433 0.7223876876285872 0.4408219137599956 0.006185008374927542
0.0012078972039197705 0.7576799982267577 0.45950762986850413 0.01518622158950597
-0.00323950387298459 0.8198685251226128 0.46720473167707155 0.00775831076103788
0.004926282702182228 0.7691874422343709 0.4730235223957984 0.016124131235046427
0.0040866766252537455 0.8461174624382791 0.4151718436586041 0.031474588250242845
-0.002083898842553842 0.73366520599164 0.4175188397383011 0.010618681151723977
-0.0026510037127331445 0.8380113094015704 0.4643580909778113 0.021989987229900684
-0.0014677796895795423 0.8209032258483037 0.43275453040844686 0.01731211243969927
-0.008547657271749547 0.7827730238477467 0.41107145216360885 0.007483432119625841
-0.0018401698059914448 0.7599944806083416 0.42974446900456365 0.01196749135271987
-0.0030811902999166563 0.7936487962349486 0.42837375991871735 0.01117188909527721
0.0012430401577248995 0.8376995794874159 0.442922776687259 0.030330065146529164
0.0019195468457714935 0.774266312096723 0.4241779708920897 0.009704142745636166
-0.0023234564985408074 0.7996686945775466 0.43889146672980606 0.009665633599533242
-0.0036768648003007837 0.807232458599581 0.453140633562372 0.008174912194263492
-0.0060466584923975246 0.750294508998577 0.414723726278406 0.013342392377206757
-0.006948370755320994 0.8271313383058617 0.41714893451042995 0.00999344658720542
-0.005772184921570441 0.7916199116545009 0.44481964618216374 0.009642442163421115
0.002740808167648142 0.7847108818897022 0.5030193138187975 0.018038228156493016
0.0018963905290844067 0.7788230352235942 0.48448883975453605 0.015058899086468807
0.002720836013741391 0.7548728197887233 0.4739072612082107 0.017719449273713283
-0.0009633304843250897 0.7926712205441138 0.47674797813092556 0.011633573905461478
-0.00165342709414225 0.7412766411484825 0.489628731309841 0.017757155356626645
-0.008631418111498762 0.7638774830073239 0.5028068913298145 0.005033746450299333
-0.006384681855591355 0.7385334799563993 0.4672776987052 0.007774072353294163
0.005720807698432497 0.7512375686784539 0.5115044930685825 0.00885317803633528
-0.0007182971462135509 0.8041426478719941 0.4784261001691487 0.005480935123426944
0.0013565208703029982 0.7847437523030074 0.48782156049458375 0.01546653342167543
-0.006730108686573252 0.8432265133273799 0.478724815171102 0.018559622349503924
-0.0022926004969607643 0.8338431723120365 0.4991105175375375 0.020821592876967877
-0.0017681242443948143 0.8340346810863406 0.51298607039727 0.020389227549890126
-0.004565496084870814 0.8124586519034305 0.49297153086525763 0.0030318370064506806
0.006052506724118186 0.847523956859089 0.509423244661601 0.06527386873504813
0.0004299816883399477 0.817530247662318 0.5008170674292894 0.02107546873260375
-0.00017888908023785965 0.7733095617963102 0.5078571448301195 0.013404312129930287
-0.0027365319622307694 0.7846750672870624 0.5456050528889604 0.0061490864114548335
-0.0031312046895052067 0.8301189748270356 0.5365265919414183 0.00863055975808635
-0.004620569483952902 0.8117568571672664 0.4821094069238209 0.004487550010735149
-0.001645246959644943 0.8236827703255014 0.5256908918996397 0.012957642363460435
2.4845900702909172e-05 0.7547611539899183 0.5309577667103471 0.015133623680350103
-0.007927343725289549 0.7943719359257384 0.530032041496619 0.002875949871676742
0.0005620522351082027 0.815088586183719 0.5130636007956856 0.018027670631111353
-0.006154370614199651 0.8316034974362502 0.4827350402405169 0.018282761074068198
-0.001124592700080522 0.8380792949685365 0.5305719091958592 0.01348198554094488
-0.0034995133417123053 0.8127341991286707 0.5434331016592971 0.011030521358680845
-0.00573548959322315 0.7955153204403451 0.5411985224420047 0.011552048951857182
-0.0043452428959546395 0.7595296244622677 0.5476147939421228 0.00728210239074549
-0.0014036426219848602 0.7443254078026181 0.5925212620607654 0.013962373794059227
-0.00033430253874747385 0.7909558884795671 0.5572550114414981 0.009402422953114735
-0.0008029269119000614 0.7516305370187323 0.5714235919869424 0.007774861443034811
-0.00047598684099259405 0.7637266450083309 0.5398663783244495 0.01028860735789769
-0.0011935895008610886 0.7451325467500409 0.54844592763071 0.012928168263612427
0.0004538094911223151 0.7397698713063627 0.52945724346618 0.010282262888133296
-0.00852641288875313 0.8234849655333665 0.5960482027442979 0.01685186318445138
0.0018609065722001747 0.7870288056404566 0.5902901256489074 0.013306704694870232
0.0012887530638252083 0.8367348584354449 0.6024728031350919 0.03858676478083338
-0.0008699969696192754 0.816204214475309 0.5841519602348919 0.018061171303226577
-0.0007341736762718431 0.8247373151130754 0.5692005268866834 0.03874989319641199
-0.007123831469323197 0.8088443885192032 0.5695331973703842 0.013963153960233109
-0.0011139641040657125 0.7766897887255323 0.5831677967303643 0.009094509205379566
-0.008525502406096236 0.7648262127224321 0.5933024680991263 0.005646331886136721
-0.004655248633516292 0.7829379457855349 0.5631966940733483 0.009171797516658734
0.000743852140816046 0.8171658082348574 0.6110563896367478 0.028636283952560605
0.0034368343084758774 0.8248948095341357 0.5548644609054014 0.04120121709105676
0.004483346854562589 0.8239092589772814 0.623666386384309 0.04053506181783667
-0.0017390654767682513 0.7755122052963751 0.6000157967134613 0.011563228315501505
-0.006581649434995911 0.795068523728758 0.6128276710721662 0.025050110810944055
-0.0012283242475846304 0.7943996795738307 0.5928834451247893 0.013940129225873402
-0.004915357068780208 0.8063052275326457 0.6225485256448688 0.035415978787407154
-8.95142632498815e-05 0.7792665998031061 0.6223452000269665 0.042059677837399306
0.0046877716885854424 0.8279068444752172 0.6166163296515454 0.04589087205580257
0.005504129512664529 0.8214600645571405 0.633766275554653 0.027896142623464414
-0.003088280654129269 0.7148128182974316 0.599480729117841 0.0060788523523020825
-0.0027988288638051673 0.7293730493643791 0.5939883383647877 0.01266206242565053
-0.004268443370518428 0.6862371162019887 0.6085139296626234 0.011768476086253173
-0.0012637734242745718 0.6785405293495419 0.5969972459742475 0.00506559629863763
-0.0016638725067170718 0.6756303069462131 0.6361755064506529 0.06723368103596401
0.0009986071389550238 0.665048132178923 0.5856052144744365 0.0030616355141213176
-0.00047906670794441137 0.7029684036479829 0.5890330544474381 0.005218420616120235
-0.005622866495946926 0.6618327378182142 0.6136421108363478 0.020584038209895326
-0.00488332815491807 0.6642025210109272 0.6173713699646751 0.03882169908725381
-0.004254575879771129 0.7068943336159814 0.6145707252068796 0.008846703023745798
-0.001277180144242414 0.6693381502485739 0.6000671115363201 0.01027349607123205
-0.00025030636203486503 0.6435605099310582 0.5853128960782987 0.007802279095434078
-0.002477098082387481 0.4881512239889988 0.6138717027211835 0.03223917315371713
-0.004284095720314997 0.5044987965233094 0.6198437773956085 0.033627702999160826
7.589973490404036e-05 0.515565319188629 0.6217583650538496 0.04011683943532066
0.002719432598176925 0.5332824743483343 0.5885717172614272 0.03369467791749289
-0.0026425407958760735 0.4701784161772223 0.592688327866698 0.024044462940396014
-0.012653899433793154 0.5034358111558761 0.6100420269597251 0.0033114389335706274
-0.000873481695729495 0.5217027863414417 0.6026263740205318 0.02647290018634594
-0.005424002012850171 0.7873913415965492 0.6427774190995296 0.04781404003957426
-0.0029261532875250297 0.7765275260942158 0.6342854806403673 0.08499291989195167
0.0010391525979155597 0.7613544116153105 0.6131063428588927 0.03133883803112626
-0.0019375746194768572 0.7475743698358583 0.6372667757385216 0.056240002762063965
0.005218262326839401 0.7670439578279229 0.6383268829290136 0.10997845648445341
0.0006545321441647993 0.7420657315674312 0.6104640036425483 0.009545151407801652
0.0060186742303534315 0.14520252079757193 0.2493830607987391 0.026582593727777767
0.004321667471415592 0.18192193689559483 0.2712039321716489 0.014551896297092052
-0.008867367416491218 0.16203634106122386 0.2854360652493442 0.008197150592398214
-0.00769732900078433 0.10488647285171572 0.27536847344135634 0.008717285502329034
-0.0006547551500645864 0.14527505271977542 0.28953897961464975 0.01368651499792376
-0.0021927611831683252 0.18694976425154514 0.2987685752193322 0.017993102256054643
-0.0032614645918470383 0.13805137148760252 0.2776629527986183 0.01603617272126322
0.0005179867876024199 0.13586856124200367 0.2652626538045755 0.029042270489974386
0.0009066619411046608 0.10922849598679069 0.25157078179501513 0.02101210838162383
-0.0015752646310941947 0.19353492514886506 0.24945768759583492 0.020807263006604116
-0.004123439211144855 0.1278968460386543 0.2731079426154014 0.011993402737922756
-0.001505286402190675 0.051359672282352414 0.2611023439185824 0.04764512061419569
-0.0012646589405652514 0.162344302480508 0.24957578213504408 0.029440207098483592
-0.0004890506937835765 0.09118051814266834 0.26173089748265793 0.009220260618807586
-0.009564894466029763 0.2066651201256595 0.25486966932174704 0.02062274673565682
-0.005054645205665707 0.16569380575453804 0.27100924304783436 0.012419157974642618
-0.0004639887429719633 0.1491319026121623 0.31830311452633936 0.01786934460314248
0.0002519835465536607 0.0871474952964556 0.31850873210333275 0.009303550526078138
0.00471713250551477 0.14323694757542435 0.3485526749458839 0.015495711245217994
-0.006118162462723398 0.11436024057507765 0.3369702506078467 0.01440514633805932
-0.008214748527275524 0.14086943179057204 0.33563242705276436 0.013954975287624884
-0.002439177384798881 0.0781289308337873 0.3407316021182103 0.023060526530721017
-0.00038206532863898843 0.14157711796603573 0.31772373171378837 0.016112967501045006
-0.0008408504095907085 0.06853384263675308 0.3268453428251461 0.020761001717085326
0.0004528381751884524 0.11931260197190921 0.35476294078785453 0.03475720761944332
-0.012006413094828304 0.06290129984793173 0.3702114110531117 0.01368576822616196
-0.007918795070480537 0.08720656107696156 0.3468455390605151 0.025745087130114596
-0.0023810362484544515 0.05123977111665302 0.3709623572042132 0.05679707388004322
-0.006085058488792134 0.04080279957565772 0.36361516201876865 0.05115850489095997
0.0053669875584023505 0.09163521829095791 0.37435234171553744 0.017510001289730074
-0.002007667059657761 0.0525503860386591 0.322898849478154 0.07702375875208867
-0.0011251180055258628 0.07116846291654667 0.3485207492037761 0.02593148990372045
-0.005364549923631755 0.0837712814212443 0.3582392945467849 0.019015444922306928
-0.001385508686462556 0.04640409815315555 0.33545557056702846 0.09276311422927183
-0.005228779216150682 0.11370187170612184 0.36748266570287835 0.028006369225232416
-0.0010048427026968793 0.07507479311078649 0.36962085442504333 0.0200190591181485
-0.0025340418865360975 0.06452711702093872 0.3806311708173979 0.03182879177926498
0.005314503969388257 0.046155251669743436 0.40802819075624974 0.06570675359122007
-0.008990140940824993 0.12718350503047796 0.3891544498122622 0.0166221061116614
0.001916722789250071 0.09964593076352324 0.37797245643777644 0.02040441948083506
-0.0030063049306840797 0.11341041545052213 0.38089771777919845 0.03092272619599943
-1.2460916200835784e-05 0.07659357663779236 0.39462936375325025 0.01879598846331328
-0.006958653072212553 0.1137799263293661 0.40908042241752934 0.01612321765610166
-3.4603177029269344e-05 0.10444360874475722 0.3944077736779343 0.008702477001188036
-0.003468560473005452 0.1126193221621985 0.47079545988048216 0.010562790965742029
-0.0009898942048194499 0.09565973022016318 0.4698341628664019 0.015334247771822202
0.0008984101130907979 0.08846431160395785 0.4668173579063953 0.01548802734222367
-0.007110288502711272 0.11163130978989286 0.4487366811234508 0.006711805263955005
0.0004843276138784697 0.07671996409094682 0.4594266945031695 0.013680193077910066
-0.004610769511498766 0.04952707614770391 0.4669804880123563 0.05862207644012215
-0.005360487936368163 0.07470937816013443 0.44641576046536174 0.011216866067980311
0.00024131253556810423 0.12749176252743005 0.454763964578287 0.00750149445024757
-0.0016135851425370634 0.08984679921817916 0.42325553216614653 0.007137328500868237
-0.001603027500387976 0.07499900084577077 0.41320696045777816 0.008214775771493673
-0.004664705823341865 0.11932567943009353 0.42128795746958647 0.01312308823027735
-0.0026871626565180286 0.06088770858594004 0.4278778973644796 0.0329287004967435
0.003118394837723431 0.06118249905584678 0.4532237397170398 0.05932717793786878
-0.00760823000364965 0.13599409703211673 0.4172409397436189 0.0149015567412417
-0.00760406526166851 0.08672666851586552 0.4397598259115047 0.005640399413497502
-0.0026627644491836085 0.06268996938385542 0.4131182875626607 0.04070781199943161
-0.005968847389910066 0.035668856176788305 0.43712917698600734 0.06263316432605305
-0.005669275109023312 0.08239827843201859 0.4188786172997658 0.00472854529440015
0.0006655432120500666 0.03268261721614672 0.4131412222946766 0.05811688342245029
0.004068051024321059 0.04268269303185472 0.41364218724214047 0.0972177764378938
-0.005337553094254156 0.03761131488929982 0.4567626013694852 0.08642886870697881
0.0035449414380177885 0.036396609083733225 0.394606844532392 0.06281249389671076
-0.0030066812109830338 0.08433660493354647 0.25536296882320847 0.010144804316232124
-0.0020536114443611194 0.03213410758931035 0.2569925218600528 0.04361263270415781
-0.0031396485541363406 0.03818655997975457 0.23888259914357532 0.04917355434689362
-0.0064328868499696455 0.08798505655069494 0.23191333034350298 0.012964409338717437
-0.003804133343776805 0.03914281946141655 0.21203088017471308 0.0551866519613783
-0.004224349611269013 0.056715790163222576 0.21420342726835465 0.008549747042000348
-0.012446317648091641 0.13987459518808418 0.23320374621463563 0.02088867571766329
-0.01046069214601757 0.1585903229823563 0.22345949643418322 0.024697555425362616
-0.0010229598964083876 0.04926708838655781 0.24216498366744435 0.06387231293854953
0.0015494300577287 0.18550748648110155 0.23954891614397078 0.022267833653570372
-0.011832421676648148 0.08432146108000971 0.2127261696610318 0.0018162101959468976
0.0038591478431695054 0.15257074444833216 0.24554880205547455 0.024111149821354722
-0.008494586897418176 0.10506251300871738 0.23622231122510223 0.015966478647026494
-0.002172277102711537 0.06124997847265235 0.19558582983806533 0.017896201027912527
-0.00594729453931429 0.06899712839372643 0.2299604219479529 0.006250777487759923
-0.006878113237715989 0.0747753265783941 0.24340498257268922 0.004430799788195299
-0.01109185689288638 0.2633441148320647 0.6134920506820838 0.010410125918844404
-0.0040634930569793 0.2679052072211542 0.5883524706245348 0.018873634497041308
-8.097444454894296e-05 0.3053929294216917 0.6267474720422698 0.05436275923238095
0.002040011080109145 0.28862909320685853 0.6055638128132811 0.032100614639075174
-0.0003562954041505983 0.27898921025792156 0.6165201978958943 0.02570737712327606
-0.0037060221581928328 0.2886057776624415 0.6236281412113072 0.04036963075147228
-0.010885351352742106 0.3163222163827365 0.6150447434185183 0.011696116162417787
-0.00842757341183539 0.30441395002956445 0.5897575110599778 0.0112832808963809
-0.0035125604021731377 0.33607696703401335 0.581510106454156 0.014804609914180589
-0.005289161310670308 0.2533412798063708 0.5915069464490825 0.013726297511066667
-0.002300358002570649 0.31125791455548635 0.6435377472909047 0.03128729254853639
0.003084950283348695 0.32892914016177716 0.6391690463123143 0.05832298468601977
0.006839037666291335 0.2913030927852349 0.6423712653197201 0.053546180034589906
-0.00289509777666055 0.3545141064988285 0.623839518234024 0.045752225487214186
0.0004373421479060654 0.33329672296829277 0.635184965870147 0.05904204381093945
-0.005212414757771879 0.3333767012906926 0.6197840198760597 0.03325377863569325
-0.0007156222475358643 0.0943711892612099 0.49300777917276006 0.006462627762320152
-0.005408740394810352 0.11718233665513869 0.5122124118362428 0.008676520966890228
0.004894628961090418 0.05536949965521525 0.48120551063693506 0.09601501936643485
-0.0014731914657457484 0.09777338391437188 0.5026688395371367 0.006854227474461723
-0.002638552882443044 0.11613148183151802 0.484587625894457 0.010519570913234123
-0.00029195824343843866 0.09624000571651511 0.4712842136815084 0.01516577631244883
-0.005783754719328659 0.12567812868830935 0.5195539763522714 0.00989591795289303
-0.006926023578658676 0.07672049295867703 0.4845434875145357 0.01080018095591769
-0.005426488499854322 0.13526414832425843 0.5173649964914434 0.010706977148679835
-0.0025065422584658404 0.035671227271956325 0.47460728250721407 0.09067822422297303
-0.004534961570290923 0.05902587108412577 0.5245184833409673 0.023916313213355914
0.00014402957445622952 0.054163705369596804 0.5017149268565331 0.043311943134922995
-0.005470718384942065 0.042654382375118 0.5033878305077175 0.04528923672181331
-0.008028859298627108 0.09436833229465892 0.5192139006347023 0.005808185808982579
-0.0056824848846767275 0.03577709524240888 0.5203568010954551 0.06221982771389324
-0.006396220602658854 0.0743875071396773 0.5018797777830807 0.010049406499613209
-0.005552397132522019 0.0794869375196259 0.5253751557986216 0.004666815584574027
-0.006446623353648311 0.036286108083285175 0.497684938289392 0.04563004190453631
-0.0026217138720549898 0.11040667228322909 0.525325437369657 0.008213230991127776
-0.006424448002913566 0.11347161912432797 0.5438249546578097 0.006016231728714459
-0.0016623303326571768 0.12571338796425835 0.5491955706662306 0.009073138853720894
-0.0019544764631920187 0.11369264518925801 0.5670658244423791 0.008091474334083899
-0.0014031272275835968 0.10382145014034058 0.5571180655552842 0.006306510975194859
0.0019073477541757177 0.1299350143099717 0.5322019621569745 0.005534470010516346
-0.0031070061644782195 0.0853666802719719 0.5537231055946386 0.008216508420700184
-0.005794066772326354 0.0779247054582543 0.5594369054533287 0.008740893049496743
-0.00649558371386087 0.09512382522514068 0.5591173738920963 0.0072843286662197665
-0.002351343274909223 0.06098428185866099 0.5469780568202288 0.04378493315658216
-0.004952915080868026 0.06645047013404577 0.5469627027847097 0.008933035382464
0.0012949391635500545 0.05162490401098805 0.5550083609512352 0.05360932678239412
-0.003068238547591013 0.04250649630188774 0.6059470081807353 0.0749062699349023
-0.003909669856500754 0.08049017308043609 0.5930513420798638 0.010884880930222532
-0.0007512051893585877 0.05760411030243764 0.5665619056975546 0.04368661684216106
-0.009281285740705672 0.07044440019620243 0.5787352387600309 0.006815723303796124
-0.0008277849198515774 0.04131686409120676 0.5587577094746441 0.05679598590455144
-0.006861251226924191 0.03417546373370557 0.610051505535964 0.0851706295570761
0.004470520413623432 0.06273051527863518 0.603445912451044 0.05837815532419815
0.0010624826171978792 0.040223665586546484 0.584203424422421 0.0953647803654941
-0.004584971569200633 0.034315572209647836 0.5469056060507664 0.05355430237223036
-0.007182206009077691 0.09852101776946674 0.5862574768137894 0.007905349346314134
0.0017419863589002687 0.06681000267542928 0.5897478863517469 0.016712944000468938
0.0011627497354092262 0.05378440804146568 0.5968422793746729 0.10564498625151622
0.0027628652816463267 0.08935582666107543 0.6177860028463843 0.03992128568578903
-0.0001687136270534069 0.1097217174425701 0.5900623468811724 0.006179142797827158
-0.0030425703280661256 0.03984186657630304 0.6113389940413911 0.08331084887790768
-0.01151780974937737 0.06053239650504881 0.6353852201970211 0.0292174404270935
0.00010891625466379664 0.07368104207408874 0.6376595795139185 0.08380723390321496
-0.0008349040056166618 0.07590586903933755 0.6022947066547515 0.02235237912212515
-0.0009933404075601418 0.09081479101475824 0.5987381634681697 0.012777662661879526
-0.0001980089486327321 0.04094289283263899 0.6400452403631951 0.03433390414538823
-0.002058111716530576 0.06523777484740131 0.6369022439902112 0.07180279256712287
0.0005431550716165149 0.12864688209423253 0.6191892247381581 0.014251294843489928
0.006574825428060354 0.09060318954942198 0.6393857950057168 0.05261022798300442
0.004160409712870388 0.10574707240549197 0.6401619220108723 0.03972458335732142
-0.0013888400264903925 0.11254305463053307 0.6059952661278826 0.008782420942804547
0.004314578730642911 0.1309699540306224 0.6096689731626826 0.007938401398018458
-0.0023160673086853865 0.11840916824153494 0.6127097845784807 0.009714191443538465
0.0021904923167151654 0.11310060213572341 0.622790614630899 0.026469064495168688
-0.0009333966962699919 0.15025013562056713 0.6087666042931461 0.015135913871977765
-0.0004007575077490819 0.1569465750340443 0.6134816542280186 0.016353739303767316
-0.0064215500922393184 0.1531892166005422 0.6364060672231439 0.022758639225315874
-0.0018848599991586757 0.13766533329845593 0.6224823536446823 0.017114177408228702
-0.0022846923708202517 0.1830158871997287 0.6360163667106394 0.06751501970973876
0.003678466414825243 0.13705509370541955 0.588951427671007 0.01068382348505456
0.0041817406983186475 0.169824312386441 0.6367056211122094 0.07602953128471254
-0.0005300569318332764 0.7535994876282173 0.17925059793223572 0.033471307173183695
0.0023191760318632664 0.7170253775599643 0.17231349607059734 0.009058386413398161
0.0012130947301834298 0.8397541231376165 0.17827004572044028 0.01663484605162482
-0.00632333968241898 0.6585859723622639 0.18949602816828884 0.004946302736509598
0.0009849943355155367 0.6304701813504849 0.19476785574266464 0.025873858498876072
-0.004748510533132801 0.6761712027956694 0.1886176379318474 0.008933339186899368
0.002993657111527876 0.5497360375899712 0.18309042225008065 0.02215116865536556
-0.006194276202071202 0.5543657329879584 0.20034308280529722 0.010450392639953433
-0.0017998678310278474 0.5219859067436301 0.18192568665022552 0.01235608650891575
-0.0011772982727591018 0.5726194604662612 0.19431415224711748 0.015564162070412151
-0.0027452726475699508 0.5810428319228996 0.19073775460198017 0.021870433291492065
-0.00408524033722684 0.5707301767322712 0.2022326215741028 0.014724562450613541
-0.0017673755395152544 0.5828975612219597 0.20693219816341404 0.010193113794129518
-0.002840258481814193 0.5387310244352764 0.21333845864839684 0.017698624510770894
0.0001890859132634308 0.6116367615111831 0.188796077326392 0.01172774285044771
0.004419315395158136 0.6219145978753281 0.1806653015873123 0.02735267494240844
-0.00019381060203657735 0.5453496327983244 0.21353169424228569 0.015638676151850876
-0.008915760876737198 0.6031856435835935 0.20180119971771482 0.002562819226793501
-0.006478333786837709 0.5369822758322941 0.19812446258981728 0.021955982974559994
0.010094394156965416 0.11187833756173121 0.646828918107441 0.038260362890120525
0.006175169819353676 0.09562774396709887 0.645979164408817 0.06378275785095901
0.0035704742812913467 0.13002095919766152 0.6495849964215243 0.07138144221303537
0.004886421500969872 0.08328181379301268 0.6447175582854711 0.08540796863994306
0.026295913837191792 0.09306424186589507 0.646136225511091 0.0881893216574422
0.013869205511295868 0.0863739300072819 0.6485598008310449 0.0724582969226682
0.004067255905723844 0.14043732511676693 0.6487131747497662 0.06242955659611583
0.05258666104784632 0.11177512224755934 0.6567411157421639 0.05125405768547851
0.0563104398055836 0.1191328604220344 0.6586055186472491 0.016007780806824405
0.052760622446098984 0.09137219009373422 0.6496928441214361 0.03804352337674807
0.07083612644483916 0.09602295727821464 0.6448288054427699 0.030582130180045106
0.07572788888020128 0.07714476381586123 0.650971217934732 0.05297039299994364
0.06924785707012203 0.1193154050938971 0.640652230810551 0.03937210260261734
0.07043893810733086 0.1110991822578394 0.6379501648567577 0.053858537987471616
0.08423127513268118 0.11156842934890707 0.6209322597202314 0.024535508784033613
0.07052502188307469 0.09488063546472242 0.6469010096006657 0.029971841832911284
0.07911488056614875 0.11970896179444085 0.6048723411428624 0.022061856370815612
0.08735528482967589 0.08409550632558753 0.6227879539323513 0.01312106037984488
0.07375166773306864 0.05524143971697666 0.6314332574377698 0.05892189367366358
0.07772032856279813 0.06478534309960376 0.6256562663872663 0.046142763204265205
0.08019622884361563 0.0858327010645745 0.5954402610441664 0.015250408222819358
0.07573606928670674 0.10932460837094089 0.5942348227576276 0.022377708549892173
0.07828202506628533 0.044061613686025874 0.60897957084549 0.07496132108546279
0.07990582788806033 0.048622109326667544 0.57676023197995 0.06362150446140073
0.07864098828972005 0.02872331458323506 0.5564185931336635 0.07305860024148492
0.0849561004006795 0.07506170968172643 0.5894129755448365 0.009380172682471745
0.08374172409805002 0.04117597761249458 0.593326672476653 0.06378155152916774
0.07633083462222415 0.09506335254034802 0.5922834013416729 0.019048845441034565
0.07842274095393623 0.06062289862027091 0.5739327100111767 0.03359444306799082
0.08066714214253616 0.031944553340627735 0.6100481345724588 0.07093529146031478
0.07757792099995064 0.034433937733611156 0.6043743109883681 0.09017625685294256
0.0893111025109507 0.10994526608555667 0.5576309020839151 0.004489796637505632
0.08107520265298701 0.10248803158836357 0.5698975540063757 0.016576400825530486
0.07685580490721748 0.061899824633381006 0.5339132485365109 0.016610731546684004
0.07989409583316247 0.059467441622699256 0.553543401020368 0.030200806128801376
0.08249059979558382 0.09438393802692632 0.5571260626731466 0.013753256897655828
0.0804746949202672 0.1625398795872826 0.5786635254892766 0.008465314651046895
0.0794078026878008 0.18817644619380808 0.5836839125723837 0.020169935025913743
0.07336623014079145 0.13927621316256228 0.5797750764660915 0.003157767033156021
0.08021230416545345 0.1529490795362775 0.5631650212435964 0.006827618588619128
0.0803616913838221 0.2220491117462262 0.5758027126533743 0.013404625503216378
0.07865572794602377 0.1571690918487595 0.5497214345460174 0.005684915425301217
0.08350587853998312 0.05686229455882304 0.49169203191393623 0.0057199905133501466
0.08089600812978791 0.13408050215980008 0.5352035704037922 0.011429929226904117
0.07375195129830772 0.03344463748615018 0.4946168166761224 0.08438078863723111
0.07787625707752815 0.07783503104454124 0.5380616856801882 0.006264893781421878
0.07776034142950508 0.06772302566200794 0.5128193906340144 0.008608373337714326
0.07896011207969199 0.06528908776760588 0.5068233729132376 0.008694670077276614
0.08190734832695547 0.05314125263669992 0.5159913677543388 0.06083383421051796
0.075291681666055 0.03382873461271965 0.5091275521100662 0.10453383916560807
0.07714938725306277 0.03463471872014985 0.5289106147719183 0.08440377703551553
0.0834038848556592 0.09708766927456672 0.5299677194663946 0.00553637679943815
0.08127428400274168 0.14589740077299096 0.6110583396547612 0.02553204370395087
0.08185930885472327 0.14952118489926647 0.6228783091306406 0.037035414608265635
0.08012041501100446 0.2032377633623996 0.6413142803773997 0.0548488284392293
0.0775241036606403 0.14584864045857027 0.6410281754024482 0.011758093170025312
0.017235688843197414 0.2942996960654432 0.6537132021101554 0.07111361891738711
0.007665232888140448 0.3155715850154984 0.6442684547109075 0.06503771565424127
0.0022451374819680353 0.3473088950407732 0.6419902647643322 0.06921632814840617
0.01969444716198441 0.31750947285595676 0.6476178872212043 0.04477147587807739
0.017087936948730405 0.3357344385113569 0.6439147901215475 0.058878845802401464
0.03929568122100896 0.2683253740966883 0.6486104450937 0.0017223504660748563
0.06934367013264481 0.2732225033575318 0.6494177266215804 0.08664460553902827
0.07204286677770966 0.25503585157130704 0.6514736010819162 0.07131854994286334
0.07402133774275238 0.24429267442416783 0.644068799530596 0.08821491541165821
0.04495033549796029 0.22020197636454927 0.6471029894696481 0.03225548902337537
0.010495671076619594 0.24372253323273194 0.6479975129030996 0.0696594612572876
0.002826551198737759 0.2537064810702572 0.6495682002955182 0.08080561324754697
0.01568437950649911 0.25980623690803434 0.6486217138890152 0.04964557243350367
0.015427758858079026 0.2386916448529199 0.6488415815559905 0.05995692418815243
0.04020277437698184 0.23096814334742147 0.6499673049793568 0.003832402202399046
0.0704405656172165 0.16516505655993355 0.6409781137326819 0.04647181334945607
0.07861787630890225 0.18801938906485482 0.6382284151913183 0.047486842576444886
0.04654924884217609 0.19060360920863514 0.6509442175792819 0.016202930436678416
0.06394698596110145 0.19240040540627007 0.647961527182639 0.02576547705009801
0.06987665964701782 0.17588287839055433 0.643519658565009 0.04308606827340396
0.054567263629573044 0.14553961738914706 0.6509644579068461 0.028089898898247163
0.07291072844702451 0.1670481754395847 0.6383742329078842 0.04665825992551914
0.06779289836219884 0.2120578425483825 0.650331291376314 0.026019556050634697
0.031472771243294714 0.17348564186182305 0.6516154631237878 0.02354333916452715
-0.004979079045598537 0.2010956359188903 0.6313733491736873 0.017989184349255803
0.03281744217796567 0.15054338620742777 0.652406854712418 0.015477489140537471
0.013290539306889218 0.180209440085567 0.6452779678501948 0.04358556034052718
0.005214369793454542 0.19094611262554922 0.6428012559791823 0.06623764655017456
0.04464894806177598 0.1741732753747308 0.6520395323074537 0.017500368817210624
0.014719509274754922 0.16030440331630091 0.653119366063616 0.01153467912723448
0.06790493793097725 0.4909261963896619 0.6508657803616825 0.07272092077984123
0.038886352766661705 0.49509755340823186 0.6487353080688627 0.02006284738347272
0.03245338380988032 0.4630886722689572 0.6527078401684536 0.003951302235667667
0.04501906840971811 0.48305154605444633 0.6540385841577313 0.022386970170451055
0.05605665881483146 0.41612625114716334 0.6511830023385181 0.014516781608484026
0.006409829277938271 0.5060359195071671 0.6463994856786298 0.06639404133630919
0.03812976081708684 0.4451465172942824 0.6518870255189806 0.0009619348956965698
-0.0009550313138033274 0.4530154014884715 0.647161621143087 0.06868299125593373
0.013621583515402031 0.42473627021484983 0.6507135905877255 0.1080399866725434
0.02298678538888592 0.47063419310846144 0.6507516974519884 0.05930867836966307
0.008548814855207315 0.47491874499393266 0.6509160510058307 0.049057980442446136
0.05477621746121209 0.43796211168693566 0.6504612160945117 0.052086228685418214
0.0727896678105944 0.40933688012819297 0.6375134258747542 0.04890862618977873
0.02209945911699397 0.7515712951327086 0.6478675096911704 0.015541480423795266
0.04048130621541385 0.7449530596181951 0.6498159455570849 0.014653909508930038
0.008555287229902687 0.7861889301535392 0.6454428424653358 0.05958455822644582
-0.0031293448912246705 0.777236074967203 0.6427772106303291 0.07001669070058422
0.017586165970162465 0.7707086044045937 0.6430831943018 0.08387897668554911
0.01697255611752368 0.7412071648672012 0.648083197415179 0.040305143335869556
-0.0066058142833029165 0.7810393403184167 0.6414591871077507 0.06866646503001153
0.03924152190721541 0.7632572814507669 0.6496557508103594 0.013977387545322847
0.014268242909038475 0.7159491765048792 0.6489313029173808 0.0438841409552206
0.013580920784250185 0.7059027310709909 0.6561078637081081 0.018855566078695724
-0.0026629628190093704 0.7006609087217466 0.6408864198145369 0.051094748980867646
0.0030200645538683807 0.6694530330652775 0.6364365042463409 0.08065249317613794
0.03732021018340906 0.6774873380523427 0.6594145664106433 0.02246861958342366
0.019043218328591505 0.6705632796336716 0.6460478681777202 0.032715833063907726
0.0065116598330394425 0.7315839451748305 0.6501318461054175 0.03615824166725311
0.02779921976043208 0.689277604032368 0.6510774357092903 0.013874582326474752
0.007017031806612202 0.6805212252692302 0.6408951805397997 0.049672566274465126
-0.0019147009483306905 0.7117034247528344 0.6385748132104879 0.053709742362415755
0.0635330008641819 0.7645533756978427 0.6540453055198416 0.01133918711434849
0.025100428460083188 0.7950598025903391 0.6540293909951963 0.015797240159779125
0.0218438412929351 0.8109475533493965 0.646459696003577 0.04333889476763629
0.00790082987378037 0.8143055242150267 0.6359229005595239 0.03296339459061178
0.0584639015895013 0.6326064589170203 0.6503090409532216 0.008750951267139059
0.03133692666348056 0.6563671794827208 0.6574706690007706 0.01651718803968088
0.005591529443288423 0.6591091800872553 0.6425511469817637 0.05036062089452926
0.06906018398015129 0.6219065466874433 0.6520981275829684 0.001067372820335983
0.044005780844348794 0.6165987360920617 0.6530687219387692 0.021390684505320633
0.04824453663238541 0.6371291405171854 0.64824277671331 0.008353632982984069
0.011984012892194366 0.6145653671026076 0.6472080946701743 0.08001769743065132
0.0312425265929086 0.6135451988194072 0.6502730923040219 0.03617056103891338
0.022246897920022043 0.6484100351912836 0.6500689218454367 0.01682062233961345
-0.006316513836551693 0.646031817082523 0.6404566389733584 0.04326183983898633
0.024441498706431825 0.5988212864148739 0.6543508844478221 0.05463320717499911
0.018089637031284737 0.6162726166504015 0.6483928479604593 0.06768557608748829
0.0041747702519908175 0.3969483203522642 0.6447138796616566 0.035480337917874
0.01788383307577937 0.40457766022174935 0.6548372808598661 0.05817240252272459
0.0014839594239073734 0.42274596973561646 0.647112284177004 0.0632798707583603
-0.010920073808567044 0.44405942831844364 0.6441143548788214 0.02260609693634518
0.0027925087818350854 0.37936485352016164 0.6498999407234849 0.05087998688386744
0.006314793648438953 0.41213382495873574 0.6119896367397017 0.0087224978246474
0.001894386444478277 0.4378221382410045 0.6078742484731413 0.021498536223336997
0.0008463351094260367 0.42530809257918567 0.6220760007406874 0.022455580332040606
0.00020579934183944244 0.39985739463100967 0.6435844967032821 0.031493541353948745
0.0017491594172043155 0.426346378259895 0.6348754445524251 0.05024321966540111
0.0014069888640622326 0.4065828555255138 0.625698655846009 0.021772882044084053
0.002700406541400381 0.4231480307427952 0.6102190665554509 0.011565099353018726
0.0005528116181627963 0.40331583704048146 0.6279474184967889 0.021640318226735716
0.000716061136024776 0.3877170885626083 0.617087073873684 0.01241156583265178
0.008519293398417045 0.36917068437765743 0.64349033113714 0.06495458390515782
0.05864030788144492 0.02848882177304171 0.22228805656266168 0.0037925666432146263
0.06671014226832475 0.02822852660556923 0.24092923666223579 0.0026695135510345093
0.06913359080861159 0.026838548086606864 0.20051656889665417 0.0014100162088757212
0.0395953051278243 0.03450719745097604 0.2407616936661508 0.0015519477013842622
0.012772602188103627 0.028882640751835862 0.250569488326369 0.049266682164791326
0.06225924665585633 0.027299817973358745 0.24065735622286316 0.0026999779718215296
0.03695595152517642 0.030992554719340086 0.19971012991551473 0.0120183115147863
0.01665364006588045 0.03228708182063557 0.23808313401247394 0.04578857460662051
0.00025633052649421794 0.04000259777872884 0.18688515929688881 0.05128882147812423
0.04398277243855522 0.030804090457244363 0.21248566311620126 0.007721133076239823
0.008122809840334966 0.024278892554820127 0.21207909866762933 0.03185111940394058
0.000573097692209072 0.035558344175297074 0.22958918890354488 0.07006698120433016
0.0254159134723125 0.03020396213822438 0.22704309465464195 0.029138067353056168
0.06122545088286217 0.028751683432215076 0.18283892551667516 0.000711890492041456
0.01582900960707489 0.031041923579248426 0.2819204813458924 0.04638939546083929
0.01050296072115567 0.026744297647092467 0.3027076255330394 0.039535514889226964
0.038457773331643394 0.028685335419538067 0.2667653017281974 0.005786378710963051
0.019114989339147178 0.02784315276937657 0.2677511236511251 0.03244043769020371
0.02278240898022034 0.02586831859085279 0.2952822902329355 0.013317797976849295
0.0031823794776824127 0.03602201395226569 0.27694876225417486 0.0801846719583658
0.034823352701288515 0.03009210770406038 0.26220025657637974 0.017771672430149762
0.004528325380298481 0.027201797827014984 0.3313554241587763 0.049590550520939435
0.03270685216489288 0.030790507335915162 0.3853021537361109 0.01941932797422995
0.01707529581181427 0.03186717492182387 0.4171603516499506 0.0739689847186675
0.020917185659199776 0.025955656027028148 0.4489905697251651 0.07123567339646641
0.015918792490753068 0.03294505913267367 0.42641444869741524 0.07414584279667505
0.02177234495134512 0.034057187758514684 0.40143531975826174 0.06039800905218406
0.007255465315405227 0.026491463719477054 0.42472622893715517 0.07614966338699851
-0.0007208958644814977 0.030448645699458952 0.4478304003329531 0.07680013830188955
0.05131005063951996 0.024259907029053833 0.43760509481659104 0.020474812708454453
0.03534929258733096 0.03012181295282636 0.43485706425672704 0.025213812895591835
0.052529317143624965 0.03737776311612246 0.47227661221331585 0.015270876363983419
0.023027810254226476 0.028043519379302266 0.4464960599970212 0.06175676544784215
0.05530863893445869 0.02349512218388915 0.4155082549043732 0.010009033836959147
0.029534223712516915 0.026629382763848932 0.46152241677023087 0.01670868782250157
0.06584893543986331 0.035194289839834414 0.4592958262273992 0.019876915711443906
0.06081537195959441 0.031670982430553676 0.3821004873683129 0.035310471989965495
0.05337235749573399 0.033185688241819805 0.3937191145839685 0.016470285936251952
0.05953117158277399 0.026548711409456086 0.46189810299869877 0.014046247340532135
0.07510258324320157 0.03621006993089312 0.4475747690209131 0.024179834425892034
0.0761566869787617 0.030776424601442552 0.43620866440416706 0.022562495898907596
0.07105909362134694 0.032301229906366656 0.5557599138587096 0.1188237187571872
0.036955432748938366 0.034672352266377895 0.6016643187740542 0.007673661454887072
0.05770497436605137 0.034675914880438446 0.5604595428479208 0.08969774058273809
0.06988473002504725 0.033109482927757075 0.5800534664025364 0.07084004811126557
0.06552646094163055 0.03258007262145535 0.6180099485379607 0.06569225327613142
0.039254939735391924 0.029095984044828115 0.6133571674868808 0.011410832809317031
0.055547243557260824 0.03178190926107479 0.5993407297464333 0.019404012810783897
0.02496875502587074 0.03345261266014011 0.6066484098191496 0.0717510376333947
0.0012701094393241172 0.03310195073727552 0.5928204616439864 0.13429307531692639
0.026126101649701174 0.02781317603085097 0.5733068035255179 0.0258595659301609
0.04504212616370993 0.029055512309690786 0.5595241838639722 0.01224603380087676
0.02675504786086476 0.027264632202007703 0.5861508256273538 0.04338591283368478
0.04724630800756851 0.033407010181479915 0.5497961636805112 0.014686636215167964
0.017502946944443657 0.03130050794380621 0.5769086233604335 0.058869671118757926
0.02073194985096326 0.033032174559929336 0.5564161716159816 0.07391764942203839
0.013792868113006411 0.02570252116226218 0.6015292121891906 0.06950191342885115
-0.002134893335275251 0.03854592110218724 0.5741379437000284 0.0704131145089212
0.06848051292614016 0.0282343289202028 0.5483782831779525 0.12226307521569353
0.03632493454283827 0.021756815319652355 0.5239576890206584 0.01017325256331431
0.06398626663832792 0.02548129166874949 0.529123732469913 0.07120901470279924
0.03785694046564404 0.032431707909734854 0.5445369057313956 0.014332615969437218
0.012046342178377252 0.03258127333869381 0.5312910028399658 0.07680836170437287
0.05184977576974791 0.03367374343495534 0.502180097186377 0.03511695669933108
0.026340844511211985 0.026950737962711687 0.532312020675089 0.009931290072129006
0.0793114159027431 0.03791206113512703 0.5202280511148601 0.04737835321646781
0.0487761583266762 0.03637611547932945 0.4913960831972962 0.015466473158320587
0.008201050494566098 0.0293942505020839 0.4765909931651553 0.08118423673749156
0.0015281119344601533 0.03037575853478551 0.5219620816659168 0.05840274374855279
0.03375975621756483 0.02958696319628541 0.48169211270416706 0.05313273392869661
0.015402796806620819 0.029215115689529413 0.49144069454708456 0.07226781950018735
0.009184053618500308 0.02892430143067004 0.4808365663006949 0.05585126694721628
0.07148671719504447 0.032589657145798236 0.47978073415002304 0.0461129868053913
0.03546114288270841 0.02883296567142775 0.4954230509672103 0.015319283645609071
0.010488623866352863 0.03438971660968948 0.5147093687156581 0.07723128118789277
0.02972251560192287 0.03439544007681993 0.3365731216852184 0.05059711089518508
0.0043099468264575285 0.030628869671000505 0.36701211353546015 0.05406970216673135
0.0455646488813259 0.0343975964650481 0.3795333111415807 0.008735560587122474
0.03622960924359244 0.033636674087279134 0.36818463053470324 0.006217313735659639
0.024877055049869836 0.032554186950890046 0.3774799748507925 0.026376161739827656
0.0436543464058757 0.03630120770567563 0.35185308508611945 0.0028824590023803225
0.01331999534975075 0.033063980464706544 0.3872366781756092 0.06345220145480722
0.01630495176270099 0.033896518812666414 0.35183490951793817 0.039772092529841666
0.002843005152978599 0.033464356992544166 0.33212842820619876 0.12091777939676598
0.0016089529786414737 0.03906634729496618 0.3798046632826188 0.08854579904205567
0.021536605735905323 0.02941549376161561 0.38506072909685174 0.025977919367019462
0.005393618346669609 0.03567436305154932 0.3431549005232544 0.11696978491530587
0.05454121820530576 0.031522120620059886 0.36280317008657076 0.030611540193358558
0.03654146646701914 0.030649863678155878 0.6280073805731651 0.019017552366864043
0.07964765839790347 0.035711930886298385 0.6156930352399751 0.06298628691940719
0.048451862760711055 0.05222745944681386 0.6464186876921884 0.03459093931770638
0.03428445800617012 0.043681407471289194 0.6410817424957229 0.07489562401880037
0.014510362309421565 0.042370110623949825 0.6408868548675485 0.06592438908328378
0.04021987139024189 0.06720357711711229 0.6470314098936562 0.015861121532618785
0.07548590579187169 0.05739057044868073 0.648491385843238 0.029787427999505976
0.005605452618555307 0.05865195733334302 0.6392822601951654 0.10534059973459078
0.024287099252797387 0.03537384047107297 0.6383101984268407 0.06764570053095821
0.05704850001507282 0.03985592995328203 0.6361815646389949 0.04017569194089236
0.07267466850692615 0.03702165802829704 0.6213412913692855 0.05194549209223153
0.019263302126586928 0.034364091980345624 0.6302379908138949 0.0544814303989116
-0.00225079799143433 0.8443021429833463 0.2596646089606793 0.0075688658613475065
0.010665892247846412 0.8524531833453763 0.44423767924651514 0.013497065327736348
-0.006123080989158451 0.8517208230918238 0.43390573507054087 0.013452450373555152
0.028314683241109796 0.8498850405217887 0.6056132306630152 0.03122570965220834
0.044049092181261545 0.8568381041399062 0.6092641885017608 -3.9869702796067077e-13
0.005294184329335791 0.8358314488109373 0.5463960457217216 0.030053954750271235
0.007908254548859036 0.8429477615820608 0.6018297454953665 0.04551647487515488
0.003974112897202437 0.8399234810778301 0.5682034913936386 0.030492641900005633
-0.003818991996168874 0.8445117281650877 0.5795526620510674 0.014481740704520909
0.021514940966917508 0.8544477083439576 0.5592465534070272 0.01307714245431892
0.010995562856311555 0.8510933989873475 0.5095212407564289 0.08365816668603962
0.03226692890012846 0.8565678862828435 0.4850139331207199 
0.07955602188328989 0.459878586274232 0.45991936168069625 -6.421238762697229e-16
0.07349299747107284 0.4189923799559785 0.4962413823840623 0.005867010977487762
0.0038223760812515265 0.8464845566145374 0.38577845210178596 0.020891119602441343
0.006925315326841353 0.8577442188709664 0.334364774761023 0.0024554194088710645
-0.00482384726805625 0.841058888501969 0.3423401193644006 0.0411434918713754
-0.006789554239367845 0.8498033054015195 0.35594511312084615 0.009045096181130351
0.004977166237828696 0.834669909789941 0.6212952195943474 0.035040027531208974
0.01319851626036887 0.8179647207986335 0.6430390929772217 0.032514195612100574
0.026699769821342367 0.831721958397802 0.6432537447854787 0.03214418141222766
0.0620002300173019 0.8369664743245616 0.6485669937397012 0.004769082961695313
0.012253290888332139 0.810274152992108 0.6398270009888973 0.03330006476530393
0.05998584519468611 0.8184494456431348 0.6517751157526781 0.00956364264926253
0.016319114582833246 0.8396346965410606 0.6408037103295674 0.02431455583237921
0.05326821800550128 0.8427469145920088 0.63850973783815 0.026981818072206055
0.07762623068424108 0.15218568766076151 0.5325169770443281 0.0054555276015554495
0.07897488705651128 0.2492248304821824 0.5184131968631582 0.005628991480397126
0.09028935251260793 0.19749553035292522 0.5488937936650381 0.0009731269945713822
0.07563037224097705 0.23633086874556694 0.5676976448789702 0.004977675165890549
0.07895178734115794 0.20914244211071598 0.5640914652284948 0.012334230055699245
0.08418637290510643 0.22333035499141385 0.5212662075913338 0.009560127314266637
0.07964492651347838 0.22384819782252552 0.5810787174359385 0.006266713435200973
0.07604058130532798 0.23922727383079764 0.5628976779135357 0.0042591524697834756
0.07997235219265407 0.2213173151164166 0.5482095883158652 0.007415782847173941
0.08027354546479488 0.32736436014021403 0.452050972205154 0.0002358972452410508
0.07513736728299843 0.4026231324281109 0.452119857240336 0.011252198839709718
0.0785057620152 0.4241390795665045 0.4753345783288576 0.005853608054885706
