x y z curv
0.4146710174656885 0.04312261854538614 0.33190578499797174 0.023048613619459882
1.0034373917019113 0.06934330163070236 0.19081287751196513 0.011289810194174162
1.4103401318569289 0.060509232526900186 0.20293940851759992 0.006777874863133872
1.02193446279433 0.04987246555426998 0.28936016282348015 0.005857924621766201
0.9042279678650691 0.0517374957770799 0.2191387325876264 0.005917104483631567
1.4492736234920465 0.07372382021103364 0.12896227769691376 0.0071277891554882055
0.9507534865483348 0.03606567470803186 0.32869259335769685 0.014021482294093543
0.9690393622150076 0.05376390722707262 0.25852222978900447 0.012118965944866236
1.0685355917545765 0.06051104208632409 0.2186444482583595 0.022657054838204665
0.7238676099434853 0.03604687319559133 0.322749348073444 0.009640987979311809
1.511378642093507 0.033738613776565576 0.34136205474134723 0.010937492058331843
1.589430186011005 0.08399697170654173 0.06290188565132208 0.006999758911401372
1.162047066121647 0.03513034296382032 0.380535845390202 0.03257279344443145
1.5414291942708445 0.03481193042809308 0.36007138051427523 0.018198867817373607
1.2078550276564826 0.03529437538059704 0.34991364817266957 0.013719939178143998
1.2899469181170626 0.027394655029372703 0.3625904901882682 0.017902951082799837
1.0240868011572726 0.05301310378219073 0.27277504964959043 0.006768885856763919
1.4049605567524268 0.04945472667598163 0.27811156573246437 0.008845610184474205
1.006801642101222 0.05419499209023755 0.2528795323745239 0.007702377987204973
1.5546413954517788 0.0785019122252722 0.09965185959869241 0.007847935689002812
1.2318074063216675 0.04797104630115566 0.30176585478015927 0.005493653431534435
1.3418282613440713 0.06060839716508406 0.19608639120719304 0.008760661064327869
0.7978105027892106 0.03077478823289643 0.3706555461926307 0.006921473772877858
1.373065454355613 0.02436575180021347 0.36669534797907877 0.010745727696627076
1.4781030892373623 0.04012769224609722 0.30995475008842305 0.008580080133616342
0.612442072344468 0.045808206237628546 0.2951166037200662 0.005108225539562561
1.5883495000601526 0.053097089235928305 0.2553539051640759 0.010331684095157992
0.8762973554037974 0.05070744237134844 0.2704290565561792 0.00506080187752621
1.2001248981031418 0.02798216763462217 0.36715572913968403 0.015940894110608176
1.4009911182580121 0.060662344514142326 0.20662650505880267 0.0071402045523362555
0.8227709541581748 0.047076944697538425 0.30825840954653805 0.007887318143858317
0.5222323956187035 0.04059192963415052 0.3352556558536116 0.023510351483273264
1.5948216518286675 0.059479034289731586 0.18386552543918175 0.011180469777350202
0.8109756906541502 0.05705282552133317 0.2604501752867955 0.007171591201525837
1.2903835378713848 0.048340303568654375 0.2950205904768474 0.0090962204562341
0.49093602856757007 0.03740712137274532 0.34206304859286957 0.007431379577197905
0.7478759340162958 0.04912720686858576 0.27561618915320396 0.018798957867079292
0.7028415031595505 0.05180800812710983 0.28819690167189616 0.012407126839964326
1.2987499760545773 0.059321755148528534 0.21624166954749832 0.015423959380039485
1.3207594693071212 0.037367660724607885 0.3185964906465349 0.005342699251874196
0.6885117703468869 0.04112686088845639 0.2847268461537482 0.01564445472136169
1.0645690994345718 0.05427093288177189 0.2793781712649437 0.011865374753300496
1.2014017120512768 0.06374148338025792 0.19359056840094185 0.008862948854388444
0.38076458061361895 0.03482421507753369 0.34324101722671846 0.01681923842809535
1.5237681234955305 0.036904921242886544 0.3339660394171745 0.013908713558421416
0.909030761216226 0.026300596468279293 0.35065518752589336 0.02682116709934809
0.5536093812541385 0.03457137966509621 0.3286197925437595 0.012318648440532721
1.579432861476572 0.08216137442968126 0.10042154871162748 0.0049609913311432895
0.8515999621664369 0.04197009353539502 0.3083277304649376 0.003663410369937446
1.3316238030576193 0.03641699175538468 0.3324758857397559 0.009472764373787924
0.9587160392422589 0.04460441580691002 0.27578516384721247 0.010939001826105263
1.0914771043293745 0.050269886652396095 0.27867619342763983 0.019502716421243314
0.5552121461764039 0.040785968507144 0.3064189182233783 0.016720865431133648
0.48310661011486244 0.04492599603037302 0.3161604909428166 0.010690919964952262
0.8625742867822349 0.03582210673282869 0.3347693383827103 0.00558362736405889
1.4598543335544805 0.08182817338049796 0.10523706827351346 0.004917644911165858
0.7254749327281858 0.05081736087987386 0.2717051720028916 0.025994636444759
1.4347297790245666 0.07585815806792479 0.0994840419650788 0.00313802000200376
1.2618640977253965 0.06229792831829125 0.21506233343104195 0.007401467325288999
1.474959463872118 0.050917229652265084 0.25000716484075985 0.009151440737815314
1.0723638627832623 0.060034471550489556 0.22840228455368866 0.01860871385810588
1.3051143131462113 0.06942770674877975 0.18743196874109422 0.006375574041156021
1.3850686494892277 0.04950338559793073 0.2727960224436428 0.00909078192895115
1.1183844858556793 0.030555246596208934 0.36415509510894545 0.016506435893575932
0.9892844772733405 0.05417474247579814 0.24060340537834288 0.00892900717451473
1.3513813781996313 0.04155755273855829 0.3474164442088679 0.010991820118083886
1.1673668756626607 0.07142650309691745 0.15734741291381246 0.015397924249680256
1.536030093214166 0.08154922309141609 0.09735367444994944 0.015789183486673932
0.5801657118818342 0.03253202727299083 0.35499414259714707 0.02397859907202884
1.5126600093347604 0.05080876162743383 0.28713126365751757 0.02185277928041789
0.42077966234556247 0.04292558610714164 0.33306382312388305 0.027379960918839315
1.5618040036896268 0.056781477699181605 0.2525455015132638 0.007525954452274779
1.2183608114947928 0.043241649563261035 0.2918134208674785 0.005177948195288017
1.1400061214028145 0.05570304926258631 0.24114138954454956 0.00885767771137523
1.2171646248492636 0.03881386240822259 0.323662628215754 0.004120233378840561
1.2590303098293318 0.06591641239702671 0.18061595373620948 0.021189536053262275
0.5882417138604614 0.03770461091671328 0.342225998360622 0.012495309587227728
1.326338597087294 0.054066890893107046 0.2182620382648087 0.008242570678354507
1.1424337243638991 0.054074368164989416 0.22869566598328903 0.006341939522035902
1.2160070848602853 0.06571186369346567 0.19546567541727028 0.009205231588490674
0.8294660786759769 0.05821757067302242 0.22989478395315185 0.004402680485067457
1.577740516018877 0.07133771501459159 0.14620961893575823 0.006432304643827098
0.8881221724790231 0.04897100617289303 0.2799145404247226 0.01510790350075465
1.2368968540870187 0.06639542688021494 0.21832776294516223 0.011502429196995604
1.5867974075003686 0.0876062645014118 0.05004530996022463 0.003116102884838327
1.497982959139845 0.08221609153388568 0.09223891391382968 0.013122748708042723
1.3669571570111665 0.07599665883344983 0.10030012192090539 0.0041060193573392734
1.606660324749253 0.0708096059258288 0.14681337239343697 0.007175035454242961
1.4739260436177706 0.03848669119794457 0.3357162944336705 0.007990208354363924
1.5357452777744145 0.039279476739390785 0.3723960447738744 0.02036804181768653
1.2276305668243896 0.06719828063695774 0.15187646282884637 0.010532678292857011
0.7785930032920736 0.05559922506911867 0.27953807130119723 0.010375140833776197
0.21834750368671302 0.03230470787123374 0.38158364651927157 0.026082210562137748
1.5678046771140886 0.05002318921724197 0.245237577494516 0.009120545027263383
0.9639415067163551 0.0352569218471252 0.34637892902180406 0.02278029676193324
1.5225682696913967 0.06849329290407716 0.19009659291550443 0.00927080915397796
0.6658270599183206 0.042261061612438706 0.28839807065319645 0.011055718348687823
1.491741497298208 0.0428765500197584 0.3371447309862373 0.006060411619842137
0.4859028794795669 0.03943447025248933 0.339497196347203 0.015812477677809023
0.655860257334761 0.03419719778330034 0.33918765896479786 0.017103215040519395
0.7423624973457098 0.0428942713055199 0.3362302149568327 0.009915915886546044
1.4351643772279503 0.041200136578030254 0.28954012330445583 0.003638417971551755
0.5637011793760378 0.04571600527403589 0.2888624556877329 0.01253052467221698
1.100368213122021 0.04724780141474598 0.2897067045128801 0.019547039824016038
0.9734355315707789 0.051079883532957206 0.28617037836324477 0.01619957700835255
0.6899054958754498 0.043820329148580424 0.34946378941054246 0.017054412332898252
1.057420255070879 0.041402927560584626 0.30571112211231316 0.011073483487218127
1.210262158131443 0.06096755395328903 0.19488879114878993 0.00803084790455663
1.4408109272980754 0.06389077965390592 0.19304893299984466 0.015167864661542551
1.0681808457122655 0.03139327123622128 0.3539619108793139 0.030158172845078598
1.1688122262815555 0.02982337251464054 0.3521253807691628 0.011398301041659571
1.137576916355542 0.05554997835177125 0.21528645757562037 0.013178174842652993
1.603484980970824 0.0837564434872639 0.10956026861668194 0.007274589730297018
1.0097910438708857 0.03040302324295397 0.3751654984437367 0.04091065739678008
0.7999425657733612 0.029630464430254664 0.3747795678914211 0.01073112536103523
1.4491540500079545 0.06488589473299995 0.21014404986695712 0.01466527681084559
0.7692428481547314 0.03494498670898284 0.3375867726153691 0.003175247876728246
0.9068674376505811 0.03539616337622187 0.2924554688100811 0.009018003584445381
1.0272575528838461 0.037436113369570784 0.33400192853559607 0.03424378067215777
1.2800208857785396 0.03203970567400614 0.36601945876928926 0.016644100369661064
1.580531766256977 0.0424790806360473 0.2812965498011978 0.01130213526656929
1.202290719449854 0.04146775862906368 0.31928023400765737 0.005316055917250183
0.41804970782300344 0.031459033316405045 0.37616055447726154 0.020300497998855582
1.4716548977687531 0.05543733176797495 0.2437067986233527 0.006656175924083045
1.4231247123869006 0.04136005389423927 0.32112613578985655 0.013241334622884298
0.9377322097788502 0.05967688836673604 0.22468759721934667 0.006686614803368862
1.2688684849327092 0.05533629749748034 0.24445483115390135 0.0146611211967906
1.5971130804230858 0.06087891564723184 0.20169804338696132 0.005883934528702593
1.4280539349035881 0.05332176408912274 0.2332000205502879 0.003910312793914751
0.3109296472452184 0.03426244866298922 0.3500853378415368 0.009893967778357864
0.8357663009837113 0.0295694084227709 0.35103684804719554 0.018073263754534646
0.3387372895816725 0.03805345824415962 0.3493397413136248 0.017215905351337712
0.9055215038401361 0.050217475167057574 0.2723166599556269 0.013263745985991856
1.3746824984231403 0.06041096829237956 0.24297084023871862 0.0022066474780425473
1.1505585306073602 0.06953633798255957 0.15943282309757068 0.014385445969351452
0.7042839964119663 0.03786933836542137 0.3598868543355701 0.024381061221911478
1.625562422643097 0.07970491232732713 0.08987210594993818 0.01953525874019268
1.554830370325771 0.029602659349573762 0.362142633410425 0.019251412684669175
1.1905008580748198 0.036049296955935714 0.3751813564394502 0.02472850535143966
1.5349948367909778 0.05982004165489077 0.20981478894165087 0.004771873146682977
1.030869183628583 0.059479910171227245 0.2172227229952288 0.008062560615331442
1.168796632587758 0.04855436226957844 0.2739226636680321 0.011124606503410236
0.39111949827866643 0.03223456573908218 0.342148679506865 0.010884376260646126
1.0055263351503323 0.049191481083196764 0.28574867346595406 0.009401012225697704
0.6963423005719298 0.04452272654998621 0.259089357232671 0.016564109583012476
0.6711975211886492 0.04501359254145766 0.29789735040905096 0.00963218706732428
1.4026106372608964 0.0543827970240984 0.22339779795861556 0.011828251088413826
1.4693388808964023 0.05597564982431228 0.17849823829497352 0.008957049950096774
0.4635105856936559 0.036532114292778806 0.3588698864133377 0.020595037290762206
1.0944035787822313 0.028735946541772688 0.36548792122146156 0.011050996615793408
1.0345598097118556 0.059719022400151825 0.19135868326349675 0.005635778147085843
1.0800432288125843 0.04291221561899555 0.32441728752740573 0.011262167471740614
1.3438226720949278 0.051038410141972565 0.27428054777443295 0.0057487093048155125
1.1571917201768966 0.04566866204576736 0.2545206766674857 0.008156334607700147
1.531907771626368 0.03750713480339791 0.3474926851993814 0.020960794075150623
1.0544272072320406 0.06180578004044054 0.21933491336764474 0.02616939458383545
1.2019898850919415 0.0371798374324062 0.341973972714717 0.018649994515737667
1.528764748908562 0.03646552936728169 0.30867023783481246 0.014469873859808044
0.96211029816617 0.05322672968258402 0.20231242600990218 0.011635755348897037
0.8910053699977899 0.036846808682614425 0.38950117901325493 0.024326970279174968
0.597347846749755 0.03641859092237267 0.32115023458968905 0.007640009713207151
0.8181002143468674 0.0348060976546035 0.3427066773757673 0.005787685455844034
1.622644899008591 0.09190381336016941 0.03850981702956638 0.04514245134862892
0.5280659960870678 0.02543898283376267 0.36808879135254363 0.02162047665234561
1.050997326054585 0.04643947669028392 0.29245035630121696 0.01286675368599614
1.5370993307222254 0.06488494405635417 0.19361965276181392 0.014430076301048696
1.47512283270129 0.051785503500401155 0.22436677299282481 0.009556027635478082
1.461347624212987 0.04984773979749391 0.2600620563798051 0.010560499072122913
1.4269122471170432 0.034848341659556664 0.3800180819059051 0.03627558483681391
0.6436384667120809 0.03702248999440396 0.35178515297122315 0.016989177856640933
0.6690315727220892 0.04119512722106648 0.31661624323912485 0.016472620766616902
1.082274892280186 0.04786414562794054 0.29267635049812696 0.01605535643634777
1.3968948699311456 0.039061883294529386 0.3662105090769693 0.01628522380869914
1.581531607656629 0.048998306967912096 0.2979385881619568 0.0070645956335128055
1.544988479179705 0.04659663047096423 0.3091151933372276 0.013696946445689742
1.3591806923246326 0.07641649533020575 0.13350336675699306 0.007841541335735884
1.269668318556732 0.04506612406493367 0.28577996106185355 0.009455527243456087
1.054645696275864 0.06572212422607343 0.2021263648879942 0.014941211039680474
1.3368299308804168 0.06559543771377715 0.19032775703578383 0.009158428897477974
1.1246809910417006 0.04908323161003857 0.2583606842485751 0.008553637701168125
1.2646403322548423 0.05964566671344425 0.21807463594822393 0.008242867627119874
0.9345543865720516 0.05062571336349599 0.25141274591599366 0.011841757045297217
1.192183778486782 0.06561950214518406 0.17027723018309437 0.007551416591419524
0.6850034485647416 0.04729830555402705 0.29662262160539316 0.015914762857503456
1.2970607306902642 0.04411663445975802 0.3136609081746237 0.014068880653216284
0.8543938482578634 0.03214728942728194 0.3521571639872592 0.026228481618661658
0.7957518717234341 0.030098599401993407 0.36103474029650434 0.0065833217288836544
0.8900541557223942 0.03446777712728209 0.37125278659245164 0.012388073942686872
1.523797684759525 0.06165407454854375 0.1645109646019453 0.006005344820315908
0.9923235134088715 0.029295021265507405 0.3543453505791107 0.011553933620772727
0.9815294896027007 0.04587812038314511 0.31695875097039894 0.005858271830894201
0.760494652784262 0.04544656371455144 0.2657280610012659 0.009373062695465778
0.9090009944664645 0.05542234980211725 0.25894066961020523 0.012571329484838134
0.3659897507954138 0.03393984048398667 0.32906084326476365 0.009859263081678539
0.8770702347739268 0.057381605546294685 0.24854682177927723 0.005842261328330346
1.349501832392855 0.04667215699346107 0.2804379342287692 0.005434926724408841
1.509643378255606 0.03684670439662107 0.36940786277354254 0.015891988622250712
0.9847265393183126 0.066592231774066 0.18926059431706557 0.01067572440089304
0.7602856354704097 0.035044392446594456 0.36166540740377795 0.00842886873270908
0.3359767936775351 0.038696143163595355 0.377437222726503 0.018909658824681465
1.3425072153091262 0.04618726065845999 0.31252513605816634 0.011387364481755766
1.5220311556355972 0.08472986491521801 0.0763516795462093 0.01536331391286592
1.0200889975470715 0.0487949660202172 0.26494972481975654 0.006753972946822476
0.9435596692284701 0.02468903832967161 0.3473217914246986 0.019474800235893295
1.5312998847813875 0.07175396331037075 0.13958596963204037 0.009638385249250472
1.4552245775603703 0.035604397656001666 0.35712200467966715 0.014921895241871047
1.588067519811261 0.08370584567905053 0.0995845954518859 0.007335880204226477
1.3904738017250444 0.06222681181900076 0.16181029078150674 0.011970144694186948
1.1734919618522197 0.05307158599084964 0.24534357394312717 0.012170321944486485
1.224424221052213 0.060365997833452936 0.23411842292795393 0.009359089068091126
0.5542336436319665 0.04255489959031516 0.35158670892851657 0.018137986341184922
1.4376738066281853 0.06378209187949938 0.1561367309672952 0.0029417052875504966
1.275428402702929 0.06133851394011071 0.20121091248442127 0.011027764416329367
1.195799777000884 0.054861713775803796 0.2212327280856433 0.004137110089754708
1.0831041956974297 0.047572155140500214 0.2019698496209556 0.0038075604191545936
1.3267634685060716 0.05022416084245666 0.29245038743524854 0.008921384720340049
1.0752280519068813 0.05246591031254211 0.26276579549728357 0.013664245800515189
1.4410562110703458 0.06230939454524263 0.22691538616694257 0.010464908129371366
1.314570570030606 0.048289589449089086 0.2989094342719649 0.008493043479583271
1.2649898155398593 0.03236616329590767 0.34372322569806557 0.010097445175589921
0.7686910978581423 0.03454121751925564 0.35943018310710784 0.0045435709673987
1.4547344075470916 0.04106711666254439 0.37574086425333064 0.013468766208098873
0.4511721064973061 0.03247099629042629 0.3671297392443712 0.023025290325278808
0.5676243027061179 0.033910225403352395 0.3331015806711789 0.021314866124653192
0.4566917070019987 0.0369507752703206 0.3588740300109591 0.021635622858544572
0.9069458380404166 0.051384604914711564 0.23547394487184778 0.009031332753047282
0.4751363856285267 0.04406371182351361 0.33290398825668926 0.015126191086995366
1.3012482797212361 0.04865935806653112 0.2839517071277604 0.011842204529453438
1.1321358544117186 0.049676861869350525 0.2783035534066885 0.011650277723420872
0.9544614101446693 0.05317494938371814 0.29696937987175454 0.00818379349480316
0.6743324709457302 0.04379356273898603 0.3142377402732484 0.016298152212642594
0.5484394297561542 0.04227999131091117 0.35510569127115477 0.01867315009258127
0.9355231486992202 0.0345079890957407 0.3670011632493721 0.02009376225704664
1.1094112402475782 0.04765720310768773 0.3030104018291392 0.01357050613727681
1.3831339906591127 0.0629751281675196 0.20011997929440162 0.0175355707805016
1.3525442955602904 0.07839167879510177 0.11737526043565935 0.009715962759783396
0.9914464955910121 0.038314462927117765 0.3146682293307846 0.008759309306693936
0.7345377748201225 0.054240786428622706 0.2613768702997014 0.022917032273186134
0.98107859727787 0.05322266961610558 0.24457857399831145 0.011546748422182188
1.4375989891517398 0.05554645611496973 0.25692942996110757 0.009565235107121532
1.2855651250908389 0.05222462484099739 0.22524556573173504 0.016976850395274037
1.414892104475318 0.034049890222530285 0.3679138202083087 0.020665881597210674
0.9780418314786546 0.057960506238346005 0.25259005186624267 0.011675074591192191
1.2449606778654234 0.05088865545244391 0.24945489881525773 0.006849393914982813
0.6983950074813198 0.03609862392096396 0.3401741688441458 0.027521828853764196
1.2582381890555594 0.06507355432526186 0.18968598845549262 0.006950089853139826
0.7932207811250449 0.04788316682559844 0.27417828505661784 0.010501178750812147
1.5103518446834288 0.07726740752527345 0.07399660871000821 0.006521309651494125
1.2511563933989356 0.06879756385617213 0.19992000633791335 0.0077919871958921595
1.4949341591827472 0.03259848258752039 0.3558842516863928 0.0056920161046328755
1.2842193203673524 0.050941022180115564 0.25944789357279896 0.02127856823884849
0.8902919765949122 0.04676837478277612 0.29636958390407586 0.014097633289331911
0.8682987653144839 0.02827017473398087 0.36372900920900014 0.022075926967413364
0.7560136749797274 0.031968680227409965 0.37419517855748524 0.039212843695263025
0.5730477779406964 0.027801984885229974 0.3836066976921825 0.03160091079242194
1.4777076454880977 0.03200143052605867 0.38505862270337043 0.0174625117951017
0.8505386371470153 0.019304953643622016 0.3787884461581979 0.01727855330179428
0.6259731362247121 0.037297945062867544 0.37103190524104523 0.012489309912602862
1.0308215435324917 0.033615261363872516 0.3813222540611313 0.04153588389176992
1.5015077709531859 0.03333704658817625 0.38677238273421777 0.01939555244413019
0.7873769032544066 0.034668106600777265 0.3762941096078976 0.013716440757637826
1.3255117396242146 0.023905000049449898 0.38522086281919693 0.02179052274321115
1.5423203083533554 0.03652785154918463 0.3884426596067325 0.022607796092178774
0.9195577094087684 0.03782214887145595 0.38029491950614835 0.010488736972381238
0.571083224647324 0.023312117258436814 0.37620987606478 0.025278191836862002
1.1336340314222022 0.03487818035965135 0.37233116781452363 0.03161387326029007
1.4251186713802957 0.03149973593523274 0.3924399283255091 0.05206345036349225
0.8176583690710566 0.02969998629456769 0.37481079125507727 0.025294866218852158
1.137347146635148 0.03360079740254308 0.38320645950659105 0.03468328016069796
1.1041187498334175 0.03366641391233469 0.38127836300261586 0.016167358483090796
1.5165948284849975 0.0312987219816381 0.37883843873477974 0.013176535448793913
1.300764910607843 0.03533778539854557 0.38552856487925774 0.02215900889986706
1.2262311014970937 0.032070152098569664 0.3817616982400606 0.031411554914187935
0.7362746438797028 0.023826562953535593 0.38531732738573443 0.04545168266425082
1.3496783103835814 0.03022089097013514 0.38226902550041925 0.0738801705971846
1.069663581416023 0.02670380122864299 0.3869913412729579 0.016526652993547233
0.3814923738181549 0.024088210786132446 0.38852608297726476 0.004702930048876184
0.4803069850565125 0.022066701159456314 0.38842829153184205 0.010582956906415322
0.9740605486564401 0.03125724895624549 0.3884535057449787 0.03580487420472487
0.6029826650475706 0.035545158782488345 0.38631567244882953 0.035927720338731386
0.53678555259856 0.032205141904924774 0.37468478377112585 0.036693522710267885
1.3207004585910758 0.03229269688888864 0.39305338712310506 0.037131731224166575
0.9303563939382988 0.043117760264941525 0.38775001455307384 0.027092523767674005
0.5445189303873296 0.03098866405511312 0.3860616197245853 0.04554821142595427
0.8228062323815059 0.0366344324758814 0.38469963984586797 0.05767746543543147
1.0105580783489356 0.03866396269078495 0.38384143239774243 0.04186286772960777
0.2884226051526281 0.02752251856170384 0.37312508910639536 0.011947234886435723
0.5199012012564744 0.04032698829269373 0.3963681661979381 0.022679979971505757
0.271204687294496 0.03237852840475713 0.387076434176111 0.036484178820739004
1.052027807613255 0.038366583592204705 0.37789221612336077 0.04482368424290225
1.2055175631653945 0.027327214423642967 0.3824235766375608 0.03582039882058003
0.23668813852473905 0.028953574843895647 0.38584493315296914 0.0165298558183564
0.6604883814490996 0.03611173606659602 0.37488456246956137 0.027310585042130565
0.6539467092248041 0.0327520850411306 0.385026939829209 0.026090153878737695
0.7078967169838751 0.03148676403556214 0.3888477789337031 0.05635537722668276
0.4158097316300095 0.036526538676004174 0.3866472552342394 0.050043551537797534
0.2735954848593924 0.060982015214731115 0.2220926622600253 0.005933690536404501
0.5756620907369929 0.08421294521379752 0.05234555284602024 0.008488537513343282
0.7444352365461471 0.06846948753289189 0.18928667224715331 0.009009379883536206
1.113741957434933 0.08299537137038122 0.10440071871474962 0.010307609730057793
0.2205969989120963 0.05905602634639649 0.1900660749285787 0.006977269260850112
0.893111334361354 0.07835453217606438 0.1347403011874577 0.0027019028840921584
0.18852797927388998 0.04951279549470379 0.291160337549974 0.010301721021654294
0.814478982523171 0.08958634028668222 0.053823085544908784 0.01204482326454979
0.7652213618797885 0.07109689562470141 0.19574107630736934 0.00523374975614556
0.8249963152538579 0.07842841606144257 0.1388928249819022 0.009544328674297544
0.5650009438324944 0.06835877452825032 0.1636660770448578 0.008286324030053832
0.6644751542262172 0.09184134986137812 0.051081539714965825 0.015372759679906976
0.42417029380148674 0.0440319101615404 0.29386216768620055 0.015854966850676652
0.21441431749103212 0.07053668781725245 0.15529527360654735 0.009066484299795478
0.6518114632133255 0.06276819357157358 0.1612693107165695 0.002395521533150272
0.2360520848478107 0.05800709956094345 0.22564488176168743 0.01006954043980723
0.43714431274081134 0.05433845820310654 0.23350552992307036 0.007509852112452547
0.2125591699419861 0.045092790915836754 0.2806064023557554 0.010790906547319363
0.1710106889321348 0.06665326822527924 0.16710125459753908 0.008926723266380056
0.7117636845876877 0.07941471109169373 0.11899448545372421 0.005487189206751074
0.42872842606755845 0.07406111987558933 0.13843217184023957 0.018255604725115972
0.25731847862199636 0.044343472264804534 0.29933079054156164 0.01757026815654108
0.2988273861978717 0.059039000429643745 0.22623088834074961 0.005931071222549207
0.5236589000920483 0.04499111186108692 0.2888409128283243 0.012570076277691872
0.7159929123074216 0.07138560802261373 0.17008998646702347 0.00396617518786171
0.23806374181240764 0.05081128486725114 0.27398752388891395 0.00685703198249924
0.46421478284937934 0.05067200376604702 0.23960560084439644 0.007518415687460672
0.623150235374427 0.08365468052166981 0.07013304399634836 0.012868705935633846
1.0972042046475192 0.08723494228308902 0.08051766458678297 0.01424416740675017
0.5402176771901922 0.07356819223403058 0.13444651482119016 0.014122736200153661
0.2417095470281438 0.08683121662283122 0.07189013141898706 0.0012606426319960538
0.18129676985660476 0.043146807186088786 0.3344787864621011 0.010245862573278952
0.19724154190682305 0.08988452094899943 0.05806479086899278 0.008993692926645879
0.8436347365035813 0.07450891477835282 0.14465242396593178 0.004170753840190217
0.8483356117024553 0.08441632255944928 0.04805829596399663 0.007977882617888166
0.6474127143422131 0.06577257891717557 0.1673469670433878 0.009631774818985169
0.3282227441798356 0.06632814769986298 0.17767520666077907 0.011850358690033555
0.8072400777369525 0.06193700199956422 0.2090553129221843 0.010347631128144503
0.39497666925805847 0.09383945226551246 0.02455570976656746 0.0018545649886291
1.2722142789303568 0.07615753700665195 0.08885728989513927 0.008983397861037063
1.4988993457585136 0.09179159704239824 0.05551996945050541 0.012604738775258119
0.9850223177729382 0.08306354524103339 0.0769830293039977 0.009507601203461377
0.8217086474061239 0.05812806753192479 0.18864469760941704 0.004661129573314247
0.3108481744964424 0.040670587596450036 0.3087003190046014 0.003241338477694716
0.342735964247625 0.08775978392649621 0.057689200319998156 0.011700263960066045
0.7840011843515514 0.06406101524612792 0.20206973746597137 0.010397094548392964
1.3241525864161552 0.08203095549935215 0.10034273413056403 0.004728961142899667
0.22658195286864902 0.05397586084145726 0.2339320415277151 0.011156771036428263
0.49646832148134984 0.061814904323059215 0.18960236789707818 0.011071389274183118
0.9658342246591131 0.06931592691533864 0.15391228788047273 0.0014580752603324068
0.2941459076953971 0.07520849252223834 0.12596183533947358 0.015497057970185406
0.503309404105126 0.0950222368523109 0.04773011754082953 0.013528097325471925
0.2325095996950422 0.05111327833627863 0.29656290183858425 0.012010209994578582
0.9997183194188296 0.07693058870609527 0.09037623256098205 0.009364375228381397
0.5955480515614208 0.058622507453080806 0.25442271928811006 0.019444754300491585
0.43890155025274746 0.050471135122875106 0.25521869250390955 0.012061134851969251
0.7909746205748531 0.06348289408653633 0.20279890940195344 0.015798385139253378
0.29762899891406513 0.0341696960022872 0.3644892292242747 0.0199850341548656
0.6640130850807974 0.06013228749810681 0.2325463547702735 0.014578967809919316
0.19061181647037653 0.06617465726584613 0.1757907148120386 0.007485456275954628
0.5574567941952263 0.06466349941946523 0.14708054670624138 0.00218232790746091
0.7588893386668957 0.06999353803187676 0.1791775683525586 0.005440763584974928
0.27304325704162086 0.08662114086917788 0.05932185807278947 0.005679254590754166
0.7026281468194929 0.07371959859543885 0.14011463379819325 0.005862308650219267
0.19750316634638881 0.04840644203783596 0.2977953020624437 0.010612957221001862
1.1238302410036425 0.08854328274160898 0.05801346910480311 0.00881254688353232
0.509186546278089 0.061306815426160524 0.20592835494123363 0.012190357078583344
1.1344725937015439 0.07605569030974221 0.1369775418215158 0.009345000134575492
0.4375361537893582 0.04253863506185708 0.29018811464450034 0.013216565021052262
0.7745354674731003 0.06624307028678393 0.1907706297726361 0.009420160782866957
0.14805943455630222 0.07322998338624097 0.16148781191585404 0.014565525257188197
1.3518307803102478 0.08342115342513698 0.06132621499255758 0.005202515939817129
0.88096008002584 0.05867688858998093 0.2052893986002297 0.007854622854272493
0.8922175851744445 0.07999899126965923 0.10381082626564517 0.006933282190627983
0.8368975075330127 0.08280540512276775 0.11623074711536999 0.007026040676824562
0.3526421634251925 0.07388959391878083 0.13933894282633255 0.0032407339713276836
0.5782493463836699 0.05341554887272689 0.2706458311764863 0.017590942227546556
0.7177833368518034 0.06775358002878382 0.19891133035192293 0.003237627302189419
0.260930638347913 0.055999844792445665 0.2472197403739357 0.005252956134358001
0.9319855098164909 0.07372665507130668 0.08395294999654716 0.0034347331622073484
0.16878574222279996 0.07282584120069015 0.14922873222073324 0.01319005191273728
0.37278107162388596 0.05566672461607036 0.24984999765147017 0.0044756451370429095
0.2554184438242628 0.06369438339406758 0.22454558837636338 0.008911550296606601
0.18178870136071623 0.0899634236679199 0.05475470632339629 0.007149908308213164
0.3731368838765163 0.07417819944799305 0.13196156130696965 0.013122775822585976
0.751793975224934 0.08996369147146113 0.047347768773316874 0.011923870782076478
1.1690694116904163 0.08170662332551282 0.12815746294811764 0.019320899784531442
0.8944141996940098 0.07365129194931183 0.14821556309230483 0.00784821781029952
0.4629043831704677 0.03657548876135803 0.30872316368985453 0.026470749123398814
0.6279355112588428 0.07397253595042846 0.13145136583110759 0.012481945960731992
0.8990762958526552 0.08496619416568496 0.0478609772478181 0.006039874917562214
1.006157301353248 0.06951451553510185 0.16755783963587173 0.007151843565952422
0.27648919977894004 0.058932789313677125 0.19974035057147663 0.00243940109313736
0.35494142102044035 0.045827493996549354 0.26429284998145897 0.003369051186446718
0.47973468920290235 0.06408514564019646 0.1886864101620723 0.0040674369219333515
0.15472202312107772 0.07503234507414543 0.10174727798842563 0.013163661561727599
0.5709228925281009 0.08737276388693954 0.05887909679645204 0.012327895888918073
0.8730556597586789 0.08610516653079281 0.07203910316454568 0.011015125521791187
0.9380189303450132 0.07415947736673031 0.1427361802586746 0.004934170184481897
0.3810243013091668 0.05685300230518053 0.1920566175550148 0.01263065742156149
1.4620647926583876 0.0883771563245597 0.05961858459604434 0.013636578907440291
0.670186583321787 0.08708763180347283 0.08239654801741066 0.009308457696691214
0.35686823796155015 0.04993069597759913 0.2878517251095942 0.02011093964792122
1.049149806033374 0.08797051921944851 0.046863649162115883 0.014780492054686654
0.42465027590242493 0.08010960762023878 0.08883976443396123 0.006669111615038532
0.1642915653570164 0.08088624670201291 0.09246974197765502 0.017964042871483264
0.26212630554341143 0.08229382920742587 0.10710081782070839 0.006649005911886858
0.5079805859507901 0.051005739289806236 0.3037331958857345 0.023562593086804376
0.3551986001007449 0.084695788043814 0.1028052488203681 0.008485953707050761
0.663044192336266 0.054678318078727105 0.25666427271208025 0.010085318621746525
0.43121513765227504 0.06820840443608159 0.16798930261168804 0.004294461771545231
0.5766335944274078 0.05144084181276092 0.2498548211126845 0.017741797779486635
0.18476208218219825 0.04316013173431918 0.28055526678887943 0.009973021119878566
0.7168659430180468 0.0722149990550079 0.1345801675268943 0.003488990111591196
0.2628209926100021 0.05908041899379682 0.19826443289840429 0.006505915142201658
0.9250953939641243 0.06772908070867593 0.17239223300607157 0.002451095340620901
0.22376744367258142 0.07179054977475102 0.12475334666086477 0.006368413164366131
0.6909160699182827 0.07207203808488015 0.15094832897828464 0.006376068529003641
0.892668202378481 0.07995262583559759 0.07125571362662242 0.010942622874066337
0.7553672317627294 0.07033684876878651 0.15811107833692742 0.0052590685882370055
0.2684477806722701 0.08391161974593886 0.07556829519228911 0.0031628849227484986
0.2768368486133158 0.08853985475233836 0.04554586124606143 0.003598257300901588
0.7307260419397554 0.06877663142215817 0.16516848986718757 0.004047826799463858
0.8219449359756518 0.06760575001781192 0.20962715879619498 0.003138519432396933
1.2011266811429957 0.0744791842789767 0.13212501412128608 0.020351649349247658
0.26351074881633396 0.034949215924895694 0.34043554855105235 0.007989045426178726
1.3854070011641302 0.08161963276259554 0.07155004841965949 0.0018402843254410781
0.2979146042072083 0.06053033124023243 0.22194791073050113 0.005183420590943898
0.7903946971913625 0.07360832851348392 0.11523615693989549 0.007367965474657978
0.29931320784458776 0.0601068096115952 0.18414852237341225 0.006892806055853064
0.37172482291296377 0.07909770110393066 0.1121330729252383 0.006537100975384843
0.9046015743480683 0.07276157499951122 0.16095952398938732 0.007781225230951464
0.5129524870031413 0.05460890564077423 0.2545175120855995 0.005952949272068489
0.5735271603135966 0.08209631543586832 0.09084745498003889 0.007968624541598985
0.8082950391242522 0.08409368932589993 0.06655913576640377 0.013567554857390158
0.20487953188649807 0.06914705314839834 0.1737947601972482 0.0077764387305282135
0.4096124041650058 0.04500832048399589 0.3135224025854838 0.029081841656735725
0.6257583804490201 0.05954908429447154 0.22149752636661368 0.014087025059008933
1.074769993205884 0.07375133672535482 0.14746539336611889 0.00814287891481619
1.3767917376776493 0.08592855889458939 0.05961519616262562 0.00421750651036743
0.5198793922010977 0.05744907920546816 0.2101957770536133 0.014210402417191138
1.018593060508583 0.08741582699723371 0.07080250753777162 0.009229100628893342
0.856095096594283 0.08863612536631181 0.0651609258245249 0.017425322925414693
0.7348506243989849 0.07827823477708211 0.1232416362532134 0.003039706336847244
0.7493595182083941 0.09161610522305869 0.05527775185071858 0.013359779768450746
0.9921146425501628 0.07045928243759929 0.13061307716416715 0.00461828431400186
1.0602333948821556 0.07877048722939349 0.08415265775248922 0.008672494039977661
0.1760325580191443 0.03803843928997609 0.3674811958088664 0.004786816044076064
0.7744033603785809 0.05480956796143564 0.2236837614678519 0.009517652395328927
0.5187133191912762 0.06950091524461369 0.17052025543054375 0.011123693143896994
0.37446255542410345 0.06631825723333637 0.20732376585170742 0.01069874997376811
0.5420847994865998 0.05218974474538493 0.2625417476240328 0.008089215285044958
0.21786666908013255 0.07141041900573088 0.14337345844049512 0.002047187035484735
0.5474763886437966 0.06930947274648888 0.1709933676101122 0.018453442577785095
0.512898281259743 0.07961428193829045 0.10506775606447846 0.02011512572194352
1.2300147339118979 0.08452407361228288 0.07147591826178157 0.008589469088984376
0.7013902877519629 0.06546227925815552 0.18139434367999316 0.004912508676004839
0.6190203804872363 0.09139035343976909 0.037315500117938105 0.005813051242594797
0.4608393355257415 0.07080527213349233 0.12207536679148476 0.011521770225946215
1.2089382577233878 0.09147413273347575 0.049762734591495474 0.006649830805356434
0.4681224680360976 0.07171093856232724 0.15335636841890185 0.009174967503824745
0.5309236884605189 0.0513615030199284 0.25519004764748443 0.003476488118328072
1.2792286370038142 0.08958026945667365 0.0535136748977547 0.009059153602494029
1.1749754649448598 0.07408080269546242 0.08902650492435274 0.0140228693374123
1.3024145989028508 0.07532438023718552 0.0945992161214821 0.005655978980767709
0.6376459068911983 0.05185880071217654 0.244257535094769 0.011348094290574191
1.03489993723178 0.08994220522692901 0.06891489750518956 0.010391291824287644
0.3234989301883812 0.055375558728520166 0.22462674682023834 0.008082548714936032
0.6604670888659487 0.07589166826837254 0.14137852646619095 0.009235147050267095
0.9345832773328385 0.07227580989974862 0.15594394565031633 0.0025859853170920994
0.37888009819279145 0.05211942125269286 0.267142072504318 0.0078119679801361905
1.087576054473481 0.08920752681601057 0.039620749307927715 0.002515272857007163
0.37658857892945063 0.08833789770979882 0.06584341928722719 0.012182451427647886
1.4796120457905193 0.08896624607045078 0.06419195046113584 0.020509992128244572
0.859139900546649 0.08228843418391166 0.10168518169657764 0.005618248836607026
0.7634389727154295 0.07170295245765385 0.1319104640012018 0.002660117112124454
0.15527063109305797 0.05608701789163563 0.22149933220437246 0.0030066679192166964
1.036772338683788 0.08483934234558074 0.08885258241065129 0.011557118914541843
0.3093232107534379 0.09281876357403193 0.053413833491347276 0.005374844161192341
0.6373626235334462 0.0521566136032876 0.2086293604275278 0.006406548467730892
1.0902004825129812 0.08252540856733764 0.08988705127988926 0.009851566690734372
0.8455880876958849 0.05945589041684883 0.21035239058639263 0.008803300657020858
0.2318768655716405 0.053295527748341044 0.28114862581106154 0.005880180306468946
0.865157933124743 0.07123016516922688 0.17688554091109548 0.004854988518518635
0.6853539320589335 0.08745232158427889 0.05294064185599317 0.007973968576478939
0.7295968890103045 0.0846517033975502 0.0954598861206637 0.005280914074804246
0.48645004610298925 0.0686235406163915 0.1323984567462865 0.007920530452296539
0.26945679172092774 0.08360494146177846 0.10677636354207876 0.0065986336335944465
0.3091943808091584 0.05963486849536474 0.23572211217493402 0.012337518726972004
0.7265045038312499 0.08860627697270865 0.05355113995112501 0.012196337423683817
0.4181280939160957 0.08193707325433129 0.10268554111269824 0.011773078264188356
0.9202913284358469 0.05580781060985916 0.19776096596808102 0.010120405296146587
1.5876001190832525 0.0900703217540349 0.042413520657139825 0.003562358118019827
0.44133277281461075 0.08296446108883859 0.05046001117575059 0.003008885012374814
0.5786518313344599 0.07576644752475663 0.129949666398879 0.013239250906194527
0.44392608197727673 0.050414072039145726 0.21060553467829402 0.006896563450934937
0.4027212682622623 0.04103365609849156 0.3178172620425338 0.024513506498252662
0.6036200093505454 0.07002918669081148 0.09540151440794045 0.006958740288232913
0.6965746703083951 0.07601792912066492 0.11656615857538971 0.007058599033443487
0.4947738535317394 0.09361538145423262 0.04055450733064248 0.012742743150009062
1.0741934057615963 0.07686763565245469 0.09805895570059456 0.006599360649414333
0.39454757014431135 0.0647163341280409 0.17900528926551817 0.010100722747115458
0.5446487391189827 0.09082587654719984 0.03912371767568517 0.015797106537874694
1.1677467002862583 0.08294517729113768 0.12167914324304915 0.019297458373094004
0.250655352493373 0.038993774151442166 0.35151132605285623 0.003950187450523634
0.2858540095317602 0.040488708443328664 0.2755822357111953 0.007324151064336426
0.3570492717761622 0.03687711319963962 0.3191228559953181 0.008303426052856838
0.5359158428067786 0.05356482846122445 0.2354851528239761 0.008280927602779469
0.6460026575909619 0.08364156649321397 0.06303363208474337 0.0012845427609716627
1.1066029016732088 0.08661904895725275 0.08286947159427965 0.012650013551652366
0.5819271059586053 0.054237017701962674 0.22198702214834443 0.0184304983584487
0.185428669358344 0.08892421173498967 0.06606825674495707 0.00594869726665263
0.7545628784388022 0.07182967990558203 0.14108312027374204 0.004465480505470288
1.1151319310148582 0.08494554180291787 0.0887398913511366 0.013357194358303645
0.2209017330653255 0.05409346551242859 0.23103358888301986 0.013527679303808587
0.5663382896533881 0.056462686268290097 0.212327710803535 0.014790350414343107
0.6656196981652737 0.07362524959389227 0.10692349880898563 0.009597657108160405
1.0486236057181544 0.08397407471683134 0.05570962740353594 0.013066170092543091
0.3577153486711452 0.06407650862727529 0.2111346359189496 0.013336062407812934
0.676586301513812 0.05003437539479705 0.21813103765458564 0.005747766897138311
0.8106478380533496 0.07884427005744703 0.13153739563978767 0.00717406780103665
0.2791409115288427 0.035868764831160256 0.3339278944229171 0.006330226612121182
0.8700739130083649 0.09465180041668847 0.04943743203157065 0.014608910470610616
1.284715690524638 0.07970867892628365 0.12323299982259743 0.009899746415353836
0.37166611878554606 0.07991344621707065 0.10922561162722025 0.006481341343663453
0.905951491489713 0.07780162802476394 0.11555633066208279 0.0032029842337225156
0.40272113378626545 0.05916983470025529 0.2230546143898789 0.014637923340074032
0.17119446057076132 0.0804414722206941 0.06973030142078238 0.007287613097318
0.6694727391602348 0.09273347717029867 0.048553396069362924 0.012839760314340058
0.13407472726591216 0.08912218779711713 0.07362862257401898 0.061321498297133334
0.23776440630200457 0.043752212037727445 0.3158583788183475 0.010501384161857285
0.9176603523749568 0.07658292326296015 0.14913053399742235 0.005441309971332181
0.2487854072003533 0.050287537389301556 0.2920271059742146 0.012769248746426544
0.30134501449852896 0.09030000200183266 0.03349457887860015 0.008818662200467392
0.20316608829911695 0.08110608050624558 0.10220549598482812 0.0014159888182807923
1.213290420177099 0.07775259988076458 0.09836516366808322 0.009316475780818586
0.3048434157301087 0.043447818959296336 0.27787347040615157 0.008077366920356637
0.9498838254844111 0.07614065955608265 0.12257824239938032 0.0024854666479666955
0.448511316173971 0.05828222056657659 0.20050686933203604 0.00858682082914344
0.4370918020907516 0.0783044727868612 0.12423424733306729 0.02310124935152271
0.3423095616948343 0.06536322924911481 0.15799593598286607 0.001239128579872031
0.5509068352953236 0.0851365769159571 0.098442374147777 0.012172562393787039
0.1733523785033086 0.048821764656268966 0.301748333204521 0.010035379770855337
0.33672826065580486 0.06630022949443971 0.1767240821340337 0.009031432357834759
0.6022522634364871 0.05816100360779933 0.23144175853260582 0.021724853743383975
0.32423381356595593 0.04116902221940028 0.3336100227030326 0.01173931287535217
0.8347435545977346 0.062482070215421966 0.18246152703461466 0.009352325731328659
0.8789351179593612 0.09312333797333823 0.030642503123624494 0.025471999137850587
0.5819933886307583 0.04583631230699241 0.23842693988602828 0.010095973965905211
0.33132994439190544 0.09152476165157257 0.04240463448913063 0.014109905653241632
0.4842775846349486 0.057015724652102535 0.20238626663535908 0.003260773388639151
0.877321319752722 0.0644198549103496 0.1836460753289213 0.011134516915819438
0.19824475458830235 0.04969977009759785 0.27484316465996256 0.01277388990251382
0.8359682410247772 0.06208517610302371 0.19854944869208396 0.012034213534121317
0.9952182821653365 0.07549402841418762 0.0875694451237489 0.009352057765303472
0.4646772969486598 0.09164660422083228 0.028832532104713055 0.01365954410314879
0.60193961092546 0.06742402918476759 0.1397439963182829 0.0065501962083157166
0.7760943483626715 0.07843109583151636 0.05990243672012733 0.005802686321124161
1.3114095353405641 0.08593688940972423 0.05083807287480354 0.0038807976518711045
1.2931599497436996 0.08565812888942094 0.05299026665453609 0.001634870095537376
0.5337863108431015 0.06821627462542702 0.15253211918750026 0.005499223304220742
1.3713393502108995 0.0891592086545697 0.03937373469042718 0.0016887525720181017
0.6963674180073071 0.059218556692560265 0.21834746760678353 0.016199983625851705
1.497157357407403 0.09410309450607209 0.04924316195621493 0.014401944974567687
0.33195192114705774 0.04888611430789546 0.27979450822981305 0.01061742632149854
0.46629778285396783 0.08695198205969766 0.08513322275340784 0.014867522687550469
1.1434606471287159 0.07401796230152938 0.1296048133474932 0.010084925878923477
1.2825803268760847 0.0915783082671385 0.04639318321280108 0.00583679891406828
0.25468742286034823 0.07613533659175059 0.13832590895011743 0.010641724618563244
0.8505797636941423 0.07876290258146601 0.11157062690116995 0.009998221854149676
0.9774461268356811 0.0847469455678516 0.05009793064002388 0.026520882150442487
1.1054312927010426 0.08532919664521915 0.10353152425426237 0.018634151586740165
0.40696074146097583 0.05228209512912797 0.21586997716928705 0.011165505270973956
0.17097229613670023 0.06198019936765646 0.19529591727844092 0.0066148384770394544
0.18673945302023734 0.03757012311153424 0.35818804664874987 0.004654899741144462
0.362192966956186 0.07429286006619859 0.14527159586000604 0.003264919879260908
1.075123919941427 0.07449304941822944 0.1219544685291563 0.007211662924285918
0.8194641546477942 0.09476865163771246 0.03727673586622166 0.012330393316349709
0.7102378371623935 0.06681223783984973 0.1873934366241178 0.005081087718115841
0.25719154532417743 0.08800595695120544 0.04813434084663151 0.0033161793208799644
0.24606980934213246 0.07433829936531687 0.15360449138058707 0.01038728879373111
0.9590587964384486 0.08032032006064163 0.05251543761593195 0.0007167674770424481
0.5851995045933407 0.08076605648009924 0.12078551689549724 0.00715574102322836
0.476641573131596 0.055265586795988864 0.2508795096244662 0.005954551378335891
0.9166203423038624 0.09347938012000709 0.04457420939804828 0.007333296403900713
1.0382374118803883 0.06393023438927231 0.17386982238899482 0.007748542216079497
1.1472715972538357 0.07736839322798053 0.1159359942685521 0.02748696039627023
0.34767039826048224 0.04979530118490057 0.28608650099159677 0.01734799268573314
0.7864127296488418 0.08348873379677241 0.0837892395082768 0.01256187235486221
1.537453589256095 0.08750460604846202 0.05476629908798335 0.009601460069085037
1.2194949388140826 0.07904138713395975 0.07642102406365055 0.007146493736584048
0.2919833791443095 0.04673669597387393 0.26617281235914886 0.004615838295604918
0.3803374129157249 0.053089789818034756 0.24912110554856218 0.005872290280905543
1.1244728355706972 0.08092987025673554 0.10657576811843927 0.014103709931767482
0.1806720155160004 0.049719065288112305 0.2527162457588398 0.014243312791745545
0.2105423233161316 0.07913893849444971 0.10397487101636142 0.0019688588219412754
0.7945065856343023 0.07677151563252713 0.11118276880485267 0.008198535757464376
0.7447116481664021 0.07037201425114746 0.16238371304188406 0.005295088978772591
0.6173967029831773 0.06567878662280865 0.18846642524964374 0.006246369159991978
1.0406837468103192 0.06789430247353119 0.16476796005174188 0.006331778688395844
0.3639691131419706 0.05957532301481193 0.2332812067051273 0.0054031264976974434
0.30081885807745345 0.06178802599550804 0.18868252375579472 0.007313070511618533
0.15131457167431442 0.08790001013017835 0.05044430869646816 0.011432599039949842
0.197400535969729 0.035621973598903005 0.3410484893772339 0.0040469251686378735
0.7084672162169996 0.06278595732814778 0.2032672894220288 0.005098918788953235
0.7200103118234381 0.08062563197285541 0.09041229394413072 0.004506270303297056
0.995517786878791 0.08521718742542236 0.03732216344676778 0.008120863329068369
