x y z curv
1.9657449098956543 0.39137980054183075 0.16315008137131123 0.011272199628078563
2.0014541305796176 0.3840964698123996 0.041781323480302154 0.018564296912094793
1.9547586672034298 0.40675131856427565 0.33539206038479863 0.016893290615213715
1.9672791421827232 0.39165981554707374 0.34212184283513936 0.015995934872363112
2.0013695129117446 0.39007326728950004 0.11405165604376875 0.01435567005694683
1.9397199494428394 0.40966197486938066 0.29733627346628827 0.01313954414680421
1.9602512786131905 0.3908062146736704 0.20593310672575507 0.011178692216051563
1.9330660590599926 0.4192640243540163 0.35173530567491845 0.016170629280930132
1.9356703893194989 0.4086054747047168 0.2651062586158096 0.012693046143115361
1.9786031131320554 0.39927142961917667 0.1014503860938941 0.01840729112495375
1.950835374108119 0.40686667921690695 0.2658078759769793 0.013703124277276806
1.9845261540555241 0.3916176001615401 0.2076306357322132 0.012430436377421614
1.970868697516926 0.3882364472918694 0.3576452789152576 0.024348876471846057
1.9949545243323574 0.3891418528130582 0.19578352619963574 0.019117463879783254
1.9743862663151186 0.39073070222563505 0.23937718293750143 0.016630192979163325
1.9780862077746537 0.38836009083074374 0.12550948327947295 0.018639022655794833
1.9567056087113863 0.39659177565301573 0.28341950798154925 0.013532597142127258
1.9062717332701904 0.42513829123953034 0.37667443676809176 0.026557875154473307
1.9600426922548249 0.39422802010200564 0.3093528341987197 0.01316061472238008
1.9543489976845125 0.4097027072003773 0.2422462149329629 0.013903375924030547
1.973044570993111 0.3922647285846896 0.13144344091093085 0.016505139880041087
1.9874398833140052 0.3963329955265003 0.342699816040729 0.017912199134371764
1.9599778085603143 0.4034547678887525 0.23160504223969045 0.0178769051412711
1.9524910538776417 0.4015109873687825 0.36455465222593925 0.01744815203595824
1.9491915183128485 0.4131675172821646 0.21889988458106116 0.019381178831547708
1.944906095494059 0.41220061261206814 0.38341589144511745 0.038093745526591505
1.9184477610480475 0.42097130376169983 0.33398856924614534 0.019121127992063145
1.9831988164926218 0.38294726072903457 0.2828621464088205 0.008601273268938933
1.9188091826320781 0.418913183744086 0.09323620310267777 0.012109614532515921
1.9233528878347523 0.4139419809448313 0.08428148437615499 0.012433794077111864
1.9450767750136775 0.4061505316120971 0.03999923563678881 0.013065155999758321
1.915911823620564 0.4193813585743657 0.1554734607890595 0.018665816103880517
1.938356765649935 0.4047404305250866 0.06734316318748612 0.00904104884946293
1.9116811257361594 0.41583835985838064 0.27727710453877163 0.018380309872864677
1.9122413062127714 0.41355769991164565 0.2958841850600674 0.017417117797464104
1.9328643670246215 0.410755986460267 0.07447684544870146 0.009779172480229463
1.914305272999771 0.41798617975445473 0.03966716344708359 0.012319189526157355
1.9312761505134677 0.4113147630547139 0.11040757595648948 0.016051351040850505
1.9631442920333992 0.395639007642089 0.03071519218737133 0.01024779692972461
1.9446598638830548 0.40521147751616154 0.09488143616705669 0.030443913014120447
1.916071702754528 0.41807146801439254 0.23886120827399904 0.012268603585436187
1.938842521745216 0.4170783213639164 0.1833305332381769 0.019744114194314138
1.9207745227823656 0.4075093683837387 0.019778130385467482 0.013144561940024968
1.900203748396086 0.42792191961073955 0.01759923084171541 0.021803694448749376
1.9324834697410898 0.41250816967945203 0.1744125456816699 0.023885896809002174
1.9002119049813018 0.4150506101288694 0.16679937122743785 0.018719124156648895
1.9200398971539578 0.4189242073570672 0.0626875317620606 0.01011629872240633
1.988138425196168 0.38887553394088964 0.0440866980998314 0.018828151400583873
1.9526033193984846 0.3976996676459258 0.15483313055488773 0.019270100576274533
1.9784717476418965 0.3909914341737939 0.06658512398458986 0.020172509528248294
1.931216077132097 0.4162215901955727 0.08887444459584773 0.009202333921096822
1.9111712966791292 0.41919914563462785 0.15867211127771494 0.022702859363211907
1.907106677348427 0.422174138659895 0.28545535346894296 0.019732820151354264
1.9145102335452198 0.42086376169926 0.21561541234665285 0.011818776766661076
1.9201233556850383 0.41261346272446137 0.30539472644131604 0.019456604357534973
1.9329475225851585 0.4110196933353268 0.25333952257383635 0.012519576523650702
1.9220613866420513 0.4182489850689134 0.20629986763285976 0.015125692706269785
1.9597083972379101 0.4013685725899865 0.13316492448552752 0.020898459382454
1.9620760403068178 0.4024064226235584 0.05139285152262403 0.01017407920224854
1.9199529863205027 0.42106899854128255 0.13184221493743586 0.008890042285326943
1.9531926372254107 0.39192892079653724 0.11784158248336636 0.011642751537467803
1.9074022632897094 0.4185070484567625 0.3637696803313323 0.030879063708563383
1.9473429120080503 0.39849161481189244 0.07619955116638033 0.007996044146967564
1.9107564469705831 0.4194153385423651 0.22322148088235028 0.012941098838971725
1.9112156661645845 0.4240215819711392 0.11530329859972067 0.009329273602170257
1.914680794035138 0.41770044809244933 0.07097131384298704 0.008408556274949049
1.9675932473308364 0.38875701395213147 0.0769684083994651 0.019691494642134193
1.9464293673144208 0.41338521247943166 0.17245122787500106 0.02373302243344967
1.9299932610456094 0.41425637077988875 0.20608246240708902 0.029875649908139176
1.9174653434268254 0.4177369992749995 0.048385071471676984 0.011130698129733059
1.9101543355742672 0.4247445102460332 0.3277630481928564 0.01869590694854987
1.9309814526749114 0.4121827107257195 0.21698479899433334 0.027748968399769237
1.9111073679436403 0.42692339157076914 0.253098602851192 0.011602952648640098
1.9302239955284264 0.4108453184550807 0.13850739478215934 0.018177654378111308
1.925366112358437 0.40797396052775226 0.16818185896030116 0.01944299143741495
1.9608137820869278 0.4013997183391528 0.09947172831865654 0.01922625063497659
1.9368788593118775 0.41190790166305113 0.16384004500016455 0.034580349495032206
1.9725360849992064 0.39599912738688586 0.019767885994328924 0.013911278297254113
1.9826309218698555 0.3965651635653727 0.04576391858237096 0.010036344936180457
1.9698132558628045 0.39614567060211786 0.09952683832345405 0.02613758712109472
1.9002355870338987 0.4251362153162907 0.14669950226617848 0.018690162085561228
1.9138779263578378 0.41252605044377827 0.18469776303224028 0.015131984695911364
1.8995122353558682 0.42222752853245077 0.11987385565674218 0.010701263728141727
1.8996681239343078 0.41863910739668286 0.03291158296752942 0.01812677836856756
1.9434263359243427 0.40993184234559876 0.137893248006661 0.019870822891754358
1.7697164928964895 0.4532926082499448 0.34144839832516277 0.020572627709612337
1.7914976099970477 0.45371313525324863 0.28354551750747636 0.013203973486915136
1.7624663166141945 0.45321999816763203 0.18861370831558005 0.0112667530723953
1.792157657527685 0.45168516282382143 0.23390557277244042 0.019099203157315246
1.794081975361733 0.45388665859366256 0.09282333826307798 0.01741098045906515
1.7861288171173453 0.4554293916318214 0.2098562812404406 0.02011725231193568
1.7806983517213837 0.44460280886598524 0.25911577154289 0.008021876603736485
1.7752899714315145 0.461270814656975 0.38397705294453655 0.024332323882746837
1.7935291169751353 0.4508475943727115 0.359852254797666 0.018591493709258344
1.7458950359773053 0.45799000919979205 0.36515575398443284 0.02040508358028572
1.75042448926542 0.45791698553517496 0.20508430428553448 0.015514056853782163
1.7554895203428822 0.45932435886062417 0.23163776383328877 0.006051555535582174
1.7670532268021049 0.4496389077467336 0.31381918318666707 0.0110625507177258
1.7422909310147021 0.45641320217081094 0.37859966292332303 0.023399023915362527
1.7681776819320505 0.4492631990258306 0.18377284630030882 0.010476109093010959
1.7417073717733462 0.4543025314150452 0.28292248075507803 0.019485740162002253
1.7696435547944713 0.44907457229162145 0.23558349788360092 0.010691703170043119
1.7899175707207367 0.4473794639247768 0.3529700541057778 0.020075269079670697
1.7682801273287811 0.4582040536514767 0.20182799722712913 0.014953932437655016
1.753352830087282 0.4489453143726265 0.25298802700794265 0.01618872592886121
1.801187809268301 0.44691621059387543 0.3476451790152914 0.022759357817485122
1.7666416237924156 0.4586197674076163 0.2909621291234689 0.019402400155479775
1.7874143388143167 0.4544375965777901 0.33190916905708356 0.018772365872036373
1.752829828260782 0.45126063972527103 0.3754438937109005 0.017121482012106892
1.7802653432107396 0.4502041630769563 0.1304416918620447 0.027151921359223376
1.7377348761459286 0.44846211167581884 0.3497624025930924 0.006920220116602069
1.7771620426044636 0.45665100762901156 0.2000299921197768 0.01545851961308189
1.7981126317361908 0.45391772961775395 0.1753111989300535 0.02028284532232043
1.7817362964648702 0.45167249600687776 0.07252789731865358 0.015727162043206237
1.7977288501461823 0.44087932606127245 0.3217867048674142 0.01988153847752926
1.7914977279739481 0.45528612132495955 0.12204091246677531 0.01932073679578218
1.704560316807774 0.46070716816030555 0.35223138353340216 0.008964981597320412
1.7779453487517143 0.4501633356963335 0.23905420522752685 0.027408358137139526
1.7695892662727568 0.4508550220407723 0.3507473644121185 0.016923486317221112
1.7772876884504514 0.45886410619352175 0.207330403009177 0.016783909757393512
1.7642887603110375 0.45819132979126526 0.36693881558298397 0.016951527578123685
1.757599233692309 0.4576355860712487 0.17615539522068765 0.010500633234070671
1.7914170403113954 0.4590185625924405 0.38359795951859577 0.027504464170912284
1.7463955892035445 0.4566037226923108 0.29841702918341373 0.010955759475839174
1.7887673937411173 0.44778945044264606 0.1768989230504488 0.019577910492759622
1.7345397093302741 0.45879023922581275 0.32723962260610406 0.011458158762930897
1.726619917544323 0.45926938363018804 0.3321457939126939 0.01332053629551314
1.7683176126135887 0.4551008755040881 0.3760577991166657 0.01958718835287375
1.7752524386542763 0.4576694406352923 0.2153043090781759 0.01976041234922702
1.8025441645252824 0.4514873311497203 0.27173967064032445 0.011451417926788502
1.7259815739405098 0.45741765150814506 0.259653776682484 0.0075885945980167634
1.7919243739145772 0.44784118464819134 0.07868216930047696 0.012924357333613943
1.7484341403052561 0.4611612985012472 0.305447574439449 0.008307875664144355
1.751031826761517 0.4553457453712656 0.3380548513791647 0.0120102848807019
1.77881590118568 0.45509296628315526 0.335131777667704 0.017709096668750524
1.7197186140763212 0.45850844981056366 0.35189960929492675 0.01216771783097457
1.7897386055655824 0.45768345961202095 0.36448214704970544 0.020844003705006886
1.785686003585751 0.45648570176943265 0.10833963969721928 0.01771514229288955
1.7516309396628922 0.44851714565087974 0.2708002916244101 0.009491792020632507
1.728118930159898 0.4551265589228825 0.31450973219365685 0.011317562099485227
1.787396619647657 0.4558097264567926 0.2849002248016051 0.015324356149613003
1.7858497455872795 0.4565494766223889 0.27008726218035406 0.009509323360908798
1.755244268770191 0.45162245307756566 0.36039468258699053 0.01761594128090674
1.770078843453435 0.4447157507494837 0.15900334281735531 0.010745886145857019
1.7859058106903078 0.4516267580466724 0.3020207752502089 0.014125730978123353
1.7406061195958893 0.4580784188672308 0.22641787685137607 0.016400551559122668
1.7285830576780896 0.4631305161019366 0.11539539643397126 0.01797841379105718
1.7426112270963625 0.45698028003210106 0.16064261116426404 0.015134868152153274
1.7027719144262754 0.4643968135892597 0.0194978785187734 0.01568234278544433
1.739521105966727 0.4652830073788439 0.06414953035956546 0.014192901898866071
1.7151331508325642 0.46859870022767425 0.058776123140799275 0.016867341100725
1.7588100484869376 0.45389538150715164 0.07018716235121175 0.013387467601859422
1.704262226175229 0.4664393020784904 0.23718212670238964 0.024633310544129115
1.715098085623456 0.45930937762812357 0.2706046539256911 0.02132818159159707
1.7195895558775822 0.4644535974301091 0.034556205083204825 0.020647443025934315
1.7304556000404123 0.4625419544279396 0.08153786659492697 0.017088320254987424
1.7461344878559495 0.460180211690703 0.07696862824719201 0.02078553295405518
1.731306753260713 0.459993903628798 0.05328223968909275 0.01929469965861733
1.7086382493080894 0.46046993961695126 0.11502592770019451 0.007821871327732509
1.7592297467714684 0.4537341574287923 0.03200244088202946 0.02669499743511542
1.7987295264137706 0.4533387120902124 0.015883574596475505 0.00847044756142721
1.717542017387911 0.4682135591946132 0.13843223722599535 0.01216602213744102
1.7445708892895508 0.456757638777554 0.16762358161942928 0.017663541752678553
1.7648520569551815 0.4475690912962388 0.12306471077100221 0.023899672146544697
1.7453239592405159 0.4480864371090058 0.01486080394483601 0.020606947346343836
1.7358556049219618 0.4564974270888297 0.17607672726230114 0.01511370366275016
1.7295200100482484 0.4540571021035058 0.2861853992365386 0.012748182491676785
1.7233628278828124 0.45434067845987264 0.20143726605090145 0.008796499094801107
1.7608333600289623 0.4478112190099055 0.05692765985716606 0.007951057014997123
1.7375225629430278 0.4626482483612508 0.13858632759012096 0.01813374256852035
1.7188336000666982 0.4639057756819621 0.15631553495334918 0.008525705140252329
1.728264444053933 0.46240568378115066 0.17857177326422666 0.008694961573834951
1.7362319108252313 0.4538788635335682 0.09469540367319314 0.01801585868980054
1.7271908286820883 0.46057434751787535 0.13257314260460454 0.02175095310698649
1.7836528569345005 0.4512449159670162 0.09498811622400535 0.019973623790551277
1.7545010081410009 0.46140817990621363 0.18976730276243783 0.013238954006051616
1.7069622806731513 0.45726849723654833 0.08662013333834925 0.013197930134736456
1.720805490256534 0.46622140786306954 0.1305215035545654 0.016475702544509904
1.7664033505589065 0.45284738015198694 0.03336173936847071 0.012583822488549562
1.7326891542840515 0.46007725887161893 0.18810818164036378 0.014005500259255444
1.733315595006046 0.46287143637955 0.1178668595144127 0.028022033101215222
1.7447141059187372 0.45971892568946365 0.21661065777356556 0.015010847267831941
1.7864534201057471 0.4462467119047292 0.06429325108043857 0.010079562015935082
1.7568816770846067 0.45255538117859817 0.10710401067668177 0.015108038668356277
1.700425338473552 0.46228555242414837 0.12674534723748587 0.009524348629184963
1.7507843300475867 0.46604640545314713 0.1261602535503027 0.009594806334109
1.7066255944929511 0.4568374091294618 0.2071103296792165 0.015903203552654135
1.7727771012636848 0.4515570029905602 0.016288699110547943 0.023115773536155508
1.717743301973354 0.46111161885335544 0.2508219114774592 0.028782689426095256
1.7310375206711421 0.45772862089464045 0.2657802066211987 0.006874097354191285
1.7084122439706253 0.46474381071441767 0.28540641662728483 0.01418179080817791
1.7022699933801184 0.46079282425574997 0.27304496549890817 0.01863401705830019
1.7038685779481462 0.46659071678650016 0.13250138442789167 0.013117189077796142
1.7520032815950537 0.4564801918850916 0.11252683943362794 0.018735273063473824
1.7296451950278309 0.4531017965099005 0.24473580721879304 0.004278487984507181
1.7821911944968882 0.44570128484844107 0.0326236783931486 0.006534769647954323
1.7610192354477996 0.4582792908376186 0.08736880590802325 0.020780898437290075
1.7478368921510963 0.4527163774928228 0.036396408896762655 0.022364657984107337
1.709182435743839 0.45836247086550835 0.3084582631051474 0.009772728081394531
1.7049295491922043 0.46714446977059293 0.05317247550295512 0.012923592605902624
1.7084831240652536 0.4570366942330997 0.18934146743867344 0.013986196159169751
1.7167384692119743 0.4554447203104173 0.32293836860697606 0.010198399880598556
1.7419841342632274 0.45180638375793575 0.045664829022683345 0.014216861257700672
1.702197977496193 0.45549052344658203 0.37970581756535227 0.009670464512923525
1.6987197729432248 0.46203960354615725 0.2915293614646418 0.01703090079533094
1.7284029722926042 0.46452334035345805 0.22262096290522695 0.011159891057628097
1.8739834076092363 0.43317297915873454 0.25686486217791393 0.015562765850999158
1.8691307235292722 0.43449191048376906 0.34973161075836523 0.032231098591339775
1.8713638350157735 0.43252536655641005 0.22345626998570806 0.016710070073212565
1.8317930006387675 0.43828673762696346 0.3828063613546325 0.02768927741261175
1.867804042766623 0.42884444174941094 0.14729180257584512 0.020615863474290088
1.8944431724406046 0.42737370851222056 0.1812912156840477 0.015790000068174603
1.8943121378303411 0.4251211989482268 0.22745773189325044 0.0187188769299398
1.8988835213189326 0.42114671745270443 0.0830572313746908 0.008091878253278725
1.8860424115244914 0.42394245261781854 0.2703344347428843 0.021270831186297585
1.8866596689442072 0.42966232214283656 0.3054858879412233 0.019262336285975255
1.8531345450518364 0.43094249890390907 0.39150204184294324 0.020076134875301334
1.886938166497336 0.4342286310564503 0.2876160976335736 0.01584170937034419
1.8788571208995166 0.4297460109777682 0.16048348709500249 0.013917545100955163
1.8665751968155844 0.4345757101792688 0.2844319832256019 0.020478809176289012
1.89230626336233 0.4171941444517745 0.21968036369133553 0.007520624282848974
1.8398509785745618 0.44090745813197757 0.3019929999991817 0.01715614978814229
1.8816981404642017 0.41810176218415585 0.1795145808942692 0.010798917009031935
1.8779214667642454 0.4302846444624332 0.3709953667542295 0.025972851957640927
1.8892633893313837 0.4317687861887814 0.09151922208705449 0.008326819843233623
1.8110164737386454 0.4424922841564608 0.3399736019142851 0.024791830332021737
1.8633868155143385 0.4300847787247152 0.30902990432965644 0.019324053787668674
1.8560108787709748 0.4295962969598056 0.292434618325015 0.012686803906210143
1.8676288701306034 0.4338916494249974 0.19834221556868206 0.01928010838766762
1.8865052842246213 0.43038460393378486 0.38596442423205274 0.01860322210734267
1.8934134214506217 0.4158295634479219 0.3575314186692607 0.008707396774768028
1.8977465207351971 0.4202572887659187 0.11113537092227543 0.009224011600454503
1.8935282437724392 0.42593743369214104 0.23585816322309724 0.01811453596419301
1.8783810396059952 0.4270977558840768 0.32154973972008477 0.01925743743036652
1.908054587260669 0.41908876651941174 0.3209533359778701 0.02338677479447302
1.8898276199069548 0.4187450964080112 0.26261503565424127 0.010963084971216475
1.870294866511094 0.42679587430052207 0.3217660236574018 0.015680020659995738
1.8428346075441915 0.44469994985585787 0.3226967761748938 0.017720957193500413
1.8811261472368692 0.4298121645434474 0.23816008470163927 0.01624962925325293
1.895141605557364 0.4206765983391832 0.3097700525242975 0.022444751993049423
1.854266247731463 0.4455072696322281 0.20387468941321335 0.007838421555085387
1.8688108440802762 0.4298102200342212 0.20637680532363245 0.01863291311204023
1.8914420060374466 0.4262726397441813 0.3957375415121707 0.02393556572587533
1.838112196368364 0.43466711978812994 0.34749262430863365 0.0351015556745689
1.8593004899718053 0.437898004176906 0.25331382172746825 0.015615392840883592
1.8529185658815563 0.4339055511259466 0.23414781095731008 0.01671827372635462
1.8847464110223415 0.4291607694687729 0.12550987158629975 0.01598524975731001
1.897687263935603 0.42967874381971466 0.3707415486728852 0.020144162558506287
1.8631171863890912 0.43903352352751596 0.3219011593369826 0.018257242047849676
1.8272232500858225 0.4331306462187137 0.33587209549564867 0.03213807867188405
1.8407449181410498 0.4368665698199596 0.34072142968925717 0.029777289898947998
1.8713473491156012 0.4316544075637753 0.3445206051689244 0.03617854781338354
1.8784825727883656 0.4236854092187477 0.21674317640949298 0.01949586486398818
1.8489895770050995 0.44044163383931284 0.22522444593445012 0.01912477846851245
1.8505313954883216 0.43660304131602695 0.30708891087085494 0.01786738490431667
1.880025589727298 0.43254757179878006 0.26925970782964026 0.0193070681912024
1.8560800322560462 0.4336966366723072 0.2390827615974226 0.014447542251813038
1.8267245378103052 0.44453024481424563 0.2760440396563389 0.007768471759088007
1.8112435531631597 0.4504724778355927 0.36738270211251006 0.012915031717946612
1.8936564177605684 0.42658072306326633 0.19111002367167204 0.017824702674693983
1.8791344492288904 0.4333750642472161 0.2842160130605464 0.016586302167266177
1.8306835909375798 0.44335259599349974 0.388618875321118 0.03517929813484368
1.8751239302908742 0.43173541747835265 0.18824073171053393 0.02315461518254208
1.8884516301124485 0.4323754576255177 0.13738834684915302 0.011479177769179399
1.8544669040733275 0.43385670254090125 0.27687457907089236 0.014418696806864705
1.8299734803525767 0.4379662178707859 0.3515929679791962 0.03182893783808089
1.8495894143882508 0.42342541395003497 0.3654806317185739 0.007901307281550028
1.8613813765226033 0.432962139566676 0.16333481339554598 0.017648176610188943
1.846129478399848 0.4355970722679009 0.0690931482649646 0.006524325175949504
1.8348165201216098 0.43865042436763574 0.20549142600825418 0.026127240556484514
1.8866423034039155 0.4305600120406884 0.07161590879177733 0.012088282380446158
1.8471249835406098 0.43326821961857276 0.06775053887869945 0.005083035145389187
1.8087430071278605 0.43966232612558204 0.2204456553104629 0.011104954322307205
1.7998816678589233 0.44612829445054003 0.07833182327985559 0.02336780419990383
1.8073510684074208 0.4513121174118254 0.20140846111378075 0.014504600251252572
1.8851385614356355 0.4335462647752083 0.05536350543281754 0.01195185717644995
1.82363003450986 0.4416531331495001 0.2205673087274748 0.022155074186994323
1.8391536254540313 0.43954225031003175 0.046663357523600554 0.012017838050603264
1.8493602140366645 0.4418383688830246 0.1431275295887682 0.015025713012894132
1.8473955145371368 0.4291746513593726 0.11599978068493717 0.014642830309893308
1.8225779764221328 0.4462818205749101 0.27934029344787953 0.008994846363404372
1.8262914961766175 0.4378856938805007 0.04568082767341945 0.013710314214126594
1.815428851792083 0.45248026202381636 0.18130111672086158 0.02656062842154162
1.8303929838645299 0.43557131196362237 0.15755879834741415 0.025739767978990028
1.8257450693111799 0.44340712090259754 0.07265183542069664 0.013748012670958218
1.8079769232417204 0.4523657984390313 0.09432447910271731 0.016664282954898073
1.7995099599204245 0.4491018184337954 0.3108986631473432 0.012000850950523233
1.8698880496413606 0.4353410175973874 0.0824586072817943 0.012233101348500378
1.815797776320614 0.44814667374091377 0.04475688186212386 0.01395760693018376
1.831682723194473 0.4432443302438042 0.18125464445420103 0.032134418178589544
1.8249053651315588 0.44401088343277595 0.2606975309853411 0.009144673477048091
1.8649696696427902 0.43642024325442696 0.1250403428461707 0.013545292751473967
1.815159745042661 0.44150320636145035 0.11928600497411518 0.018558975164204138
1.866861795778351 0.43636243576286937 0.09096676775960826 0.014244807750934662
1.8382523257348267 0.43314971477282976 0.2530822191087631 0.0058673236903363166
1.8105423997093397 0.4512884153263311 0.2369162307025574 0.019548332944939916
1.7988661291549628 0.44173768255756674 0.14335227911685894 0.03652595358589967
1.8379822412627607 0.44144064844002623 0.13135391705766677 0.022369048874592568
1.8134170175770719 0.45239436803085614 0.36294643272723776 0.010378844079692676
1.8315801722565777 0.4486399743377046 0.285951326259947 0.006746685939453825
1.8294677879478702 0.43478127267583816 0.17183971040672952 0.022163694743511035
1.8744858426616842 0.43071449980585735 0.018401135407496074 0.023269258767563868
1.8324042678874914 0.4359420864634495 0.09028722309970426 0.01572084379271256
1.8185533616407588 0.4531196323611231 0.17315305412876852 0.018113064397722724
1.8685840354246939 0.4340671333290067 0.038527399911548986 0.015124923011350412
1.8188021360924513 0.4484380313567046 0.27487057640361584 0.007131731509417757
1.8208707477027848 0.4489156153326015 0.1290601669192786 0.02444407208688402
1.817974375995045 0.44430236280327734 0.030850153976909354 0.027007421567998204
1.8478667531521091 0.43479148600638456 0.17889508380960617 0.027107928098690035
1.8189828515464133 0.43875525318098274 0.10758400389186422 0.012832736951805153
1.8169023683322094 0.44812079691137724 0.31149778738695477 0.012121723070296709
1.8381359686098009 0.43773151431842616 0.1072735053528919 0.01967694243281205
1.851934518306319 0.4378838236335084 0.053493026052001756 0.008013451342519568
1.8010566814346887 0.4508809200888071 0.24976628161039688 0.011299762782433154
1.8530624122935058 0.4351861784944726 0.17542272536324072 0.02886407442721357
1.8404135512192994 0.43621957456753035 0.19589982963146452 0.023347024185711798
1.8137693185418167 0.44271672657032135 0.15285039476106482 0.033878330806488506
1.8170394919555646 0.44711717530242034 0.25507803299692045 0.016607068897345523
1.87139598532422 0.42714053649068684 0.10543633904168913 0.018182410735667728
1.8571359758694412 0.43738260523673095 0.16241139829662699 0.01790013176914943
1.8703562942513652 0.43260969069478994 0.046904953640469725 0.014693593498580279
1.8034251337732978 0.4473255651365733 0.3778571446830047 0.02209079608394197
1.8581550690058475 0.4379181682379747 0.07976750067862616 0.007407183661519583
1.809739635082009 0.45267723603610566 0.30027148175435864 0.010347393170622934
1.860178411659898 0.43882300196970137 0.0450831744798992 0.004815596340797112
1.7964140254500127 0.4436969125099212 0.15079869908520838 0.037006967846415745
1.811427681196569 0.45225167696337304 0.05594767759238707 0.009072819935316912
1.8856783857018686 0.4352292075973113 0.029476307958338367 0.0182204910188907
1.8907677525852107 0.4341229523056976 0.046081336758330815 0.010174591734832199
1.8158870940653522 0.4402099027199479 0.20227939292155567 0.02810283645289467
1.8742615320751843 0.43231283364679224 0.04474020874016437 0.012688351134855088
1.8261522996597028 0.4468336575998553 0.28485891850620676 0.009416783101797088
1.845995275774351 0.43783131812893117 0.02822573934169511 0.011152882393417178
1.8233714442025568 0.4426870188348924 0.23439980984147096 0.015171235305180065
1.6363745929184175 0.4645218096610185 0.2618247004044847 0.01638709049500539
1.6237634334104758 0.4597925903902598 0.31471898767105216 0.018215802547038064
1.6559890011823417 0.4621217662841362 0.34924542893746524 0.005629789832273257
1.685020616658871 0.46131644269292876 0.19668636977348922 0.014246831694321277
1.644669770184219 0.465515830572679 0.29369811161367626 0.01810740768274216
1.672991380777711 0.46054578040042876 0.36783222119945064 0.015529058692288537
1.6236855384695033 0.45837673997918255 0.2976426635281175 0.012192188109873684
1.6409568611604797 0.4667285717505882 0.3117282327515097 0.01281938488244589
1.691919304913952 0.46288333994270836 0.23499252963411224 0.023119145898347637
1.6521703833260086 0.4606836891508732 0.25866062564111075 0.015393478576566871
1.6800386807796241 0.4643632104594904 0.1336694498732684 0.01613391078106537
1.7016083202775294 0.46513054787827246 0.25337487320051993 0.031371568017328016
1.6757665889376252 0.45957215786417366 0.38136138702168576 0.01972660854275484
1.635976172594623 0.47053403863174237 0.3164959204706255 0.019202000202077615
1.683238449446613 0.46476285175608534 0.11965198996980889 0.016144259414641007
1.6547547479025873 0.4680167487277065 0.3668860023216939 0.013028797581837948
1.629386751855578 0.47133091211369604 0.3397702706142777 0.012766197823012476
1.6939538568522174 0.45680157649176073 0.11423253637581411 0.007605663746015651
1.679634351156039 0.4625049099882555 0.32280092699398655 0.008003643875252434
1.6665925861816169 0.46651582110636514 0.3076458975388125 0.012588371739292909
1.6736771467721852 0.46261083506319345 0.3395877838009234 0.009734298633603734
1.692856033208962 0.4604518135713735 0.15766627658787113 0.006635229520602417
1.6718496443400641 0.46639942975812326 0.2941330508177199 0.013964995595690225
1.633211092047622 0.469306641869772 0.36458399929092977 0.020121759853619477
1.675301209616591 0.4608354106258182 0.2023585391403366 0.014379443568316693
1.644352090053763 0.4566165853797472 0.23801235569653026 0.006486873802645084
1.6682242525932363 0.4630562943904725 0.37903687337811753 0.018104314315596476
1.6490486349645443 0.4687321163206297 0.36736007285325223 0.01845854034134856
1.677438300346331 0.46682674495973964 0.1789032896189284 0.005213504781003363
1.68590445433825 0.46023282126788706 0.0929468831809344 0.012037836845342995
1.6869674341520893 0.45561556040498447 0.3497737957482858 0.006657285080062581
1.6989611692894435 0.457631745898722 0.20473785963434676 0.02047841953946767
1.6768816771302204 0.46138322624541583 0.09942866189671337 0.011184367344849606
1.6842070128578055 0.45816556244661316 0.17395982398821874 0.008703240735342148
1.689005610708159 0.4699202845014105 0.24574814640575315 0.0308890748137446
1.6913581943488036 0.45853147971470487 0.35443295393354646 0.00781447641674314
1.6518515475100106 0.4602651330747662 0.22420922491110823 0.01645949658526071
1.6925165845529055 0.45534840613640054 0.2131222494180189 0.03282177551793779
1.6178932761537754 0.46151405915793287 0.3845365117182421 0.011767933144044321
1.634721793912852 0.46669187571455467 0.2902877302058475 0.01721553208127608
1.6519941775707234 0.4589435842920219 0.27630783699083145 0.018501136781594506
1.6983157913488485 0.46395370400038866 0.07557883889055464 0.014040953993090572
1.6908218358221336 0.4598690644829832 0.32625834160983314 0.007826452541048096
1.6194711256707435 0.47144151766387393 0.3334283138998767 0.01268598660928517
1.6148525391108521 0.4651294299635328 0.37116388321066285 0.019841389826723257
1.660925294286487 0.46218140080452896 0.3074942916734661 0.019575846190390225
1.6572850605078655 0.46997216260412356 0.32737822716250353 0.015078616695400207
1.6256842330028092 0.4640445048255419 0.36958692319299724 0.020747904689201794
1.6267809206961303 0.46414924966396454 0.2682951301996459 0.012771322347909326
1.644261515915945 0.46951429954068047 0.329871029917606 0.013454806774484044
1.6677899917216363 0.4619785095223747 0.21509379784973734 0.024024919108531606
1.6893132607463988 0.46309476024458646 0.1935497436516876 0.00856250332148843
1.679383493546137 0.46135138237570805 0.23527976484192276 0.02191627613231085
1.6738098310519267 0.4551926013479756 0.22822118776473593 0.01765820158837818
1.6643394266257796 0.4661028835551521 0.2557422929700318 0.02376318479760938
1.6801963634382304 0.45261867020286856 0.27831824211057155 0.01096053127405398
1.6035391172170574 0.4705243931462466 0.38627980699542036 0.022983351525820598
1.6528348815122058 0.46467427532004774 0.3791254254661372 0.015953666912177762
1.6862652579177162 0.45155340375540676 0.22973963148104332 0.01601215295286995
1.6952735083273653 0.4661255489340695 0.3123634535409303 0.015345723324850888
1.6509335799274312 0.46855333751501554 0.1346742453133966 0.008040736052786664
1.6889339974341004 0.4627659880621118 0.3848030252798269 0.017438244400611178
1.6070958163861908 0.46549409099574757 0.32398266976098383 0.028009920560992135
1.5984143465974028 0.4600052784863561 0.15114304178818969 0.019004570272790667
1.598279528157687 0.4562404129534206 0.3521407634128635 0.014352659621678369
1.635967913689528 0.46481089413841314 0.23001752211027257 0.0071861829022084895
1.6047884483390156 0.466443952852135 0.27182995973791396 0.01576960105926535
1.6253517508663504 0.46517212407117253 0.0530810917842369 0.012422903709821397
1.6664443519681282 0.45893533982510476 0.09552917756626035 0.01369837015210343
1.6724136430775327 0.4556260187785382 0.06648474953662425 0.011064071658725683
1.6301184001877458 0.45858563750144593 0.25607051362386857 0.008908576296397977
1.672838250985234 0.4566006940979003 0.06780567895145811 0.013356276064997544
1.6344615812530365 0.46480315022638125 0.08365968898435899 0.010072684442778779
1.6130093015222853 0.4679635836295615 0.26374833491696753 0.01163322642082561
1.6125882171892785 0.4644499332768845 0.06551081659876423 0.012288252067341415
1.6139599999127177 0.4633964636869166 0.11873426431376782 0.02239760811392086
1.6846967869339156 0.4691494506378429 0.03129587741811708 0.013159006766080148
1.6057914997033587 0.4641597771415206 0.3469413843156333 0.019821678991163154
1.6603857332828287 0.46446326704773266 0.10965551549211876 0.014009602635672762
1.6093617503741353 0.4640633527141739 0.15377378040600037 0.014584890997946994
1.6327358436916866 0.4588115041363626 0.17837236239044768 0.007242825150797674
1.6544692884766312 0.45987922695235345 0.08157669241329618 0.019943684947100773
1.62415573896169 0.46409189362159664 0.11742466846705456 0.015825408208261102
1.6475038332351393 0.4583306680384869 0.17832600470960078 0.007969031286516293
1.6257882717502716 0.45715021832027397 0.08504400718680528 0.012874955368532316
1.600319185724976 0.4543895465544837 0.12842161250048587 0.010603602736448002
1.6081943579643747 0.46367097144315267 0.24696765144614014 0.008513122285495466
1.6417728005664671 0.46467462489375977 0.15760290050011286 0.003767480158074858
1.6272496238278904 0.4647617218621233 0.15679232742458457 0.008514754939389343
1.6234893966950408 0.45664348710095354 0.10670786763086995 0.014552994050469966
1.6504934027614468 0.4590849451630381 0.20261152930233844 0.011214224021588443
1.6406515667831967 0.46605656490034064 0.03397674201255465 0.009884586368136362
1.6654900076180734 0.45869953738182234 0.08143722275268966 0.015601325480355921
1.5974674808645877 0.46287008911134087 0.31410273802487937 0.026947992858807217
1.6630872281476616 0.46215773538724697 0.021816479810632065 0.00625835567047067
1.6126376709183627 0.45819214420840065 0.1853727272870541 0.01332756203472905
1.615834175636718 0.4682886047890082 0.05616968511218304 0.011596141386639397
1.625985316043964 0.4616983549253192 0.30741243404329616 0.018514060016509185
1.6129764138802714 0.46376668177391717 0.23347933228377354 0.015144686101394649
1.6296426253351592 0.46888909370016274 0.03126247340051854 0.012394368142134168
1.6502362997150894 0.467186937733631 0.0631946974119191 0.008730539400494234
1.609919178532862 0.4630884928218002 0.09740078821314403 0.022271620357149836
1.6513482941839133 0.46400419947166527 0.0557071133171809 0.00783332051103329
1.6435557602074353 0.4662972929518398 0.10146204967924372 0.014640210984996837
1.6419858057931038 0.46697553826500293 0.04681952322716349 0.008458080469533773
1.6598365451618204 0.4716553058220421 0.1275893588898977 0.010112260228319118
1.6785920378256658 0.46230111210503566 0.044956919524412636 0.012610712077137444
1.6974351831840293 0.4678753570560344 0.028754379544398086 0.011322803193841732
1.638546946277514 0.4626778370396637 0.20758580633209733 0.008951853940070186
1.598644051297151 0.4613154700597368 0.22298528530563555 0.01962456461467423
1.645109452947701 0.4662626788514947 0.14105599204617852 0.008267669832686217
1.60963039209375 0.4704039692162558 0.27902540388477065 0.013207184887709509
1.5964643309878488 0.4627580798565302 0.3599094417704795 0.017821630269848874
1.6479426823922212 0.468563675071294 0.12314553975064234 0.012582572299232058
1.6208942669165807 0.46615897137800966 0.1355766544023481 0.01898115799405757
1.6099475166462538 0.46568081412128104 0.07783233333666324 0.014749097084813794
1.623736405738509 0.4605292510080352 0.21038612484505867 0.009270259600334124
1.662915340182924 0.4604030320894487 0.15334138538952466 0.009083966528779932
1.6570530174490063 0.46082799026812654 0.1566723140766079 0.009851238412886622
1.607498658861214 0.462651668736067 0.23267551091757402 0.015908387041867193
1.6101897463641013 0.4656347320717026 0.13851204711477405 0.020059554165530524
1.692756570590963 0.46310063398992674 0.06306491630841853 0.013126259630301092
1.6705404897998846 0.4651462609981403 0.10300881430742076 0.009465144486287986
1.6285161889271207 0.46284253874421327 0.05012659436861668 0.012170558762079816
1.6121514430532564 0.46573418434849173 0.19249056317064125 0.01348543320349038
1.607496649860377 0.4622332667464606 0.03537726404727855 0.01402793976701245
2.4760686214789693 0.0031299226422500863 0.2790455843327586 0.016815666563567686
2.4743823942925425 0.004885409647551572 0.3551364992230956 0.01720343247008798
2.461431564931886 0.0005600075348086897 0.3520228554318341 0.012104579663181602
2.4824873438447725 0.0003078572533088903 0.30956554355167065 0.01316921516787566
2.478762211713442 0.008209238622067332 0.28558139043942504 0.009658532265579325
2.476115542162249 0.007793542861398219 0.3813310243530465 0.033807559013164866
2.4812732958868553 0.0028109809691188865 0.3661668946984973 0.011856690304178083
2.49535302232426 0.00918585646204333 0.231801313966721 0.00971208562355266
2.4721083676009727 -0.0026372639452109303 0.24330409233584657 0.014325248698118468
2.4645995546816786 0.008580801993454349 0.35926206776322933 0.007431176226835565
2.472545832898335 0.005405286079255961 0.15123421924998662 0.00695717212936469
2.4725730251015428 0.0038369031377257137 0.3307730434442774 0.02185802822771286
2.480468301426151 0.0057930517763995545 0.06892043127994125 0.011252721165506036
2.4698578785529866 0.002737341913280179 0.3042686465124443 0.014017246971854271
2.4787464876257466 0.0023054672459442713 0.09633910869755602 0.01768968641149316
2.472253722563284 -0.0017965519846362605 0.2317259203869413 0.011535593527296951
2.4639171435539735 0.003950642172481764 0.2657812874013205 0.023539527862306606
2.4651149434428716 0.0004871876641082144 0.18682574240769503 0.007217087671744889
2.4689430445201648 0.0012668586994242107 0.19927481207463252 0.008717919331991711
2.467502953226452 0.004383446940250932 0.17324668323667392 0.008414989441185764
2.4640025404463075 -0.010596528460873713 0.10708693687973375 0.009098508767544481
2.4559696405377043 0.0024116602213979698 0.08732599281774078 0.031220584907552803
2.4545424056553173 -0.0036663215183610287 0.22295645489134303 0.01651480014455158
2.46790529658181 0.0016337244747394917 0.06192172478880248 0.019516436593409518
2.458465331560015 0.002888823103992937 0.1142701322797243 0.0196373016341748
2.4533708439931012 -0.006583777067330169 0.04794240779380716 0.023549708297900006
2.4529399768683344 0.0003975696722443569 0.15615607597974612 0.0143272724589557
2.4686581892000974 -0.0008781086678226789 0.050148788165122186 0.0223471785539081
2.462037618420728 0.0017455128956102826 0.241853108669063 0.014518364055237359
2.4567056449419495 -0.00016656548368625983 0.17657259408302645 0.013003554593565926
2.428168068728317 0.002628881276550219 0.3874086055304394 0.034070800093365605
2.435359957596711 -0.0026420031439585868 0.2178181369355175 0.018088566805348965
2.4357042356116265 0.004716062348428853 0.37897308663574625 0.02246079147949845
2.4456612178109216 -0.0008722988076508494 0.11740746787926955 0.01579061340508835
2.452381813794775 0.00023782231746321078 0.3897862836873546 0.03493536081075553
2.429495130543167 -0.0014618590002129254 0.3048781701034378 0.008527961584459611
2.432673304374502 0.0005367121803796151 0.3233825432073005 0.01052878401602418
2.4429112278576257 -0.0018284483544979777 0.36202907121883315 0.017697911722331545
2.4461267596918415 -0.005618266860821162 0.26317736002435976 0.013895502122030928
2.448875491634445 -0.0036167136261462773 0.1418768803733159 0.01592562149373277
2.4577755637661194 -0.003931743643875633 0.31710621436071373 0.009212716125276509
2.439879445023176 0.004309446862339325 0.32955809441328143 0.01734757904827289
2.4595730449509587 -0.00340447818678923 0.28978822924424763 0.01519144903155453
2.4560879405048146 0.00034368966186405553 0.25070704923153875 0.013738391444700609
2.4532788582086136 -0.006076263638112924 0.20650669920196582 0.009181647546179663
2.4487947272204464 -0.0005663766261179688 0.33829627850831373 0.01185736187952956
2.434701699786915 0.0012461082929891777 0.3699395422453557 0.01989393479747096
2.435345445157671 -0.006944969945256066 0.23074732972888787 0.012504969986968635
2.4469162970612843 -0.002263785189889558 0.13716520216498568 0.016971840042961664
2.440199072613272 -0.0023007614917202163 0.17272141006621802 0.010322641967176867
2.441095524579585 0.0004614109767940456 0.16573932273870814 0.016506269391897685
2.4368518612975927 0.0011118753551388947 0.2526073019003744 0.019591622360122168
2.4229412599375455 0.0028556509314788996 0.2047430477645344 0.013123916898044211
2.4364757788302507 0.002766561571313452 0.04303378255658534 0.029581575610941196
2.4397444138270323 0.001695839870692456 0.08437777683491103 0.01956886463157827
2.4415488077166194 -0.0035216015609252933 0.21243873848347425 0.019417269288797463
2.445654792320021 0.0004612675167484661 0.13467353656375605 0.017623025277379474
2.4403975027968565 0.005563556050477078 0.1513271753115202 0.017042687298518912
2.4268522615281873 -0.00026900977236513253 0.2018898431529385 0.01345719550159246
2.444142265467025 0.001239700318147632 0.10692489399569521 0.029360995783353168
2.4451265660642068 0.00440214345855878 0.27917232035824774 0.01613004681853723
2.4506537179406767 -0.005652740887639868 0.07664681821725458 0.03119413175823805
2.433036227773931 -0.00012317853933515926 0.2675419808668846 0.022075529423673752
2.4444313154707107 -0.008267157650522463 0.04831251480412871 0.020452318821828956
2.440920509403406 -0.0084913081806855 0.06913832004499666 0.019419182458369006
2.49862227899889 0.015208202308413677 0.09116583025697245 0.00924030853026633
2.5077327144704764 0.01707953248145588 0.2827256528428146 0.012198521917839879
2.4878191414683477 0.003100708409840368 0.07559065258970536 0.013591986984138823
2.5118652161888666 0.018284483883875685 0.041281428589710886 0.003008972929062435
2.50202954074209 0.00497375856320764 0.17072826689628587 0.014622764929914862
2.491704681146361 0.004560431290952677 0.1559896364569709 0.012854178718755967
2.4985595223262833 0.016587567326159798 0.25523825121634525 0.010027219468342957
2.5065780076440394 0.00834996949087118 0.06513865047528004 0.009279815530259227
2.509452741257797 0.008715226644681873 0.18185583539041147 0.008875952182798224
2.5050635044573117 0.00945936060532752 0.1176389812597868 0.00872820881071102
2.484034029022195 -0.004253341416633744 0.19036825625988438 0.004295138709763554
2.483238688125858 0.0023964411271663487 0.31850581617753077 0.016196427983974717
2.4899263569457766 0.0016975165422545646 0.20590142752186846 0.017344355874576445
2.494725257173644 0.0003181088231893822 0.3302768830195641 0.006436695444607895
2.488402737034494 0.006262291739518422 0.14246781833822195 0.011029588872091654
2.502803930098398 0.009175584160072412 0.3698280278818613 0.020493527651381165
2.496035301864409 0.00912896819839756 0.2986311331002191 0.007373846315787289
2.4919699443968133 0.007577406881435573 0.3640719040750722 0.01790993284758248
2.478933238492548 0.006780397805245697 0.26273005607757494 0.014798302791473447
2.4872629468059504 0.00400575463004654 0.20335742185450714 0.01878680392381187
2.485285029868583 0.0001457613616517089 0.05910016430968577 0.007731633226077322
2.487241350690416 0.008159142379657508 0.1317999693999673 0.020107198321816348
2.5008623378526518 0.012473625018818931 0.38771338807477346 0.023183434277496726
2.4943587011544177 0.015717204419755642 0.2430139554243703 0.011272767143217153
2.4801442053994855 0.002071417505239819 0.10926441214847399 0.022503802293117856
2.4100441326901185 0.009707334922364672 0.10689919799433112 0.007727706756029379
2.395591905821314 0.008657489144625682 0.06469529456065946 0.016172525117657793
2.401221723768667 0.0021737729051317257 0.17682708457462093 0.01180165471005245
2.387398046103702 0.02252957351713634 0.32853907458651926 0.012729733249967092
2.3930840669789633 0.006354224051364087 0.135853676814554 0.01738502147299152
2.395768453754082 0.0167973035866476 0.29774331410495497 0.0165242454959038
2.394444815515694 0.013367586205563872 0.37839174512559964 0.01658591446576242
2.396429672557545 0.01575471540225558 0.25534542709826735 0.016402658958215556
2.38597573834538 0.023561824747946672 0.3740215336824204 0.0099792736040249
2.3994330395284 0.01971676929666938 0.3549968424657541 0.013981875578289506
2.390299288799893 0.02013883473830761 0.24098193149569774 0.015932729411971554
2.400071596383413 0.009074543150609675 0.22940670607754815 0.009128624996483753
2.3940830308487997 0.014673872558597048 0.2703566336604054 0.016087798172876713
2.391793154613503 0.013424809433628662 0.18879016021263179 0.021162756011464827
2.4078311626956324 0.012032656492770926 0.19493287532632125 0.027853850252824986
2.406403585486136 0.010860965573374504 0.24471085957016292 0.018512911945351804
2.3986685187473227 0.006599948776726481 0.29590221884380774 0.010855636148815063
2.3977008010386456 0.01665441136591484 0.33947802546979466 0.010907519550940012
2.3844070828252426 0.022812331728163913 0.3526509353878412 0.009656929107263634
2.397705374804776 0.016755007558099368 0.3887498915463052 0.019462790604554435
2.3872945274198907 0.028100598974676757 0.17100005807792273 0.016778090577088046
2.3850320375808747 0.030862612871865442 0.232873440965105 0.017128632345499033
2.4055822247631222 0.012477613116430211 0.04717635788319459 0.01683524439748461
2.3838339821500276 0.016314617829386174 0.03592092168692391 0.04183217380118579
2.3869971679519346 0.03078128670272825 0.19273082868370195 0.01787419302251361
2.3815738132337945 0.028686881876577378 0.2929916578902188 0.016894243254082217
2.401810878304126 0.014424422050681163 0.18900634407503017 0.02572354259946571
2.382075309342133 0.01849831025124331 0.269764604300387 0.012974647195694149
2.389446905219111 0.01269628168890257 0.07612607357778915 0.021124068717114065
2.384942472519615 0.017334842119941688 0.1146601784120044 0.026518111041387
2.3854270648945803 0.019538169990446268 0.05220702448849256 0.032206732283423176
2.3883789404608136 0.01608450631909412 0.2122707039149719 0.014175781382101852
2.3795820510457824 0.017492677341096784 0.090849946311013 0.026057040086512585
2.393671868796184 0.010160299101480497 0.02531907326612518 0.02198802082110472
2.399644198781638 0.01626955676872241 0.03223068687812628 0.03029232043703066
2.3968416942220796 0.015288217977636616 0.09674637069813918 0.03618686411525446
2.3645937594544106 0.039930245689032626 0.0745733349690764 0.013968236320577632
2.3748501704001774 0.03782455807450927 0.1422993241967416 0.013586930335965362
2.370815498722751 0.03882462005292384 0.1878927110048658 0.010352251324289224
2.363695245259235 0.04410076081972036 0.2094302335995766 0.012097686961054243
2.380507807996982 0.0278652228008891 0.2149335120951983 0.013181108348623698
2.368118068596898 0.041813526961473196 0.16622605283260586 0.009937710596044159
2.37470848859145 0.030879230524836168 0.09990095962634468 0.017830134459260315
2.3697386085065073 0.03818975517505496 0.04182558913647212 0.017553104644792882
2.382386449987569 0.0254001450045842 0.03335713654692268 0.0475305100843459
2.3683100568712585 0.03701178986359269 0.2995797237870661 0.015154326616296843
2.370741502672591 0.03666674235251998 0.2572094935495635 0.010724200856489419
2.3760303031350034 0.02753311604446646 0.04913316809574633 0.01978343898760782
2.3656671667113542 0.046526262757277774 0.12435450868164721 0.008897281975501176
2.365815102629069 0.0434693700670774 0.1531532334573717 0.012653986730940786
2.374303114887653 0.042726579822863646 0.19470669807838423 0.00918813418426474
2.3734377538285445 0.041863160281517035 0.10674267347871504 0.012651743463197184
2.3774062755519023 0.03864754754564907 0.12706734850029067 0.010512199694116243
2.3795494165964253 0.021291475543346042 0.07574131381628936 0.023279389260630896
2.368869899837865 0.032768183003918025 0.3312383144910991 0.007600474265940447
2.3840259719799675 0.03498376128824254 0.3755825310420644 0.013093616898033065
2.377334504161713 0.03563984879856638 0.22251033192840727 0.009135134747172063
