x y z curv
0.3093222361946302 0.5358255305119927 0.5682478940078872 0.01488274798992594
0.2970928014463376 0.5370328743091022 0.510565510457276 0.01531893200838989
0.38002346430013706 0.5375389426554658 0.621495438939433 0.013029659903207692
0.27383889031383657 0.5325323993673645 0.5304288068743851 0.01868955610569002
0.3603194765293601 0.5354181963321323 0.5390003890481395 0.008483633308730367
0.16780351044193673 0.5433874596306811 0.47053141060710213 0.015939049249526212
0.3291303918094187 0.541673143159578 0.5304061443343395 0.010010765904264685
0.4456148684563889 0.5381213948233454 0.6574614841390154 0.00905190187256708
0.346429413240403 0.5352255716200492 0.5276365293680381 0.010527187231373256
0.32319800115041025 0.536518707828173 0.5759892678693468 0.012629404285673025
0.3559553213407877 0.5369881805044816 0.5655804688499656 0.0075807971236976504
0.4107214358225402 0.5336227064574642 0.6017257871836534 0.009603801501889032
0.44016489838156714 0.5333700253926086 0.6370167711211899 0.013300336639839325
0.20311093548847628 0.5412226893736749 0.4452435657168666 0.012667456634887242
0.4027692343830211 0.5408564594913565 0.6226183728027108 0.015170073843068543
0.19151216685964048 0.5431477302001979 0.45588764691898 0.008397199177643058
0.28372147536498993 0.5390255484397563 0.4833393697403782 0.006956512241801912
0.3509691944047242 0.5344322671292784 0.5528051958827817 0.007272617514288482
0.4469203628798353 0.5371507807002001 0.6808691777228253 0.004209429194058372
0.28029953152934695 0.5307042414380978 0.4454141173402608 0.00762048891256015
0.3194087906369521 0.5405453181822956 0.534834547350854 0.01155826969272728
0.3831489981564848 0.534344623745963 0.5817397320552892 0.012226075582349168
0.2297654076063457 0.5394372764823903 0.44525300565116727 0.004671293256224586
0.2654389578956922 0.5371250559468111 0.4417719693889089 0.0020270532945851653
0.2481695210991176 0.5360457725438782 0.436492499157025 0.00352220592416469
0.3975785170017007 0.5319182103036112 0.6388788272209918 0.010816972668176876
0.31003884571292717 0.5376107496093279 0.507611909685839 0.021193286319107083
0.4005362908699054 0.5382409031682391 0.6416056155679988 0.01553506466313335
0.21832307835723563 0.5418883004836957 0.4586697479553056 0.005089035706447393
0.4153462524873422 0.5371417524418581 0.6352267854924084 0.017263903576774844
0.28693614689569463 0.541768000429011 0.49636546058992803 0.00446628416235311
0.23240089709291714 0.5392506035897167 0.4849941840426807 0.012717798954691415
0.3445908902675388 0.5400616309289009 0.49717089069402565 0.013506363792266758
0.3236227492864248 0.5292869412189614 0.473133763075342 0.011843174477008986
0.2618632968194216 0.5354408019983105 0.47728299590403167 0.011318581234636369
0.24790173596354115 0.5384354242166879 0.4729721759183693 0.008641470377839636
0.3262830496543316 0.5367123912457348 0.5556051756162947 0.01139653178197765
0.23318714720672754 0.538894366776281 0.4612420950523566 0.008643203661692443
0.19332792255301198 0.5417196734720183 0.47184273916123526 0.01824143718763176
0.3866915928207355 0.5366332009931379 0.5958417310821472 0.013241211242745781
0.3395486316841254 0.540774399459653 0.5606188843949101 0.008047426286456516
0.34656618509333653 0.542976975062178 0.5097609230370737 0.006500852955429561
0.3123041423673585 0.5302126797041666 0.5265189692572618 0.010677832122401651
0.32389310769003465 0.5373971516740347 0.497204268030387 0.017938430414265422
0.21139988706738774 0.5360193360436868 0.47593936157667227 0.013435308859107407
0.40163505349506184 0.5449599091406674 0.573584109555724 0.008781317879075315
0.02980747724425039 0.5392623529852955 0.321226360689387 0.04297876436033637
0.18749984539814085 0.5361693148428132 0.4455932030731459 0.01143981236913837
0.23567926466075798 0.5299387851250829 0.4990445195251438 0.0045549116998203345
0.4709431485671708 0.539578865647302 0.6946179885319453 0.013250384303171851
0.24719809143708787 0.540433858246614 0.4770321572779752 0.008475473945152875
1.3207232790970707 0.5360433455414838 0.6642334983417831 0.013505361602574852
1.410307526762535 0.5382931467954758 0.5187387370431633 0.013855185207087374
1.2833992152224714 0.5488147986662294 0.7015102005108186 0.009682482495244775
1.2523852386704586 0.5394704798440871 0.6908120505526935 0.019071119736026106
1.4076826029458938 0.5429542170567805 0.60314041565424 0.01819303678999377
1.3091589202511817 0.5326635572978202 0.6593998231378045 0.012979632379897165
1.453330054560355 0.5368309153006141 0.5243756856392608 0.008008260091652104
1.3909576284763663 0.53122359963906 0.6953609071720984 0.02153524380649724
1.388932316296961 0.5392870832838497 0.6314416282714914 0.016507697037187886
1.435350212252828 0.5443341349375899 0.5829709154316983 0.010391152439272706
1.3831491519998604 0.5398726294326655 0.49589930721221426 0.028109711775922263
1.4194597704222711 0.5394042244202173 0.6181187464134366 0.0152877663714054
1.285491786824017 0.5354284889255344 0.6356475854949231 0.0247518389277007
1.4136926886253351 0.5321287285685246 0.5851550371483302 0.015151732410179487
1.449090314157915 0.5328704080766015 0.6425387830262951 0.015280848580112222
1.4381625429173173 0.5380918982255256 0.5326056482140206 0.006274363096580385
1.3963880527629082 0.5377122791034564 0.6782069231860703 0.014754731875188835
1.3943392357067146 0.5392315032354337 0.6032536081908078 0.017140593536410478
1.3034557086704395 0.5383690330107254 0.6941468208765488 0.018195564295710197
1.439596956165562 0.5424678264282017 0.4924111127884599 0.005606853539969999
1.4340266423588137 0.5382927566251207 0.5470558792868618 0.010123963752764285
1.3969016344757825 0.53088907853793 0.5409524274989732 0.014889218411391786
1.343787685220631 0.5346066917034373 0.569221550394688 0.013181604112777268
1.3952252683956416 0.5314444566945974 0.6262680770054742 0.008283853530499718
1.3389912994757136 0.5483953276240174 0.6756859895381548 0.010404685731885464
1.4291947661612547 0.5392688271855566 0.5640016696746081 0.015823827431436985
1.312395698618133 0.5342688036321949 0.6830595573430742 0.024267711104820976
1.403309318698549 0.537373352737478 0.49256108711710955 0.03321267520323758
1.3666394318404058 0.5348221547909656 0.5431930507279643 0.018270092782022313
1.3277130698052828 0.5408918040896978 0.6918265272083471 0.02046561546347302
1.336159101814428 0.5427261309679942 0.5967188166200896 0.007746405924413113
1.3429210519718913 0.5371952391450509 0.6379451197629779 0.018963305678899166
1.4279866141763287 0.5368947298009495 0.6684963755817627 0.011037723917926791
1.2954194887614565 0.5394886187801206 0.6287733314560818 0.013660509825674272
1.3632834420034066 0.5349308827202592 0.6965732559932267 0.024755163624453715
1.4410107005365755 0.5420515049087822 0.43935994311504134 0.0244946491992093
1.3909441282196202 0.5426844190072546 0.5475357329859911 0.02033585193752883
1.2699252431323826 0.5371479433012899 0.67269207365424 0.022518873915376447
1.360368273589037 0.5440227267017637 0.5598359793437182 0.009370369182796053
1.420999589560346 0.5428885006299237 0.6483810151321984 0.01349087816458927
1.3362932279388078 0.5370625193986968 0.5469402671074955 0.017286438760921292
1.3266957341481938 0.5409584236130742 0.6447671087933271 0.016085291836808596
1.4481103475072774 0.5432251407174951 0.542942986539301 0.007582702322837759
1.2926842153418527 0.5370680094244081 0.6525322377160647 0.016336080707439474
1.4226445041075426 0.5334751797803408 0.5752963425313933 0.021102223335399642
1.4314646458812665 0.54184457230413 0.6176274300998981 0.01715861831112192
1.4072244524170288 0.5436859802859948 0.4607418289033187 0.017761156219613904
1.3841953560760003 0.5357168951950866 0.6103434106436126 0.017995667766212548
1.417511785268546 0.530689130362463 0.4829498696436899 0.01596420450881703
1.424494575368886 0.5378936199205203 0.6639901301035839 0.015291119840497695
1.4132735850669993 0.5402763672914839 0.5410090792635767 0.01937138604021965
1.4128194443053725 0.5346862901921561 0.5014551419610069 0.017936200529194105
1.4576594996459797 0.5325240896137011 0.4699110032457073 0.008982857203044956
1.38331633508531 0.5419303779613699 0.6280694308612715 0.01325213098239643
1.4239406231276184 0.5416434914196271 0.6167840113766401 0.01452837198919266
1.4461173148478974 0.5337646509854345 0.6825921453989525 0.032667283452497996
1.4516648276428792 0.5395610177716135 0.6224170009959932 0.014012806500683955
1.4201437173123193 0.5406884121112295 0.5324563737462868 0.011986157813807635
1.4328403384377295 0.5352678973903677 0.6412261481187256 0.006943863064033082
1.3785478654356644 0.5456075303363094 0.5852385394209724 0.018639563217288924
1.4274291912574435 0.5363567447306421 0.46205235551147034 0.014491298511683293
1.449993072541632 0.5446733544250556 0.5737318800197426 0.011520904515925709
1.3178769146990994 0.5365562626574139 0.633968226934954 0.00841456770996852
1.3308491931551145 0.540525251944814 0.6213305957924677 0.009432816719171245
1.3744386781686189 0.5437262099829571 0.6701759741395401 0.01654157613474579
1.3877994944198868 0.5325736046606436 0.4877764001160604 0.03886696861003148
1.359833126022129 0.5395134873281793 0.6358077835342101 0.016958624487233957
1.3969330290379969 0.5368557879264622 0.4671526212378425 0.025370159648499233
1.3379868067021323 0.5443884835687601 0.6980653630235969 0.026234345745061914
1.3859779524614277 0.5401156061866255 0.511227751944617 0.032032394769315506
1.3596850822806454 0.5352790980992981 0.5774080882672009 0.013452655829469749
1.4128644779058375 0.5379823490237543 0.5892470589002922 0.01829018976205228
1.4493376440476016 0.540350325975819 0.601112971341342 0.015520526691416809
1.441243207015493 0.5380687117799768 0.5099794382840326 0.00713137881743344
1.3719766572852357 0.5423593831943847 0.683505720078981 0.012189005161473525
1.4132312819202622 0.5384670271281312 0.6336649863485414 0.012547162273060302
1.2766866335055527 0.532290977801752 0.6463046940811039 0.018801986696625902
1.422939260883527 0.5440166696788792 0.6838881864787786 0.03186381550590045
1.4582047949739325 0.5381709681916087 0.4611710439836349 0.016233889357844894
1.3726861193007722 0.5351763727682303 0.6546172311586348 0.013123916501278407
1.3467677795297863 0.5423042157518528 0.687168078198229 0.018904660628574453
1.280983764498768 0.5310998187652057 0.681853085499491 0.011102628051685716
1.3802765734373788 0.5440157096785948 0.5320804951481405 0.019064682314991963
1.4121024306270822 0.5302426416762742 0.5644334092793069 0.01875695507302562
1.352838193426711 0.5345614816189644 0.5506111686959207 0.009457191613244811
1.4414687589358894 0.5434281038367306 0.6297135406985896 0.008699912916297374
1.373744076506657 0.5407270694057481 0.5608577849756614 0.027849250070749412
1.416174792871269 0.5361973863148142 0.5007603603079785 0.01542492981446686
1.4373394151121324 0.5406635670003521 0.4557865680845843 0.019415659215738
1.3652192878025218 0.5388144205950155 0.6804659884540002 0.016883102747677733
1.314962259538711 0.5352861177006077 0.701901277595121 0.029440691712544525
1.423042229079737 0.5393862706406127 0.4551222175479636 0.008455815647642853
1.4517738675623617 0.5398933579110956 0.513800506785732 0.008178759471000161
1.3885441215343908 0.5422915292528515 0.5886158289530399 0.02174901904738518
1.2910592834196912 0.5319959729883297 0.6677133029954692 0.021403524262627722
1.4641826804401243 0.5428322090717785 0.5892465333581871 0.027637354808150612
1.4386347126093133 0.5369056180973608 0.46861431819057797 0.014410456470330806
1.3804582243954175 0.5388140487464624 0.578105832287599 0.021896874040491354
1.3760347004285902 0.5428376421458088 0.6261578066645979 0.009916869889697278
1.3121304089398564 0.537623525167114 0.6241501601760652 0.006891812039426488
1.3400715845388542 0.5333067445783729 0.6564562082626877 0.013397088211170177
1.382721226990887 0.53438949978887 0.6502587452154275 0.010016061486916633
1.4172475139869438 0.5418902684049175 0.6796881081793541 0.031528320869423226
1.3203698179497265 0.536569357892178 0.5895532155407875 0.011758774243217477
1.3880499406289606 0.541248104631967 0.5674826590419774 0.022938620397839653
1.4599099460383604 0.5381731849869937 0.5483332012496347 0.016803597504735816
1.3379683647951723 0.538693219080187 0.5804238072221768 0.0142342527706323
1.416511954377571 0.5362200893573947 0.6708084200514871 0.015963886724119032
1.3723781760608504 0.5466036591745366 0.5988521339011857 0.012975777890995877
1.453775636280776 0.5416228519298755 0.43878976213357684 0.01639703296572927
1.3572199169127768 0.5310844320597937 0.5065071730646157 0.031907197755178876
1.2576603472602752 0.5385985545119558 0.7042774303206871 0.020915756827830992
1.4072631232389052 0.5380547624351434 0.6482570597615638 0.012483485743115745
1.4335013001437864 0.5387182580273058 0.5170384857583531 0.008390104767307997
1.4097806726137103 0.5367943366513905 0.5685392589072668 0.02107769882762739
1.45421860714462 0.5378162207763446 0.4793214253666322 0.01272717039263332
1.4419149488012903 0.5415832415778847 0.5621666482589214 0.01061203302777913
1.3254411483763364 0.5328998961949097 0.5878910683986733 0.011907291036694677
1.460412981090549 0.5438529650022929 0.5274370681655017 0.006947768470705836
1.3041493995144255 0.5337837412687685 0.6178581375997368 0.006257186126965383
1.4059800829673954 0.5389886905249647 0.6373464060179217 0.009884923938362896
1.3608220095501442 0.5350614253147044 0.5839678018415115 0.018811329950095698
1.3469007131866437 0.5364282982426039 0.5934229927712988 0.014343734035415532
1.3409008843468384 0.5402532783101893 0.6258777832148172 0.009400874928583611
1.3489999818692604 0.5402103574680343 0.6694181504607901 0.019143593889982963
1.3832311328938756 0.5230298456588875 0.48518808293014587 0.0170632709629419
1.2138546822504226 0.5470336455701721 0.6368358634356656 0.023158146237878856
1.1010358634007225 0.5325023736989913 0.6429174734714939 0.01993087806218331
1.3165299926094955 0.5357316084279791 0.4670281893521222 0.0067832290262068926
1.272156344580642 0.5271600279545074 0.6330035583552218 0.01584357609798245
1.2344058443485977 0.5338519604370879 0.5094782415491812 0.02196713480703315
1.1743513419319644 0.5391952791729414 0.5765448278194557 0.019167773427725954
1.051872936285488 0.5419776463749597 0.6381474388146267 0.021073354042833784
1.2394634578988006 0.532452555760962 0.6641354908235101 0.021698972912196295
1.2481469749986278 0.5313973386418227 0.6603156787661215 0.02576914329872239
1.2720769963164635 0.5440356422021234 0.5046109189804284 0.010431133928150465
1.1082810614139442 0.5388972829433095 0.656839989537692 0.02132937960224686
1.3314800480299778 0.5343266993881678 0.5277985756956617 0.012806442427870676
1.318229173577379 0.5375548821932252 0.5593995142074891 0.014338987061041308
1.267205004020493 0.5458072876683432 0.5058376938764028 0.012005765194977109
1.1912886193995837 0.5370352661444514 0.5957507428249076 0.019730468567716722
1.0794010092959496 0.5409342434274617 0.6967408869162072 0.028542119293308067
1.2434825844243906 0.5310211621307812 0.6809848043545458 0.020919962276519415
1.22264705788184 0.5383217934638018 0.6786236875927605 0.020253947081443235
1.3298979050697857 0.5410026562425134 0.44061167146214536 0.04495297917975398
1.2799314727767839 0.5460484817906499 0.5160400677719756 0.01198081717517098
1.2019720868819421 0.540380475999853 0.5281106581583191 0.00912664541713152
1.0965637510558677 0.5323319887175317 0.6572362707190816 0.02746294605981704
1.3513759316721823 0.5418588140472057 0.453103021801582 0.011031384052869693
1.0697557877684694 0.5401705176958542 0.6800705073167749 0.028330961645035974
1.05262748296803 0.5419675795458306 0.6360313305245332 0.021209478289066674
1.000105870084574 0.5369238167372332 0.6822790205338695 0.018339946040550663
1.0461452568522203 0.5347474588395987 0.6841060212018425 0.019624256425858577
1.0684701318391765 0.5449269240079222 0.6225099803910502 0.026856029902166803
1.1106561132744 0.5303360423615011 0.6287390976827775 0.021875547607448163
1.0345025246049262 0.5334771403834213 0.6504243131209222 0.023890742079239875
1.023342192717854 0.5319177246622488 0.6470087761953549 0.023185681195653746
1.2293614903203565 0.5372210498898453 0.5416017643925926 0.009079272985194528
1.2544488229925657 0.5406878165017106 0.5091637183294011 0.021225009074408104
1.3000367905377057 0.5392929201991393 0.4648561961259562 0.01161281021584094
1.2057609528443463 0.5348346012304788 0.6847880000961417 0.019503191800447996
1.024150410682544 0.5386031195949696 0.6941035701409213 0.021952402987859828
1.0817467096913396 0.5413750732926828 0.6548509873275274 0.02352559857396132
1.151058642128601 0.5349741455876779 0.6242011628209302 0.01526408591076115
1.144867802614596 0.5317937803068836 0.6368763150421504 0.019301471736514263
1.2821062400182783 0.5443352264508385 0.5235785755659546 0.007243368222923651
1.2918053484067449 0.5450700155647648 0.4925053908395618 0.01264552342032812
1.1146064774518185 0.5413778635587393 0.645097499231017 0.018807719499221248
1.2449543900063211 0.5366838728684611 0.5264078797427088 0.011575928237631603
1.2071462213735993 0.5398219391789734 0.6454240716473152 0.015051741824295367
1.3105384686146997 0.5439599229147064 0.5491559073564711 0.013241968944048993
1.1920997119666603 0.5369466668779064 0.6982133236836278 0.028013539989897127
1.2595666925406857 0.5358290178850712 0.5722925641441968 0.009895592751927378
1.264304777528699 0.540042375738031 0.5315179978987976 0.009266628432572394
1.247892934377423 0.5402543110604296 0.5935321654458244 0.0238781359478915
1.191523193035169 0.5306776752017688 0.5842231189920523 0.016276544338727914
1.3021344008648505 0.5409473862264119 0.48295948254504456 0.013830365006372023
1.1778760817401117 0.5379233042078819 0.598808988762404 0.020897869350090092
1.1970070381944913 0.5413021417195383 0.5605995396181207 0.015821695011943457
1.3349985064648695 0.5385570306012573 0.5100219643409835 0.013007808438094319
1.3188063151273182 0.5373402902504357 0.45674497370454614 0.042421288800611634
1.2271125981409639 0.5411011482786876 0.5295651267808088 0.01046315543445664
1.2909312850395125 0.5394900683539459 0.4829542894506607 0.014788585204390275
1.0040899531012364 0.5346155441483277 0.6857718461242429 0.01929950652018472
1.069099548198358 0.541922558749625 0.6303642511936212 0.03048889416721692
1.2769983068312993 0.531863962487504 0.6160844773644374 0.019951354885811897
1.1102086665134048 0.5437049908050675 0.6635404745367012 0.0230442206951669
1.1329562676559168 0.5427763897830639 0.6607530643864331 0.01723824997108135
1.12555332750373 0.5399706240599375 0.6240794362583622 0.021664453076901142
1.295759760826002 0.5328402390399719 0.5919279272894505 0.013140503917957083
0.9728234202749795 0.5366279990431401 0.6764243955547015 0.026274732919791426
1.2418698245210293 0.536659238924541 0.6882649597819276 0.012755491503645315
1.240851708350084 0.5309419005480633 0.6135260710803173 0.024601490168050064
1.1467771055772948 0.5444547182314939 0.5903825970895457 0.018993715566025592
1.2047943804348513 0.5344891122331695 0.5392726657607387 0.0074953735532108596
1.2515326493696775 0.537912720846908 0.5431114003372985 0.009136842228572806
1.2981779176579338 0.526802080576984 0.5790337446415853 0.009612053438488179
1.1444060011478707 0.541043985424929 0.6656669730231655 0.02130593744504827
1.0734054872224579 0.5419261749729405 0.6737268500526833 0.01985944034746937
1.234608922224374 0.535640759199917 0.5750538119453632 0.013152746413997074
1.130049162750348 0.535713756019367 0.5931652944449392 0.01864330817897801
1.2135535775204294 0.533688981894763 0.670606374500579 0.019274980346404534
1.2435133256844466 0.5339771173575383 0.5575177059768865 0.005673532740465455
1.1682547018291678 0.5458673339976469 0.6687031792147996 0.018461265963812565
1.1635359858675745 0.5341908544259768 0.5909968613747781 0.021882226014662966
1.1867901152344689 0.5331439049157999 0.6381029643122489 0.007082928138680403
1.2588713456712937 0.5405157178123031 0.5976311999155483 0.01450313787710046
1.051263092276741 0.5409284729640681 0.6523110916636642 0.011876671716134147
1.037544737896657 0.5354845639648994 0.6890484681118847 0.018275624702328245
1.3983528302190238 0.542926365702664 0.44739016049329533 0.026648257173441638
1.2927318825464913 0.5442404446113316 0.5047305763859758 0.012857537446951384
1.1607405547081955 0.5353437671385386 0.6235004676138968 0.016369134802001948
1.1380916061459525 0.5374137711884835 0.6468100643972624 0.017534479893785513
1.2531238910679676 0.5401598525544927 0.5149363017902967 0.017328480876657518
0.9932460005610915 0.5448536492716467 0.655014865602497 0.014359451932619546
1.2481103248642884 0.5363365779780229 0.703111763405806 0.01919910501610703
1.204613003790551 0.5389998871220482 0.6067039156466738 0.03450665268407621
1.1837896477219505 0.5373682781077245 0.6230732594822691 0.013657513405721215
1.2856901248631027 0.5325801534154984 0.606442904456041 0.02137282057655192
1.310581445955629 0.5364297633961388 0.5908718306437111 0.012139865512820416
1.3053826018513177 0.5370870265099106 0.561849149508407 0.014447578041352497
1.3470575302461458 0.541656492864925 0.4720868422400439 0.01334369629000154
1.2845442436055703 0.5380042193115883 0.5466955967254475 0.012780990447711268
1.1788483475706968 0.5456751209872771 0.6663063032732316 0.014262833688116573
1.3172498841768843 0.5417412220034734 0.4772624422766327 0.007026451353053835
1.023368091581392 0.5391854840182274 0.6765761051300789 0.03237014113203683
1.1877574413991636 0.536049904340501 0.5578643086107719 0.013260887316265383
1.118177862197909 0.5368403994031133 0.6101067805703438 0.016730307420036613
1.1384745809556138 0.5368687524549313 0.6956753208079096 0.030595941711523782
1.3817742809677216 0.5350384117330657 0.4396898181113186 0.048072813650604264
0.9869384290656693 0.5412550095251696 0.678038983723311 0.027562972028354445
1.216142973615307 0.543725280109298 0.5837486335965956 0.01870406838622226
1.1542734152525107 0.5441399874656554 0.6076507223375661 0.014051469383327016
1.1035907993141185 0.5433341248984295 0.5889245964179283 0.005673733097876752
1.1501486580477922 0.5336179379116818 0.6858065244038167 0.018117536122415952
1.091067551293426 0.5352232962723191 0.6135230544205613 0.017677494484093045
0.9804760827145719 0.5331048511814742 0.6984005749048577 0.02744588783438768
1.1930730647997816 0.539759355574794 0.6515981840557711 0.02168209497785562
1.2868776567128082 0.5390218744274501 0.5435986493618742 0.012074264039012137
1.2581058024607972 0.5417021107554676 0.6492406941534263 0.01689621305509864
1.2387087122525966 0.53767193016721 0.6402443382163141 0.02467211088614295
1.336554749549367 0.541452708323761 0.4870177202568362 0.010377955681556058
1.229564794901418 0.5439763853882054 0.619733746388055 0.02362743894698395
1.0911381265184705 0.5416958239114272 0.6814399479110825 0.02598986129038401
1.1331424954527964 0.5441088783109251 0.6174631084992735 0.023346719550089004
1.3068229941743887 0.5438459769997185 0.4995306990395157 0.0072002349674026335
1.2060488716302795 0.5402016062916877 0.5830412236822174 0.02035207054322804
1.2892737730594324 0.536068604373075 0.6242632236727674 0.01614964255903911
1.1695467161738895 0.542949708901321 0.6834138866430858 0.02836625750204742
1.387472585299189 0.5399015980152548 0.44812240601605324 0.04578747548923382
1.2057762108693064 0.540744352863884 0.556616111363797 0.01302141978678553
1.2764168589471763 0.5383423114292504 0.5764717946760567 0.015566757439684586
1.1334995221216189 0.536253120064749 0.5824408440628596 0.019633007151070817
1.166750582175661 0.5409764804196332 0.6532542959245352 0.015902141758572304
1.2201919401141335 0.5307168760394344 0.6042656678175061 0.026978690848065583
1.3065745803558932 0.5432055964781142 0.5158452038185863 0.010158931224028687
1.1240468831499242 0.5394581072979513 0.6834761890292836 0.025976511546936816
0.957270888614047 0.5321328590630535 0.6980758985633532 0.021111415528099576
1.230639898450581 0.5368928730164005 0.6532225539159116 0.023291069861216755
1.1457329051007812 0.5420027845081469 0.6586280077428198 0.01573356706970097
1.081991831603639 0.5430546474797338 0.6271460018976442 0.020208356540003677
1.3419978065185607 0.5345090693769385 0.438367253576562 0.04664769939958314
1.3650801725407442 0.5382435974605339 0.4508350451863151 0.011619097307481986
1.3010994752167455 0.5454658933377063 0.5440954511029911 0.011454419100354881
1.2194570745372457 0.5422018893519356 0.5223343135220215 0.008116665199935471
1.3103922906990255 0.5430055265952136 0.527986147116118 0.007942888166392489
1.3272685796839756 0.5439415127015513 0.45594939897808917 0.007354753592771115
1.359034332466081 0.5417869444239141 0.4373505039979062 0.010937434947780773
1.1721036328858765 0.5381157133392507 0.564508750939311 0.017767889987944787
1.29832251094684 0.5394425367852265 0.5283846784405637 0.009054908159366501
1.3548506518861732 0.5365893014499205 0.4643250285923234 0.025062086807821897
1.1509167721437994 0.5484322573147057 0.5732061522388295 0.015588312913547732
1.1625693842479812 0.5437590039807819 0.6865787514960987 0.02537813181885252
1.2545830204574029 0.5389449990891472 0.5172016324992829 0.017136016869388475
1.0084295904351332 0.537857036318215 0.6782733736585204 0.018195830378803506
1.0626681789133554 0.5310858248083966 0.6516349606160045 0.018746808665637216
1.0648390304412916 0.5467143343045515 0.6046330063630597 0.02531055349486475
1.0216383366135975 0.5340431153374173 0.6715116823154496 0.016363891585842977
1.0392650123268008 0.5400149623860588 0.6618725177271987 0.022260713192026174
1.0885646800534454 0.5432978667051002 0.6723899501600639 0.026683182132422028
1.2155873330309532 0.5450278519915874 0.6118479507463995 0.025524163260043434
1.2690211718202251 0.5373505244321356 0.5821034172031728 0.013688510971546112
1.3599063572024066 0.5444094343890856 0.5223888492679913 0.011463699566661196
1.3393087037299998 0.5363557281414228 0.5460363339348407 0.01671986205167418
1.3573876332483215 0.5410029106793481 0.4757163940134878 0.020392831119564445
1.3262650007518806 0.5355024072696845 0.5428228517822201 0.01229211584531157
1.3455607629000554 0.5344163095935858 0.5250197471608541 0.02160125695587323
1.203463258361615 0.5390943050639033 0.6321024864395065 0.02714353972119654
1.2159863368634303 0.5413479193793523 0.5506770143744391 0.010316087775268797
1.188370332356074 0.5379437950432396 0.6780530572678712 0.02359895178249468
1.2770705506422406 0.5310668461744302 0.5630260944129083 0.014159285647504127
1.2647708227792234 0.5406185134666035 0.6398218142143755 0.01665935976536413
1.1925976889986087 0.5402012282729121 0.6112080653029919 0.02145705260797946
1.1744807434747804 0.5412993452816212 0.695467742170743 0.03801521337193521
1.0039886049871538 0.5469259354143218 0.6589010477879244 0.011827189762150421
1.1024235653597576 0.5306063816436626 0.6833805459455977 0.02169794924095587
1.029339473456945 0.5370575282783033 0.6384265521775225 0.02229411983192343
1.3158881844205534 0.5388906376866616 0.5074622443927692 0.0063195804941432844
0.9603537039617321 0.53869192287637 0.6859167586670116 0.026077884393159653
1.2296745807489364 0.5468274390541272 0.687576870531721 0.01130024291990199
1.1187184494522269 0.5380213769476846 0.6195037096285818 0.01888446108582934
0.9613746119438863 0.5439646050630103 0.6463187820240808 0.014931842374848129
0.8686926090947334 0.5398953618138037 0.6214695458622391 0.027934241337430776
0.9643381204532839 0.5420768510852997 0.5898020054493702 0.017390673958008588
0.795718848786209 0.5391473772697202 0.6173980509647162 0.01472289785856023
0.8833078392479309 0.5459021709141096 0.6874144983561489 0.02324954417085439
0.952120944098191 0.5401925919884062 0.5629846537486861 0.022897614804449413
0.9217647222878541 0.5477349030552742 0.641825521006313 0.03323754523258991
0.8751504897269422 0.5378720291227753 0.6127079334755384 0.023683086395451053
1.0203433717710966 0.5389379825748069 0.5739961915256792 0.02496387614957555
0.8634858763650921 0.5422289399212714 0.5938849842924997 0.007919527111006195
0.9518609170998191 0.5340797809046608 0.5498450397818796 0.02227890448619019
0.9494877730352276 0.5446302444248838 0.6489072948940261 0.023161503741419905
0.9931640569607603 0.5341485434699523 0.5084008535125693 0.013086016405356938
1.077386176516128 0.5308166793820948 0.4984138875998077 0.010922210769167348
0.7890535152381679 0.5367306563297926 0.6676651782671897 0.007153227620844845
0.9847069884159412 0.5341293373935838 0.5080674899605975 0.013382730524293597
0.8513296293093369 0.5393556715550358 0.6786802835790755 0.008999762900109124
1.1082566386603436 0.5377005275978739 0.45215829706096333 0.010839928835692465
0.9812761540979248 0.5312765921200884 0.5580164003981027 0.01036270761733923
0.7913797148399935 0.5399020017878559 0.6520187509369783 0.007310964683123404
1.0162002091294529 0.5413219734304426 0.46320304011090835 0.011347802523289036
1.0567763879942447 0.532932322521806 0.49060216637238613 0.012823083297351203
1.0372815110361135 0.5348391581513917 0.5272016716952949 0.03632842178819894
0.8381212840046303 0.5416690144035811 0.5944880080713527 0.010415462535573657
0.8546676909062003 0.5406134226289273 0.6244746305012833 0.015948451083375795
0.8611147105225182 0.5405005742128983 0.6116190387609358 0.008988725028916435
0.9911326229813625 0.5349880443419628 0.5004354427433854 0.013152496934004144
0.9160680562438757 0.5274465481921475 0.6142967654751244 0.01523072993411758
0.9372985724160091 0.5331396890347028 0.6254314400862238 0.026756326666781936
0.8998091776085373 0.5452622593445221 0.6407636561007474 0.03360901666010826
1.003153878371922 0.5329374090496061 0.444086216471905 0.04840882914828665
0.8853964589900263 0.5387338327156637 0.62758406541211 0.03876871468927079
0.8949128068351972 0.544944722904082 0.6742005005949602 0.038907864748849684
0.9630552738188787 0.5322173697779312 0.6253674745677517 0.01727318315044324
0.961688512146857 0.5352788778662584 0.5118273597435098 0.015228166540085457
0.8456276299332152 0.5431869235156502 0.7020610949330679 0.02080468468275775
0.8970575538522032 0.5381033332281839 0.6512932904589976 0.025906297185317714
0.7714442888681756 0.5377698395739745 0.676566274972641 0.008361665415818028
0.9581108821070161 0.5425806668007996 0.5573556462499003 0.021252833709068636
0.9888420805564345 0.5394889324255475 0.44729048992925485 0.03900475632907807
1.031197737656707 0.5375422753691116 0.4519115351957445 0.016873409767988155
1.0903003363107049 0.540779766653502 0.47331084398621176 0.006608251985656099
1.1100633559032653 0.5373535371486038 0.45371226269423776 0.010787255141853776
0.8368815265130932 0.5393693634405174 0.6235312429767175 0.004784697174527062
0.9884777673582429 0.5430598068004006 0.47415545362437966 0.007771639486785996
0.9860326442176354 0.5379907081582084 0.4620374137464361 0.020821514666221955
0.7555894435842117 0.541066657246946 0.6520417065979879 0.020108001573736465
0.9361943531182525 0.5360390786327638 0.5527279605894835 0.025826477009344036
0.7447275977078379 0.543160694758683 0.662175048805103 0.025285327518770037
1.0491318030314212 0.5402219310514832 0.5068300902388031 0.015167783544126913
0.8638920291191162 0.5349179629385388 0.5618246439910509 0.010835929415415353
0.8086177794501944 0.5334548112280362 0.6971045802413509 0.018193454618831588
1.0345077076803602 0.5463063845866297 0.5392136104227322 0.019695299690432422
0.8766683727149838 0.523775772203151 0.6497979710683885 0.005120181861484578
1.0919448731841122 0.538584507252355 0.4311978624045392 0.03515660484666561
0.9346674566292928 0.5392117152625795 0.6050678669236921 0.029179360790382473
0.9111514728312311 0.5408826287996089 0.5959160044413891 0.022390226569155364
0.8903566269751775 0.5416069845500298 0.6042275829652072 0.022454167749346044
0.8779768800868403 0.5382441689049047 0.5940875998998332 0.011122547331336836
0.9099202123496839 0.541628040799604 0.6459330755179842 0.04193157328045003
0.9761571944008007 0.5404276771464915 0.477896987158442 0.007536726442872799
0.8779785580309106 0.5461902879686411 0.543038601092586 0.014230419878712744
0.808908858095436 0.5354136832451883 0.6335144006743747 0.00714355597747502
0.7365338653783904 0.5470748707860681 0.6790640542162377 0.02791574535974526
0.8391709887316647 0.5452348931365372 0.6632532743640104 0.007437688804882798
0.9813424377318579 0.5357441144556281 0.520040171098346 0.020044508714031583
0.9884020014606768 0.5398407033525282 0.5294546101110132 0.021608687749024847
1.05908557892155 0.5303296823272062 0.5280083762389773 0.018753246308190988
0.784638482144639 0.5427698909398972 0.6960100928141848 0.018055331263245763
1.0750225857855844 0.5385849406016429 0.47072818223505997 0.01036284653709062
0.8590925247069294 0.5398901874955716 0.661121831450673 0.01970394954662167
1.053800034413867 0.5395510623062633 0.47082405456694065 0.012647220699169294
0.9099421522717885 0.5327628112250026 0.5219040334849815 0.016178913659268754
0.7726539626280493 0.5376623511492987 0.6951756469678904 0.02293231212098831
0.8798583803934105 0.5384799190490196 0.6704279455001037 0.03644613367108602
1.015112248025926 0.5370712933404713 0.49011791606518473 0.015416787586560515
0.9001028335372804 0.5371877891792802 0.5853799373072126 0.016771577897597728
1.0357867986574645 0.5377249277928329 0.5029159404147104 0.02000597532080209
0.9176862221476131 0.5370161099120786 0.6192287620216399 0.02254927063618052
1.0085570261363683 0.5372548525391789 0.46989589824100647 0.010380810358482708
0.8409366802453206 0.5423940208918667 0.6340450372524016 0.006987593947849859
0.9237773038407433 0.5414352059145853 0.65367188704953 0.033424156600910866
0.7563537815396109 0.5376928610090169 0.6831311585794194 0.019905552926783036
0.9383039176651212 0.5344689433718847 0.6555122029276432 0.03909871600830904
1.012319022390415 0.5375352056084909 0.5398170387065766 0.023378184948060873
0.9633893408222224 0.5321164984276973 0.5043271477297625 0.01320457759572047
0.801918440032445 0.5397703781574823 0.6683969281856856 0.014894413233873291
0.9312791483794831 0.531063433054956 0.6737135622567675 0.013163538566430535
1.0530353026020487 0.5365458171299331 0.44645417941060994 0.008015800583103817
0.8436852187800006 0.5358593310938007 0.6561859805934692 0.01923912533727649
0.9935627555801787 0.5429931384578353 0.5447125270337159 0.017069121866870703
0.8705151362211537 0.5403928584366422 0.6797975566296672 0.027239210671849652
1.0015546147541177 0.5396664772760293 0.5171438069190315 0.01449962456685781
1.0017270329632688 0.5386009283430669 0.5737951292325234 0.016553350213003686
0.9818111807981392 0.5365406490447963 0.5808748150276102 0.01464969704071681
0.842622308380936 0.5386344069888659 0.5931607752114215 0.009275104840963914
0.9705914701365017 0.5416467568761284 0.6233249886970555 0.01649081397719995
0.8187835756872318 0.5368223459854089 0.6067654888446115 0.008304411434293881
1.0569668269609003 0.5418023998421981 0.4620172352751571 0.0096439547347069
0.8264276535401089 0.5374639259945504 0.6433890278600882 0.008825749212616411
0.8644567304887761 0.5382767939031958 0.6225706271665337 0.016874391940830333
0.9899091519615304 0.5412242301932187 0.5322949100841148 0.0223420666275026
0.9822463023058556 0.5394151610670852 0.4908963210283639 0.013285077836192836
0.9346458323158496 0.5328665725330295 0.574316776567079 0.018818153991723454
0.7328592769136928 0.5480828323504501 0.6804181319305186 0.029583229258414823
1.0254021593579148 0.5372270666374165 0.436121750370142 0.016402512651423208
1.0616419894381943 0.5403249882091319 0.47963806389329133 0.012663409801417754
0.9190299394155652 0.5316903140776059 0.5310570367087336 0.016373584602726875
0.9120081236306478 0.5444383149715905 0.5816581883228126 0.01643975951726442
0.8764974138140845 0.545585828736078 0.6951552746058044 0.019749176750089782
1.0862088182937026 0.5417279391978922 0.4566614454960589 0.0033734064139402035
1.0202269650417828 0.5307082376163793 0.5381401233841095 0.013800335327022595
0.891416041545887 0.5417920509785089 0.5521775441895402 0.01723309012922653
1.0852862807289552 0.5407124181491851 0.4465905740921137 0.005041580744781721
0.8796827903657353 0.536155106730668 0.5840810056545699 0.010107920270780186
0.9428552295519229 0.545830519933878 0.5269558804912187 0.012192158456311561
0.9328265079596669 0.5390909024281775 0.5168514850031981 0.01565312204854312
1.0669031852012203 0.5340211616456633 0.49298245980442285 0.008980007458581456
1.0474500098861446 0.5344126064180361 0.5271300402667756 0.024680794713546006
0.8690569991583564 0.5394695446539571 0.5995037973815583 0.009004530045935757
0.8229350592168008 0.5362642820356425 0.6960727885490048 0.015156103181246237
0.9527891825960434 0.5378240391247815 0.616187934638171 0.023395953870791932
0.8959396483593444 0.5428009770519414 0.6119904433485679 0.016787064283124983
0.8243966982335169 0.5349176645797739 0.6142374101144307 0.006299437168105209
0.9421457473871976 0.5376603753541284 0.5001464277750608 0.022039508464068634
1.0267606222436234 0.5381144896264222 0.47486885972731274 0.011371975337703804
0.9036686555089464 0.532300524092027 0.6982927742233278 0.01921286137980189
0.8109217937315066 0.5362683915957492 0.675569971529174 0.016379821895803337
0.9074178312798891 0.5367573067331648 0.5657962924613568 0.021284112344386263
0.9647679670157278 0.5349240978327069 0.5366646246038673 0.02245544179976505
1.112414170760384 0.5362336459325052 0.4519878788212045 0.011198578341653753
0.9585059391859045 0.5390594163066623 0.5235154750297775 0.01573146182885658
0.8487290129574263 0.5451914645264379 0.5773167133285586 0.009049008011573552
0.9376500465564143 0.538069581426842 0.6345247846586495 0.030646230882063856
0.8957180037549287 0.5341770594245145 0.5794406278835349 0.012835170487893606
0.9180617540203615 0.5323908263219207 0.5571934308899024 0.014196926793599405
0.9862894042627363 0.5355214125314065 0.61228865221206 0.012452064329056935
0.9480064121145506 0.5301254652788447 0.5941158467934762 0.016745913109506978
1.039265443266116 0.5310614606172964 0.4607403045101584 0.008091221245669314
0.7915209386902673 0.5394428503023585 0.6224826259223688 0.01267448836580625
0.7881340416841106 0.5423158664642603 0.672573336670784 0.005902814699952218
0.8272986574997274 0.542973820186322 0.6874035118190592 0.0171324994066119
0.7994508619560133 0.5436116818377058 0.6537837179872771 0.007935011825379522
0.9574061213001315 0.5405388221874088 0.6354790416201264 0.018102342607515108
0.886591087782484 0.5411796291206675 0.5496046580858345 0.010019371219872206
0.8282126899111936 0.5424560054922115 0.679635717324411 0.015401457198554687
0.8941503705317897 0.5335026469466884 0.5392914046225811 0.01985943229097854
1.0205111040789618 0.5438663127177521 0.5202074036844538 0.016332762553188128
0.9789838624366554 0.5343360922362339 0.6034551479121117 0.018064569792288977
1.0802399086938606 0.5410523071765422 0.4494951800641613 0.004345643751324234
0.7642512245408191 0.5404491721179473 0.6902463274977049 0.014993659002757568
1.0032293801486343 0.5416715396985508 0.5566369374836562 0.022786613997017285
0.8904859050382158 0.5437350457842572 0.6777421063803768 0.033871284485971154
0.9791445249713073 0.5418367908249352 0.5284470827313836 0.019088060012503946
0.9995427820282295 0.5404258545628544 0.47840653291518637 0.01165484406927937
0.857320317609937 0.5407093800641272 0.6879136857403267 0.009569385943507857
1.0102922952066167 0.5348519900981584 0.4895158563770614 0.011517275308122124
0.8225119152003583 0.5384504821916422 0.6578311694249016 0.010969519920629455
0.8299211226309906 0.5436299264455345 0.5462124704460333 0.01365693429345718
0.5954240792560166 0.5396733536801971 0.5335193698501048 0.01762724015605688
0.705366146196792 0.5431852464566947 0.586298241149807 0.023055386461895446
0.7304514779717727 0.5389482938621789 0.4969414398412292 0.00782057789582331
0.7434590904303486 0.5433780765494509 0.6575681796013765 0.02859118828799418
0.6837270553905538 0.5299304778135463 0.48158210382484945 0.011878668262489211
0.7798372115853791 0.5452089059333948 0.6232364858773316 0.010058279602374839
0.5264690040233353 0.5393480829720176 0.4619657485325854 0.020779222785326786
0.8445684865216337 0.5351949397322131 0.5227885751278125 0.003642606952177893
0.9294947280144277 0.5408735033974029 0.45823375286129686 0.019334814525983065
0.584868485415553 0.5455037907763944 0.5065277300211581 0.009276561764271496
0.6165565043082415 0.5361806366227423 0.4742729167299568 0.007572745110689721
0.48068927127247857 0.5384860585646827 0.45632210351475955 0.0162611539378481
0.8173126113758754 0.5433175605950279 0.44425423389210944 0.018088664307870445
0.692794495110661 0.5296310667242828 0.5991099482559521 0.010369028067704535
0.676409020705423 0.5420358938965969 0.538903935411658 0.022955561932438084
0.6689403906342385 0.5456138835766433 0.5150124028229057 0.023466126889674786
0.6059330977553141 0.5328382292123859 0.5500464679060284 0.008945302893789654
0.7916364560469311 0.5399915166560879 0.5827994520901069 0.012574519968119955
0.7044729603128503 0.5406661396375012 0.5689935591332121 0.04249652986688168
0.6338577665777602 0.5404522354656777 0.6241533097360917 0.008238837074004201
0.7068100831088094 0.5410192897801637 0.6961535308073734 0.03607976445974686
0.9503840693734488 0.542086221160354 0.48395444253799136 0.007429113901054732
0.6784610098391731 0.5387009277692262 0.6501441750461627 0.018587194814220883
0.9178135936319674 0.5384543427431943 0.49052788483176746 0.008277395209376657
0.7540529695460368 0.5329925194695543 0.6021795060200518 0.01232773531825803
0.7495235308407739 0.5373607886455138 0.5491934590786244 0.02383760864547597
0.461760753098637 0.5340745329313955 0.4399688118132857 0.0038035680435785906
0.7642313385258522 0.5411304056877041 0.48863642694963244 0.0078104287928542765
0.7453824367876548 0.536937024919136 0.5255531723686068 0.022701051420438302
0.6379349655270821 0.5399654127001441 0.4993667052948303 0.009936397256777934
0.6765012120712566 0.5340494149174401 0.554046838953223 0.017798234763112684
0.8413572217926523 0.5330827593122132 0.46189165518760894 0.011016046516608861
0.8879576356321679 0.5334626324610622 0.48484061076561696 0.006042265887832358
0.7962142751055749 0.5376013153773976 0.5569264439993938 0.025573995473840944
0.5676928283803473 0.5389422694324549 0.5128359114779608 0.01231637140351155
0.7709114495907073 0.5386360060235633 0.45954559323534905 0.012216141272660335
0.7223442580529287 0.5400905266615635 0.6160877220650506 0.025303239098278984
0.886030793938536 0.5324889481859538 0.526499918693974 0.017070651088085306
0.7604176145414773 0.5362707216632582 0.4412868696901327 0.011336675850412483
0.7369619498396327 0.5369916434585652 0.4640343486065695 0.008996334874520808
0.7316665143677411 0.5398101119802753 0.4553294513905989 0.012389163251165475
0.6784607080377937 0.5335179551983352 0.6252729309875079 0.014372387662904159
0.5481938574879637 0.5352074247014773 0.49973784531154275 0.014017423745679103
0.6309098140650858 0.530308712114126 0.6033089467042644 0.02371040402848793
0.5100571208282068 0.5372967239892792 0.4965593165340593 0.011842447231439176
0.88237501063842 0.5419609249093881 0.4542128511946343 0.011659988439521974
0.7033388342484889 0.5424818056238216 0.5546385776374172 0.03195952868383365
0.7889786744231515 0.5366959677468441 0.5528451617466346 0.026051938900284462
0.7780862447458801 0.533291275768589 0.606796011597713 0.00998051678356919
0.7937281607797069 0.5309341762777424 0.4610141833857695 0.008335534172506022
0.6899059111335092 0.5396388336401754 0.4627914904828826 0.03584760914619949
0.6762644766591546 0.5438631959926882 0.5702551187535123 0.017043868705129316
0.7654340990019822 0.5356718369775583 0.5157078974879081 0.016540688073310612
0.9006110739786173 0.5384896204376814 0.4891508955763331 0.012423913138261761
0.7808787431871449 0.5350772644573611 0.5024513470880304 0.017496649991646473
0.5282893758927499 0.5383360002813311 0.47867759053457315 0.018013631719287496
0.7396020597568582 0.5358265672863752 0.6380160195420529 0.017203425071353282
0.5801923669490733 0.5362644579123255 0.4534713637231756 0.023321984099159174
0.699137829739864 0.5410529255701432 0.45636850579909227 0.0209659966222585
0.6784815082435648 0.5302063620743807 0.4500470475768479 0.027851709518049973
0.867291298427426 0.5402149301403341 0.5205898013841609 0.015129394690079574
0.8064967550195093 0.5439026044828232 0.5823406600477988 0.011069854142428719
0.8906232766075031 0.5359989788489322 0.5166888857691727 0.02069014247790916
0.8312901077822956 0.5345759048483332 0.5688883627760642 0.009692416755645831
0.6470584255231685 0.5315703552328906 0.4312412620006423 0.013445906829212553
0.9512052279308874 0.5367344292459305 0.4465780901846551 0.02689437723650229
0.4982477620119257 0.5372028992341971 0.45850462581212753 0.011823407806534198
0.6896174603197387 0.5308507689289503 0.6792157215973882 0.009402812590003006
0.7004338234658636 0.5449074678722856 0.6346282176387447 0.018176863164256273
0.7555914556806197 0.5374972992700816 0.6132528399033803 0.01142803801259576
0.7101044267623766 0.5353403183720564 0.6548884012784107 0.02732457507958333
0.6618351728976768 0.5334261083658826 0.5317369747605706 0.02459448978138016
0.680250860114564 0.5355703843494002 0.6569845786461614 0.017450626535837222
0.9069635978718961 0.5421653637055839 0.4853060610934288 0.007598454529125282
0.7037331845270289 0.539713732655824 0.46753502588199813 0.0197324611479497
0.8953718544896785 0.541870272640195 0.5054684062511968 0.010988980862647104
0.9069443684393255 0.5289917311296545 0.4324613297636789 0.009540076399056135
0.6467544246368968 0.5410808811109952 0.5711135575131118 0.024292054886878574
0.8356962984757101 0.5444617427691407 0.48437565197711147 0.009105493701834465
0.7288296062947852 0.5348722101096262 0.48910863444103814 0.003910167256817516
0.7080665717294289 0.5361920534093162 0.46565955120749625 0.02185479339450262
0.7465834105099778 0.5422213037018702 0.49187894679189925 0.007652704218993262
0.7404736446326327 0.5365785654883938 0.6137204233951369 0.01971166772368956
0.5426218461653469 0.535678893505599 0.5057127516760516 0.00827485913611657
0.681006937211607 0.5434207757132854 0.4923654986677652 0.016656576919068113
0.7579834611393635 0.5378671190547917 0.485766770441227 0.00863468837907468
0.7246467282441043 0.5409235484175459 0.4782359170819843 0.005436594245715578
0.6028727103611246 0.5365365292066601 0.5135949504535466 0.01639136524554049
0.7275069493588493 0.5287694083140635 0.5597702939128061 0.009560876037447704
0.6257358347542324 0.5394573497869252 0.5618611616707544 0.015919656158741552
0.9159938252253828 0.5386055859665638 0.5151245645443198 0.01652982327975966
0.7356551920210547 0.5325451157579978 0.6033937932535345 0.016607359260033903
0.9619051508103907 0.5385250072530601 0.4449046958286412 0.022429392291953176
0.6355247736105326 0.5415259953837103 0.5643441240368563 0.018534299599097376
0.7213356363229662 0.5374027365587771 0.6368260365477556 0.022723399673037065
0.6856643660910459 0.538869087302132 0.5303245951801392 0.010912112175253726
0.6461170496200682 0.5367628475342764 0.590418172167634 0.011596761871049837
0.8047786327759915 0.5398169281706882 0.49223208216397896 0.014490451782014446
0.5511159957112856 0.5293968086426912 0.450279899288683 0.005414183412617581
0.8030433513114554 0.5378304065773009 0.5258629879806621 0.028442415193158366
0.8124281509314524 0.5346794525258957 0.47428286362888533 0.019365484632224428
0.8654768975304398 0.542170772741755 0.527428574002105 0.016858977071074307
0.5440486729445515 0.5328419174688293 0.5324203443572971 0.012117270302686896
0.5693001947765257 0.5305375891676778 0.49790404205308 0.009418273980232695
0.47891828549747145 0.5383412723742214 0.4711354957224449 0.014843609948975824
0.5960846321348138 0.5220448508307689 0.5893557628507224 0.013728435700686078
0.7033550463596184 0.5423338629833195 0.5061173951037762 0.018334703066436295
0.7085213376033211 0.5427302174295484 0.49965826197648494 0.01664288058839816
