x y z curv
1.7491153806384807 1.0462505076328568 0.7429126092265131 0.06523174577587744
1.7707293371923367 1.039495616081783 0.7385045952508198 0.03484501640473097
1.7717642661062423 1.0500418585098727 0.7365579776540557 0.006558113118932581
1.726072668525795 1.049329627746788 0.7367136701327759 0.045144344528076925
1.6970127268204507 1.0375323750282242 0.7378820417224484 0.05876342762169148
1.6806418329718407 1.043190241342867 0.7406759442349788 0.021987499508370468
1.6745145278507019 1.0530334930295735 0.7321123249801097 0.00884241197563148
1.5814601900629692 1.0491166985029197 0.7370063044593694 0.025960252943488877
1.6587032963751758 1.0482727182146072 0.7361596428369129 0.03618519481685623
1.554427356601195 1.0546140781541256 0.7415949702685871 0.003925262777267646
1.5919847824777296 1.0472181172114876 0.7391396412325237 0.03693309343673928
1.6463972114862693 1.0495303983115594 0.743103692331034 0.03250740055493533
1.6793656047320713 1.0304343419582935 0.732951898160705 0.06436824937506996
1.6144111116202504 1.0311867145752533 0.7407789666206769 0.02846979824384256
1.7216030789218932 1.0357689446725773 0.7479183694943953 0.09481636001654653
1.5753476108761058 1.034791874012632 0.7382444612858631 0.0393909841386837
1.5966547796063144 1.038136226927414 0.7457940608759771 0.03802907941047494
1.6566852791607292 1.0387199256915116 0.7329853551267845 0.061447433216428766
1.8305483808325407 1.0430803003498526 0.7357256990604448 0.024989308644960934
1.8429728177463203 1.0425849305319757 0.7446569257986845 0.02449977752948611
1.8986674756389756 1.0406456003698337 0.7388424643159325 0.019233654302201607
1.967288736227264 1.0434709992820035 0.7440928338222083 0.05532085002717465
1.9404813994107908 1.042694385155354 0.736536784435212 0.009310362331724269
2.0007780023252786 1.050760789302645 0.7341987068082688 0.06264337867114862
1.9829128928410802 1.0444916436315368 0.7340076377015968 0.049667455808290975
2.2570523284811075 1.0357605527252116 0.741433262180485 0.043623727865705134
2.2967608903390535 1.048090259923853 0.7476941688988845 0.013160399645957655
2.2033684165842615 1.0430014777768821 0.7395503880690362 0.03780832019455472
2.37640286218179 1.0570775579506058 0.744393758161988 0.037865395814068774
2.3496634493596127 1.0421936639221556 0.7383157754276256 0.029665338198234102
2.319428418338917 1.041762851322727 0.7426233823552894 0.016680139419150385
2.282192329380788 1.0567794928104537 0.7439054925102355 0.0144036972338499
2.1250664038736886 1.0399764537147027 0.735356624998389 0.055646223506898795
2.0191346790664304 1.0370788703158542 0.7445035732920344 0.04254072175965452
2.1725317453441164 1.0434055795948731 0.7346103571739062 0.034432084862126934
2.029629466799896 1.0520418807744518 0.7397660526939159 0.035010747403660177
2.1944597779183677 1.04920898994605 0.7471929757491198 0.031231701484222316
2.1084356218386353 1.0413036853225304 0.7377564537752568 0.04362185727966874
2.167235221661225 1.038372894479655 0.7438329668004446 0.0215532205433829
2.1453727678948264 1.0387070584301104 0.7375738724802706 0.05957734097580599
2.09244283938083 1.05356475501372 0.7452121793626713 0.013766190066227176
1.9513941183949903 1.031236857236596 0.7347904724497126 0.02964726659087692
1.9553023768924274 1.0370295307843769 0.7429453206614772 0.04039273803327744
2.0530241503160416 1.0319326826602107 0.7408670681466585 0.03057249670035113
1.9969019346280246 1.0457059209970385 0.739152302820792 0.07170389027783092
2.0385486550942566 1.0352008668130348 0.7410706929597134 0.05659770124202764
2.05254986185085 1.039374886019198 0.7380812275961521 0.04532082132198481
2.1413410833483653 1.0367475547195582 0.7464897424483987 0.048212401025315516
2.1091176689158364 1.0325325501135876 0.7399550649990901 0.04369943482496625
2.069891728840587 1.0388103929325696 0.7359176521863849 0.016231364168094963
2.01577814651997 1.014008360542959 0.7350797352622275 0.06496911713805757
2.1678088505250654 1.014092210400475 0.7272497802606851 0.04726137627443432
2.0432779904914122 1.0194949483813962 0.7282788645489238 0.04867859716094373
2.133237711657038 1.0117400109097843 0.7337615986824887 0.05445007161838411
2.279268509804186 1.0227841349381228 0.7311866819357408 0.05784027618053241
2.2189867210879983 1.0104075604722744 0.7247221127295754 0.031851810106226085
2.179946833779046 1.0170729615956449 0.7290215950294815 0.033026665739466506
2.228490647657067 1.0135894031682189 0.7254439696162198 0.03302811909448268
2.2509897127588876 1.014947848215106 0.7303182750021742 0.045257252749612516
2.2961601357446746 1.016023356293865 0.7216197885947431 0.021227236521376522
2.2410545646481284 1.0225451551972877 0.7296514155536135 0.05163783981706758
2.072902181326898 1.02724316985276 0.735322613559834 0.01455232361084001
2.1258240951254694 1.0220434310305881 0.7435517171852052 0.04939138243642591
2.0933197387224167 1.0198795790020936 0.7297092113091389 0.03376415244576938
2.0854998486294942 1.019579559754359 0.7266364800331478 0.02968345405510679
1.971744585707708 1.0075349282924593 0.726838525346812 0.03138483861353108
2.055867063036872 1.0184122613161193 0.7159366446169803 0.01809589492382399
2.0463157417158553 1.0155871811351036 0.7210008928467982 0.02632189938060689
2.027659222152472 1.014364244338289 0.725221771157465 0.027663437354546096
2.0030377073363073 1.015251931354997 0.7207454399443226 0.0983656965885482
2.202839189217767 1.0155592453048379 0.7190681885256626 0.061143898089771796
2.246033355517635 1.0126345877676042 0.7157489133023736 0.05478261245495267
2.152583240724234 1.011834859600255 0.7235066551027457 0.06234486656078703
2.126942786229607 1.0151541469799152 0.7166633942182238 0.06147282978488189
2.115841350007271 1.0137074711881668 0.7315848643429143 0.0484372016274214
2.2486213377985393 1.0296444998559058 0.7356014455290493 0.023137323380206146
2.153011324656648 1.010388487972613 0.7346816597992337 0.046734687792659206
2.200596949527588 1.0278703604550252 0.733992174218476 0.040555481501857574
1.9282652824519777 1.0244231042446499 0.7329799338775665 0.019333757772444577
1.9540239227908567 1.0298568040088352 0.7319327352084527 0.03354727774648781
2.27984940351228 1.0296951027881416 0.7400144310350705 0.01701247707302825
2.391049578064613 1.0248848997068765 0.7359512251981987 0.030997554369911452
2.3378762201698096 1.0275694618584617 0.7313573784500811 0.017587711553857372
2.298212242820105 1.0278799219814503 0.736245323463771 0.03183806202325937
2.327549688423361 1.0325906943795677 0.7454804831340592 0.012226288224306964
2.273804258631248 1.0204295851602152 0.737871975320522 0.017188209712700422
2.420795123522693 1.0130490686906273 0.7226911586934357 0.02453040294933535
2.3726163945608247 1.0256444209412225 0.729089874914084 0.040468238857528295
2.528900883386237 1.0278300812283168 0.7376674885923525 0.01681941177934635
2.4478260814060673 1.0211366517297633 0.728031923865085 0.04172510316783984
2.545675701432259 1.0144743451910376 0.7254545139783868 0.02996021084941399
2.6667161761500555 1.0172992764469662 0.725649976154146 0.018559916299858103
2.582334972313844 1.0225657672749922 0.7337407872195304 0.029733978782840897
2.5932922858515464 1.0203015823303034 0.7414370629689409 0.012978530120150544
2.616502202962833 1.0277667678959634 0.737452834661712 0.01522478117150953
2.7195238128905075 1.045255524710379 0.7386383867857665 0.011444055425900355
2.742253910372248 1.0433443874230695 0.7439008138729315 0.006857293542473486
2.875620385085893 1.036458567230636 0.7398876058241978 0.05728908863477911
2.820980460376789 1.0390593223719182 0.7348931807398336 0.03922574109923355
2.9186583591061157 1.0448673816862597 0.7332562713193727 0.0945023925194586
2.753719763494461 1.0498651463428448 0.744730952872804 0.020496818254551023
2.7722073101364346 1.037904501732513 0.7371002805601107 0.023823294458465934
2.670731711451122 1.0246387448651775 0.7389651508700684 0.018157035385826296
2.684212748761033 1.027131926835174 0.7341617745844121 0.025090013804101814
2.706079265587488 1.0305777859530114 0.7362465109678676 0.035681555846955273
2.742376305774818 1.0280974336093816 0.7302221675719323 0.03305197950142032
2.6467715211563037 1.030045574426518 0.7370007887267643 0.01143304649065667
2.610046229955737 1.0285974047150206 0.7369916925431701 0.017747348332092506
2.5303238199484395 1.029961209976632 0.7432132306781273 0.014123222936800706
2.553539624332511 1.0379961778985234 0.7423976431050786 0.03351556437423182
2.42131237391179 1.0354647163946333 0.741883486463165 0.014207564564675285
2.4526262217703616 1.0360409990217163 0.73331478142067 0.022800887655242914
2.725745131657774 1.0381574128020925 0.7347068850885061 0.03425325787458207
2.756185678263929 1.0409336106135068 0.7374366602686718 0.03719341704598858
2.7835225933806527 1.0325296669716457 0.7438499401581584 0.015876984696665854
2.8078562280381396 1.040245597345702 0.7419004806077864 0.02513473837278773
2.5437733689234974 1.0447770595008397 0.7381496994056218 0.021801825668001193
2.5986306498957856 1.0354219977739672 0.736467056323365 0.020260445802439814
2.6170534158124523 1.0418791359736106 0.7449665606146029 0.02023842426382867
2.691033602374873 1.0564005593379329 0.7428298338408161 0.008339472263762825
2.6994114803172264 1.0556362586779275 0.735306481536791 0.002144027263799214
2.56023141966366 1.0375034448243892 0.7336038894020783 0.02250196449516955
2.6591899352746897 1.0449886608985985 0.7419786117810554 0.017243435023566286
2.5007081366573645 1.058044570041264 0.7488212631922241 0.0013996186499857627
2.6385915406953924 1.0409712013088133 0.7388637877832164 0.010071067422194584
2.462494810420555 1.0409102217735056 0.7441699584883762 0.013871423516518943
2.521884481566923 1.0364613412024903 0.7389938825487187 0.019445510375617023
2.4351737608363107 1.0505244125566513 0.7397627325189997 0.00771838584517926
2.4817485766683434 1.0338943434505554 0.7443848185472799 0.011291233933145411
2.360975356269301 1.031144700266031 0.7449980126282876 0.027862955132162626
2.2242381015664723 1.0205375190135224 0.7436427217637679 0.015472243600229195
2.5261646052481628 1.0351090126391282 0.7400529460173483 0.022737182821229888
2.4669289404880415 1.0310550790879025 0.7320742978755056 0.019363525735027646
2.5017114303935557 1.0256438759325766 0.7389402860075716 0.01433575478959414
2.4115444197611517 1.0197599138897375 0.7334338415513847 0.026813371646986675
2.3857485884986063 1.0293885202406983 0.741249788623967 0.030372949944328546
2.3832559028676643 1.0132340535695439 0.7195327456424662 0.02644547578498765
2.5559505482542435 1.0185284527015952 0.7205307708149106 0.04011859789941304
2.362376798671647 1.014844331708766 0.724981726877241 0.047732212308586264
2.4370113814938894 1.0143614795466334 0.7274485324455936 0.0417217224026721
2.4816779767442454 1.0173754083175914 0.7245582416010727 0.03577761642990764
2.6499230180488826 1.019602858711669 0.7251160381293724 0.029997887322426864
2.631217951360525 1.0205562404783826 0.7290327145061586 0.02403336695850922
2.402866063221785 1.0318547544306633 0.7381154318296589 0.02628870867879851
2.341359887119926 1.0372540188794868 0.7413823529514649 0.038160155970752424
1.5081589365065728 1.0173100085514843 0.7064446735534253 0.02750831687032387
1.522264222100099 1.0117382945425997 0.7135681192928975 0.030099353203016967
1.5343198228909285 1.0244915755482173 0.7346333744736516 0.061090360075842925
1.5256555311319966 1.0136903539038906 0.7341703469478251 0.07361933639862064
1.5158383794154406 1.0224117019195202 0.720462268096092 0.09191841257058382
1.5366032719953604 1.0839076439507145 0.7436004031778977 0.001162520383096354
1.526261837609175 1.062630784524216 0.7382196064106293 0.0008658934373321494
1.5318739094042582 1.1039267334477223 0.7408599954877115 0.0008232672914387022
1.5260882715032171 1.0490399573654603 0.7381282157091045 0.011514027173463904
1.537555286346504 1.0984803017663407 0.7432734330328884 0.0014441989537352865
1.5428887605459864 1.084067956222921 0.7428059097845363 0.0023162589497425466
1.5380315903404982 1.1173740187943153 0.7412510746958887 0.005566646879770871
1.5122903973553299 1.1361049707395081 0.7357167432716607 0.027284072839933157
1.50311092801878 1.1527708763310915 0.6971551291342579 0.030618460419152546
1.518015284100002 1.1617960723217973 0.706200317120622 0.045147101582964484
1.5239365150206114 1.1306990583801593 0.7382749634398041 0.01731357169768997
1.5243564053803909 1.1616083974815952 0.7135025926984704 0.03702760173954252
1.5200528160738627 1.1485914432856499 0.7265248235910207 0.042225004143282174
1.5287852039738565 1.1512256959374711 0.7312165781356383 0.03620845050839154
1.5625377014918993 1.1394718919382056 0.7382970670147145 0.015952166306720156
1.6889654228579307 1.128898722317192 0.7294011818746654 0.04147174478508368
1.6525167020250209 1.1389503839859765 0.7417687884734566 0.02395916638096515
1.6441861119869878 1.1280612349308798 0.7530017969197095 0.04399775567131997
1.582584666656696 1.132795291405584 0.7374347413841491 0.028410798975761684
1.593290114662921 1.131132632978329 0.7423682340491764 0.01544358339585052
2.85245251301869 1.1689075835088698 0.6951540507214375 0.02136925506368409
2.936771871072387 1.1726588412132266 0.6986331816108146 0.026468516656884
2.871385180928676 1.1673690026695738 0.7048751140301299 0.021382443514960256
2.9005053507918332 1.1634639745263198 0.7080444180009023 0.03666519503681392
2.920430390320371 1.1661281794185885 0.7141129312126115 0.026233144674471173
1.603651222307752 1.1619777626442618 0.7171853309117534 0.0368325123769406
1.675075252820712 1.1559913766569314 0.6971510391313236 0.034151792520842265
1.579413192724881 1.1638624329445513 0.7054001289771191 0.05335826905923896
1.7599908123611774 1.1679955133863278 0.7101563264933896 0.018948061593978233
1.5517431483620907 1.1682560189904643 0.7091631253608837 0.040567475753378796
1.6818234338868487 1.164390861739565 0.727487462388553 0.06719840852331016
1.5855457878489427 1.1573917180348947 0.7088992762989058 0.06308670306777375
1.7191001293683899 1.1606831649585294 0.7082055706351063 0.025877685383217924
2.341316185138973 1.1727456556187141 0.7055825776959588 0.035284671394185695
2.317686835138611 1.1627577933139845 0.7060905467789318 0.07111606726828358
2.437886271205633 1.1722603234023923 0.704812581948775 0.05149452325188356
2.410716819940847 1.1705285179423568 0.6950590747001967 0.023797551915288713
2.4594274524474478 1.1746430985073644 0.6985615325000887 0.027350710795333254
2.497439354040461 1.176291958297045 0.7069255064239762 0.03494118159193565
2.5511785577389667 1.1730338323453713 0.6975806752474519 0.028368556374254707
2.6692770075282843 1.1679505782839363 0.7012710715328407 0.021192366573287765
2.5206455799098255 1.1704391239788854 0.704760181771864 0.05148562766686444
2.6011858342218828 1.1673276878039747 0.6923474564866746 0.025379673281575556
2.5050086538776877 1.1671667023507764 0.7016018970453277 0.04379387519419536
2.672380590901641 1.1747511160637452 0.6988917785844588 0.021389097969271218
1.618325098351752 1.151155222535398 0.7304285011884032 0.02931063209329852
1.5804888567610913 1.1573495522886152 0.7252565536302996 0.04235436549340854
1.5505594499483106 1.1609437541050445 0.73315281268047 0.02325874334254845
1.590783007001444 1.1599090280048256 0.727815580060493 0.031742543699113786
1.654781358201917 1.136165569894539 0.7277570430037603 0.027616569056194206
1.7350923466808061 1.1586600779357672 0.7350284459402103 0.04679253276043637
1.6738090354962425 1.1516181201503235 0.723503258842025 0.06065779881251118
1.7360476037785368 1.1528159222277847 0.719567541403997 0.06054056104723837
1.8440278092619347 1.1578066015994695 0.7288340549980665 0.03595050537968876
1.7923363213001677 1.1584397407123475 0.7267801383072654 0.055185595089033014
1.6899265878093916 1.160917069859545 0.7219864173428504 0.0748681205135637
1.7633166394477824 1.158921581437283 0.7419758597138926 0.03285652737254929
1.7071667330061824 1.1482771410146342 0.7281017713546608 0.06478633980713074
1.8541138479374397 1.1532260770281662 0.7394665499707176 0.028031420489608234
1.8119449938826346 1.1583460953831644 0.7268241601038031 0.04141727194800909
1.9469872632295249 1.159938992582656 0.7340525565741755 0.01222095285340984
1.9051065513106802 1.1617992509927568 0.7265228423858326 0.02867413977403961
1.7854967999756806 1.1574847433933209 0.7223075541939198 0.04572289579731347
1.6430472970243797 1.1611829480239424 0.7272211588882078 0.03959555996834709
1.5354958473614098 1.1616010925317837 0.7216929259861359 0.02385673659447951
1.5637118975850364 1.1535257010746365 0.7254108425794814 0.07811763544872814
1.8199841025748302 1.1622407689498002 0.7207999638342202 0.038759848307603276
1.5688005713590554 1.1739635616327484 0.7178228041562666 0.036476516240468534
1.5988600729959241 1.1666545882921153 0.7226984700485337 0.03472907897527128
1.8813148832396163 1.1646725854530184 0.7024577062414575 0.030842236165515884
1.9365197639832399 1.171982351121475 0.7020250864873603 0.020732318878420586
1.8635249662844713 1.1584346990090535 0.7025590963256777 0.021325652995924805
1.9033555255003114 1.171838946448875 0.7043655368184768 0.01255304074420545
2.0122792560579192 1.1782338463524253 0.6990391430361866 0.024174865325907357
1.96539563055726 1.1695668464031252 0.7044183362615577 0.029511353460394817
1.5698477156762085 1.147981633685265 0.7376991430071571 0.049452939112905187
1.6449864737605435 1.1376962729549671 0.7387445210933677 0.02287238935470827
1.6086830317009806 1.1372094544358544 0.7449019372636392 0.013647616566361065
1.5402437556321131 1.1440057732289752 0.7356002792397237 0.032208263857607236
1.5549064858041657 1.1481145850235928 0.736771200436786 0.020691637589706435
2.727342484959795 1.1612925644212928 0.7072074712244701 0.03436193393189866
2.5844497768157924 1.1680694669020761 0.7076325063802166 0.023757441212649336
2.69383344840455 1.1729141529331948 0.7061475870920715 0.018126920862330892
2.679711555340447 1.1605056759803531 0.6980870625855319 0.02235064581916594
2.618486569155101 1.1636388009304637 0.7067722092462335 0.03865087021066465
2.632699008372043 1.164530850599106 0.705797937278613 0.035458807138514244
2.0285022408320956 1.1591368295598754 0.7204717091936399 0.03669263743316893
2.041507255515369 1.1567905382478385 0.7227021105610869 0.054672104173994214
2.0009319111728163 1.1589895699836659 0.7283899007751288 0.03568658801375171
1.9748818167136128 1.158984342498156 0.7247477106350084 0.03180501706921737
1.93041813128095 1.158968813274918 0.7229271783353944 0.03692862442253666
2.1903735032788894 1.155907878616597 0.7247034115444999 0.06383334564817444
2.0962491002406716 1.1612142207958325 0.7253253265615068 0.0427483836861509
2.139651904205468 1.15747672773664 0.7208538607752542 0.03842652186370993
2.119905316400096 1.157010172350383 0.7227905197797887 0.03650020703565047
2.2138508054679518 1.1571122150104691 0.7378446350385547 0.024724311106468267
1.744923673851481 1.150018667683293 0.7349732850594742 0.054975345212796255
1.7134602723430006 1.1511040837087685 0.7407276709700638 0.04428717670817821
1.7907318424214362 1.1571081776952017 0.7359882916633566 0.0603235433364417
1.6321268340515416 1.149704665993764 0.7407853276311644 0.023745793106993283
2.2055620524582613 1.155574237670146 0.725107450169431 0.042731447245072
2.1528989201761273 1.1540879643347957 0.742416922409738 0.026698696231320315
2.0369947945569122 1.1555434930777517 0.730851705706333 0.0388267190665072
2.1459455744069436 1.1444842994505933 0.7375980740116146 0.04266463426416613
2.128333514443293 1.1453423507841272 0.7306566484536676 0.0427664697920499
2.0722109416890127 1.1480596345245966 0.743866805562794 0.03736498043242398
1.7578564561571883 1.165814424530814 0.7217622894794301 0.04119632820042806
1.6463519720100201 1.163687506558708 0.7155188328781887 0.04810292123252697
1.6252955672868765 1.1600460660470426 0.7255147335089513 0.04303681004672329
1.6847661114063577 1.1611512405415436 0.7137900966672961 0.08269948998811986
1.7928076072112633 1.1572844325134006 0.7168862551494817 0.039471161753192666
1.747900482548199 1.1588950814725123 0.7177372057633798 0.030638771947425363
1.770104902626649 1.1563653652213022 0.7239457725080106 0.04932128379270985
1.8532919370591896 1.1601267281932228 0.7242573612184048 0.03745342683391075
1.899764871237843 1.1668823860439117 0.7216993471266068 0.029441009775253737
1.875109384463544 1.157248097287133 0.7207281376341297 0.05005711277226546
1.947609627321342 1.1629187824050637 0.7159107174662283 0.04295859008038387
1.9596424299445494 1.164534719353727 0.7138732159679356 0.03875880834326604
1.898434343406654 1.1636968593790826 0.7132373685066723 0.016588933248085566
2.0637444972712222 1.1666755092995778 0.720156070729236 0.027980060160784255
1.925186305040113 1.1646342451581504 0.7144563240026239 0.03920809094158374
1.9869902578607535 1.1689681692029708 0.7175199028816132 0.01863415196491495
1.8261315022885154 1.1630805758653155 0.7159185746167716 0.03621473211053811
1.7828081778373615 1.1601125350167938 0.7267213448995916 0.04833858861598109
1.8424588328863054 1.1697672294236046 0.7020537222518558 0.02751153186891962
1.7095380191914347 1.1629966846850792 0.7122402855235267 0.0303845321851607
1.9339129308665846 1.167741693940413 0.7151636040975903 0.03559208095122766
2.0458539103982094 1.1610736159238257 0.7124955796634808 0.031844886682889186
2.04941723080149 1.1624788444491692 0.7149005767075333 0.03784389055096235
2.0901484520580906 1.156176601741226 0.7133043392364088 0.06736684010108063
1.69149851636137 1.1634185034022604 0.6985839246247563 0.04492733209998307
1.739552282679381 1.164829652716729 0.7139276475096702 0.03304480591011076
1.7046743845901013 1.17334254275469 0.7095478534794485 0.025260689405101188
1.642436710981728 1.1657046271983307 0.703602445597074 0.03275425941103706
1.6585940674133144 1.1724615353504833 0.7066234487614923 0.02762268262705753
1.6206505882937579 1.1663257307549397 0.7122528319133642 0.032947828185213024
1.8273225878233996 1.1722060340160594 0.7003352471265553 0.022553559819917163
2.0289937651110086 1.171867574163458 0.7173836822314589 0.021206240428007138
1.8501238488340987 1.1723667435518836 0.7086816559150277 0.010960117297715236
1.8125663013169038 1.1657928443956724 0.7165686601514089 0.036283631046358504
2.0051911535887026 1.1720691789080262 0.7154147442066359 0.022793085488054782
2.241426106501336 1.1680663239755773 0.7195929327212703 0.03122503739511152
2.223503885640259 1.1633472135697653 0.7114032477655553 0.04483360447372693
2.135367660251935 1.1679276153543896 0.719207393755823 0.03281028880207577
2.1742584767635194 1.1717557531167186 0.7153156919907021 0.020337729762380005
2.2064507111268585 1.1644680561255814 0.7150253462509146 0.04965665048861195
2.2525810598012836 1.1662218100096196 0.718196986237649 0.036543215489790094
2.1016683087663113 1.1645667590506479 0.70003690269263 0.075437539776188
2.116541576829356 1.174013463852193 0.7054461774170228 0.04822414824602439
2.2605309656315167 1.1664019421454552 0.7039482909289806 0.03375006597321864
2.1517684537971 1.1642569387755182 0.7097588589442836 0.036274049451690264
2.2272249527413392 1.1727509254094113 0.7090392680564418 0.03649076580901092
2.1900280813620685 1.175733345873612 0.702467418745225 0.024146001628663014
2.150152891590424 1.1616109523614724 0.7227010639865202 0.042753734576183144
2.304562224738837 1.1638578022436106 0.7228620112623871 0.04665557814147005
2.2716349665009914 1.1556209171488894 0.715684655926556 0.04582118143357285
2.2978028837146476 1.1602624734888356 0.7179319202143385 0.04402789453515693
2.0867475607029755 1.1536545415928432 0.7145234831648292 0.05147969312857513
2.224653023396915 1.16325976910718 0.7255244434934753 0.038367633955764265
2.2669639015279106 1.1608838714067022 0.7271863368492646 0.03558643832644795
2.417318264293314 1.1639537512956244 0.7201111295624734 0.04349462103754935
2.4338835923271027 1.166295426497935 0.7146230930893656 0.07117789324773384
2.3396486286941416 1.1719451795020104 0.7168422878998307 0.023154488236238738
2.4516941092503526 1.175100493514601 0.7200186105053161 0.030862024748705943
2.3769782426624033 1.169080010730728 0.7174945960067011 0.05796093560115558
2.319717980917009 1.1594180026533243 0.7170534154036959 0.051357722915521445
2.357031618589007 1.1610482949937382 0.7279596636658171 0.04898974192641864
2.477073941668724 1.1622178065373643 0.7155552484515467 0.03255554419265564
2.482230111617424 1.1684673710213742 0.7137110782554956 0.03296911460265176
2.5040577951812617 1.1659339628262066 0.712696185465731 0.05568680598232533
2.446358974776275 1.1630604305613825 0.7210306142413938 0.042445421977135175
2.4016524583062133 1.164817990372285 0.7232038757715392 0.025689549224392982
2.4901143967850534 1.1546694873747942 0.7265836189094372 0.05159291818637587
2.513275913607766 1.1514699836051103 0.7318448927638314 0.03395846517526699
2.5717377636141325 1.1549514747800085 0.7235437293142764 0.024066744703796137
2.4754068704925363 1.1547270585781089 0.7430547057843945 0.020776991402998067
2.2653316331818663 1.1628711151121969 0.7278557654831398 0.03389722314780496
2.4465359961874986 1.1623932324667743 0.7267717310515492 0.0422498181048277
2.423428955231831 1.1596120751091836 0.7296573387275633 0.05625272337063556
2.301565539865952 1.162937929872502 0.7261761536460638 0.040120903627512354
2.368396243642198 1.1599299681477142 0.7296292621203562 0.04654699675547572
2.3273519144703703 1.1577529657789392 0.717930019897382 0.0649395113109628
2.3849028727513817 1.1645676971482841 0.7166090962134843 0.05358253084729375
2.519910745840688 1.1735989813277283 0.715001276762119 0.042881771793428024
2.604345696537467 1.1538537239377042 0.70913985067028 0.033551295556593315
2.5310054905612427 1.1665162170889327 0.7079141102332618 0.0479893975705786
2.652679110252613 1.1628143349226312 0.7122915000432182 0.018655252886263896
2.7026516616426512 1.1685137363032876 0.7034309082995953 0.020950827884401474
2.6567217193674577 1.1665611319219513 0.7172700576407005 0.023452176425054563
2.5701676161807194 1.1601092508489803 0.7142636135123999 0.021741274912447775
2.854509352181728 1.1592162009502938 0.7096499780113541 0.030237935974349938
2.845503360295328 1.1607714742091597 0.7071257785297531 0.03554479880399765
2.7769463346875236 1.1557087319252304 0.714692588569911 0.04822355923672177
2.8668886240814797 1.1712430826325457 0.7179651625113892 0.021957385035259656
2.8855643252568566 1.156240790058041 0.7202875507374573 0.07812493843500097
2.7911057892186264 1.16400462418052 0.7209910695510228 0.03588046044961885
2.826594771924771 1.1691648288524772 0.7212060108380763 0.010550393124779534
2.907161296586959 1.1631552146832986 0.7083760133443143 0.029559142241212033
2.94042903868903 1.1612390010994331 0.7094750236320232 0.03231447456173518
2.8137578841211583 1.1695669278568925 0.7017197683921493 0.01983265282343195
2.9532702761285736 1.1632897683254986 0.711861289454089 0.042971463478267205
2.7381884157187546 1.1696872375282963 0.7133840327587871 0.03509030908525472
2.778068912274716 1.1676838192940924 0.7034355607409549 0.033141070231215215
2.7758323476214537 1.171801007653123 0.7011197888245113 0.04285241280991597
2.8244770015152136 1.1593363361942872 0.7082684290423957 0.019795863050588565
2.5500789237161197 1.1528734760736934 0.71648350825992 0.021078643130954824
2.6744277985564415 1.157615754718371 0.7237058836817882 0.033252344557187195
2.7210923139739145 1.1620781416719872 0.7203789777946389 0.036677855948478104
2.645666866884206 1.1572323740773853 0.7178797651048622 0.03727389447111371
2.5819054282474974 1.162102211265714 0.7094154160761744 0.027436765533299982
2.9215969044592 1.1636342446134194 0.7167817221030292 0.02496330449269433
2.790542448945872 1.1575107702564056 0.7268496486036703 0.0364856862345373
2.740159851413872 1.1628616108150829 0.7185058999707128 0.04684146401537839
2.884172854179007 1.1598050798083388 0.7302711100263172 0.049454099953569926
2.798287679675269 1.1627039923239988 0.7332130358368578 0.02990642310539251
2.893717869763644 1.1629695987901603 0.7285354836791617 0.026383641525105386
2.938040018802146 1.16723224605236 0.7210974734907623 0.022425641283759207
2.8210152759391933 1.1565820123280623 0.7228455039657227 0.04521954690046862
2.833287909937339 1.1564400171094282 0.7304285729033562 0.05858645566770616
2.771957843468641 1.1609273027429965 0.7292447431966683 0.03566912548995318
2.8737639241427475 1.1554364948211704 0.7299076644728637 0.0652878109780547
2.7537129364113513 1.150772256298057 0.7202784232861356 0.04453840440111783
2.7035990100309006 1.1525081448893875 0.7296001348470054 0.030386171228512966
2.858260770110531 1.1623669947665645 0.7234000532894649 0.04298914411098176
2.7983807405014267 1.1591128445132526 0.7350494060958863 0.033255563752192456
2.7899626457280235 1.149262292516384 0.7305821459425047 0.0338119073569323
2.9278620735071703 1.1604595990093072 0.7363720786314571 0.04076657543289914
2.938920328903618 1.1522792274560176 0.7360623476632832 0.060093263241589666
2.9106522874351883 1.1572284575920244 0.7283410270814273 0.04400381151484981
2.868268973763276 1.1462044030580125 0.7393443221633428 0.033373291791389696
2.2970167172376503 1.1665373011882987 0.7122070918087049 0.028835115914184868
2.358961468429004 1.1646722918835508 0.7114691301053435 0.03541375973500655
2.283731180088368 1.1594296364796113 0.7055806514850422 0.04020659573484534
1.9848861981340813 1.171398321216732 0.7040234024673468 0.04052157093680404
2.0599917015080766 1.1707846030507774 0.6958525602049765 0.03815452541059843
2.08411397015493 1.1745749556098248 0.7079331149384748 0.06710446523220687
2.1596682708149864 1.1639522250126075 0.6989922183002208 0.03678358288502001
2.7229482737704167 1.1535028462974979 0.7282854795165763 0.0430021320848185
2.7437306912228587 1.1416534876260822 0.7273578062277503 0.035008437325016725
2.828867761581532 1.148688903943761 0.7363422964256284 0.05683756444067637
2.847270195117925 1.1524669077038132 0.7370690961615463 0.0470604924280929
2.766134926335095 1.1430267521576263 0.7337056836623348 0.029486749318621643
2.715926238213885 1.1552988282025405 0.7269395506644744 0.03707473680319491
2.81568230037775 1.1529996550932016 0.7348044424096228 0.056170945160090476
2.9050569285210006 1.1434967811829029 0.7322541679935751 0.0468818219156837
2.9429818144164273 1.149754950209043 0.7454762455321362 0.05945311789213205
2.947887370794727 1.1545962861718546 0.731361127704271 0.04845177234289032
2.8362585707341346 1.1285116645235975 0.7393072582232072 0.021366398624618373
2.766296805790205 1.143860280220405 0.7380227031254014 0.027368862648198853
2.78917406737078 1.1469650818969288 0.7426856277369249 0.037925876324622576
2.7750385956567483 1.1334906955440573 0.7394038939675345 0.03459140500459315
2.67860768724063 1.1385763645316394 0.7334100475922538 0.025760343565756908
2.7257572305243194 1.1362038221733595 0.7456801884371345 0.02472143434756821
2.921269828756805 1.142099927958531 0.7413753609138339 0.034374225083835544
2.871728256808652 1.1293244311263193 0.7393333664047029 0.018929855501936727
2.761573822301273 1.1267289907310338 0.7400296355915845 0.04494801028738812
2.7348328047150523 1.130255744370122 0.7321076327676314 0.02128627704446219
2.931327174296893 1.1264129808229766 0.7440706180153932 0.030845353481748463
2.8202016839343904 1.1260917929224936 0.7460422895922982 0.04044182257295923
2.957922115320266 1.1460726122501972 0.7497434016556105 0.0201641973357087
2.888025382035313 1.1227696366938402 0.7401538829832621 0.03288823048267311
2.9087586571026396 1.1255212333257225 0.7409803242047904 0.008173861473091154
2.676837422903285 1.1380492317993804 0.7327044847508766 0.021153589761896
2.638039172832011 1.1457277030187945 0.7404409042483655 0.030741453448853973
2.6142681719958154 1.1391637850375924 0.7352697665995493 0.05978706476133446
2.6903080775286745 1.138193320412599 0.7431396928935967 0.020065118129417102
2.5955180698018774 1.1377513957203127 0.7357365433707475 0.04790154882907152
2.704785381622866 1.1514754704836299 0.7432884330237225 0.025718511414314346
2.652872356813281 1.125614679101093 0.7425680639415424 0.02611334084434286
2.671164107415809 1.128605705074949 0.7423122218182171 0.035356770626727485
2.5801832505991027 1.1222143793031183 0.7459982376880144 0.0026652045354188937
2.625427873791827 1.1314093238825387 0.7386545383468559 0.02695413784465598
2.4727668067137105 1.1316400205932946 0.7434919886720021 0.036408986337066185
2.54216908245174 1.1443448878809213 0.7368402748492502 0.022671969478322247
2.566256928926119 1.1331931656811705 0.7378358285506005 0.021177359803547575
2.4383991419660593 1.139606337726083 0.7313521994555757 0.01761057382938579
2.5975363317465625 1.1264943975523725 0.7396293679058104 0.008709351111991883
2.405174334285577 1.1395613037560965 0.7490420921278926 0.023663295104866987
2.3418474626398917 1.1295069183028217 0.7402579398819799 0.050896163507326536
2.3051773880948048 1.1460564794915482 0.7456571479699017 0.013389669891504573
2.3737420688721556 1.137014407566622 0.7427707239670657 0.05259884566502705
2.4912151773936166 1.1262379546567716 0.7381771784277116 0.06254691305008463
2.436370875969758 1.133247037803814 0.743466549144477 0.01974996977907897
2.2867743653927275 1.1258978750118434 0.741336610481161 0.0332768825067607
2.256990149809201 1.1363781891431066 0.7362281057827679 0.018904274814326036
2.19615369666421 1.1358105005792678 0.7409245820829656 0.056147584894064656
2.1032432942436814 1.125583537741168 0.7352765501452646 0.030127307491301634
2.135638199408845 1.137552780218388 0.7366661120811157 0.034761469255881756
2.237815985115263 1.1388114483104104 0.7361249078649823 0.03101688433164168
2.2749430647878874 1.130097106130994 0.7396659629690283 0.03323158069891673
2.2296090783794984 1.125837260449168 0.7482502454576906 0.03403091337152715
2.4973293171262236 1.1401111956691852 0.7415534300947388 0.04081048065718661
2.4639363827890266 1.1486255302634856 0.7355240072521326 0.033515058173328
2.5353558572342294 1.1288208425541064 0.7464255911820812 0.017311689408608843
2.284078214434581 1.1565507727974347 0.7278928220522591 0.04173236839646629
2.177112770722907 1.1596549774064726 0.7361209323896868 0.04140170361235167
2.2052477594100415 1.1610607235717116 0.7150646363702956 0.0584025098204244
2.241846032128061 1.1500343604739933 0.7222417205920678 0.03766058111398921
2.250912236537529 1.15129655622459 0.7302732813830676 0.034383081689551336
2.1780912830271606 1.1589321574352653 0.7247902495583082 0.04415368306853824
2.000043654548188 1.1610294077160612 0.721378533701685 0.04062694041778741
2.04239719981664 1.162141490106123 0.7138567784552804 0.035502055990769575
2.0419924860828322 1.161760178803401 0.7134819391703838 0.03549266766445813
2.055240247934733 1.1606062325729654 0.7321515948252785 0.0366312999992464
1.9960186200330896 1.1481445116313418 0.7309579258498148 0.034334827944454284
2.016494531897121 1.1535984022425534 0.7251051331137809 0.04033824946726693
1.931988277578302 1.1505566479852887 0.7356798620329097 0.022042188231976567
1.9154560720546794 1.153736118983734 0.7338177606661797 0.014870983050140896
1.9370615912529983 1.1436848529564068 0.7384494225568063 0.01719757687007059
2.0353615776671026 1.150268826610983 0.7426099547385349 0.04499602339749037
1.8739933819028363 1.1534811950745092 0.7329868182033459 0.05471438450869893
2.0064363468326243 1.1571806528128548 0.7407816914392534 0.015877683259359072
1.8902036020560025 1.1365813994514569 0.742938891079861 0.01688084900004979
1.9763493302207482 1.1505399202654143 0.735806802014814 0.0297475174293136
1.9824722204853562 1.1316072202580714 0.7470190780638303 0.07537032527066793
2.060483197523787 1.149089434046622 0.7393618425945138 0.046160907284364346
2.0547640989199407 1.1552637421706216 0.7370133164393128 0.04156561188417902
2.1131583829226264 1.148075686416139 0.7358602327376055 0.030957583423133223
2.09027712882378 1.1416164554441868 0.7436588879584761 0.05157383124349206
2.192984191997256 1.1355199746740534 0.7345885275172509 0.07263665932236392
2.2355414859832257 1.1479577108768027 0.735935896227982 0.028248400414600958
2.2264823110475658 1.1483217680931712 0.7350280689963219 0.02781724496904254
1.9158917213965934 1.1378140383259123 0.7426940045374101 0.009108021771429884
1.9424746496269114 1.1457123257391228 0.7399001893373673 0.014607264869844825
1.962907652572551 1.1454967665043292 0.7452979647170395 0.01994764054946584
1.9041223999274042 1.1358574226963523 0.7419990536686267 0.008059139207556451
1.8044296299982916 1.1352919052696744 0.7370258769281851 0.026652402162663753
1.7722476994509568 1.1350274775604399 0.7401534499312266 0.040566906305640256
2.3211145350388107 1.1342085682874379 0.7309152718310905 0.05941518108950647
2.2871418900691305 1.1374606144937902 0.7387711485097063 0.05216559460867793
2.478902750636269 1.1468798017213466 0.728845560089047 0.040998221274067326
2.372004977868336 1.1502921523428185 0.7388924872104469 0.0494123330797207
2.4412249214491903 1.1479114193903686 0.732635000839981 0.04340031890481855
1.6180199157212374 1.141121681167077 0.7380372474044886 0.024371448079688
1.5885549602703941 1.1373025038357119 0.7445828515815627 0.014560884172873222
1.7087869993673417 1.132726828569907 0.7409254623449436 0.02856131747870357
1.8516767497983275 1.1387804250756486 0.7415146693109114 0.023565309104941003
1.8681122443772296 1.1457586523394716 0.7374122055522052 0.04618302257068433
1.7729158810028203 1.144405429691058 0.7350137191713678 0.0473636501342424
1.8329503234555982 1.1440905403370711 0.7362514747764218 0.024289704206373337
1.8210203152240705 1.148558555183458 0.7418169660407157 0.02358166207897028
1.6827287808525415 1.1364460010914539 0.7359174016498 0.05272808548404208
1.746992951371043 1.1425595333942427 0.7388189649086536 0.057325230331217454
1.7243304808152582 1.131257840116498 0.7356789002708684 0.05421217917384678
1.7988523269019248 1.1238104720612307 0.7400216177613896 0.014638394099591284
1.7581358161419018 1.1279733413780029 0.7447661042154967 0.055252579155776735
1.8375296425773917 1.132949312591698 0.7424045497200058 0.021735857862210644
1.9354961464127614 1.1357489971274903 0.7412589684150833 0.019970446452611052
1.8839227583262594 1.1321184820997796 0.745437247334102 0.025265541763398097
1.866273873996219 1.1280075884099006 0.7384068266554727 0.011888966388628788
1.8294491432017932 1.1346325901166676 0.7422936111781837 0.030406284544049856
1.9703981671494917 1.138595154746846 0.7444522306834475 0.021980833929535194
2.0673500735765558 1.131706934735136 0.7461640855457504 0.02066947796499603
1.9247355442128367 1.1383782339253623 0.7384749941597838 0.0158496601721286
1.9839795866606 1.1327744038973053 0.7373195078013371 0.04084031957115411
2.034177230652471 1.131238438209206 0.7409557406517094 0.04686374833637673
2.252141600626415 1.1449761358006671 0.7368592724688134 0.016818426787201045
2.357400410442334 1.1506361452116105 0.7312921043368923 0.051183313914460876
2.3888674599378272 1.1631336678708095 0.7360039083659815 0.012936816994922436
2.309346440962639 1.1540048051557594 0.7265924148641008 0.05555709483608796
2.5136069101714806 1.1560399592219337 0.7367386889320463 0.03190085458962806
2.627561813127454 1.1531530391403464 0.7261369794190478 0.04175964715676842
2.654378597897454 1.1507631540923688 0.7346982319206089 0.02457000873993072
2.5075929364620304 1.1426028469974623 0.7341895843590199 0.0349808410155056
2.5987536749730795 1.1518890894385245 0.734705558044852 0.03447577189863247
2.553691980204027 1.154343907252513 0.7219987401227603 0.028140016263091556
2.66627364897592 1.1503727228280316 0.7264808037058955 0.02653199523100973
2.619043298165021 1.1620930987545117 0.7229277418617648 0.03786196271124909
2.6129189257924916 1.1659933979963448 0.7241954948781023 0.035517841062519775
2.545613079575485 1.1531065163881364 0.7329466165976872 0.017697017842385757
2.5362020257481417 1.160564550761414 0.7231757090307628 0.02230978934155623
2.633761798108477 1.1505442672040176 0.727803696663311 0.054220519885238856
2.408510494334463 1.154640554637541 0.7405823837550285 0.019847083172403725
2.3071766223496355 1.1413948020366154 0.7325638302006403 0.041270529217813816
2.3466565323476027 1.1601381113032923 0.7438396701820402 0.01681884567268776
2.293459267752117 1.1594131866873307 0.7290401715813118 0.050303736008168544
2.2909506665874475 1.1430548849973046 0.7347837059281948 0.05087153869446777
2.6152304227154257 1.1586129250263517 0.7352278787678929 0.04791722986209897
2.480781746995789 1.1453196987564458 0.7304598947993626 0.04109750501796364
2.590761893491338 1.1447030847211004 0.7347208316980844 0.039565818149093365
2.577502262518435 1.1446843107294193 0.7372536087976043 0.02438720424277581
2.529557700932191 1.145462883102056 0.7319690853672555 0.022961342560118485
2.1250644932888796 1.136484057878311 0.7426578848506512 0.06373964413576719
2.1813703363123036 1.1353125349943713 0.734282623758683 0.04253811152970101
2.081269292785539 1.1325834528675085 0.7414598477938212 0.06076803784817136
2.207251398025327 1.129986647816254 0.7364979587864018 0.026331432870093048
2.962278122997936 1.1580863863514526 0.7087141309094418 0.055314081151354305
2.957996048370181 1.1679942095991294 0.7287714805216725 0.02284646738333853
2.9654489105780377 1.15842036098981 0.7360616231911017 0.07361680249207979
2.9771889479187834 1.1552577360551899 0.7283913261806945 0.046207237861806506
2.9751648569612357 1.1700083434387494 0.7112053015209591 0.049451404001097245
2.985222178098266 1.1521513638975334 0.7215097541985247 0.05969992832227257
2.978580588976471 1.1235859820944782 0.7362590400411279 0.02726102027990302
2.9639922303527695 1.0819645293780473 0.7394063989977521 
2.9640917420840696 1.0606560219218177 0.7375170176652314 0.017415658555323905
2.9880090492921263 1.0629835043428704 0.7407158475346782 0.024130537046966473
4.402947789916639 0.31003571360690163 0.7449142636316842 0.013686163635941193
3.6945533752098663 1.0218229384015163 0.7481363173594503 0.010442757717323928
3.7614486576467043 0.931276240702219 0.7428514909603068 0.006765959286369451
3.7292520376785667 0.972888478255242 0.746533420985927 1.1168531751387277e-12
3.1375142983617685 1.060742215892187 0.7458314885456558 0.022090856209739464
3.1082253129607595 1.085686812781361 0.7392810282995669 0.008703024333866636
3.097388444273211 1.0739362381983377 0.7414052227623771 0.01354158105702877
3.074506119451446 1.0812923132227918 0.7444442480819883 0.002236510437579973
3.0481822768561297 1.0877307587263885 0.7472234866315618 0.0014768321058437233
3.030062679567619 1.0585506082885585 0.7428952314142528 0.014018222770396837
3.05390980025086 1.1034552142844072 0.7454901669961531 0.009378314399059924
3.043265645945714 1.0858517882854086 0.7429070092128447 0.0068272680695607895
3.112615289496813 1.1060210709156018 0.7441987434835058 0.03157785366403309
3.1463164009484084 1.1012409664813698 0.7507098660921965 0.017198801396531672
3.0828867066902426 1.1041600549717527 0.7436501653958343 0.020880183641222017
3.112370131135007 1.1240806680397648 0.7425094276938968 0.033800915082658645
3.1208826270195456 1.103637517622583 0.7513599340472579 0.026196317168371595
3.1496122606525376 1.1196261186388532 0.7396533997585044 0.022771960234863723
3.1597149270934284 1.1186483779662932 0.7425277701361209 0.04139163866944259
3.1544057862947317 1.124280188538686 0.7335103170202919 0.0265211512380797
3.2129464967230468 1.0685519412644908 0.7500502665151245 0.004145041149092229
3.1681980625878015 1.1030260145619524 0.7424457636984796 0.03451762378705171
3.178315995282786 1.0817430327280664 0.7435255853788866 0.009453402495274738
3.1628399020119913 1.0787374233774394 0.7459675204801388 0.010064644649158051
3.1905720614243 1.054977131102226 0.7429787272924694 0.01817087457815816
3.228191224833943 1.0706669843747652 0.7465310175345523 0.013983628701970736
3.250188651785506 1.0466442487150658 0.7384280692334955 0.03297941843291902
3.1910075699922174 1.1017054652559035 0.7516318661993469 0.01189411265923452
3.1805333341708666 1.12401423198379 0.7441308286340604 0.023088655577738832
3.272069361566053 1.0509377229884402 0.7503231865512084 0.008840319892105427
4.419889415791943 0.3540915118155039 0.7470313484605936 0.007995923679307872
4.391025603486171 0.3413638271994336 0.7430603529255151 0.02583610190232754
4.41794639824463 0.3385758051461672 0.7492377809411046 0.012319580851366658
4.3698770047254385 0.37839878007721356 0.7417233362422798 0.0033760033595223622
4.41032674401475 0.3264899498964689 0.7493223497848681 0.013103687947735988
4.406647282126988 0.3588748622121498 0.750645379824914 0.0015520220516088284
3.226671687052364 1.1213538422794211 0.7441441085882994 0.013635063849188785
3.244353891158118 1.108862276119626 0.7415868524457704 0.009943965743600791
3.257456343010468 1.087019094850907 0.7403121927842738 0.002125424710825801
3.257478363263611 1.106543587164079 0.7424545005555677 0.003690418861260578
3.185820044325685 1.1253079138809972 0.7347183627821693 0.021984886392806175
3.2700184702868915 1.0777201508401966 0.7425003381340753 0.009513680860278286
3.274747150273895 1.1103973834246 0.7387908750333375 0.002488083937873498
3.2955212895452406 1.1099497698363314 0.7421914691416819 0.00525173171306332
3.2013996728897394 1.1100150841667333 0.7488199730781333 0.017534511529809563
3.2210069175745546 1.1218576465561714 0.7389496678566222 0.013021928453258154
3.207944518092116 1.1129794403356708 0.7428783044695739 0.013871142467828418
3.2812630506219307 1.0910912795643433 0.7428909829414823 0.003240655072325411
3.8766514387772495 0.8632883912749202 0.7399673862854855 0.010645700280098223
3.826533903141844 0.8918033507008093 0.7448730288851946 0.01428890679748384
3.876394275111392 0.8954574349405354 0.7472544575099842 0.01268739656696046
3.852859184581655 0.8805085499014287 0.7490059529176317 0.003978678584165053
3.8435343811855676 0.9161163149006205 0.7439650440450192 0.0016330565455357504
3.8105707842458245 0.9406982516276546 0.7403447527226925 2.029328175528389e-13
3.800002311466565 0.9268403093096278 0.7518428434515565 2.4591401718027545e-13
3.839483828442293 0.9476730305182465 0.7440196774837445 0.003696243571074269
3.8557340819936594 0.9286911100832536 0.7428842332723986 0.003035760540967331
3.304864458735743 1.063012892078958 0.7425356224825986 0.012320335884339277
3.359536275941564 1.0403520992083155 0.7415011127196759 0.032456597667937376
3.3782222293742183 1.056508722573047 0.7502852810636319 0.017069838445592955
3.3871515008950066 1.034835414246351 0.7465956692172411 0.007486913687682752
3.3140436079077347 1.0536656487847063 0.7439113004498727 0.011568600785296233
3.3091355734605346 1.0978763307954371 0.744441354072133 0.0072671182389140426
3.298748785737121 1.0878696189078862 0.7428834656645447 0.005016036333679578
3.324559045337593 1.0873850666593878 0.747353883689597 0.004765736453419454
3.3432421461537043 1.054020515788185 0.7439933536997645 0.022627365005814876
3.3150549934536637 1.0468726111133728 0.7427267774565894 0.026390187891754926
3.3238498592294214 1.1038804456028228 0.7465099519994896 0.007688025864994411
4.364638655920124 0.464251969174002 0.739666050693771 0.0016608275794012383
4.32639398516193 0.48064532809154314 0.7403061570350312 0.009859598617833528
4.2978249342726835 0.48847395549723216 0.7436332042381282 0.018959130832436874
4.331933236099137 0.4443825860515377 0.7446030450216733 0.014845992072172737
4.2899145407761825 0.4931261298221551 0.7466236444949543 0.004524555405132716
4.30920475946115 0.4540555333112456 0.7525223387577673 0.023143317608678774
4.30238892144705 0.4621340778238762 0.7475482803910873 0.02955751608714648
4.3407835466238005 0.440086335745982 0.7436898513553878 0.012553064491453884
4.325036307150926 0.4863137455592687 0.742379742350935 0.009918383538295647
4.306245781545042 0.4646322605821458 0.7423133940122167 0.031662198799696686
4.280502635911579 0.4986032707246087 0.7423539496141681 0.009387778665893022
3.379723347720409 1.1013388353129836 0.7429084686392843 0.007518961889177587
