x y z curv
0.4430225818005072 0.004457670330011158 0.11897973640570747 0.011062740471738795
0.4621369649687769 -0.009563525775757701 0.1306596818236408 0.03892547338003681
0.4433708881243788 -0.07767175571038261 0.13721751429940263 0.001308523556517909
0.45774618046586196 -0.06478895111226862 0.13510212560653478 
0.4547509035753256 -0.008405216032652464 0.12522579994021893 0.053570047997394905
0.47735545338677215 -0.024938866216029316 0.1313586579265158 0.0382172556794785
0.4829362816053712 -0.004928447981641721 0.12885524636494633 0.048037824981278295
0.4926554767999333 -0.02243309164164589 0.13081448917722027 0.008123517322593777
0.4936374050281148 0.0014450636935510338 0.02699561423291034 0.012927291622272217
0.5135519998386708 -0.009363334673741836 0.11381009524306171 -3.1668485949851747e-14
0.5043396850664691 -0.0697700112115344 0.13255910037529076 
0.5009860645104555 0.008155355650422823 0.11769212856466692 0.02956376222484561
0.4968710341324125 -0.002375096948939864 0.04916390678251087 0.001880884044312671
0.5101252554311029 -0.004568884374957176 0.03397882793326418 0.005388087098045158
0.4587413840047967 0.00507872341913844 0.020433810361757187 0.019599853507970798
0.4783704420892011 0.006563034057823798 0.07256372765886124 0.003488558664504172
0.47808354340506687 0.00395607925866858 0.018717201207715247 0.03198219789417969
0.48054575107826275 0.00738317297617963 0.030154386438665602 0.02280161089259962
0.4474570268674149 -0.0028293985833149566 0.022664517346828596 0.0004806368641151012
0.44183862209576064 0.01111422427001294 0.09187290787783135 0.0005855837508855608
0.46861200817373266 0.008365318978195568 0.057595877117151 0.011191084802771511
0.4572121622784621 0.00959762982079022 0.04190079935068677 0.00837101418500698
0.4640404045836125 0.0017703320297792222 0.11439171495816425 0.047146491356030204
0.44250300676582965 0.004774518222467375 0.1114015154785322 0.018160859010051274
0.4650035331581953 0.004433698771326473 0.09793012973947651 0.01583815021676735
0.50887222459518 -0.0017628589905393528 0.07372122441097825 -4.004996438262763e-14
0.09497803547450787 -0.0011602082446364199 0.09360249695885328 0.04249202997924486
0.09403904466313467 -0.002775428788183429 0.0986545430366286 0.03200589217710177
0.09177132114882591 -0.04912487634658717 0.12778840249802992 8.468667813544264e-05
0.10083067034272196 -0.03280752595024117 0.12773605828079368 0.00012425743161184635
0.10273627870349941 -0.014384962051023966 0.12659299973831079 0.04584127860424955
0.1322648728382303 -0.01816003897687758 0.1328001871116701 0.004244059220428543
0.1340288281189386 0.001514613227805862 0.128311921703575 0.060130239441602756
0.10790873858204164 -0.03300882691486053 0.1288544321570059 2.677868310670669e-05
0.11548523475067983 -0.019170087962052714 0.12947780439821624 0.0052183644606226785
0.10602423480661913 0.00965083893424986 0.12528736666506318 0.024565490414320323
0.14306197151166178 -0.00836638876595875 0.12984661907454348 0.04269364164070829
0.14730356403409928 -0.05751269480318018 0.13754862391248232 
0.1502098127167763 0.0056286825932978565 0.09850749032614933 0.03068088658180624
0.1582421691861625 0.00681632930688869 0.10705082531113101 0.028625847769188514
0.15093721356329948 -0.0005165182739937978 0.024546811841497238 
0.10551231861266826 0.007385905492091862 0.020062351703016672 
0.09649080142969979 0.0033582529929719698 0.03517992411863425 -1.2300975368741403e-15
0.1474628506686717 0.004218432359352834 0.027622193511264107 
0.10306102676371312 0.0009564934118550333 0.055844808679324565 0.00024899185643848605
0.10885019852878912 0.00288573797546927 0.06705338205151468 0.002093412379594006
0.13304409749055873 0.007595783087172873 0.08539910386168403 0.0001618135999156135
0.14589902707524147 0.002464920459788551 0.12410947267978144 0.04650542740337198
0.14422522149533493 0.007044654483193019 0.051791858051323275 0.0028114364938520825
0.25636113154764195 -0.0982027771667877 0.008833814236583628 0.013261884276297339
0.09402124785799551 -0.18934684730943677 0.003935143887804698 0.006306150419116755
0.26835789358366474 -0.18947275099334365 0.004421570494548745 0.0004616814623438217
0.16184004316039707 -0.1974141325284611 0.007277022781599409 0.003084010853919698
0.5761015329206439 -0.19520598811127216 0.011738797040328161 0.02922935514526514
0.5329894125610255 -0.1959547616144849 0.011077923706062101 0.004916682647092321
0.48082428366222063 -0.199104387812388 0.02073341898187743 0.005215901526147835
0.38555621051383326 -0.19528539048418392 -0.002809275499581647 0.0009502672781909348
0.5928142206823415 -0.1954814791774852 0.0056902206432848665 0.011813534216057709
0.0028626539960882108 -0.19583176307863653 0.015971392256218395 0.021591423542187724
0.11752455388324237 -0.19466357103063875 0.004645788426570848 0.008985605055593473
0.4948048676691125 -0.19487865442969965 -0.00588393324727036 0.017370676437648096
0.22655990815774896 -0.1927183873828852 0.008090527492916421 0.003951584826273848
0.5069924780689252 -0.19514541539663754 0.0023048969620192727 0.008569571278881333
0.3228563239942639 -0.20389693015627594 -0.002100288647077429 
0.2786984120313462 -0.19116508423798986 0.004367195054175988 0.00021081733686852786
0.3460769429502572 -0.19686423568062122 0.005536519328172289 -8.153627892202861e-15
0.4739672216284325 -0.19079363864833318 -0.0016712684118285201 0.004244201805153731
0.0019266191952535727 -0.1028570838492216 0.0074538207971052185 1.037441174110369e-14
-0.00488768984852928 -0.168075410364333 0.009722465641342534 
0.3297271154716673 -0.09813298548692188 -0.008815478573115095 
0.2701749715171634 -0.09972102703913632 0.004240335644726871 0.005508337682396519
0.28536712096241645 -0.1070714146987237 -0.01780691465245106 
0.6041412512367385 -0.14282692427267396 0.004437182660162766 0.005307849825602919
0.6013724374285299 -0.10551896899050192 0.004180614453553959 0.017562411873634828
0.6027521468426029 -0.17236155138521175 -0.004961074532673419 0.058362556729878196
0.1589526203866675 -0.1945382457393666 6.683045296790797e-05 0.003406121723342145
0.4638065170701283 -0.19047042934020947 1.6337000262138912e-05 0.005418247951522071
0.072639744291486 -0.18677275071606203 -0.0008711853034315931 0.0024187779188975414
0.01539239175688498 -0.18716718392323897 -0.004348531080239175 0.006406302849111872
0.42732780677219134 -0.19422170981116407 -0.0005522920552289777 0.005864454025201906
0.11006740007981185 -0.18846745581682672 -0.0015749693945951162 0.0009505022468990934
0.6010674752403696 -0.13354629267057463 -0.005012575121414163 0.005003217174544753
0.051861628266878096 -0.18830208601476525 -0.005845243782934403 0.0019588168968449346
0.21476623583857968 -0.18526384804841375 -0.004934827502420978 0.005088989018908584
0.17637510459908193 -0.19483156539453717 -0.001521343296079517 0.0012862352277128533
0.605574143029413 -0.15064757581329885 0.01302115273530306 0.006911841002825611
0.3760191555667732 -0.09654326359077552 0.14999607560879885 0.01394874779026736
0.2523049255542628 -0.0965756309482169 0.13744845130208047 0.014971988634628444
0.5529077253034299 -0.10019641145133563 0.1441923500145061 0.002147905149557789
0.2721085889943993 -0.09766357587153672 0.1441692599135151 0.05843080749358648
0.003081941740236467 -0.09046032749519381 0.13116949723371377 0.011108770931014861
0.2984632075033957 -0.0934454271508239 0.15016641654119384 0.01765802563239775
0.38096907883510156 -0.09379019380062088 0.15000702859783804 0.007121859656586905
0.2709981223967945 -0.10763020819072373 0.14872895113026402 0.055816110642502276
0.4077550780454716 -0.09481969040435717 0.13982754464048613 0.0002572130813465681
0.05558475888964662 -0.09296519520899892 0.14115712887232332 -3.1129213813838346e-15
0.06921777950278611 -0.09695198045235827 0.14616757378426548 7.58233685163438e-15
0.107086132008846 -0.1016298037439094 0.14549771977709045 0.0011003915597111457
0.20809152173670456 -0.09709334340175757 0.14955414261584096 0.032856931103669836
0.12333749014821987 -0.10894065186544001 0.1464490529898459 -9.004435368443572e-16
0.18241279330446095 -0.11899727505554952 0.15588998470689902 0.020951750761182202
0.5772988342438533 -0.11913749228166726 0.14981110126663977 0.04090649159975903
0.44145250561734767 -0.15257352645346126 0.14799766414213975 0.00119366263061859
0.29930993477381407 -0.1432612900021777 0.15592140922221118 0.0035710708149629686
0.16324012152909154 -0.10240604398797563 0.14907833832824915 5.201002598478417e-15
0.43535504185735746 -0.12428156758671054 0.14787671238785755 0.00331871818861641
0.3276056364742841 -0.10521489235245 0.14905675041809416 0.09271834876966348
0.5947817073169726 -0.12960011703638485 0.14811974262525748 0.04319784330047378
0.42644598484101753 -0.11644911108238065 0.14831775220933344 0.010037883560964895
0.21381285099807965 -0.13153647392463796 0.1541519882799199 0.0017429607925603303
0.4021007660197978 -0.1506087354490684 0.15626227627483807 0.005385704387728724
0.00955095815594262 -0.10036981167066804 0.14828968320323888 0.04399900663439733
0.029239753794162743 -0.09855523633503618 0.1447899548223699 0.03192278084716444
0.2784951926142688 -0.11370543384865929 0.15153556832003978 0.04891634365757678
0.5958278103889291 -0.1048859825022488 0.14652861865149608 0.047090795720842266
0.36188382652409995 -0.0933892418110894 0.1430085656364651 0.004013775151554979
0.399101736163451 -0.10872040162725177 0.15129126799147016 0.0035208646814293095
0.2885321728927805 -0.13099955623941756 0.15740306475616916 0.002552056958259739
0.1462869207500277 -0.10941412833657473 0.147022436390382 0.0012628522803793897
0.4290068582602383 -0.1567816975175445 0.14865678180937558 0.006915057571204398
0.4636831166084725 -0.1353536506966941 0.14818873559815518 0.002146014358465506
0.5055120629576204 -0.11485736000230891 0.1516635970375894 -7.816344732765827e-15
0.3484298463186236 -0.13008949872612108 0.15663117619240927 0.0037500125242812604
0.3434527325077425 -0.09703177112895855 0.14808753120476606 0.04866629592085257
0.33590659952357954 -0.1224088760796011 0.15489550695236093 0.06827108234997709
0.4332544883903077 -0.14350033903515763 0.1480489162121446 0.005667815227257937
0.5366739130804802 -0.10296975661451671 0.1480868465175247 0.0028857042688321725
0.5815424599003388 -0.10125622066232187 0.14262237638475586 0.04813256334070274
0.5984221951794947 -0.14352576102692488 0.14381909397917772 0.07019231282851161
0.5802036739239245 -0.1688945371392294 0.14716140752298149 0.10161779430969384
0.4920125526168223 -0.14966701751890799 0.15382601544059943 0.0029091940961317613
0.44601422626443493 -0.1034546685804163 0.14279896430229191 0.004197804347832504
0.2320579861189357 -0.1306700377341373 0.15353289801862144 0.0001537266079760939
0.3943025795135035 -0.13970264700653254 0.15919484467419165 0.011231032939093168
0.5631921154563652 -0.1659956164552991 0.1505562542840285 0.07004415860745102
0.1758123719521613 -0.10102687490762921 0.14699603417265164 0.021893346632056127
0.5612751325635861 -0.11347443545814424 0.1520031485670028 0.004459812737455893
0.46232949966531806 -0.10366178499846677 0.14679578667059898 0.00027117998354173864
0.4288639878135581 -0.13620428622199315 0.1482606438435182 0.0064930832065737435
0.5707005641998111 -0.0969196791840615 0.14225540583696214 0.026310577366667903
0.2377100813702293 -0.10101899706630584 0.14966524682031113 0.049989121525145584
0.01857782053370379 -0.09672098688964648 0.14670370707823865 0.024616033539956724
0.5640440312009647 -0.19346855658724202 0.14500415198426528 0.07969330289306771
0.518430096680008 -0.1538947064239294 0.1506838991794427 0.01600388385982898
0.5825925916266063 -0.14975118820520938 0.1454289954248457 0.006037949358353572
0.3448314317311708 -0.1919957698275833 0.14661942615264975 0.05127875667861269
0.24449125058826102 -0.18494606002648156 0.15252700647189926 0.09250298138002154
0.19446982612044678 -0.17280134125681137 0.15464040028174952 0.0921623352166441
0.10633300212017663 -0.11190975985618717 0.15406379129637848 
0.27263723060808026 -0.15704307259135614 0.15360360652427157 0.0012681615531996279
0.34652354507350636 -0.16518938170741854 0.1554070498008068 0.0266334072322593
0.14163668493349157 -0.16252238676912764 0.1544032788836942 1.633308559905788e-14
0.023860725211085114 -0.1214063024660711 0.15174883783016122 0.02936073601227642
-0.003950667890709586 -0.1874840543012514 0.1444501790301353 0.0013030096454716528
0.4712193630764253 -0.18050504095737396 0.15319283457278227 0.07689684140240087
0.5443742485070703 -0.18608159616451142 0.15672164758086352 0.1326135222403786
0.4347347087453248 -0.17939203759301753 0.14721417123724884 0.042788261485979494
0.025372486477415156 -0.1555096196839925 0.15168204921082223 2.1648301932377097e-07
0.5037904648742408 -0.18994476451076378 0.14846377935925645 0.09768176853654521
0.24838370153844708 -0.1914472120547003 0.14879365625830024 0.07846759586479421
0.09258961864230303 -0.15114042476204453 0.15188916042016384 0.00012011499264953323
0.08184340592109841 -0.17348717198970107 0.1529199453490191 0.0434279444397146
0.2236576963160027 -0.16584245362063096 0.1544490819240692 0.0013688285666813697
0.3155762508215784 -0.19651144954335428 0.14514541948698417 0.025861784855179704
0.23905254007336568 -0.16366097688434245 0.15376148551325433 0.008846318847559344
0.036264507300824485 -0.17738524913148648 0.1517845615358456 0.0862230575627923
0.04147845156773995 -0.193023714230994 0.15374061770128988 0.00253331774034231
0.13233844720273485 -0.17495595267857889 0.15106141481410384 0.059758569737945945
0.04696141868089584 -0.14152280730155758 0.15139408050553138 0.0009497208413179284
0.07377144690554224 -0.17023557788903868 0.1533001761301363 0.022367054564962244
0.5410164148940504 -0.1854255763663244 0.1540126468020609 0.07854878707480512
0.06694970411793566 -0.12852944853103915 0.15711680269636993 2.8137206733105997e-15
0.38267615412928335 -0.1953859786948441 0.1439203873874402 0.02674992336290035
0.09920896529258925 -0.17805249792029504 0.15000866980155012 0.0537275967550258
0.49972169090806345 -0.1884067632655652 0.1575223747093579 0.07235050952395386
0.40750443626211724 -0.17991988717946159 0.14525343030194143 0.07279877055898827
0.31311198366973014 -0.17843371698746052 0.15658892297608157 0.01522641859220638
0.11173496520519235 -0.15990452696489282 0.14939885539309966 0.004070782984183661
0.18271491764483105 -0.153232299172547 0.1542457183736938 1.1316926051660778e-14
0.01220146106656018 -0.18749853530244706 0.15223988150882442 0.10733148963739565
0.2695057798399775 -0.18604270766971692 0.1495816360765116 0.1020675874385466
0.3871981868963773 -0.17694488065107342 0.1484743485448879 0.01804869754877914
0.4077848032408003 -0.19538433564230165 0.14285242440645135 0.04196160316990938
0.45701988138926847 -0.20062421307565265 0.14100540601720116 0.012950961443931363
0.4307055892326706 -0.19661306648530902 0.13879225494293015 0.04111581216635586
0.5935272858917521 -0.1900520125056753 0.1486738082738258 0.12987055365059252
0.21462957378364111 -0.18814934703619998 0.15452814153680056 0.05159254577085331
0.5746895948318921 -0.19386341299081736 0.13626077141425588 0.06820344290118097
0.47907050337005125 -0.19256883500751484 0.12964385443453913 0.021461783395463768
0.3550043375748613 -0.18811360650723444 0.14739705991650143 0.06385023097224117
0.20193650834358282 -0.19485154004547003 0.1549176605063736 0.07154890444811789
0.44748359237469865 -0.19063853927944605 0.14347253540834454 0.04735988915055473
0.2728506347444551 -0.190082290247027 0.14668732904552223 0.12208102796533221
0.5468247310452645 -0.19005655865542176 0.14539214577438905 0.10558154955863591
0.567717303564966 -0.19229219329335245 0.13030618726976062 0.07782925492938332
0.2581391644015912 -0.19353436136513977 0.14290633465063524 0.05877406164494179
0.08771975879024996 -0.19254671142424934 0.1341629382072934 0.037994611676749085
0.13963990741907562 -0.1899071173803297 0.1519708447899334 0.057657278703372956
0.08192453869868857 -0.19112265647124912 0.1481053238660725 0.026265637709608994
0.15871466555095384 -0.19997462000675473 0.14556524733327378 3.168235562647657e-15
0.10416697482782668 -0.19554638519451417 0.1454855230365117 0.06126285523218219
0.020203492493627035 -0.19299216837250624 0.13157506573618674 0.018895098937157077
0.36546637336642535 -0.19168281741566343 0.13708765188893832 0.0686740383967287
0.0038286299281861114 -0.09250225000564616 0.1345436439498051 0.07667869937373949
0.2165511441573526 -0.09518831098850193 0.13176791214445022 0.0011794551432516846
0.41800848753212283 -0.18081388714460558 0.14590874541451504 0.0719360727143649
0.5893281234878378 -0.193493811121442 0.12966949829311647 0.09639194308156121
-0.004826023170337123 -0.19605266560846482 0.10968564014008361 0.0015233229774889215
0.002071406530754276 -0.19737957917427928 0.03897307981032396 0.025117396624479663
0.014272768348910317 -0.19284150744477946 0.1222577532435278 0.00875659376973776
0.34156867001897195 -0.19302663143876264 0.12265983231025598 0.008409633381876405
0.25094450399758655 -0.19239087203304228 0.11865085570076114 0.01585625283776479
0.18406323034004698 -0.1959937923954376 0.11749974293728878 0.0009681425421624288
0.5074499520142258 -0.18934220713989922 0.1342901200201067 0.0027714953036434707
0.3785005607788046 -0.19490246284222423 0.13329098058103414 0.03375093551034372
0.2869906438836729 -0.20457085304837472 0.12904520280438514 0.006461915553360926
0.48956205760784105 -0.19073112734258027 0.12673165453336835 0.02075035262913312
0.2101111221484743 -0.19842426428402787 0.13225645295847632 0.04872013441869533
0.6000741472795259 -0.19214553792549466 0.07800747991025074 0.055722813956880154
0.596918047014585 -0.19450636885274378 0.07477337946314576 0.06798275671937612
0.6005604953775977 -0.18622859574485742 0.05951184925982119 0.09356366660484432
0.42112778550455005 -0.194654338809896 0.026334572055220704 0.004563928241731839
0.24726292270891048 -0.1912876135808433 0.020413051475156305 0.0010003457744139233
0.5424563195969712 -0.19487044064446227 0.028328003618677388 0.0033819790667456674
0.5635125694091715 -0.19795842446152745 0.029825129985641744 0.001670891363658853
0.20427299919275876 -0.19014877658790694 0.01190555174731856 0.009695297198820434
0.42789046362816474 -0.19652799308126584 0.011507635921806113 0.0034615641052735294
0.40308879874798736 -0.19165173474731337 0.009060030412461742 0.0016916944384968307
0.039182486424057125 -0.1953467114011424 0.008212219662454678 0.003143153038371275
0.365295925389049 -0.19709000649884195 0.010030767567869902 0.001243966891184215
0.06104408960493533 -0.19326100715784034 0.009134620251400064 0.0041312203256914076
0.2936169575350297 -0.18938924940996502 0.013143457165784588 0.009432700453283526
0.201683357736877 -0.19372209245412228 0.02964172777099932 0.004939310771274461
0.1782888042244611 -0.19483686942750747 0.026214527657142377 0.003990334611049214
0.08543859939510684 -0.1935681509865053 0.024038416235746124 0.005822784677523734
0.004227150727082322 -0.20356055963422345 0.05176729752215938 0.0024300969570508787
0.3616274544855489 -0.19292240343202371 0.049665770983877734 0.0009777182080460232
0.14042784119142143 -0.19239309882396127 0.035442952354532445 0.0017379663655880937
0.38680415835136706 -0.19575359948518517 0.03981718325784135 0.0016975094694956303
0.513699049177381 -0.19253613268184727 0.038204821349444806 0.0025880506972812863
0.5334247443182469 -0.19304201386097924 0.0404764924009174 0.003612197256777101
0.2771000352246859 -0.1909129383364268 0.04033281001061906 0.0012895936381359739
0.3773303520934454 -0.19500443243343782 0.033785352791504214 0.002681155177773455
0.09226141747144162 -0.19206266877564881 0.05592603393252148 0.000846147601070512
0.3554249655825371 -0.19354957222335403 0.058681075449433705 0.0014726006778808063
0.22378101099045153 -0.19652654661757238 0.05962003791922224 0.0018914937283870637
0.1298148700687482 -0.1904843924256716 0.06090819958539955 0.0007749053054085691
0.49235607347375626 -0.1918413351510637 0.05930160776233476 0.001349436566072999
0.562422540525479 -0.19212467724885268 0.056177841657787476 0.0070075341646933485
0.5784761961248542 -0.193714429697843 0.057084019432295345 0.047542638429744884
0.5380468408080515 -0.1914047382529957 0.05461367217931453 0.003156276653954276
0.25133386443221595 -0.19159814222210408 0.06928039171610191 0.001860407084714709
0.041189746428458004 -0.19409396984902916 0.06400462486108308 0.0033563560061610747
0.2960510834050434 -0.19437061691375243 0.06577140949648683 8.940279854969155e-05
0.42496424192938537 -0.19160197264598472 0.07908483920615206 6.550019061432678e-05
0.5120906153678894 -0.19107879987011298 0.06683810633686212 0.0007338819627860302
0.22746984689692948 -0.1952240721010694 0.06369206312224307 0.00379196512193404
0.32750382802035755 -0.19434318393777752 0.07002602539841936 0.0006248692004460136
0.40356719852792317 -0.19270755122061076 0.07314835365438249 0.0001381500878045319
0.13028948918526417 -0.19596157998566485 0.09398355315260548 0.01219628234037233
0.22690936988268695 -0.1939133580779383 0.08440111613548655 0.0023120394991423643
0.06525055233683394 -0.1961077271624547 0.08634939664875656 0.004475924289185976
0.36796626121744086 -0.19644348617764656 0.08525615704720238 0.0001793940477959567
0.19658123782948003 -0.19884740319664856 0.07613860473781021 0.0016594655607609632
0.31613958387047963 -0.19545178329797017 0.08176791550602788 0.0004761070153952081
0.4809999320612606 -0.19518199061825012 0.08144035438195592 0.004452689995146951
0.4075840704964479 -0.19357607227563509 0.07967488559593114 3.396284762947312e-05
0.5820608822419117 -0.19171039139721352 0.08176878373840472 0.057131722109910625
0.3414265342576681 -0.19221691134103494 0.10425113943157217 0.0010494343786394788
0.04319520306971545 -0.19786406363955847 0.10183189765675858 0.0031907279892456723
0.1012333749088461 -0.20678739189055545 0.10396352012018799 0.002712700034468132
0.5091776477796074 -0.19547379700365744 0.10681161644513723 0.0013503450099447696
0.16067030591724082 -0.1925571511565093 0.0973562362680953 -8.89719067129561e-15
0.21777141727709248 -0.19717065090531583 0.09775856775139015 0.0020347340455518148
0.5455598898525721 -0.19229647913714862 0.11971030895175788 0.00516489017650537
0.45273188691573274 -0.19831582774858617 0.12578197130617946 0.03352714390268752
0.08689762641797869 -0.19052057104877662 0.012665468158337228 0.005236916239760204
0.12828007746624362 -0.19730363464393338 0.01815057481472356 0.0027005472656379354
0.25868868618353474 -0.19149673511060847 0.018958775594383935 0.0007915010975709784
0.5075949020831383 -0.1922256783312363 0.026538648018995265 0.002388756103781257
0.45857388549975975 -0.19402159815577394 0.026257148949035747 0.007508944180183929
0.3559590093223847 -0.1963314978094251 0.02348798231845329 0.0012646549409963282
0.023587130807333424 -0.20113363745628365 0.03758703313148651 0.007728063396697293
0.2520893249795906 -0.1912175991885712 0.03009467752843463 0.0007009441310737203
0.4695340558225344 -0.19558894542024136 0.027219252424548854 0.009807577377164735
0.4751484126906987 -0.19559009426463736 0.03113415474276004 0.007918428198697204
0.0666591405351025 -0.19450775762265135 0.03552155059892532 0.005444931033870327
0.4212865813796823 -0.19152151352173735 0.04287824075687938 0.0021585738629130765
0.2631520562477842 -0.19153963592069562 0.04115840725086662 0.0005505179979257007
0.29885317630468 -0.18960405391462837 0.03395743150115206 0.0014752840253028543
0.24043222975592551 -0.190582960287038 0.04517939590114672 0.0010050820294932102
0.11232262021350843 -0.19152161251622535 0.047672137368418896 0.00323773000629695
0.11001775114967047 -0.19147430979173732 0.048552810654249934 0.0032681268241556475
0.3376292396278489 -0.19414054556726246 0.0689086583541143 0.0031026594207554897
0.4484239243882474 -0.19257974287556692 0.062250021234828985 0.000999704563177581
0.19077280872469463 -0.1943555962172551 0.061103368932929565 0.002820471417761654
0.4727525560869073 -0.19379600596400312 0.0604442735869845 0.0042427895853456455
0.11514391126284669 -0.1931449308288714 0.07125564964025644 0.0036964486360485885
0.07766349680594328 -0.19925831230831562 0.07247178827792329 0.0008460225113293414
0.5285693106632265 -0.19287149177719107 0.06523461759796147 0.002074560668763099
0.521101941377949 -0.19382547212625226 0.07472108634643011 0.0013270126699524182
0.16345571297801256 -0.19293258515989695 0.08142341583495191 0.0041497977851630554
0.4748100966787243 -0.19745863431666985 0.08384264890755773 0.0025464566242647934
0.5330483551339469 -0.19458380040032022 0.09419718243704715 0.001353850248691734
0.2544023025589916 -0.19479597248535377 0.09984288162852364 0.006203064971266255
0.02326309340406672 -0.1977550127774164 0.10251117068368426 0.012861377207667878
0.26945457572481507 -0.19597574405500112 0.09527539391294598 0.007996250986909401
0.08330842124359704 -0.1961187268524587 0.10359252240779875 0.010453138750793213
0.5578446461203206 -0.1927484245976168 0.10912689668369864 0.0027584575954559373
0.4923558531452734 -0.19163116413217401 0.11092410327613168 0.0019027102248554647
0.30276547488942795 -0.19465632413003148 0.10560299421573674 0.0050228007694602915
0.5179651234227881 -0.1939190130827957 0.11506139242462356 0.0017725821981747028
0.5816280670851285 -0.19036625923207023 0.11755753687787024 0.04917964272418849
0.23128958153490675 -0.19303726541425537 0.1131692071121683 0.0025120012647372866
0.40161194681367723 -0.1937829474868297 0.11216122553519112 0.030885318086648864
0.3632943123202022 -0.1923412679266716 0.12001723858447606 0.0043649461799626305
0.5916875261472735 -0.19142660159107613 0.13818001752389 0.11618537411982273
0.3616290977936447 -0.191825316532118 0.13169980790324207 0.07787196076882083
0.4334534041589612 -0.19897619277918782 0.12867201295357303 0.04674800191763052
0.11566266454502128 -0.19605576184315512 0.12393130922751454 0.04273566325596797
0.3334107701061929 -0.19418689434243425 0.1365223134878585 0.07382302547977806
0.1079814123719309 -0.19644814132421623 0.13133823820765522 0.04102210099807113
0.6124241132605843 -0.18872187148820904 0.14611823293175383 0.08995462813255455
0.0060654422472344455 -0.10505572295163473 0.15080399580554452 0.03440141450860912
0.5021801668597449 -0.096520955965104 0.14909250140665706 -7.116969699067276e-15
0.31357414208385936 -0.09643681882944226 0.10368318736253909 0.006379819188693334
0.2785162328670435 -0.0944020185156508 0.12808389286490585 0.04553840423186796
0.25102440921562597 -0.09180529247550208 0.11440436206891846 0.0005912468097084303
0.2944373655800417 -0.09666759996779571 0.07684637952469921 0.0006645281884364887
0.20498746628800144 -0.09456858533972802 0.13371685862906804 0.02860443988448941
0.012917935343297118 -0.09112861636692551 0.0317329923407154 -1.1858706437286952e-15
0.005433840936455948 -0.09471244365210896 0.04128105406166135 -7.192539797447465e-15
0.30391142574903046 -0.09736029000851698 0.1001975601653991 0.004105362267971294
0.2638802303849355 -0.08901160997541832 0.10574952313162764 1.9166328786247098e-05
0.3215992537734262 -0.09290166435168767 0.0682103341773728 0.003808333784497351
0.3678222741382978 -0.08893718931746265 0.13474598798972096 0.0026665414306844587
0.23420381632560658 -0.08896458278183986 0.09781858851632574 -3.657690085706519e-15
0.33247964788453566 -0.09432613698349901 0.11245873232385775 0.02105446222732057
0.3371027433373347 -0.08985747271235874 0.09260574646879721 8.608712526008291e-06
0.33377356181773876 -0.09568191793960495 0.13329635885434074 0.08064340087079373
0.30869970669709407 -0.09120608770401024 0.13310688290127132 0.010144162167424205
0.2612818225531783 -0.09487482550002221 0.017340079160988075 0.007417056294014821
0.6012524312703522 -0.10061480938230552 0.03318489221992839 0.05124339959053021
0.242829895987268 -0.09340697549080748 0.02030603268307812 0.006020582641065675
0.26471738619250534 -0.09287480291569457 0.06377214317073727 5.32161847662035e-05
0.5861766395590651 -0.09308739335660657 0.1101747861574772 0.01539675391073506
0.598720390168454 -0.09968270925092039 0.04749923309372978 0.05194280380970994
0.28973316217020073 -0.0933707317095078 0.0518712196859033 0.0042385234271579445
0.29993224902275395 -0.09332393278441377 0.028611161254599563 0.010675055322683778
0.25814263363238665 -0.09470153821538108 0.039651473587730975 0.007927534898390869
0.3864798058874048 -0.0786350230715537 0.08770282740068937 
0.2977910314389735 -0.09943270149337614 0.003448481721723592 0.0069479993993003895
0.2845731559996732 -0.09009060853226382 0.03147012616476035 0.0024960595588646452
0.31590413948668516 -0.09354604310510042 0.015465863791708511 0.004957260600560904
0.30120365217529604 -0.09521866236763395 0.03741867248883919 0.007789793037580673
0.5950523688306999 -0.09892826890238483 0.126690296333633 0.05640791277739416
0.585066794903241 -0.09009446909168833 0.04669798043414349 7.147535349535769e-13
0.34437718016827173 -0.09448884740027659 0.037681838866662314 
0.6074276441524789 -0.17930720423521576 0.01305365223167675 0.05048229432763937
0.612213715861959 -0.10279879098179101 0.1071178411869394 0.035826772167148746
0.6062346104654578 -0.12647174259896618 0.02442442773533963 0.008132422518389287
0.6024922213666861 -0.10744913745072476 0.03949965782701759 0.033588007201512254
0.6100407800640537 -0.10202879130733399 0.017024889959719666 0.006244328032781329
0.6016140773921167 -0.1501992107963973 0.043315671643534365 0.001221088277537998
0.6008861551090181 -0.10625336285905644 0.1277515153997998 0.10977295256312153
0.6048916515770135 -0.09908378951998129 0.08367072004157722 0.05650293061226568
0.6065433900006404 -0.10876160820688904 0.08820521145575251 0.09021414663421289
0.6034504057352631 -0.16091892174728362 0.031519874254130706 0.004237862133964367
0.6019927550350143 -0.14141965609765547 0.053854288429305286 0.004354628018609952
0.6091607018035043 -0.13262707017422554 0.08727667730571392 0.007497446100191156
0.6006723990745404 -0.11154720007814459 0.13662934130927662 0.08583681213791321
0.607089880067442 -0.17761528193686466 0.12148678782236148 0.10450969657828674
0.6068320239267012 -0.17710007950546758 0.11047672857595181 0.05427260779560397
0.6019947352595684 -0.1705838555839342 0.08047338080381576 0.03465094351263335
0.6032748178329342 -0.19062915045527895 0.08535645073042952 0.04020349058710503
0.6089338083805118 -0.1651651210633432 0.13391709628100495 0.09011421091660288
0.6004731454086203 -0.13655822358338596 0.10789231618918298 0.013916490530938191
0.5983408995443308 -0.19248601414488606 0.03479017084641534 0.04643822266063895
0.5990169866188048 -0.18796933620645193 0.11164994371256805 0.04594362398281291
0.6044552501269616 -0.1491609388168439 0.07649735056104348 0.009253727113586085
0.6047640956224166 -0.17814538495306545 0.09435353766459938 0.07192858516567595
0.6007901092554099 -0.17429504534526902 0.06988621287728834 0.06235906783515549
0.5452531500103102 -0.19192257318867878 0.006224414185907818 0.0023629103654661133
-0.00892118259526932 -0.12218003585688006 0.10679015182439425 9.469565558110704e-17
0.0021539644205078486 -0.08614361964941712 0.09908878202015069 0.0033352268594905813
-0.013050241994973002 -0.1053359457916947 0.04004571171322923 -3.1187221799121327e-15
-0.003694313312422495 -0.09765216396573768 0.1361123942114258 0.07417288004071801
-0.006648711323932348 -0.1350856872628992 0.13166376846466918 0.004279902294287115
-0.0062560567381481705 -0.1912682348781183 0.0646587808308966 2.1441522409634133e-15
-0.007686664397488496 -0.18691872399436518 0.08607087508663763 0.016862722730368776
