x y z curv
-22.729822464858973 -0.8447716840279018 821.441831635341 0.07461198535388612
-22.745856761899905 -0.8350915577234223 821.4423635137564 0.06905380746780608
-22.74619742070223 -0.8235921491021043 821.4182667398675 0.059017052520657906
-22.74208463746308 -0.8412798530962597 821.4238705461523 0.10519887629970417
-22.72238736947423 -0.8446821763009783 821.4213022595991 0.10466163658124156
-22.75534934773638 -0.812711658836238 821.4700527933362 0.13958546288593873
-22.75812765234921 -0.8101856888929625 821.4595598508985 0.14519711056858922
-22.739473161717715 -0.8336848742917282 821.4644685229442 0.09120566990602966
-22.752226828502675 -0.7992524772935301 821.4505991277053 0.0014810265207921664
-22.72377656873418 -0.827513277497654 821.5081281079355 0.026375724434042958
-22.72220719972877 -0.8269800586088719 821.5285403039443 0.011482310741518491
-22.729734224318076 -0.8324481951650594 821.5102645763151 0.021588144315497527
-22.731165132874867 -0.827799640067083 821.9317269849889 0.025995201318200253
-22.73226055324917 -0.8323719364161022 821.9029432031156 0.07984154436622269
-22.728516499201202 -0.8349270732966334 821.9658075297078 0.010474679743391835
-22.735190345945377 -0.8324663411244696 822.0097884331532 0.021618503747201912
-22.726091001041258 -0.8388577610623451 821.9902764227268 0.0016620424526715104
-22.73155550853967 -0.841008453146247 822.0263727325392 0.003792461775139847
-22.722155775371103 -0.829120794098077 822.0797847750858 0.06158034078386376
-22.73894793829641 -0.8297808685482655 822.0404927117918 0.0411512074459758
-22.707407527872515 -0.6351288808899851 821.7777892132425 0.0006537500906329952
-22.75729279055478 -0.8092183296467597 822.1037404325745 0.08500282565213502
-22.75272471995662 -0.809429729951969 821.8513352943031 0.08713943879678723
-22.72792836302804 -0.6207522601414915 821.7425778531226 0.0028129795375147156
-22.735398184423033 -0.6209191163518873 821.6588639871084 0.05105501209480226
-22.723359453160402 -0.6216941220326904 821.6434263376435 0.05629785475810086
-22.738488285432588 -0.6132822716572967 821.6866023204482 0.08886835105162272
-22.739879989863468 -0.6039063438758523 821.7001540923776 0.020257423523595004
-22.733540313906992 -0.6207278906266933 821.6196917962027 0.08390509672037552
-22.739824155259317 -0.6151502769791904 821.6032252074174 0.09764263311991044
-22.728724709918573 -0.6060132514221139 821.5881109938342 0.018125406960209346
-22.738365406381195 -0.6304122831230015 821.5262086777359 3.3076028422213113e-06
-22.711939938804534 -0.6314396679308777 821.49041644259 
-22.730441375473358 -0.6236765452045097 821.533230050972 0.0026042754650933524
-22.74330300370984 -0.6330533562260086 821.4922668016916 0.014689121816176424
-22.74356708705074 -0.6092879458908957 821.4665186932287 0.05319252095365714
-22.71232554813271 -0.6365996512292288 821.4235667610183 0.11369871950790877
-22.732056191525103 -0.6173288982723047 821.4235007523569 0.08493000922784844
-22.747260235459972 -0.6312152955122539 821.4277961946207 0.10403907874455025
-22.758917938658836 -0.6345350199832875 821.4412377098708 0.06319471703388546
-22.71650299875361 -0.6232883529731827 821.4296616109269 0.08366040928736924
-22.709510533407 -0.6372494544135465 821.4274210182712 0.106394857510776
-22.71610957831261 -0.6187236461884917 821.4494100999777 0.10300892270627494
-22.724616978490257 -0.6019200478237818 821.4387045790539 0.06974914953294054
-22.72835534982738 -0.6080278543642826 821.4569910809786 0.1196657778521815
-22.735584148463925 -0.6044679936786426 821.4559590459648 0.11059140544191308
-22.760047731638267 -0.6232443992154476 821.4471491097837 0.0521026404492069
-22.74508405217952 -0.6083855683834076 821.4328741387172 0.07272071030045996
-22.739441260288054 -0.6298444657152378 821.4982955900962 0.054407820226968835
-22.744365373260727 -0.6356734125387868 821.5332250306816 0.003917447092709251
-22.741340358210696 -0.6222977184234355 821.5685241751798 0.0009809166241966628
-22.752856499903203 -0.6323220772066345 821.5916531803388 0.009182958686070506
-22.749677903206354 -0.6299290537100176 821.6412162671278 0.04328825278610141
-22.744139736067684 -0.6246666236897138 821.7157268748579 0.06201271975742863
-22.758395991393822 -0.6407853673794444 821.5983158510958 0.027099910351340527
-22.758001467010182 -0.6369914515764449 821.6522341534945 0.039781608618510274
-22.75737254730202 -0.64543500377768 821.6299666112811 0.0355781312272011
-22.76308111177741 -0.6608502433057024 821.6141125303913 0.008355249197419813
-22.75776464709804 -0.6517376513356247 821.6164453179134 0.0484102459295239
-22.770387913143242 -0.6628802322228726 821.6586166978784 0.0031865136582992855
-22.763514879491915 -0.6673152542842894 821.6741509974698 0.0123141103622622
-22.761843054540574 -0.6521324494357417 821.6782240541747 0.009818772323854094
-22.763069578051304 -0.6502254154317095 821.7135759836717 0.018382209836031792
-22.755376652961075 -0.6410746799290483 821.6862151594854 0.017268567637394917
-22.763330973895258 -0.6370729014962302 821.7579636816773 0.07506721419902312
-22.763225001167292 -0.6597271411387583 821.7573940827968 0.0008351537937481844
-22.75958623261324 -0.6633343622820301 821.7507102980389 0.004344633022747316
-22.76509169827896 -0.6639324114397922 821.7096428762949 0.004758781244227881
-22.760361477834024 -0.6342899271962805 821.7112065941706 0.04754817529914069
-22.760344395455164 -0.6381080748908267 821.7718352786485 0.05832520634331937
-22.755330156171723 -0.6277731861913387 821.7218780205292 0.0637822531297566
-22.750900858366144 -0.8148161200536544 821.5335242389003 0.016974746147075618
-22.754346404544357 -0.8101473546733391 821.5438108973988 0.027334381477197484
-22.735530027018765 -0.8265766794588062 821.5903515120335 0.04559277884824578
-22.742961300430963 -0.8262044668730611 821.6080571814018 0.03177654212369434
-22.732005541829825 -0.8289972380198725 821.6450250027611 0.04626375145492358
-22.759349006754903 -0.8235821597312716 821.6393728286132 0.021527496369509614
-22.745841337962094 -0.8210174271312164 821.600333369934 0.02697587231452458
-22.7408697714883 -0.8327492345589153 821.6848018251828 0.033964334212917426
-22.75447264537711 -0.81290272591871 821.6743224827286 0.03581454740229444
-22.75223244905161 -0.8171614205600787 821.7190601339667 0.04622050678839715
-22.762521751659143 -0.8032446117915875 821.6975507222068 0.008514814607539303
-22.758182154242395 -0.7985492615405011 821.6562561862646 0.00975543695476233
-22.760572224860333 -0.8028015310067819 821.6441102517123 0.045469288940344695
-22.76163337912596 -0.7972732335368102 821.6833304185724 0.008622804874534259
-22.76040129853744 -0.7949304016688983 821.6071969460693 0.019968526640851178
-22.761719676421 -0.7955069878453618 821.6217823009783 0.02407698865309043
-22.762497316097853 -0.7917357568885287 821.5918706193356 0.0134573066626538
-22.757075791885146 -0.8065125054699402 821.5997579043699 0.02268231403253586
-22.755448647555333 -0.8028385806862123 821.5808731900684 0.02269773573541638
-22.75326854345329 -0.815065701049117 821.5609047310882 0.0031418664309875314
-22.763174880612326 -0.7999762231988472 821.5536408591687 0.0054825808616107904
-22.738285455568693 -0.8238221024806329 821.5665794088318 0.0308295904507933
-22.76267504110912 -0.7913328492725686 821.6933432503308 0.01006052728904764
-22.76399326216692 -0.798419899494938 821.7093372832729 0.007750272037807401
-22.76837063636573 -0.7982826463420641 821.7650628333033 0.021413509083623525
-22.76138806692213 -0.8037106921659802 821.7374289225 0.028857044375462253
-22.757986863500815 -0.7841410782872641 821.7542770790543 0.010768257063938561
-22.738112756743885 -0.8289387986736622 821.7538295917009 0.05492381739745034
-22.740293022448554 -0.8282498036275184 821.727529412205 0.09851829009450813
-22.722877112207698 -0.6294768276797491 821.6659580966044 0.007640989481071601
-22.727258915229903 -0.6238602072325498 821.7195377685981 0.02078930549100633
-22.712699153886273 -0.6344114059372112 821.6131732023517 4.437030574508273e-08
-22.721581951376077 -0.6284468297608151 821.751026729103 0.0024478677516085222
-22.71575568537811 -0.8272274586628565 821.5717870134033 0.03717654232429856
-22.73306623617089 -0.8340648575791485 821.5432207631164 0.019333683730397257
-22.727037139281812 -0.8358144558747138 821.563691076609 0.0259513875373229
-22.720989924114427 -0.8313739867644501 821.641038288157 0.0018490858253370818
-22.71433177041967 -0.8277986324306177 821.6828922159665 0.04250190701573403
-22.719449581631196 -0.8192676580414822 821.7347687684903 0.04689845011961979
-22.71520219556052 -0.8256086593001262 821.5793371933804 0.028589475085374138
-22.711641429006196 -0.8156209662448101 821.7150245691524 0.013773984258176051
-22.711976289895745 -0.8152422588248692 821.7570909812691 0.016297051233622524
-22.714874408997204 -0.8169511155834086 821.7681788799758 0.016325135818765928
-22.72302812920568 -0.8231118135348559 821.7560888757835 0.014770838362287188
-22.73388754962898 -0.8242890476344215 821.762523608407 0.04901324408408906
-22.18662809738086 -0.6582821872804296 822.1381473199857 0.019414914233144627
-22.177027545716662 -0.6448418490192864 822.1130514755497 0.007561527936156595
-22.1973039303678 -0.6254483657390458 822.1207376408092 0.12162969296327109
-22.18768979121971 -0.6334099448077439 822.0954921681625 0.07031952939912905
-22.19246605669395 -0.6286355414669426 822.1000805403627 0.09214544558478713
-22.196849001828337 -0.6191526246157993 822.0395910615006 0.1338573320003688
-22.209310014870717 -0.617998691746428 821.9313308352005 0.044527060967047186
-22.1951994576315 -0.6233257673735386 822.0532189716299 0.06155188742932288
-22.203548486532085 -0.6125728248922527 822.019565776572 0.08658243921013829
-22.20330664772168 -0.6198398682549408 821.953575110684 0.04483926830967558
-22.199491836337394 -0.6192382678684915 822.0357523452575 0.12102882139859858
-22.20775210123534 -0.6192254470845495 821.9964400179572 0.09217023738743667
-22.207293589509646 -0.6171163540160458 821.9822409485563 0.010224693351515464
-22.212779967184225 -0.6155592276629196 821.9031657637918 0.04364899284643635
-22.21617604959807 -0.6201905660996755 821.9682658781007 0.007769030935523565
-22.215833708035262 -0.6261988934747181 822.06095786269 0.012356161124342483
-22.222066900944856 -0.6344341855861316 822.0927226739649 0.048036992353706676
-22.22155785360059 -0.624723722013219 822.0761814839458 0.03865222228606649
-22.21573485222348 -0.6129896947996306 821.9846088575887 0.08559292621897477
-22.214325072309563 -0.6308288336953235 822.0271475266095 0.11316413221207568
-22.21497057393557 -0.6205714202215574 821.9528541155499 0.059098992849753104
-22.224182929787567 -0.6374214462213852 822.0132587880909 0.04764605322478439
-22.22678430149388 -0.6339267819412839 821.9300587069889 0.01267204476691731
-22.223281201571623 -0.6330143589589007 821.8139616496002 0.0069299886272681235
-22.223333290891286 -0.6285707690055785 821.8263172565819 0.0018494788743360208
-22.218385524557956 -0.6329258485323518 821.8008735555896 0.002473889040783354
-22.217236596363428 -0.628158109815908 821.7857086270568 0.02244499969767297
-22.20462478828918 -0.6189031925481958 821.7748189881497 0.03566240655010149
-22.19705976218994 -0.6217997159489338 821.8820753390336 0.0125777089457098
-22.193709370068788 -0.633226265354325 821.9158247716978 0.05088305160602004
-22.194124065992096 -0.6263006512731079 821.8961025003897 0.015702214926784044
-22.190748897339812 -0.631174068641576 821.942965311453 0.05894517798568988
-22.193491813838552 -0.6305181452735509 821.9832840424536 0.011836575448204873
-22.195313127638723 -0.6261792934440893 821.9993733532507 0.07395315764750092
-22.19451032005549 -0.6327623606851791 821.9700343152225 0.01016420623707914
-22.182263193699754 -0.6410461111179063 822.030403532468 0.04884149645464949
-22.17497240380486 -0.6474515917945535 822.0726598437 5.871540939833159e-11
-22.177911725377935 -0.6417935022234236 821.9912744371262 0.008374933989825578
-22.17354161062092 -0.6542791877986326 822.0331250644037 
-22.17063080506218 -0.6639607487484398 822.0149290765362 1.47187516940326e-09
-22.17824606695288 -0.6450433638781187 821.9281276139969 0.0012062558739062712
-22.183388061695187 -0.6385023364045647 821.9839520904034 0.0020316000933244616
-22.180164925744084 -0.647113478727749 821.9470141765912 0.0032506060803335897
-22.175569835175235 -0.6603165765116825 821.8080603340027 
-22.180802328455503 -0.6500850070063191 821.8527986550093 4.01994875373671e-09
-22.189465815277728 -0.6258354791543176 821.8656572328239 0.018224728610674337
-22.18154508234525 -0.6484824919531 821.8942490231946 0.0010554535563213976
-22.18408229777636 -0.6369156795224369 821.8477410111061 0.0035340784898672934
-22.202424844398198 -0.8302563241321494 821.7943299107586 0.04523383881729052
-22.197357817068163 -0.8285752442510161 821.8303047899836 0.06011421781408585
-22.210806625833786 -0.8258166267691046 821.8463753134025 0.05720937576452283
-22.208768261867743 -0.8381656836826471 821.8215438194874 0.015073342842452079
-22.22466129771335 -0.8257130430225152 821.7843443136793 0.0003383862077745458
-22.173237936428524 -0.7874052555513601 821.9573333601433 
-22.174349534650336 -0.8020459406157137 822.042937548534 0.0040867311754441155
-22.175945148432486 -0.8037965355920407 822.0727682552575 0.017218425200780742
-22.1705069260012 -0.7919901309889524 822.0970923387259 0.0006376183855745501
-22.229682828593425 -0.6589943782043435 822.1552247772531 0.05629828391386332
-22.21510691851916 -0.6412165071501492 822.1471317100328 0.13137160293953515
-22.20493830363946 -0.6261225470076136 822.1300714712636 0.09443629813677475
-22.204130438677698 -0.6171063943569365 822.1067397892425 0.10420491974473582
-22.22485572959701 -0.6360683343954096 822.1103173775705 0.040226255583027004
-22.171621075651128 -0.7266336458804079 822.1531834235585 0.007295491900805734
-22.229064628544165 -0.6401800976175634 822.1313574820283 0.015658697744413815
-22.20895072776808 -0.6282304295638993 822.1286671526414 0.11564137217426569
-22.198011169636445 -0.7483324574814264 822.1674911342551 0.004284334678779342
-22.204363584964888 -0.7334437408121424 822.1666955993416 0.0017543770100802822
-22.200038961192167 -0.685193822656749 822.1661016603214 4.4503482864844686e-06
-22.176595322754505 -0.6766117764149641 822.1446566835625 0.003912486788952764
-22.170654396774584 -0.6631232299417198 822.1136754544316 0.011009812763375721
-22.212176258844625 -0.6698372287986035 822.1750775612188 0.07993060194829783
-22.206638910723445 -0.6362668460076655 822.158427930337 0.09845337477692284
-22.207920042383645 -0.6331069710993888 822.1459381305359 0.12197282092541722
-22.20248024728494 -0.61956359295201 822.0918282620279 0.04668132883468599
-22.20624418789877 -0.6146805564926578 822.1178698530932 0.05655614623916025
-22.214657976170614 -0.6496301756849179 822.1736288164032 0.06264283933220176
-22.20583799995394 -0.7686051919002161 822.1689150261648 0.010092563489612122
-22.215808201288652 -0.7686847846298467 822.1716389514544 0.006689966009888061
-22.223483122923557 -0.7940019750922622 822.1624329287915 0.0693477149159798
-22.209281294391012 -0.7993363452193105 822.1652014443382 0.0623402879541489
-22.221512032302336 -0.8131183355080356 822.1323312910813 0.00770267817672012
-22.205948911678494 -0.8193578112928239 822.134856945896 0.04901409754008017
-22.20557054316736 -0.8280573105073115 822.1233172802737 0.03469119097052702
-22.219414965902793 -0.8198492910865774 822.1091647761386 0.06911236686820015
-22.21572536185171 -0.8338875442267895 822.0440802242131 0.006585871935852478
-22.228233782421754 -0.8242264121115636 822.0921037765913 0.02123722516552275
-22.218093031498245 -0.8358815250622732 822.011725001272 0.01094430764004567
-22.230300001019273 -0.8258014639473411 821.9528282318714 0.002673258034144
-22.23430256672855 -0.8147230070142254 821.8504676852775 0.000121840113307079
-22.224547311027393 -0.8234702336252842 821.8264378381248 0.032217430025779537
-22.214928128803827 -0.829617378930783 821.8679173271937 0.032186899698621735
-22.209656267121836 -0.8383756439067591 821.929444780273 0.018615244470469233
-22.2078850465063 -0.8341392449731672 821.9066370980112 0.009594291440584305
-22.207996400619415 -0.8298999560600646 821.9647236200296 0.04251540047976629
-22.20984282252052 -0.8323901394918928 821.9366500956208 0.028917320464624034
-22.19527476349233 -0.8334653044658953 821.9597564705676 0.04023769200787958
-22.205086888059842 -0.8323812037306882 821.9888788860314 0.01048633732265273
-22.203541088229066 -0.8363361481285332 822.0330488794168 0.002468954200929392
-22.201669600405197 -0.8316853563605563 822.0693148372286 0.035114524699447966
-22.211308894870392 -0.8354665431063301 822.0924574204054 0.04674593687412374
-22.210824246576056 -0.83419535777468 822.0698423537889 0.030574857968647375
-22.20793215509786 -0.8169131440745848 822.1492449261721 0.046429514055260496
-22.1906590652462 -0.8232959086006775 822.1573775152151 0.008689593699646484
-22.190949681590833 -0.772037414079106 822.1623209144241 0.013152603135360704
-22.181312085431728 -0.8196743651341746 822.1229917908108 0.043211969965800866
-22.18336693697827 -0.818702237565673 822.0964654906146 0.053181306067898323
-22.18308286120877 -0.8194601441887798 822.0759476561409 0.017554768557405467
-22.18026285771119 -0.8216660528297446 822.0441522951409 0.01546418705585608
-22.18060838003632 -0.8115559498208464 822.0096484886045 0.0011248785478843672
-22.186141386163825 -0.8217224187124545 822.0276066777309 0.02574711600943498
-22.191207251824583 -0.8267862810090991 821.9631254500047 0.018986493757921587
-22.187435007667354 -0.8218507394064853 821.8763332945075 0.011842609205292785
-22.20417129677504 -0.8339223861170523 821.8777039788158 0.003861285816455211
-22.19844428292236 -0.8296634878712967 821.8864696164603 0.014404396132427206
-22.190780433822745 -0.8246387469106727 821.9100777398706 0.002024173042119396
-22.196604135177413 -0.8254999103659201 821.997041933478 0.012312349507692645
-22.202993908882725 -0.8249207678581384 822.1164942484894 0.045161490208916015
-22.179600214309044 -0.8212675632426608 821.8246436615777 0.012256780632843033
-22.176218360180187 -0.8091642879224574 821.824048808845 4.6400817571304186e-08
-22.173423651069104 -0.7898898617211951 821.8657284012158 
-22.17303295484878 -0.8061038793862326 821.9192402285271 
-22.178826935790966 -0.8129581127910409 821.9668191703537 0.030436694508288533
-22.177916456093755 -0.801217408150515 821.8560119448072 0.00027223636038713444
-22.213109126705344 -0.8373837001900921 822.0023106132221 0.0053657044221974174
-22.21253233831552 -0.6256033736729241 821.7787272812616 0.02143700786593886
-22.229150892064688 -0.8156738889295715 822.1015956621403 0.010982624640671903
-22.191301373475078 -0.7232665464259804 822.1669686010041 0.0016968105410299695
-22.194242200880332 -0.8347161605072485 821.7895971763769 0.03885381958619277
-22.209919560919825 -0.8347934192726061 821.7375143229289 0.0002599564602779076
-22.21261477521285 -0.8351375555159395 821.7688900401438 0.042521849102753966
-22.21690583992322 -0.8317917116778164 821.718854902347 0.019339143691546393
-22.202935273974564 -0.8309995299487138 821.672413918372 0.005652148059636604
-22.20192694270076 -0.833349219135266 821.6336613343005 0.02092074847485908
-22.21474251511686 -0.8257884752531391 821.5771141239536 0.009267950446800802
-22.204145053663538 -0.833091074270354 821.5473755257 0.05002238622229171
-22.20451032008591 -0.8336552606289532 821.5434513327948 0.015271011688712045
-22.197872581917522 -0.8241170888208118 821.5229916407636 0.008861413426668586
-22.212199640772464 -0.8279899127274448 821.4872331770579 0.0012159196024865257
-22.219737390462072 -0.8419639490161654 821.4276400777417 0.016619982528137515
-22.19760295846866 -0.8343685907710873 821.4297066021845 0.03247745645676451
-22.205110553543904 -0.8343643086566604 821.5013934718694 -5.445075998149321e-10
-22.20377571585965 -0.8407336096985155 821.4618037238571 0.042653891638664794
-22.18942742173505 -0.8274781576786009 821.4532859821859 0.032824949945638476
-22.194560897423468 -0.837268489437521 821.4488541295992 0.03020782623309487
-22.19332219622334 -0.8360720423438364 821.4364435355427 0.02700212253553328
-22.208904818784568 -0.8334632599476649 821.4234966679376 0.03402719238965786
-22.21631009229405 -0.8353297043140565 821.4217910508792 0.01271632380784907
-22.200871737366704 -0.8436941977153891 821.4453848578476 0.021662763760080105
-22.218438761464817 -0.8473593364001737 821.4538751788238 0.03905674100569452
-22.189241100650225 -0.829686338344621 821.4706711739937 0.023082235721165512
-22.19685461644984 -0.8355978572721933 821.5829590012736 0.027894663046486627
-22.20980933016109 -0.8340096979326436 821.6182913897418 0.009579779776997647
-22.182031506127668 -0.8166865596453792 821.7673303340353 0.046378416257504225
-22.20152246571078 -0.6220071267918116 821.8977765127245 0.017080388829129024
-22.210385034515422 -0.6089584829757841 821.8663949512104 0.007103511255808598
-22.213988743964546 -0.6193979202085995 821.8868419179631 0.0010388265264327922
-22.19594335581046 -0.614491023994596 821.816816358776 0.042206574381499606
-22.197708604317274 -0.6162832746785989 821.8446963687597 0.08933606060564656
-22.19982581298341 -0.6152594164915883 821.7354950191701 0.006700323185271226
-22.21357569214257 -0.6234259504371096 821.7518501415952 0.06326959762095036
-22.20306098933594 -0.6166915387675453 821.6371582941191 0.09096536811115426
-22.21328138657667 -0.6158251604723357 821.6576465910256 0.04404667018830198
-22.214576584484945 -0.6196152871473594 821.5578304426169 0.05206726877611212
-22.20114014771701 -0.6139368021165973 821.5076594458363 
-22.194649988953287 -0.6190259364711808 821.4639727255073 0.03906364024596432
-22.217182999853755 -0.6173290454377122 821.465052379007 0.028739989682333773
-22.204909247886295 -0.6152949670558016 821.4468750650666 0.02655224523371832
-22.22294382582415 -0.6138291767712917 821.4498960951953 0.037431055979238716
-22.219507870793997 -0.614663573359944 821.4327378656703 0.04300937923938333
-22.198906516324865 -0.6172718042631399 821.439471550136 0.027497550601072448
-22.220395951547953 -0.628339391309344 821.4177325740586 0.04009820005955707
-22.21550326515681 -0.6198192047820912 821.4189430410376 0.03781840685258865
-22.193410224811764 -0.6279815569873485 821.4243990985282 0.02240897788010215
-22.216151198770334 -0.6278671004854308 821.5381186977681 1.2536848435861123e-09
-22.194820014479937 -0.6212339149929693 821.4723196802023 0.0197849293840905
-22.191541450421603 -0.6302760494481077 821.4422801085129 0.037466978442090806
-22.188538597992334 -0.6436614347768888 821.4189175712614 0.06308022559746956
-22.20768816763602 -0.623430792773902 821.6198948660922 0.11071510016702739
-22.173059062873175 -0.6494242837823738 821.5332988640191 
-22.20585496778601 -0.6104849403468886 821.5905468858862 0.03869563076836619
-22.194293786349043 -0.6216575292975529 821.6178018841788 0.08897566337393026
-22.196999604457258 -0.6309564065789838 821.681889111209 3.9775657398971425e-10
-22.192465024621047 -0.6281721698914637 821.7606736160034 0.062413555886628724
-22.18253811037591 -0.6361430173835371 821.6369858071428 0.05212484015283929
-22.18258572639076 -0.6310932328946648 821.6959103341106 
-22.18034438942138 -0.6321789731778706 821.7385629171622 0.033822286899570994
-22.17835563324537 -0.6346384663329723 821.5968757102937 0.030191225237634473
-22.18029892199817 -0.6387755481973111 821.6289808663292 0.048898542786256806
-22.180692038991193 -0.6369863593898663 821.7511775978452 0.04529460757818987
-22.17007294524457 -0.659737206056268 821.6057856709709 1.8195139530783556e-09
-22.175025032046882 -0.6453171449520546 821.5760118216642 3.3283900744964513e-09
-22.1873325559049 -0.6316595998139896 821.5454729328106 0.005317319791458706
-22.18589226904986 -0.8147258981817005 821.5388945134288 6.644972915727613e-11
-22.180063099492205 -0.816915784807435 821.587830920965 0.06970043684327078
-22.20112700948577 -0.8338180509653497 821.5946997964727 0.041808591723528306
-22.18241965356481 -0.8257895651576672 821.6853554069742 0.042718551084583264
-22.190889291866352 -0.8262606097083119 821.7254617358223 0.018581581961587497
-22.183874990816356 -0.8251870820574569 821.7476516911447 0.0015872297552447267
-22.184153354831466 -0.8124294690206227 821.6401697829854 0.016331595262346874
-22.172578951232875 -0.7986387148415657 821.651573885445 
-22.177869360522845 -0.8096890456380078 821.7058878993907 -1.54313186963839e-10
-22.182356528668443 -0.8102595788305054 821.6087141020048 0.007748143332358308
-22.189056223559568 -0.818534803989622 821.6265992748547 0.011358747158536941
-22.17363731664446 -0.7922824632565352 821.7684918039548 
-22.19966013454547 -0.8305378781088241 821.7522911298802 0.01352602052023957
-22.195852959114216 -0.8310898619180058 821.658652246514 0.030892951971215783
-22.194283763008503 -0.8289674843016293 821.6907578180808 0.057395466901373586
-22.220516239109585 -0.6307999188175543 821.5950895536586 0.013171297499403673
-22.233559708721977 -0.639863269588348 821.6064390959738 0.01577806024912064
-22.22720229578824 -0.6335152602275501 821.6355082888796 0.002703935602582351
-22.217810606772655 -0.6187221844835581 821.6885231238035 0.008155223849295718
-22.22872208546206 -0.6203548120130458 821.7126272899416 
-22.231503107568486 -0.6312850865766577 821.7630265738828 0.019225797824890492
-22.231554101132225 -0.632549770007763 821.5764664344512 0.0034145871711952734
-22.209260393920925 -0.6247314731531113 821.6129630184829 0.11637656181394034
-22.20688224897306 -0.8327362065473742 821.6078907869353 0.04590720444729608
-22.216654274776886 -0.8256315981337877 821.6671772336955 0.009067610075235301
-22.20956322522177 -0.8304989526614924 821.6482968166988 0.04333046060822718
-22.227354264070865 -0.8161070666314633 821.6918027166668 0.0055343821841452616
-22.64632759192735 -0.6357097091510453 822.1283230818946 0.024728315004570633
-22.644445381520377 -0.6290411046070009 822.1043682857868 0.05174201978657596
-22.65599820342077 -0.6254122126354626 822.1163290694108 0.04967124081122136
-22.661416511343983 -0.6224401455192602 822.1084206345752 0.04571747798230107
-22.660122727664902 -0.623643336604295 822.1206391652514 0.049354338815891595
-22.660834582306396 -0.6226093110333994 822.0905043614674 0.02793438059022413
-22.67558826463722 -0.6343229619202339 822.1009488111108 0.019333432140282634
-22.65479498482148 -0.6230644792988524 822.1516913537338 0.014189812458063706
-22.663376954812403 -0.6360291413784187 822.1685432968254 7.815327076060915e-05
-22.661680787164148 -0.6518466760189406 822.1705515354113 0.00019316270022029817
-22.649441734148457 -0.6539072087816045 822.1605442315484 0.010432599365342226
-22.652536705299493 -0.6417896821282844 822.1575093833668 0.016581060435333358
-22.650301457289583 -0.8081674365055526 822.15700530285 0.035219373583495424
-22.650630354713567 -0.8173853397948913 822.1504319986352 0.040826734743088906
-22.661739641100496 -0.8021128955420735 822.1639765995918 0.0015117776412058744
-22.660380431860144 -0.7858254665308728 822.1719020724039 0.0043370691828938475
-22.659328454927447 -0.8173266120558874 822.1559724303703 0.012582325942007012
-22.657708306697756 -0.8259249803722005 822.1176070899945 0.03402216199071249
-22.66298754604139 -0.8382268046332924 822.066518155219 0.027315941705377555
-22.652036076251655 -0.838591009414846 822.0611927869338 0.034651535073656016
-22.65528233543291 -0.8309532493836252 822.0351523799975 0.042860492088390614
-22.64996515684996 -0.8372619820348163 821.9669750077531 0.006082791706517751
-22.66476778832636 -0.8318737978734063 821.975095075486 0.019951027869042546
-22.654590473770924 -0.8354100555007429 822.0137937906492 0.006920155125671518
-22.64461716313509 -0.8254058545116993 822.0023693542635 0.01848114881163515
-22.66651800324727 -0.8312715083486879 821.9145474356251 0.07313521514022127
-22.65420424767175 -0.8256037147833126 821.9306308607088 0.023246608235172755
-22.65062133168506 -0.8249625103027326 821.9239834873524 0.01912241121146298
-22.64802771068992 -0.8292732851132214 821.9531182419882 0.020585892288512906
-22.657674027306484 -0.8294139162296581 821.871310096322 0.06695093833335
-22.650735992799838 -0.8268230800713243 821.8615250333797 0.018086457534532363
-22.642583405655728 -0.8171113426948756 821.8674341168164 0.004419349796344294
-22.637724835008196 -0.8182346881855133 821.9233597219388 0.03474945476837263
-22.63884419607606 -0.8237793434081634 821.9008883723886 0.017458724445977805
-22.636564572584405 -0.819874745400561 821.9712092146596 0.009225290394610373
-22.635112781253422 -0.8152751622495692 822.0920749299719 0.038908462679123394
-22.646382799565018 -0.8256379237722349 822.0876475429505 0.028414526674539666
-22.65479303300344 -0.8308288502464837 822.0931808199074 0.049788928422538126
-22.64503724069572 -0.8227863685724719 822.1144072236357 0.05408722058560441
-22.641611442563896 -0.8257631042755545 822.1346040602483 0.028107932204239638
-22.65544105758897 -0.8223864990160592 822.1260747949658 0.028014640864885924
-22.679498255859777 -0.8235005053319152 822.0433009418646 0.03141824720101245
-22.680136270968177 -0.8176001588084221 821.8891181031319 0.01638957260047419
-22.659075953653943 -0.8361164348962181 821.889489350408 0.046869145269753575
-22.660659877654545 -0.8285764563495178 821.8549380812542 0.025107321668775905
-22.64642856207992 -0.819972472807276 821.8295952455442 0.019382553917238886
-22.634285027369387 -0.8160260266573893 821.8300648552872 0.026839327628360162
-22.642502378974804 -0.8167230469585827 821.8045363428898 0.02279403166119328
-22.628313829195275 -0.8175676527003982 821.6924369524935 0.0018311088257883402
-22.63212859520908 -0.8171519544182947 821.7099901941242 4.2441090850593275e-11
-22.640002701195993 -0.8249866133598143 821.7466466473705 0.04314946931745303
-22.64006042619544 -0.8148479962722037 821.777153305016 0.025367471126812712
-22.658792183657315 -0.8328488065245789 821.82724919356 0.012269084973298318
-22.66874551856759 -0.8279148795048881 821.8505674094113 0.037435204819856835
-22.666121493081217 -0.8302431724933372 821.8504993823248 0.03836691713791698
-22.68839363367159 -0.817610573420449 821.9107211016149 0.03003012984346062
-22.673061154083648 -0.8235014876452612 821.8274933516674 0.015565064917844085
-22.668211774411013 -0.8250353953765457 821.7976241999257 0.021115079392180446
-22.653341740050553 -0.836875796463769 821.5761261516385 0.03238411153633647
-22.643723746295073 -0.8267878029554364 821.6144152905076 0.008061965735508637
-22.647829063802067 -0.8296568597056654 821.6669269481741 0.008740395269663158
-22.653643835006704 -0.8384232672733023 821.6784408398837 0.004224654733342832
-22.652705417087468 -0.8243780084497829 821.7729459044486 0.0327004731157552
-22.6488835459178 -0.8358730117647502 821.7454073239148 0.03362142945666575
-22.672924870564177 -0.8252750062943038 821.7874014313891 0.032618486059848364
-22.66698367456747 -0.8230284032605992 821.7612438334704 0.0477835206111418
-22.672378213163945 -0.823154597097776 821.7367583097875 0.03429466444003424
-22.67897723500477 -0.8195555287740982 821.7419687216305 0.02344537208465103
-22.65080103542642 -0.7340779173638903 822.1706917727479 
-22.670043193961327 -0.8178127861413296 822.1240649750725 0.017545798729152955
-22.66134823901415 -0.8215482322148369 822.1213943051047 0.03337490637765481
-22.675923236224943 -0.8298297143569918 822.0871718729867 0.02563719662896352
-22.68380113942386 -0.8215960501620241 822.0675254082905 0.02172798787442586
-22.6691847181281 -0.8366768516540792 822.0195125983562 0.06202802040973069
-22.671392684655885 -0.833674168676239 821.9957584858696 0.02072466056361916
-22.664071266739896 -0.8390312362087933 822.0306767134944 0.03331295623050135
-22.657706458016964 -0.8356011901322349 822.1027049091117 0.03457446431285908
-22.664798580180317 -0.8360676466031812 821.9492075681526 0.020386140772444973
-22.65567979529996 -0.8374675904822734 821.9081546450738 0.04873356912546117
-22.65002124968043 -0.705521690517128 822.1728347670795 
-22.662622045908215 -0.7175352739364029 822.1673956865435 
-22.678482746342027 -0.6352542919035983 822.008897079528 0.010676159085309606
-22.676402980991245 -0.6319105409988832 822.0553293249799 0.002417468172865035
-22.674527314098107 -0.6228658014628398 822.043122792577 0.007912063528642902
-22.663065791607025 -0.6280026423711437 821.7861718062601 0.05505669051550059
-22.668405321891203 -0.622724644004949 821.7706287271368 0.021084645924506262
-22.674382033757784 -0.6274513768370253 821.7052688196218 0.025648700704781143
-22.666015132379993 -0.6239468077307178 821.7335160438378 0.026484607497197936
-22.62927644049874 -0.6355119386646493 821.7878884182549 0.03752132054221837
-22.639116260873333 -0.6311451932753156 821.7991645144929 0.03436168730295701
-22.632383088015878 -0.6368099856693954 822.01893863703 0.013097076841724889
-22.642731080739257 -0.6266173961009487 821.9866323079528 0.0018975040336169208
-22.649118096661205 -0.6247234200076544 821.9345673401986 0.0018364698996788554
-22.65230759343003 -0.6211620470941056 821.8696961154784 0.0022094765127591153
-22.659489070828744 -0.6154968792536828 821.8786342313032 2.396220244956046e-10
-22.657553122890707 -0.6156334019620878 821.911660209483 3.8571601106391734e-05
-22.660968980159065 -0.6251863403605445 822.0205957920207 0.043231823785084465
-22.654012410438863 -0.6183289962995989 821.9626842471868 0.0020448985667274842
-22.656265265137932 -0.6199927672230738 822.0542919389828 0.025583565323966388
-22.658777135348025 -0.6199210017727532 822.0867882295317 0.025151380499673873
-22.662518670277713 -0.6217981302527867 822.0342396358255 0.05342163958000875
-22.662407798556846 -0.6154487556616078 821.9415790601741 0.0009644918519750639
-22.662410692564723 -0.6173725175496312 821.9989204892418 0.027207140283072345
-22.657979297359596 -0.6150795606714794 821.9693547178617 0.001873669108372805
-22.657860056836522 -0.6177851512929143 821.9275111577743 0.004226086277196391
-22.64603565344242 -0.6254749944448905 821.9840540152546 0.001747164753607743
-22.64687189748522 -0.6224411184358473 822.0347748092138 0.037366504756336474
-22.646575011249862 -0.6283874642439989 822.0862531 0.03542593896249965
-22.646207088892645 -0.6259299918769383 822.1010593534784 0.05207842214410471
-22.629545398231794 -0.6352675904897543 822.051651697962 0.015793095335890402
-22.65412639278621 -0.6213399914944532 822.0724269313681 0.026863736379427912
-22.661956030619756 -0.6077534291809819 821.8622634290725 0.0017147775246597425
-22.64610033435933 -0.619852745009948 821.8319028366222 0.03599016529902917
-22.651049296608612 -0.6221462154117927 821.783027177785 0.04610851535385194
-22.654652938343094 -0.6262292344663394 821.7070153547381 0.03553161340163379
-22.65945694628418 -0.6234241494101049 821.6968119558983 0.02978054480673742
-22.66430652175062 -0.6259182954149736 821.6478040361883 0.00585394937917339
-22.650262237173727 -0.6208705604130023 821.6586708677784 0.01157726135537189
-22.65515161140711 -0.6167291740314529 821.6162074892145 0.0010726979159752167
-22.67487145966722 -0.635370931424154 821.8100759888194 0.02303094583803144
-22.671932765251466 -0.6318719914287007 821.7835491871749 0.02571382426884055
-22.658547779920507 -0.8386322732971409 821.542071858962 1.3715936216788236e-08
-22.646799760018787 -0.8339543868553333 821.5668808724457 1.1637432980485142e-09
-22.66559881944881 -0.8394236328617769 821.6087070854201 0.017272444301974357
-22.6499965105842 -0.8337936849108859 821.6369304112736 0.008471698063027671
-22.660999664519206 -0.8341781600037054 821.6641758730591 2.5590712332024155e-10
-22.667258381242686 -0.8395433551149495 821.7119500100255 0.0005473969210794276
-22.656728138710385 -0.8314929594486484 821.7549385007633 0.05105866107556485
-22.655427039888053 -0.8374298788804321 821.7049357708866 0.016788743685887057
-22.666013109457076 -0.833981605692446 821.6238393634114 0.004887919705736713
-22.672838070105858 -0.8223628366000117 821.5598968365226 4.266588019163377e-10
-22.6592410916331 -0.8396177251018045 821.6165541964137 0.024752992938754697
-22.63443544826361 -0.632861458245627 821.7083582749625 0.01240376104718429
-22.638915747151955 -0.6320932799037572 821.6946204486679 0.014223316650896507
-22.638561513465383 -0.627173160625047 821.7669634595742 0.03261950506215512
-22.649150523314244 -0.6205941942632787 821.8317253070585 0.03307962636515524
-22.649910578610275 -0.6208667014317439 821.8126472404119 0.040760075310859824
-22.643803917545608 -0.6315509438643998 821.7378647772954 0.016876495193630946
-22.65124398742604 -0.6180778262670248 821.5337620299568 0.0022919983989689776
-22.64455005680216 -0.6148064228570337 821.5591460882721 0.0030046900743456373
-22.660751537374487 -0.6229081030638052 821.5678695285868 0.0002764864852415396
-22.661264855428403 -0.6206837281600208 821.6279597218851 0.0006885756420017578
-22.657817560990686 -0.6170952778452062 821.5900689986368 0.0008738252413992881
-22.66134442829138 -0.623890320288466 821.6976467903587 0.04379051898050402
-22.66015901436246 -0.6165265007467464 821.6802286996323 0.014140378153849446
-22.657647174545854 -0.6172091057542455 821.7310257771643 0.026281313196231833
-22.667345202057014 -0.6221514402407176 821.6106057205363 0.0005945869283249319
-22.65794165024079 -0.6170292280678887 821.7429766094745 0.018695385546075475
-22.675106069431564 -0.6262820808312592 821.5624598271867 0.00244824436174367
-22.654847284471465 -0.8282717671490996 821.8036265415375 0.01828626002191447
-22.664409658169344 -0.6336888466177506 821.5104622725249 
-22.562642420436486 -0.6391094525622846 822.1115296284032 0.008928521478624574
-22.563570030261584 -0.6339224461193333 822.0993506132186 0.01489209915084053
-22.57565880987362 -0.6273456423401419 822.1040384600535 0.018149473660878313
-22.57655391951763 -0.6282781395004307 822.1195850453255 0.04426505996752881
-22.585730984682986 -0.6196589173583208 822.08853387561 0.022625567118404844
-22.592037702828687 -0.6258747705543066 822.1234555015062 0.04684327800460364
-22.59496992451082 -0.6390684280413752 822.1370309552217 0.015807264055400207
-22.577110322010892 -0.6384785145618112 822.1681820935521 -3.00018540613757e-10
-22.573833705836478 -0.6259330571028657 822.1479798946192 0.02873555045210982
-22.583020057357928 -0.6317924160249372 822.1586270453348 0.02936940574976811
-22.58768573113131 -0.8126922130729152 822.1658200752144 0.004741063602307182
-22.578039402573893 -0.8091198006356448 822.167220921451 0.015642935787370325
-22.591283916451946 -0.8218316307437955 822.117514171707 0.03953983243247474
-22.582319397000422 -0.8369329814188777 822.0908891050428 0.04851818989361838
-22.574935854544076 -0.8296136981961385 822.0459986674942 0.06668535411918318
-22.583672925329505 -0.8370876706737036 822.062729334497 0.04984203031628834
-22.57812426511073 -0.8296389506302925 822.0392302137536 0.06272542366435258
-22.582205639463794 -0.8327995974855347 822.0058042193181 0.05143867529413577
-22.57811575873401 -0.8383765194026322 821.9563153497824 0.0012787275730978653
-22.58700578181972 -0.835076749318232 821.9158088518282 5.701282331696024e-05
-22.583306805041246 -0.8272843264248585 821.9800340680453 0.08889523372357983
-22.5717235593649 -0.8336448305168577 821.9713134385402 0.07446159993316583
-22.576488912843228 -0.8300428318468691 821.885436962591 0.029784975284594492
-22.570585324136612 -0.8341805754708078 821.9066795867196 4.015227771336433e-05
-22.57498600442503 -0.8293216070427364 821.8688632538077 0.0027291084607211726
-22.557964302493634 -0.8110661658523945 821.9922379088987 0.04451622417922796
-22.555939878205642 -0.8151403525535206 822.0198356383362 0.02136543076728136
-22.562320800613247 -0.8206292490210254 822.0746441776427 0.025556972557686273
-22.5674996009272 -0.8303537138058388 822.0937773857421 0.0628208406000476
-22.57446985880567 -0.8312796316021813 822.1171546066987 0.031500676237127045
-22.55974040264912 -0.8240805505666238 822.1046467469687 0.04993058177510247
-22.564807819801725 -0.8117338143464917 822.1312912041685 0.016060172415177276
-22.577016903987122 -0.8208974912022344 822.1390677844861 0.024638765665510556
-22.58500145344161 -0.8211832042161555 822.1486333466333 0.03502989183092561
-22.57608999307548 -0.8164441313753539 822.1537624767338 0.03724176134625185
-22.600579977381376 -0.8184110204261205 821.9994287590056 0.004706547137446389
-22.597113593854417 -0.8235564645448544 821.942405916502 0.011350825994359014
-22.596407268751317 -0.8203604525462633 822.0102933543782 0.0033554924904510945
-22.598516990885493 -0.8211016227016342 821.9610714069262 0.013033029193595141
-22.589911105495847 -0.8292234440690229 821.8690767900565 0.011276501438212133
-22.583313583703976 -0.8369658766778983 821.854866695025 0.012192321043128973
-22.562332088116563 -0.816619349763109 821.7281380187612 0.00021667826904902036
-22.576359545802493 -0.8481499766664475 821.8387330797827 0.01718037729709063
-22.591133353732783 -0.8348428687125011 821.8454326870117 0.0013409958551800123
-22.599190690068212 -0.819017452859673 821.8796206921638 0.015480690652251947
-22.607673588685444 -0.8200005834504112 821.6295406790426 0.02177009574072189
-22.568722099554158 -0.821376184179696 821.6077332291744 0.015886669965906257
-22.568445978517282 -0.8272103297332755 821.7061543299093 0.026063018035227727
-22.574864789423557 -0.8316314493429834 821.7163402601246 0.031521404458323694
-22.563831831228793 -0.8243186438399699 821.6784413003235 0.010829985018585066
-22.582851039032036 -0.8373385312953658 821.7730488990671 -3.731008567756642e-09
-22.587691404544838 -0.8369385871610393 821.7849778884516 8.64450184627997e-09
-22.58852290661724 -0.8347642151450927 821.7566647923612 0.0006155468862565461
-22.60232110160687 -0.8258097927601967 821.7365715514194 0.0017779997642318275
-22.591173286479364 -0.8301768911353107 821.547461057693 0.0009991253140756843
-22.580964787744502 -0.7310955739613741 822.1700957368482 
-22.579614928047846 -0.7619240914241607 822.1714519213882 
-22.603757358759506 -0.8224638327516034 822.0666729948712 0.024758078451904347
-22.60426883833692 -0.818489725573682 822.045337521578 0.020780812211033214
-22.597037226646354 -0.8213880336206008 822.0321452720851 0.015890681498938315
-22.595613688132854 -0.8234210613778666 821.9888343234963 0.09143153753533365
-22.595795606731585 -0.8246597907545491 822.0750003095919 0.0792388705889548
-22.596382043954033 -0.8205641801785365 822.1025642762389 0.039345864081906684
-22.588480012399902 -0.8377488176550296 822.0657306346288 0.04693509987394475
-22.57484197678353 -0.830375812035622 821.9782249817684 0.08921869383012945
-22.57806361827316 -0.8329586460028805 821.9340184069807 0.014558110082243388
-22.57788199535696 -0.6859829589848527 822.1734004382005 
-22.59638612945744 -0.6259493932945437 822.0186232520208 0.034313313419946534
-22.598166150662852 -0.6331323271826356 821.8871704029851 0.0423457325497547
-22.59250368345345 -0.6294240377195733 821.8684561140212 0.04149087560876995
-22.58232397507416 -0.6251124200334149 821.8326683882102 0.03129069572636333
-22.591367459592476 -0.6217383330415783 821.7840105194268 0.0046189182510229035
-22.59028258220587 -0.6237330561731258 821.7151847381398 0.0011201497361432965
-22.592358267127008 -0.6255398608109032 821.7356517294709 0.009628202109797876
-22.606113489285 -0.633364336543214 821.62754380745 
-22.556890310732296 -0.6324744395147289 821.8133456121833 0.0076887860136960065
-22.55528169726657 -0.6363100162429146 822.0263813950512 0.00990177119794316
-22.568411068859696 -0.6362713598021817 822.0117645746278 0.007514477863572154
-22.565332321616463 -0.6291925407505272 821.9581829189076 0.00999790136274195
-22.56556936984944 -0.6270150274269151 821.8912151137193 0.0030599196163199195
-22.575213734564574 -0.6135195150375216 821.8837794339382 0.030135662208198914
-22.594528542720482 -0.6228183407535074 822.0014121782949 0.00918345073697466
-22.591061338095873 -0.6204403308230734 821.931867449212 0.002359255868397252
-22.597518048734827 -0.6253381099350377 822.0685519075298 0.0455151528354201
-22.60130960252135 -0.6294508240991918 822.056380825567 0.03269853000599256
-22.593872412531468 -0.6227445503338455 822.0327329749747 0.02961588566828465
-22.58163504226229 -0.6240155898087749 821.9982517160587 0.01567962001431505
-22.591350501162523 -0.6076770650138344 821.969349774391 0.005408805875397608
-22.582334733138566 -0.6184536338827609 821.956421364558 0.012593329534546782
-22.576858549183466 -0.618317970243248 821.9151396225076 0.0620542474259113
-22.577896991209535 -0.6242487929021328 821.9881615138398 0.01163931758867689
-22.580029254375283 -0.628865128073327 822.0262001305822 0.022011316143862827
-22.57958771372336 -0.623580239492099 822.0484375192054 0.026785439295301076
-22.562691063546033 -0.6280694623825357 822.0713024199564 0.016502911464450185
-22.56228437444686 -0.6299096244369999 821.9886693204281 0.011529052639371786
-22.555332701054166 -0.636979688266361 822.0009201519351 0.012224881204799313
-22.562113015604275 -0.6321173632430357 822.0566638923891 0.02598392733021362
-22.563052469137222 -0.6330597008989839 822.0318876604119 0.012556059737857136
-22.5819013651676 -0.6176209322048893 822.0624856991129 0.02304892651433088
-22.583020931799894 -0.6202310601621779 822.0506650372786 0.021831429629313587
-22.593203668234292 -0.6271866849529584 822.0453016219784 0.04473526338445552
-22.57959985591631 -0.6217854569096685 821.8571277313241 0.026680597612702944
-22.58341942713137 -0.622722859911632 821.817485597971 0.024457513134657567
-22.57292769400013 -0.6239308037484418 821.7769354734033 0.004616219607068363
-22.584652869352965 -0.6249146014986843 821.73579601508 0.01055741576578431
-22.58608060072457 -0.6222281980289578 821.6544350213492 0.0018873588018512133
-22.575751092209696 -0.6157160569913577 821.6703538621736 1.043351863920586e-09
-22.581629306428752 -0.6173125655270514 821.6290129399672 -9.206061983064674e-09
-22.57192763658766 -0.6243684449598104 821.5759933457247 0.011589023380065787
-22.61002439084531 -0.6348007264940099 821.8277829629385 0.0010794634933402102
-22.57943022015522 -0.8368661212708306 821.5468991484398 0.00030472500660052465
-22.59182103955854 -0.8398705025241979 821.603046902822 0.02267512270927503
-22.598175282720916 -0.8289749285923177 821.5789627855154 0.022071264625490618
-22.58180090676036 -0.8295372420779356 821.6064395149397 0.04482112653297797
-22.581460367366663 -0.8343082766201076 821.6785650691386 0.01623449062414772
-22.573953180303345 -0.8355934291119943 821.6643191994225 0.01550145716683385
-22.582037026740398 -0.8309887293159105 821.6580376240717 0.024280175054832136
-22.5792783653825 -0.8343934282553064 821.725323056539 0.040832406538230885
-22.57851739840019 -0.8317231431261519 821.7062419017818 0.03047737312644935
-22.568634421313686 -0.8369129539969021 821.5833127846013 0.03832886301094546
-22.582719037346543 -0.8303509223013076 821.629161456935 0.059863177439961196
-22.588874684420762 -0.8324794378392272 821.6998093242602 0.02080036172129477
-22.57760052623382 -0.8373972448595493 821.7678662222319 -7.336988809112713e-09
-22.58949183471041 -0.8292394116362157 821.6847483006674 0.011726736284992979
-22.591969838838796 -0.8241826655628138 821.6390694859766 0.05925991349780348
-22.592762817310753 -0.8246405191607623 821.6302504237593 0.07434433005944001
-22.592915345535445 -0.8289729545772676 821.5605588101736 0.002426938931658359
-22.560578849161008 -0.6341552349441641 821.6101525680732 0.00013001320802154918
-22.572480179927318 -0.6243663158187659 821.730022507075 0.00974844142402898
-22.571447046407112 -0.6260189422764614 821.7530054490376 0.0045157956747044785
-22.569686623715892 -0.6295446591837783 821.788326862434 0.003142547725719788
-22.593412855036156 -0.6221007356724545 821.8514141305079 0.005984046563596768
-22.58000360041288 -0.6202003302129119 821.5806703463666 0.004533453581249574
