x y z curv
0.4918669585077635 0.08318429962234147 0.6886529956411744 0.04305666881632068
0.48382754459413235 0.011097158620466051 0.7066522342997698 0.07077650120765894
0.005430254608794854 0.08184944335573974 0.683690206902505 0.026511165418874955
-0.00011732936611837108 0.024900894895081613 0.6815444211031636 0.03357067755266714
0.00016269045531150557 0.049178217196273695 0.6721139339325928 0.020299165572763244
0.0022824701076358325 0.0034749295374872083 0.6583067798003938 0.03708859778327879
0.0025429992135071666 0.010067485356591098 0.6749024428873249 0.11453058003348315
0.008749300547520246 -0.001259070444422629 0.6958096888516861 0.093685388312136
-0.0019151913915415632 0.01870888264747066 0.6810402433654131 0.07606345421120972
-0.001989302429396886 0.03523200115942387 0.6860038138098016 0.0273970347027117
0.4730842841910588 0.039819148399356366 0.4063132070760532 0.0826209851330334
0.4780142049630903 0.04620948677431261 0.2887089626627335 0.04804726173925552
0.47744096441513756 0.048670207452954084 0.181357873760614 0.05799633973707676
0.47555134682398637 0.046485572316223696 0.255412530760642 0.09233100442626736
0.4732075101740666 0.040058616432721 0.021508569251756558 0.022021174206021413
0.46593464465144757 0.04030116153341652 0.09078256181392191 0.022609000541967458
0.4750479286960284 0.03976253075231978 0.13245907075778568 0.08520280025078107
0.4637937648802412 0.04949677137886861 0.8056933865121577 0.04937353359261116
0.46005750624950636 0.04893150199640595 0.8195172667216617 0.062346711354969976
0.47580319898704104 0.04607953987848905 0.4476560100695325 0.0436323928996613
0.46399935056475483 0.038340120532281856 0.36363798256044394 0.04490006742162565
0.4718576780471027 0.03811883914696143 0.35045103109885234 0.030112061969727055
0.46277694482415493 0.04530780656862001 0.5954447408701515 0.07751513949863098
0.46499676600890766 0.04663992721234009 0.43276700488663733 0.03990097320837606
0.4729492715480457 0.051751181859912856 0.9574611468665409 0.08926054961874502
0.471964053763741 0.05109268991240621 0.754435467966154 0.07560759190264821
0.46597659073777487 0.05712974875633945 0.9938226561907335 0.06762474591856331
0.46980336919193505 0.09880899145589137 1.0089310598411456 0.10334289607182179
0.48654226530323064 0.09780588860668157 -0.0003775595660122483 0.004943219696943702
0.4688396297192681 0.11998355809388023 0.41266533221189905 0.0045564739773108045
0.4763995672754323 0.11019702079112481 0.5037448061144757 0.06896768877929418
0.4761016308041119 0.11259388910760817 0.5901211293922247 0.010381911329904863
0.471101565360927 0.1155614159510935 0.8499495617179882 0.023954158259217626
0.47426973850524695 0.11666902795870358 0.7599290243172548 0.021616063078791024
0.4745166277978563 0.11608963146604903 0.7020271803238871 0.04262769092211316
0.48706235863083974 0.10296227361877205 0.306921227557595 0.022404459101323826
0.46771308938688794 0.035915451316494776 0.028384739461876446 0.024401363017039986
0.45846258513477667 0.05151357664328614 0.18802511582473752 0.020899946881216946
0.47744247340730533 0.04451233042506816 0.5702769776909647 0.06191994000398231
0.4681324494769255 0.04807910072705625 0.24881533919531318 0.09827184780603622
0.4707310145429906 0.04234007884689106 0.2116596420966919 0.026077092351472257
0.4791240641411751 0.03817105584371843 0.5040089830462762 0.03757883212812298
0.4696480962911471 0.04714870874829225 0.23284368250272694 0.0788321742227348
0.45409559045990333 0.05561862368952158 0.5194335393415395 0.03655615426820033
0.46941886224453433 0.04829606097375319 0.8408769263882033 0.0668609847171026
0.46315429515065193 0.054428914656408256 0.9658006038784003 0.04515750968722066
0.4655765139986141 0.05365174532195352 0.8623663263706928 0.13272857459856116
0.4618549946253015 0.05198965707914314 0.722813877634036 0.03365444013303839
0.4590212247785792 0.05067936790308951 0.9824538937412197 0.028604801271793486
0.4628242577276349 0.05060523735509168 0.003028816473794032 0.006805036346134205
0.4725898352024528 0.10908361068999514 0.4624904798548093 0.01836532505151625
0.47636502559778454 0.10739917189904562 0.9395782038315191 0.005901442449540245
0.46950457720620037 0.04926451361148833 0.5354793094017326 0.10703207712510814
0.4640371055522425 0.0449386425045842 0.9452149888129074 0.0129879932940249
0.46072084249052353 0.047042328536268795 0.7760876188874248 0.043512098383308266
0.45676388325651845 0.05335329313769926 0.8722109048661283 0.05020046955324718
0.462295996536261 0.04850226213750695 0.81825517992366 0.0789382242915076
0.4616200120589196 0.0552965599067876 0.2657837592123631 0.11087834403809374
0.4772235477528546 0.0469450679890049 0.5430909093745465 0.07012776074844597
0.4728141196497569 0.04389783284255882 0.7913633980566668 0.06617396054910335
0.4705530205902253 0.05043173736138471 0.15391029307785423 0.0874126369508991
0.47886391954307106 0.04500235973154342 0.43336674695549104 0.0315347080887986
0.4697711786002938 0.03681057306566525 0.8985232170949189 0.09797332050291958
0.4810313853149239 0.045345174982188145 0.5819713789815191 0.07140964998181626
0.4865462342213047 0.054473535807202614 0.16162245538671158 0.0790513171020088
0.4707681083151191 0.04524909667526317 0.11200829604951403 0.10582170498868776
0.4803194357920329 0.04278513256307719 0.5270617965143484 0.1264137769566307
0.4674161411460248 0.04486517086444089 0.3899718942482637 0.1018174026995154
0.4817992217788539 0.047127942248046235 0.7614227411053701 0.08457263703110686
0.47330733448032974 0.03940441100824967 0.9309377724276247 0.02043217786727097
0.48270952506907827 0.04024296070113047 0.3820608458225734 0.0246249253808297
0.47068745105999843 0.052077847352505854 0.9709330011609641 0.0801887011807392
0.4804363615863225 0.05738322610230747 0.0020697197124565606 0.03369768499483174
0.4827425042228658 0.10894019624085535 0.9117696189053947 0.0050969012156052785
0.4689576405795346 0.1161338503056743 0.7175887285597855 0.0014918818816090224
0.4842886713157223 0.10687824606298285 0.5767772937264315 0.01535650509557773
0.47679286950695293 0.11348024567809527 0.33633238195430637 0.0005087821748220523
0.48115931753464125 0.1036495048394042 0.36305676938784814 0.022832207790482957
0.4912422733117753 0.1123651894283755 0.16122268778181625 -1.0497185548404748e-14
0.47875662684316267 0.11087777444177951 0.2086592356685635 0.00011266939975859793
0.4789068083605721 0.04577108288119566 0.4082732379585944 0.028904509037389017
0.4711335868404364 0.03883654510232486 0.4716849246549246 0.022956901846379905
0.48505951455507 0.05122414682501161 0.2817130433126866 0.0640567613489884
0.48893020378509666 0.0457985910538713 0.10681468643291024 0.06145822409928288
0.47863052263368744 0.04271774080550372 0.5097524261794351 0.08731088214591355
0.4798044472537835 0.04786325816324713 0.32541421454384445 0.024445934877818532
0.48657086630212276 0.05013690228955956 0.18837564952806132 0.049543103844540484
0.4749375325584101 0.03969047953243845 0.07922481995314874 0.011530774116852788
0.48614609463498965 0.04666179400357515 0.7226765497583011 0.07317836730895312
0.4800203843426111 0.0468528413630187 0.2503976332697303 0.08282421967085926
0.4928684743373332 0.048487866781760654 0.30356944715892986 0.0037281394620190126
0.4850167037800098 0.04563614228720685 0.8962019906010644 0.06795779947616412
0.48237607522855125 0.04090597310987188 0.3700448355604754 0.03500454240149205
0.48082979967597755 0.04664460739841806 0.7453088594650314 0.08656689028553416
0.4867771636990246 0.04329472580403802 0.2308998016351245 0.0398591111776846
0.48989524321402517 0.04764397907811818 0.761386373303751 0.07505347435706868
0.48897090838091534 0.05475307562216487 0.8145142627856186 0.11147821416883048
0.49284878830513174 0.05448044557921062 0.569175643526357 0.07129035439397072
0.482078491978248 0.04057709805377442 0.8675379968225376 0.04817943060029032
0.4858505034893355 0.04809350577819988 0.7108050915842585 0.08029770511829018
0.48834501190889174 0.046924327446458323 0.48651130252999225 0.0041857011025842415
0.4967900120639346 0.049692204026423784 0.10644390097602555 0.0497207679684388
0.48556737224072183 0.039548371061666275 0.8253596522176218 0.04858823051826591
0.49129959575216714 0.052969798671111235 0.778771254753147 0.085432743223828
0.47924213134559246 0.042944991900229205 0.9889878178299358 0.07414693851185362
0.48700875265653215 0.05419985641947481 0.8052491336957436 0.10431233715166374
0.4826186542202314 0.05244434124958844 0.9926837538639416 0.09589315798540496
0.49633930216216654 0.05378014697535339 0.012698551132723586 0.01977702034996714
0.4782353354626191 0.07686949544909176 1.006651096126312 0.035048704345416744
0.4908457571200437 0.0915709123065396 0.9972614984816709 0.05145850056419027
0.481549717924201 0.11131249491193501 0.9987596248990138 0.05116157062999609
0.48745684188519106 0.09577042954493323 0.9422373263890316 0.01501897808158699
0.4944846396756195 0.10825847651570177 0.6782528141628948 0.015337957395242118
0.4841652914652692 0.10423958176368836 0.8755617830276351 0.04003094076009166
0.48559373702996833 0.10474265930649183 0.38851347147477483 0.014019133593099845
0.4977679389825231 0.10145524318673838 0.515035865631937 0.01475025501659437
0.48368302183308537 0.10742020048303509 0.9751352081323991 0.03645580949856862
0.4828963251704364 0.11373405586910008 0.6132779316337599 0.021687623466990377
0.4839720004520274 0.10764934442327218 0.43377278208862047 0.031590516848665394
0.494810571516151 0.10097118671366889 0.7588609173285366 0.036081263886576904
0.483269665604318 0.10551758930896502 0.5313299651578834 0.04144096881045335
0.48380880944622273 0.11209840164521973 0.6684159209696621 0.048508957301196934
0.48310546253607956 0.11383926126246265 0.7877827401501735 0.034057142871509564
0.479326241790455 0.11007819487649072 0.8841504140524732 0.018417879402712875
0.4814149701945614 0.1074600885179733 0.4639552580756535 0.046960667546100524
0.47939808527014593 0.10673803000932934 0.811044172452209 0.026875889554908824
0.4850309131210423 0.09675192563972566 0.8152887950783378 0.021538510006509227
0.4934394388487474 0.10582679424886214 0.8394072593022562 0.02472058857810888
0.49312809963503934 0.1042187177406182 0.01503925719617001 0.0013492360276620913
0.4943034364331705 0.10161535410215541 0.06069569659349886 0.01549984193723848
0.48806194422191884 0.10062785092923439 0.7084120590634787 0.054459524258426685
0.4891901804084248 0.10382638554605789 0.033239171695808256 0.01691616452424249
0.486835870092815 0.09934875828920522 0.10621132549643382 0.00017502075761862847
0.48979493678781366 0.10024516907696468 0.5614608289755092 0.01156612690136857
0.48715238598066235 0.10855790936161483 0.6083328786277458 0.025077104979607093
0.4869208159448978 0.10587082271882199 0.4170721338313829 0.016787334000342283
0.48888546279964923 0.10338010104798213 0.2923954004146577 0.022097170448458242
0.4768976484143315 0.11351799647213856 0.2573051014992368 0.006234103599349125
0.48652531384810643 0.054933193791698726 0.3920134169576274 0.06291764541013728
0.49641841494498024 0.05328481805100317 0.191514844939861 0.053845776500057715
0.48508053496430936 0.055369376174642805 0.059983043837795104 0.008488546022097202
0.4909825315930305 0.05580289960480513 0.1295982735049331 0.053946579635321824
0.4887662876436867 0.05511778624933908 0.8594576329034068 0.14788740729292477
0.4904935773243097 0.054756777447600775 0.7600591805847198 0.09607619887448232
0.48969968659013746 0.06515682495584063 0.3815873064783594 0.04978501969684632
0.48536432900138177 0.05245009022746318 0.9558095561451992 0.09598650451764539
0.49798519953870674 0.05450396103635711 0.8463810087062803 0.08461446296887644
0.49219629018367683 0.04819520055150348 0.9013733773237305 0.02928439851821824
0.4859583614144441 0.09427523229613963 0.8992764499645804 0.005829034081551076
0.4883719875109765 0.09917094134116278 0.6302486854241364 0.008164527681089514
0.48481963314366605 0.10034401821398337 0.37257998407711973 0.020155227435482436
0.4871503535497337 0.09969174016273759 0.587727473412358 0.027671650084443437
0.4918033949755033 0.10092086222861751 0.46660038911996743 0.03426736702821912
0.48990613882857464 0.09920337959082065 0.4940997740982303 0.04087402694892306
0.49069047531359894 0.09645383988076936 0.8507971624141311 0.0421092358394808
0.4932316337389716 0.09444819971575966 0.25787492579187515 0.01763972952961262
0.485574747778389 0.0939711697423082 0.27282802283119795 0.026204432713330703
0.4885699693270454 0.10329664626554391 0.10941443209448898 0.002815496305222075
0.4901466572681936 0.09962015087564292 0.43879062655563306 0.028093587757935357
0.4916922825725051 0.09338502181619811 0.2507477648227924 0.02004244900671881
0.488974469626176 0.09545969523431895 0.21517704530553744 0.015688541433146554
0.49469602387073114 0.09145390790642044 0.7175363975093766 0.029148638197841387
0.4854358680274475 0.08851509964871777 0.7772699964683261 0.026850466054124365
0.49376590007912136 0.08850598485917846 0.9478983128095888 0.03963095361476773
0.4964990344702394 0.07875912136136021 0.9740950883172251 0.0832273447297009
0.49172390989393444 0.0846704942573346 0.8098889388044826 0.02159592776389505
0.49060436627050674 0.1006145186268635 0.35036482783274364 0.02403084848524953
0.49163391728878597 0.05294330683283529 0.9285735676776115 0.06281516946003836
0.4851068429027403 0.05663008764539143 0.6280085486903808 0.008410379648062601
0.48963080835594003 0.04545212712077853 0.6066154072537899 0.03985894141406254
0.48721023287927223 0.054548898020553134 0.5339101518007003 0.12205228438210906
0.4945901168797427 0.051947129131020536 0.5001622849226216 0.024088688075946964
0.49002500105874464 0.06431052530191846 0.31988291404096164 0.03304529279766297
0.4894641267267232 0.057513462832782504 0.24107581010715454 0.05514228957509303
0.48148935722203046 0.07355878547695004 0.7584634532442872 0.07349163847558579
0.48944215198875163 0.059685940026475315 0.7438176283124606 0.09401148988894109
0.4825185848133599 0.06476196259465387 0.6044798806223862 0.05618249601411876
0.489333840884316 0.057192836805552955 0.07352230118871855 0.04843447883303417
0.49499974855556234 0.06622639846707913 0.5284501389661616 0.0277792609665492
0.4949841211653507 0.055206171114509886 0.35894546633466795 0.036940409542124054
0.49006411919644405 0.05241877646307276 0.4742986992122636 0.041751075699230714
0.4893836804396533 0.05545969102527486 0.17129487075637043 0.14035748676326465
0.4882009568274321 0.06040164843733739 0.26061234106506936 0.06087449134374154
0.4877606821099171 0.05801382488236959 0.21926886586602198 0.054196982209921085
0.4897067294924941 0.06175643742467684 0.4143126241716949 0.033104227528327125
0.48644595134461927 0.07089811610138941 0.16167327265800896 0.06386646016059419
0.4931953914400872 0.07208314356037812 0.5774575549698475 0.02446160569845324
0.48949763387039136 0.05737500565029763 0.45405855131635253 0.047473705593051474
0.4913656034998274 0.06097180892958491 0.3188470693218357 0.04734804070281957
0.4867827389402766 0.07217155738038833 0.11789691897419761 0.057959778538371864
0.4902454673248029 0.06369758423355104 0.8775679140283099 0.11525616816053394
0.4867623451940784 0.07037338404223234 0.8334819423698385 0.09118082956627152
0.4908232093920269 0.06389678851992167 0.20575613672940166 0.08181886411833403
0.4855999697886719 0.06281808457386925 0.5456946395384173 0.10566322698970988
0.48110082052992237 0.07240272760836047 0.6116484809821283 0.04855635415923574
0.48559595894721697 0.07065207420974762 0.26569797783176646 0.054945625449846686
0.4923367853512268 0.06522794235765077 0.794876877453355 0.04687322387773482
0.48374212680063655 0.061731445125316406 0.5899985606544323 0.07167083283539334
0.489014512022886 0.06264897544679221 0.9118867745754449 0.05308630997277643
0.49035562837216634 0.0690508996049664 0.8951968084125547 0.03320930170189929
0.48755506742861177 0.06339125800051276 0.8196020418794571 0.11695983927389726
0.48620698105773286 0.06512296035504928 0.640963951741656 0.017858394596712644
0.48774057315809344 0.06687393841054319 0.1596112129583859 0.06402940232705799
0.4867708154561158 0.07706981940352448 0.2271495977911105 0.03267371771348488
0.48923237935961483 0.08353571094566523 0.37560291127887346 0.015033770451407339
0.49336536300760014 0.08492925509288277 0.08126255766147243 0.017580272824210652
0.4873318096486054 0.08131984410697106 0.25448801105883595 0.07791364122334712
0.4970895957052575 0.08354167405089367 0.5782932752011314 0.013889008524105352
0.48854304484631267 0.09375183689415247 0.18072382740416107 0.013826618883403148
0.48764096969545656 0.08454585619490065 0.4708846984937487 0.03901120090590323
0.48983819848672094 0.0891119478665935 0.41886050834686384 0.031075577331744913
0.4847103183838221 0.0924976028815074 0.6315649803032043 0.0050516249842632215
0.4938715420533754 0.09307098186675714 0.800718495376564 0.018171856026060054
0.48706776825698106 0.08913706173594092 0.6040561672430842 0.03455644648044129
0.48960573175443484 0.08257458033599768 0.9117769622521161 0.01204708259940696
0.4899420273047222 0.0778744557449259 0.5128933017505671 0.04538320069631517
0.4893707525339669 0.08156539955463243 0.4448101601550999 0.03351749941289563
0.48839600656136006 0.0794329619945085 0.7948561621008405 0.0358147960784599
0.4871327852061056 0.08719266581652005 0.29242185864608505 0.007266145527850082
0.490242064315393 0.09165703682411494 0.5495142313935553 0.02217957722766567
0.4889703419478697 0.10116829875036554 0.20389871710269106 0.011642817635432226
0.49396399501505706 0.09487474404770024 0.15795298275243208 0.0007399776553285429
0.4939983741538743 0.09563826077835873 0.0727170177084156 0.012352551364616235
0.49115974819782354 0.09035632270565847 0.38546678364478787 0.009196502306412915
0.48126252379774764 0.08451503552493075 0.8597328583058806 0.08007256807363924
0.48669028527921127 0.09581766974046188 0.8740684616524922 0.03625140191692351
0.4898726793227987 0.09156806229154409 0.9185840561115718 0.018541973049334987
0.48917263236155883 0.09135940033104452 0.7439356149044742 0.03796299623223751
0.4907438264556996 0.08869137867552766 0.6596267958873905 0.035974597363573946
0.4886455607041441 0.0920938837734092 0.6941431604349727 0.04580127829053813
0.4974723194548688 0.09765121241028742 0.3340539560515708 0.021800036597464875
0.4872876786580683 0.10477272592144696 0.6156892341020749 0.025673871281259756
0.49123172646030777 0.09400686461248411 0.7912767141594139 0.04007516992796342
0.45725813370237106 0.05668218113189438 0.551102378393334 0.03835092422838398
0.4201078608083213 0.04732795255179756 0.007164083184520071 0.0021211712332108753
0.42639922864751134 0.04030162577122061 0.7822334344754738 0.027208204775632416
0.42557457909589197 0.0407649212604342 0.52052347234584 0.03952254952075575
0.42133278335967667 0.048041031593944745 0.7410979035724851 0.009409905449811145
0.4219595144349596 0.04016780141874546 0.7145099371723442 
0.4235242989487576 0.04495763595465674 0.9024163483623648 0.0074045012145342115
0.4214073084311963 0.04209551481661985 0.48592063154906584 0.02458765942811257
0.42414486686182895 0.04087354277255417 0.3724909043618276 0.009804563219273678
0.4275806036737505 0.04040368110546453 0.4284894837903928 0.005431349156502354
0.41865386941090443 0.11634789579488475 0.5239984012138649 
0.42434464715161146 0.04563280873725964 0.32181382947816245 0.0015040989017008684
0.41277378306435475 0.045306315697618386 0.19378986129212838 0.016851200791594443
0.4188020165689159 0.044108840843942385 0.06784544508905112 0.0032005337124385983
0.42097740706136383 0.05042923846153428 0.5684446622597664 0.03426457964897578
0.4211106293206677 0.04800309205105469 0.4091061076737955 0.004653793797194085
0.4293668865436172 0.041634449810894675 0.5916092400694255 0.0028156694802169524
0.4160359338734152 0.03981139028226007 0.5151379607920019 0.04050879190425643
0.41658018576608513 0.048534626796439016 0.7550357644824421 0.011502735452843688
0.4267603090745001 0.0407873790940606 0.26069296244564644 0.01135296300746684
0.420916628353164 0.041489367755210865 0.5357803171275304 0.026599447668917846
0.4243966061121324 0.04030025556227901 0.14198759220244586 3.0166311114994514e-14
0.41616414936778334 0.05080497780246076 0.3353482335308516 0.004944183364011253
0.42061443171083557 0.03474421075506444 0.16618952507479 0.006156273845571125
0.41909424714161453 0.048938784407602944 0.22496825775800453 0.0018744790481254197
0.41775212184637167 0.052589764977348755 0.8143340787129648 0.01898019757467302
0.4114075224387665 0.053628477249546995 0.5839803779737088 0.00011937494947496901
0.41992889318867643 0.04917182452114223 0.9286295749283592 0.006804841950084925
0.4316073734193876 0.051030181933238127 0.8732130714188907 0.006888777795134989
0.4091102071933601 0.04841904561682118 0.9591238422939679 0.014385849555328479
0.4193254297852162 0.04436622455076091 0.892206225869643 0.007179354237633474
0.41386823624509095 0.05086893323288174 0.8272341613931864 0.026117131100814706
0.4228890157757278 0.040971143375706315 0.13074619554121422 0.0008330951574273199
0.41440232473034583 0.0460808129746393 0.8565228599473342 0.00680719185221498
0.40980255434622354 0.04462266644199462 0.97554851560848 0.018452443313136925
0.4139444112073619 0.04111863409289729 0.4589553711720065 0.0025570017580152974
0.40564609490968767 0.04772835033229561 0.8473093784744486 0.008307591321236775
0.41534059678155194 0.05464913683083399 0.8041173617444711 0.01244663080966695
0.4087531944871407 0.04788763547727155 0.8802534864635935 0.009064400254754875
0.41452766240997124 0.047765510597947876 0.9165548294166322 0.007623490795707596
0.4087279802613592 0.04574755084495801 0.7821233921717854 0.02054181908310114
0.4279499817295295 0.05341201228572519 0.5593768965658001 0.0355880676646575
0.4330316573991056 0.039405199859256806 0.05787682955786739 0.00036524788819142294
0.4235284597640068 0.04418765003456854 0.3895200233321739 0.015487797762596877
0.4215645252796736 0.036086768494008686 0.2814345733919672 0.010890991930394212
0.43768192564522673 0.04221716782864375 0.30414072755166555 0.0036996854531517634
0.4231528792422189 0.042289001434158834 0.0752056669855786 0.005858737800907753
0.42658158142053276 0.04381317717467021 0.3151207126796835 0.0074250154692850675
0.4312493655644669 0.042501814637251105 0.23508931599911476 0.005033163038762775
0.4366046195179014 0.047734415901093466 0.20132299403193366 0.00807140475235588
0.4294971683025331 0.047109282070167596 0.020353929198995153 0.0015102370449160134
0.43342606026044067 0.05282880162222159 0.9748364372981502 0.018655506213208276
0.43119296906576177 0.039396686839363024 0.7937613121886253 0.010181441395984361
0.43121967879376444 0.04311364155418065 0.9406067397852362 0.004557781511922332
0.438314981477281 0.04735870400063331 0.46624600012146383 0.009468022139886132
0.43899073325737886 0.043828465538708575 0.7742237167970164 0.030300517489320413
0.42689234388014996 0.047691769576883335 0.9300016811717197 0.007534955191028028
0.4272518904314001 0.05156743076290931 0.9989522047871193 0.01681844082906624
0.43593073291718654 0.047389349000082 0.10270826531567487 0.0030194796981021263
0.4300169689407555 0.04475654487660309 0.3717086055769722 0.01597664019460981
0.4442019537738858 0.05286870659763693 0.16835380023461344 0.011075515858027768
0.43352384304829594 0.04236698065014878 0.09542343137957919 0.007726389517937525
0.43264142709819126 0.048257224598196265 0.18703574167751824 0.02763222809937539
0.42878753383448814 0.0453522235041978 0.8463013239164312 0.0034235037832397322
0.4321798609570004 0.04800268001541536 0.8330498626488025 0.0011504513900685348
0.4347629616595692 0.03662250132385825 0.759724139447428 0.007820214577390272
0.4379073806017616 0.04342460971527639 0.9110105086696896 0.011132278488384724
0.4465789547938632 0.05050521642695023 0.9566815536419969 0.010223295248107703
0.4293508443126491 0.049018903472283645 0.8798029973686127 0.010896058089299535
0.4268677540836947 0.05225646631649472 0.9853715129822569 0.0341559598805375
0.4389795610190124 0.051649941251528136 0.5623407400083182 0.03504260238742121
0.44377949217360435 0.04514266151341559 0.3559270162879128 0.0039512443260658085
0.4367546085805326 0.048333601709102225 0.9877008426021208 0.019635718446059845
0.439245715983445 0.050535181314053865 0.006563453086103552 0.006538890507005655
0.4343866522093283 0.12304244497343585 0.3458788542847949 
0.4353309857906225 0.045555073230232966 0.015966704860111838 0.006712976841108145
0.43839789159277104 0.05100086489489807 0.4014893319757719 0.008652411623490648
0.4324137055261421 0.05093684909501017 0.49584089560229994 0.005200993384254973
0.4392522338020632 0.04564426980983342 0.216592315890197 0.008926649543295827
0.4307494675073453 0.051383056422828095 0.8132765081784104 0.02179208846841522
0.43899477794054004 0.04349038657196688 0.936134036839233 0.010521178253445352
0.44220707736238635 0.05537990953452216 0.5275157236618165 0.02858169596040552
0.44252821338372794 0.05314251168872661 0.872800553971978 0.00782199454116737
0.41564275555329055 0.04850856861727849 0.3096194647828627 0.0009596916564170164
0.36746428034262923 0.034780309249163935 0.3967443804163301 0.0005369630854783659
0.3663427229542908 0.046749264256804486 0.280657358026908 0.007794408130377448
0.3667344776730279 0.04694907039181705 0.8799332746617851 0.010485825914118457
0.37019438428719625 0.04675721000280734 0.36828464774514724 0.01740639292025743
0.3719076049283885 0.042075906273458565 0.14515940059643007 0.013318517882071635
0.3765120499947461 0.04359923267009038 0.3463491899553496 0.0014481987900613956
0.36561948169898684 0.046096570012307804 0.197627722095098 0.004445299730531069
0.3763399178930822 0.03637092618680747 0.5939540652068717 
0.37216479895009763 0.038492649881690245 0.7607612575538754 0.023825526941895336
0.38161280757335575 0.04006208674020692 0.03629043428209644 0.06579054800042375
0.36890832300086596 0.03367604285937885 0.02851402870391763 0.02671691708333
0.3646736857593883 0.039902335295815765 0.7273209498531873 0.012198203347385481
0.37782978720711696 0.04559017631562224 0.3805591852278219 0.016541795242619377
0.36188929866891856 0.04580550864479511 0.16235626559000424 0.012572958837445579
0.36663948450122064 0.04447690818285941 0.9072301696008913 0.005527970237881751
0.3695365968572757 0.04322791574162233 0.8008337002773401 0.010547211073871774
0.3775542157422183 0.03226763186130002 0.9348154838337055 0.00019746412521085918
0.36727154512692894 0.03485706637855478 0.5248657681392597 0.023640961341171905
0.3632780568550127 0.04756387516234253 0.18584979567606474 0.017548537071023294
0.3708330926941519 0.04754654566819322 0.3345077294825841 0.0013983146963094989
0.3681805656037208 0.04080637934456939 0.2303550210515613 0.007904611246995086
0.3597375642094828 0.046124481990316775 0.15849601879581918 0.0079177128404714
0.37134172638725166 0.04396588742189887 0.060538194286734105 0.02193511790635292
0.3562932411890868 0.037860374552635516 0.4336573482854797 0.009323754074465769
0.3715636853729203 0.04549373175303974 0.32053744208725377 0.001075967605665498
0.3655055305838291 0.05005744797781336 0.25580521913942933 0.005622034937950435
0.3617650987636364 0.047367160762703496 0.7571138053087965 0.032078522204837395
0.367819961383568 0.047593443419058384 0.3635496380963987 0.014081102840467652
0.3586766680025407 0.04271102785158028 0.9504507103278579 0.013691792967286948
0.3640768703674281 0.04557951795248162 0.45063918487831683 0.0074448910558842195
0.3693200230311573 0.04416776779786941 0.8319443389774978 0.02436774510542952
0.3557746354389035 0.048366734319839524 0.30189981108889113 0.011911505715132905
0.3505004038123444 0.053028579035437076 0.34803650144568066 0.006297528313494385
0.35937640996817505 0.05439730800206469 0.854272810160366 0.017426076300526228
0.3659035240265435 0.0673903942094527 1.0028356901779045 0.030096245411227667
0.37528887014346457 0.11371420882788741 0.9883006890346074 
0.36102275188771077 0.049832398768828556 0.847677600339936 0.019249765643989745
0.356588173189834 0.048151445935234 0.5496370518510616 0.00779503017317331
0.35844614625872395 0.04564549128358409 0.0420022699163508 0.01617177560526795
0.37156344091237176 0.03949093723743113 0.531657535920105 0.025213593103538177
0.38433816772971857 0.04267124969976267 0.258971724286534 0.013459956470206461
0.3761947410055409 0.041855473037876616 0.24418544343839896 0.017114677165584402
0.38123463766390847 0.04239527807429412 0.08611621668319172 
0.3776465701930323 0.037196034450973706 0.4592773027142554 0.006124500294566037
0.37006451919059935 0.04190135482657834 0.9807901456820125 0.030603831755806547
0.3901477217881041 0.038458384344616944 0.29429461824559283 0.009304959245197253
0.3796228919735971 0.04078122314984638 0.834223177240985 0.02042684071280375
0.3721191430196453 0.046477161712801265 0.5472777256161889 0.02664894964935096
0.385949944989588 0.043004535724225273 0.8989878111817933 0.010771841030077176
0.3724933297988366 0.040994815822877506 0.9713723104606637 0.028179471345444865
0.3690035984897193 0.04293279637403541 0.9549855598256635 0.035919768048584176
0.37108421477229453 0.045363471140731006 0.7852731103405526 0.013133200477503307
0.3722304257957286 0.03734946772490939 0.4423374136733134 0.015592677705567362
0.3690122612850297 0.053160875903288204 0.0027476721974679136 6.468151008902937e-14
0.37250206199088753 0.09536767972175962 1.0065195562568503 0.00138830219588626
0.3874160073730409 0.05013302617768555 0.4958225502420919 0.021306575145237167
0.3738635324999387 0.0438593926845296 0.4808295961050237 0.01585355191549364
0.3815165332017079 0.051072917240063076 0.5661060203220424 0.019553882768236063
0.37785313797159475 0.03601750159375004 0.12605370862232937 0.0014527415788756265
0.37993591295228135 0.040432615338956375 0.414067242245261 0.012694087786910767
0.3794095931581393 0.04303510550261443 0.3211288335404753 0.017018974146943776
0.3829192391057843 0.043403871430629716 0.01910538486190755 0.047193024907136755
0.383928791788156 0.045837522846747414 0.2330965210173552 0.01158949932924647
0.3813231232169628 0.043019956658588134 0.27240201808280756 0.003882128083118276
0.3809095634267186 0.04632579514549248 0.3612816763229775 0.02115352570302984
0.38886863502080843 0.04868889451863771 0.04630222985736726 0.018942136312066038
0.38535809314356545 0.04147529082978048 0.15893129332310518 0.006562277125643857
0.3843148938113902 0.043246904061133934 0.1045745829908693 
0.3940411966879422 0.04972956240313512 0.8366900389153309 0.021391525871496203
0.36986626149082485 0.0377868403084001 0.820856364913643 0.012097265486854972
0.379803323087477 0.04543557203515951 0.8553245593887074 0.016727166906262667
0.3835085906567993 0.04830200464585099 0.7574366913063749 0.014135613330252038
0.3764302161431295 0.051455892720952974 0.880935803608381 0.00785542121599543
0.3835296412450801 0.049747922956408404 0.17538829719051346 0.002098852966942822
0.3907779308064095 0.0477699725329452 0.8013994314458172 0.009872817717492577
0.39384952067299606 0.054780131430421576 0.9828259547015228 0.04001849274920248
0.37719629769855184 0.06506357133016213 1.0022048025466823 0.03353632228118489
0.39261626330639093 0.07810554547310011 1.0014537334462832 0.012601691519257956
0.3786646645282248 0.047734416465651366 0.5356214347758271 0.024244280791918087
0.39253451907211295 0.05107212704277886 0.5291856451739724 0.031303044907160196
0.3921487681387243 0.049565203903278614 0.7426924497746535 0.014259214018641322
0.39509208349053715 0.05333449199407234 0.5589531973550688 0.011889613323437648
0.3578472010856756 0.05203712355288633 0.9744091221365637 0.04278949926201498
0.323275540144982 0.04627264647996446 0.4194291476659642 0.007775643236557439
0.32958829496419734 0.04695219125320737 0.34958307756608986 0.019201858147496267
0.3235546977181341 0.04217549524643488 0.061421370507328994 0.01635064579796715
0.3279471496670822 0.0422789549543258 0.45069179535976395 0.020637651867560083
0.31942154525590916 0.05266303802010606 0.9581748192573495 0.019076495165411052
0.32597035097294713 0.04156021799586944 0.5525341586693052 0.010720914757387413
0.32453116463999265 0.038238419587396634 0.8999798945646736 0.000215623519262932
0.33286099210889725 0.050318538094682466 0.9841572078720688 0.061695986985273
0.31795311580003416 0.04988605524826193 0.8619660600797158 0.02668480806884185
0.3213719532018383 0.047629384844550704 0.3478411047865696 0.01951282481065257
0.324989404910567 0.049430933824872805 0.7969110397723251 0.02301584496738969
0.3141797665840845 0.05418594131271039 0.8305154733598563 0.018003836872388466
0.3222577712655139 0.04805654303154517 0.7250639448892549 0.05504367160595686
0.31502653234926636 0.04797138910220462 0.20305375284015148 0.004195359796651213
0.31720534230163744 0.034488871739628335 0.5369025534237128 
0.3202684815090798 0.051110177001845336 0.4293439867148116 0.0048763893377088315
0.3161357435579579 0.05010940463236116 0.25726976011974745 0.0050798679845295
0.32527351433362334 0.043370869667033386 0.09376199894146421 0.035959085001000375
0.31576417904778964 0.04783592122382353 0.3904764889347074 0.004658392816139406
0.3217623626095737 0.041105068007891876 0.7599576049025256 0.009972975592073175
0.31177077619011817 0.04355736000935147 0.17341023811106984 0.0022279794010139848
0.3243470715975318 0.041710470499257656 0.035985989278970634 0.010877560411630686
0.31563174093375235 0.050576640042834076 0.3786170958555033 0.004231074071193031
0.32379118190378764 0.044175375422849265 0.5826660505001333 0.0006145811390308287
0.31581838674038487 0.04925546842007568 0.9285170103247503 0.023106850269096157
0.31076885206996424 0.0551954588382722 0.8456548039478865 0.01915425685307296
0.31202759159219107 0.05159860973453246 0.7448128164516554 0.016094880792983997
0.3120866296103525 0.05417893208090317 0.4660928093463323 0.0034246218770675897
0.31806350661550076 0.04948369754157766 0.9122330956393127 0.016928318688182186
0.31560023123708403 0.059648963650634025 0.9941435838478243 0.08412880778997872
0.3049621078363805 0.0514713042562634 0.9437285647672553 0.01054955145111289
0.3152855990896521 0.052817427179724194 0.3504680376662753 0.00874813828436594
0.3094398512443353 0.05851904874635805 0.7960786305091491 0.02895665263336584
0.3167718607153675 0.05015863469857451 0.7255801398946929 0.012087329479012752
0.30887530814280395 0.05714653937302551 0.7905855898248523 0.02843748062212191
0.3093069494067625 0.04847546545369268 0.09511527695891171 0.011866304773578074
0.31272479814662324 0.05006595086042525 0.9032332314432747 0.03410713573728878
0.31503223795541585 0.054980413101680975 0.8201117248702117 0.023755580029648515
0.3211260505592296 0.043663970513697734 0.15261762187104608 0.008796055950713737
0.32691506348525035 0.036749922102081126 0.010030541892987646 
0.3229356758949797 0.037535500096636344 0.31579277160725144 0.013393289439840016
0.31591831337348064 0.04599488769685093 0.5720020440691187 0.00255248193990058
0.3241638267988307 0.04303889577050529 0.1395153238643178 0.002748055343973786
0.33055120264091314 0.04588260519999333 0.6026880268950779 3.797468756535942e-14
0.32565629335967855 0.040894109578259695 0.22798001489384928 0.0006560474326285753
0.31982910974378087 0.0452400023146045 0.20786455339132534 0.01096768264221377
0.332213299083666 0.04829052986230322 0.26580670009391755 0.01036672100650039
0.33385523682737356 0.04759541239503091 0.9410025330364976 0.009837149676886332
0.32742166092339087 0.0525974467727183 0.8445534516239401 0.014448701730476512
0.32768324175180014 0.05776294731599106 1.0034681084388533 0.046082471304181825
0.328500597656077 0.07907971800803035 1.006219449798152 0.02976794181863443
0.32218401382876005 0.03809033297017294 0.4900087187985973 0.0212287134461994
0.32873968429569345 0.03672339751052626 0.12120477242823013 2.5163595753093103e-06
0.33941745410316315 0.05135318048596343 0.07595105932740322 0.007941112518372082
0.342885909427819 0.04067539290895801 0.17159827311556505 0.001534893030924321
0.33095964415916873 0.04411491725069095 0.2134364329014938 0.0003848499431208657
0.3265375072689402 0.04542447203798565 0.29557204254894953 0.004907046560582124
0.33575902405477104 0.0494800218752318 0.07575146387321008 0.015156384198808872
0.32658332409380364 0.04216259365420554 0.33248020203378714 0.02066423618582628
0.32625493216891827 0.04970226399397067 0.81677524940882 0.014865635258537981
0.3364545623710334 0.045102646247826304 0.5880290779645426 0.0006039764275275961
0.33507260096477787 0.045632882225247126 0.43001158158321784 0.021603237192167498
0.3301138340030535 0.04464745822674473 0.4097188433054732 0.002608532744411518
0.3357083258729649 0.04538895974305023 0.9231770058376241 0.013054865337321158
0.3303140029914951 0.051178636349975715 0.3588375878006018 0.015051084925727373
0.32920587402309315 0.04367427445313771 0.4707157844966928 0.06127283592700464
0.33682403794923044 0.04580940410959195 0.82721459378937 0.013054106034862002
0.3379877691607003 0.05610286607977121 0.8418691219069042 0.013973405301524132
0.32735639212797496 0.04771307356907048 0.9232651184859467 0.01189949952615367
0.3284041167735306 0.04431069112099168 0.7154791475965409 0.0009319533086920495
0.3274795811300532 0.04748787902017174 0.8797083764744246 0.015094278573449787
0.33810880789377157 0.044420317224736265 0.7994913845117272 0.0029451996847657935
0.3361430095905375 0.05441976981421468 0.7611364324861866 0.01100749579119578
0.33336049964422093 0.04522398140075783 0.7436988319663006 0.025152073251158827
0.32318608143249256 0.04924734912198154 0.27293323692696647 0.0004128513111302813
0.3413426063876561 0.049408016749081275 0.37116266446419655 0.01140382328900127
0.32869729268175596 0.04769745973006383 0.9781834765354829 0.012740424641234371
0.3329660401959901 0.050590518092044644 0.9942266203343102 0.05495269524589025
0.34296885741155314 0.045283289346708784 0.4918255250500634 -3.936420800665284e-15
0.3332065468726916 0.05596813178536077 0.8547115162836428 0.017225964333393518
0.2774720411771554 0.04374070582589002 0.7198537736833888 0.02531031747578193
0.27487945863042934 0.047669378374748106 0.5405845526079341 0.0059571702314805495
0.26693952129651094 0.04036015765036917 0.45750245938476947 0.005254225426206343
0.2789760105708619 0.04610820116360464 0.5750608509832488 0.01692057740723553
0.27434506591552144 0.04000985112635209 0.2928059605036418 0.0032978410398604397
0.27379409392242743 0.03775832705765981 0.8947460797647661 0.0026453075747561
0.27477698265232275 0.04362338569599188 0.16011351037064478 0.006767579463242025
0.26696048602868927 0.03832579007464689 0.5790894655676484 0.003389115455328453
0.27405640876577286 0.042877967541328096 0.4861480744227289 0.0049892050605937575
0.2757645982735731 0.03775351857253614 0.21991902453081022 0.00044335297984480235
0.2637268353642088 0.04448522841767023 0.17980379886658296 0.010187015659009063
0.2739045465961557 0.04466175973832899 0.9679681825730602 0.06159937627212714
0.26845475915862094 0.042978616446155714 0.19146776488229375 0.0010104402028193091
0.27367753133518263 0.04557111268929792 0.3389197965837574 0.0004772338497969188
0.2575663918878366 0.051434425224549336 0.1503406012463901 0.0060619569872640555
0.27365398809036595 0.04623672883292852 0.41115898052389216 0.01593456736424368
0.27420988287579073 0.045092999346049004 0.09295135666914252 0.004899657577049355
0.26310778752650876 0.0429960755827405 0.32595424284751917 0.0007411834435628561
0.26787460937716484 0.051087938588888535 0.5001431892388165 0.01715073928558346
0.258544035102313 0.04991030083922732 0.16759004386631432 0.006138504068140447
0.26984625707532145 0.045187087941753065 0.3739137310266637 0.0058928920501415995
0.2792339547324623 0.047338368725306 0.04995822891208491 0.015513205158263745
0.278294947271414 0.04580567733290086 0.534861946422861 0.0033268870285585134
0.2638293063231976 0.04401280522375356 0.7656721888921042 0.00785358459401683
0.265274472130451 0.04685321776939463 0.24582518468113598 0.005646867244152418
0.2684259229288093 0.044755993796583786 0.10654543265958559 0.0023327912419146657
0.26204144865029216 0.05250954239865845 0.48946782313946063 0.007130643860746862
0.2682218048073842 0.04322283426970809 0.07586577568241623 0.0018630746602036723
0.2669586351161123 0.045580286851451365 0.8642836520341318 0.02356714982518146
0.2543004422732479 0.05076086384803575 0.8236661215526473 0.014851239100293623
0.27054209615221464 0.044144702154999306 0.9021430257508697 0.0014539536678969788
0.2591180290633357 0.04122776844690914 0.5677140960639029 0.008217140445107003
0.2705421124677098 0.04602491560476165 0.8366132483901392 0.03438790954624319
0.2623910838310394 0.04640322191198649 0.36266654822900163 0.005110655886413271
0.2655574532976489 0.05162583929933461 0.953560846667716 0.004539618273357239
0.2640095058777673 0.04338778562376855 0.9222726694169803 0.013797287486558452
0.2623182980519589 0.04114876193074023 0.9861580476617471 0.06353818896230896
0.2713437379784912 0.06826962551711051 0.9964927892545548 0.05599905323328199
0.25441184251333726 0.07013036265283776 0.9962008408550808 0.00846029815886999
0.2567206281859365 0.0530684197638545 0.5155927346543753 0.00986502798711165
0.2511540444773827 0.05372287095706267 0.38346648762621677 0.001636681830698773
0.2713776798250306 0.0464717760685675 0.745596505008428 0.012267686351481772
0.26262939955178094 0.05386741702955692 0.011627943042267809 0.0019283035978618515
0.26763219899560586 0.04522163068170962 0.8017187368079423 0.013256847206180917
0.27495298731523865 0.045135766232272966 0.3573866519490853 0.003681278543035727
0.2809512147905574 0.0406977063450663 0.3017233366339988 0.009705605280074678
0.278235071929023 0.03888445260663928 0.42963218003531045 -1.5263334499887853e-16
0.27349196402853015 0.04841934629749118 0.7511379671035837 0.012266267193006662
0.2681934172441452 0.04079417249065145 0.7186651449728773 0.0364624230584603
0.2763799082029746 0.04617548120986095 0.13171977375411406 0.0012048279581326183
0.2794041811031108 0.046050028028740954 0.780949616633534 0.00973605994304252
0.2791122542481839 0.03885706773869973 0.7933794670098286 0.004337122708443431
0.28290424067851794 0.04146517522460246 0.9453428372130085 0.024840527962699845
0.2766513145995599 0.03779773387427623 0.9210610107165128 0.013529932277826656
0.284495847283723 0.040663069592450266 0.9720776321533974 0.04977464987608587
0.27651492182028997 0.037368044067743716 0.8681455589091399 0.008406650554684876
0.2905601174927251 0.04640927117332894 0.2767268544687342 0.0018551204084549997
0.2835185163766069 0.07172710854008493 1.0006631381477598 0.057865164939564076
0.2828467523860784 0.04053685478012576 0.3186752120409261 0.0007885906242513139
0.2797317117553597 0.047804818556929383 0.4935139332578948 0.01328354859151432
0.28976353539321387 0.05084802122224501 0.049552713523249727 0.0037568212421098426
0.2870614636794282 0.04571177218902075 0.23972844111431585 0.01042126861556211
0.2790826207858588 0.04835057916954626 0.023936379437305515 0.007551095302919909
0.27194362546894163 0.05343330010517994 0.5083481902531952 0.012903322057915553
0.28927598640767677 0.0481599241994204 0.39482799580259414 0.004487158950807475
0.27738978114320334 0.04348325051930545 0.2609538493276933 0.0038268488399285754
0.2769873433107962 0.04450114828604386 0.14474850967710515 0.0035737258529961236
0.28124132234742094 0.04178454011125266 0.11196738031403307 0.000576317763795974
0.2794336463603726 0.04770860918345176 0.7439627549300014 0.008032336323734566
0.29008305401553486 0.05029389641970592 0.5949991250050235 0.005132051064130549
0.29154732652328536 0.050933131782245754 0.7677745970918751 0.036180821724247365
0.2834564278514475 0.047632200653287105 0.48709755159868307 0.0333006159201262
0.2802066637891909 0.044396162353604045 0.8262000349534894 0.013531796466227899
0.2879341601343354 0.04821423465385957 0.3827147994096892 0.009549534843439747
0.2747047007082536 0.04484469150439409 0.5659863864554683 0.005495963954701841
0.2837937578065566 0.05151195683713228 0.809779616505685 0.019843660374517402
0.29090255694983586 0.045227016257421954 0.015722553931680927 0.0038331479152808857
0.2903461551874431 0.05280989395690988 0.9976061831253533 0.03754930867090355
0.2822968337803937 0.05060329479919917 0.8411909580920759 0.017031072576804085
0.28462256130895497 0.05226234340209096 0.7470550231988604 0.003580341766609203
0.2923294630228903 0.05273498603950534 0.8539924553170922 0.014698330704370776
0.2974333198011281 0.055132777769067096 0.8278510118124033 0.012586432472453004
0.23219737476644145 0.03962432961158913 0.00028222407451192026 4.177414268738937e-16
0.21566273821077248 0.04691708461688987 0.18200081477384145 0.008039741862191275
0.2178981451552263 0.0436340181667417 0.34604120818202355 0.0012828471944802424
0.230491330467869 0.043245520002538736 0.5693331045106504 0.006001219104316846
0.22952452490367073 0.04641958229286024 0.2131729618635528 0.007044005262902989
0.23200973327397895 0.04091229700204239 0.5857194165741723 0.009725549071406122
0.23182496735797023 0.04305849665791678 0.41685700954052285 0.004911689462885064
0.2259207302899339 0.04636308392803245 0.11423359217378638 0.004524313098456456
0.2239061731318472 0.04821281698098789 0.5267489193738765 0.011370290833129527
0.22261271407300925 0.036326605388119076 0.9634482956323243 0.0189758865053303
0.21403563985049806 0.04554194692070482 0.7154908424537442 0.02933765298335565
0.22641413330512916 0.047103200558114296 0.38575987080738394 0.02756470442800994
0.2215620397197377 0.03749278050859112 0.9734627016319147 0.06125163941696507
0.21411834815866929 0.04810073278047324 0.9365578929810893 0.019944489715733246
0.2164844606976198 0.044255355219207815 0.5461487370143701 0.011658538257994606
0.22236087536861604 0.04517582619674583 0.44711741029073165 0.0033334074115637592
0.22766036586420474 0.044908338483902285 0.7603287686364113 0.006485156674448711
0.2248979724255544 0.03939334851043687 0.29540289053475083 0.013078604613828562
0.22374506718772927 0.037610142076603514 0.4728581046010548 0.010265352267772608
0.22519835859629314 0.09297840919200648 1.0108143719691218 9.86073996485745e-15
0.22169962048894037 0.0434265250709615 0.8026265930432234 0.008325260189862895
0.21274031553116676 0.04582032106347636 0.21230880960026893 0.005368358674758095
0.21889061910039023 0.04293187324691234 0.42152174278032006 0.0004883791972131611
0.21728532657539085 0.04348865936526682 0.36376104543622106 0.0025253472365700624
0.22180132942190978 0.04511423432892965 0.5599777730159086 0.008681188919219466
0.20892959282596452 0.05104827978438437 0.027845268267272853 0.01634455486402023
0.21369483154239813 0.044478694576496204 0.0834545836266438 0.005641965874735634
0.22439788790906276 0.04726525384770563 0.7868012528661132 0.0138191899297764
0.22268484903449293 0.04290578069519775 0.5940795037132244 0.005094171236196
0.22346971572936586 0.04272604722063963 0.10001274939335199 0.0042936794680892365
0.21881249581233211 0.047646419819737246 0.25573186647859336 0.005615669707496228
0.22100629865587565 0.04735698461883578 0.7296431557331561 0.015052621891001055
0.22711824205375533 0.05114547679157842 0.23415861528797682 0.006382534331672759
0.21494248988279008 0.04718211674594115 0.5374073616765778 0.01539491834901478
0.21435994604494388 0.04537422653486706 0.04698173310171215 0.007613585637119851
0.21181736171154092 0.04650107955050024 0.7744800108184252 0.00853987367948065
0.21768583549178128 0.04477990875703228 0.7473714822843054 0.006069284028909456
0.2148133897463794 0.05286036966603369 0.5215423399925708 0.010263805528489049
0.21624853905357816 0.0512103454664517 0.8705546467726337 0.016836035045603482
0.21342397664255447 0.04891369732442778 0.26871822294676995 0.0037088820036330268
0.22802129900603257 0.04692991420628206 0.8398046856310272 0.013087335148595882
0.22440513410084506 0.05281016366456931 0.9978351843204482 0.03427711817129259
0.22462389045129152 0.07136598537093601 1.0049145655850165 0.014612684932924686
