x y z curv
0.1368094841251158 0.10131864484701172 0.5647678361716653 0.05183692887899181
0.15723054758775645 0.09516329314169102 0.562482137075961 0.10036529654016733
0.1650559577807931 0.09093797260812232 0.5731058775970379 0.0891252406925733
0.15054096206527254 0.08066779270053985 0.5900148645291994 0.043709573630073745
0.145727561316952 0.10298753059997082 0.5825777044718152 0.0063218996323318915
0.15491181736507845 0.09084311904407903 0.022207605084054796 0.018002051154374334
0.14384836285745617 0.09508070453918588 0.025566947330779827 0.0053407338135787194
0.1428196515166089 0.09690996308666484 0.03772551619289116 0.001639799136355892
0.166079743748966 0.08764758391981044 0.03242002477089405 0.0037987212835942754
0.15763675021664206 0.08876369542188481 0.041387066118296366 0.010914970681543044
0.03170579969160015 0.08058884892496271 0.5752008044236839 1.1379917974818904e-15
0.04206597901916035 0.09578804192674405 0.5719901084498307 2.3063651436945994e-15
0.04188471520455444 0.09676261657405619 0.5866682604637208 
0.040569569842194286 0.09713525910157182 0.038744968335547164 3.104379905519537e-15
0.03449102541442206 0.09949118306541206 0.031839050986589366 3.457949093664135e-15
0.04523213247251883 0.10130979221924849 0.029039058588560946 -1.6251405118982385e-15
0.07240660422124265 0.10508679082734063 0.026147111757212533 -1.081207726611944e-13
-0.012551544651280997 0.03368920992937105 0.02625013756185983 0.019844588900506405
-0.00496453811106359 0.029134560028739008 0.03942525810943415 0.057276014474187904
-0.004820489356758368 0.046952762092496596 0.04254134519755573 0.06335480047234926
-0.0030241253938169893 0.04521849809022488 0.02382688739504127 0.0714997928373667
0.20014275527220254 0.04778899363939078 0.020636896838957978 0.03804756981140579
0.20720378185502675 0.01589554715550398 0.038141906982370154 0.01636035563800129
0.20269683903424074 0.034802201023328025 0.019487162871930364 0.03602292513811464
-5.061744848821638e-05 0.02823984531866207 0.05091458719750962 0.05189710079763977
0.196436171849199 0.011504079073908307 0.022759476537930128 0.06959344860968034
0.1914859763777828 0.01506853609393577 0.006693557048900378 0.03750466655223464
0.007932403500317743 0.032749769060927615 0.00715989828357029 0.03344808757737737
0.0054961771316027076 0.016996837429408218 0.5607478239667825 0.019661231697339833
-0.001998184858804307 0.029810894790569968 0.5711354379762382 0.032288572402096476
0.0005015748497799696 0.047884246970903835 0.568667597188248 0.034706146406408636
0.20693679068204618 0.041926641483771454 0.58546883358158 0.09400714388434259
0.2074282820053011 0.02099315316489772 0.5899862908414657 0.04100510487932176
0.2067095436833082 0.04270690203404052 0.5686074771351965 0.07812057936245724
0.0008936977147437561 0.043440601501543254 0.587455669285774 0.040463184962426554
0.14899071846158085 0.049250130084840214 0.6035273339494952 0.0031489695941699044
0.14591504529718352 2.1219302931295772e-05 0.5715327865660241 0.013930377163018554
0.19864392402557865 0.026968016945898177 0.5402518634536024 0.04859030897241048
0.1987294679098494 0.0357705370081811 0.5477798440603491 0.036738317978012955
0.021105173640831514 0.0007027863465923563 0.16220962463589844 0.04917637766064285
0.02356363172132409 -0.00035661055359900875 0.13996350459190596 0.042457754098323516
0.030198142289629352 -0.002641871653032702 0.18099997839981755 0.04379368075332455
0.025452221070019525 -0.001916775512142114 0.5065032540016914 0.03265165667340723
0.028997054034367458 0.006250278953126642 0.30914646422219577 0.0659979099450485
0.033507744802100656 -0.003171807211814411 0.44359788374676296 0.0469300520561658
0.021168457116168042 0.0017934133305079693 0.5543661967110697 5.275779306702453e-05
0.019287744172975862 0.0021751364095596833 0.25817208395759983 0.003884216802624818
0.026302422697214896 -0.002529188795688221 0.08817384733275577 0.004006525092204068
0.016784098699126625 -0.004743966690279147 0.5955134309125737 1.2142811785517783e-13
0.018433252857385816 0.06430863379302638 0.40084181746936676 0.0032765357983156156
0.018822032096627868 0.06678935700742039 0.24800344037567734 -5.654121324081576e-16
0.015352989652020546 0.06593262704434298 0.2072282096210029 0.0004724444120232967
0.025040661658505364 0.06285730556167538 0.4392086928816502 0.06553512841715792
0.01904892680507487 0.06075997167823529 0.5249587812540651 0.0117360864584133
0.028811876847843858 0.07363111682358994 0.5464373174665162 2.6222100117647626e-05
0.02097679295738313 0.002440339053820316 0.46645827944893875 0.041108106597862674
0.01327176088074204 -0.004367855496695196 0.3524929759198687 0.008160833425072735
0.020389428864469095 0.003656156403823398 0.2845390990896738 0.023522032066593097
0.019274252213413032 0.0027839577576072054 0.05212117725341804 0.023437692852925112
0.022595315169005453 -0.000672726242842708 0.40045613648263495 0.03332876002656914
0.015625588518059366 -0.0006887565164425237 0.4866555049352538 0.02797370651153661
0.01552104243710415 0.0062305392474988055 0.3952836564605408 0.013710104566616924
0.014355223013905271 0.009357785959281628 0.12097523935039116 0.03877062724514233
0.015756600238045457 0.00835774419107281 0.14325541940980369 0.04402789263750499
0.014593328071912248 0.0014720667583143958 0.31019372670266204 0.010161343333686299
0.023221473940233828 -0.0014116701909488117 0.22272787644397832 0.001929867021296266
0.01222341649933668 0.01023520572196944 0.5142473709952972 0.0794180086085238
0.016195808453454988 0.013785173983697553 0.5929762217503327 0.050525652776589706
0.011773411110972017 0.03906614914119876 0.597021266234406 0.04075119618793469
0.02609276922166518 0.014444876337070364 0.0018518513243235683 0.06845073116069561
0.011960669344874827 0.05266376542482917 0.5962151699074325 0.048381881068808676
0.012924950721702907 0.05940187998193534 0.4268803503566753 0.035007470003158514
0.0043233147458932464 0.061903356548898156 0.2193244417127858 0.0005033630771535966
0.008418699003240396 0.05646319148007486 0.1701773310499967 0.01496194437255673
0.016016614316961553 0.05679750478034602 0.3479338160748352 0.009100201575253836
0.015281162077080223 0.06321402818952367 0.30384255001375476 0.006508539411304173
0.018732923862755685 0.06049180986864713 0.33343696895670893 0.005083064083620748
0.009902572629780882 0.055320752557932694 0.32082913366290333 0.02454135150876012
0.0168215856403771 0.05765535762561388 0.3698705071519002 0.007666458344327407
0.012565081354468178 0.05868185126497787 0.11842159084311908 -5.874398803027359e-16
0.010986757305449173 0.05201493755921539 0.5147237928156995 0.01562399957560775
0.0105704897266733 0.012840360183444945 0.5435689046890267 0.028457356107992632
0.017244623216421236 0.0061431141951611146 0.5170996445237126 0.0651548039395134
0.009955144246988996 0.004992074223626331 0.07602149772004291 0.010699761195678536
0.011040765941145564 0.006055277216022604 0.17147668743802408 0.0575978861268801
0.001173557587678644 0.01460105105999647 0.420893959548515 0.01315167083251571
0.010073123883168177 0.0065276751066679056 0.21677399938659778 0.005929524153860634
0.005738893659264673 0.01596448893289432 0.18691918173570488 0.04049605175151151
0.010372458531484788 0.025067470570524348 0.5859986849538157 0.04330103851947656
0.008981895185736844 0.05595491386683586 0.008620861785560166 0.029289062561231028
0.006873219580589726 0.05819497023892742 0.13769879634549603 0.009392372532073479
0.010737944743880078 0.05071689665855919 0.3379653976420682 0.006381846582488005
0.008395162605374158 0.05193059194210184 0.0766297961346499 -1.2549442112315655e-16
0.006738134513842845 0.056737923744537226 0.46797440115871314 0.009838722736630251
0.014948689522951447 0.06000981113963723 0.4858272094435744 0.011295870662034167
0.005424145921817998 0.05154735665511859 0.5045191719567566 0.020227362584588147
0.014672577513352145 0.055999803596900176 0.5482539814652002 0.013725336858196725
0.024492104241900955 0.004064315835604679 0.42696492817016013 0.025698659083418944
0.013907221228288752 5.232782388792123e-05 0.019519588410148312 0.08712374827642339
0.026719486125993605 -0.004318178106238297 0.3533481575453546 0.11266548248767665
0.02750094659520596 0.0012757436970500134 0.11680620773013693 0.004983279673797335
0.022384270633676713 -0.006222214270210128 0.2395548127314221 0.009790714289638671
0.034172424077692616 -0.007440730020217526 0.543566549557439 0.029489720365939186
0.023503448038116603 0.016166813116703763 0.6058955001450383 0.016137900204413202
0.03165453220983366 0.034850594270661214 0.6011248146823347 0.054876959883401175
0.030507755472118602 0.06518445010981537 0.48108635647980047 0.004702852246591298
0.022467920871867754 0.06522400638609899 0.5160957681598421 0.019748976771136094
0.032499106846337965 0.0669132855307617 0.2961614283024093 7.297683418765252e-05
0.01882406230584749 0.06957362606947187 0.16574024581649907 -7.68331577893141e-17
0.023946137082944494 0.00279095729074545 0.28814345416332693 0.05525939382770907
0.036439011654910224 -0.0031546874172176274 0.15381222835774708 0.044142690622788736
0.023867139840511177 0.0013139933581129875 0.03362672128534532 0.1254921806280864
0.030667971325326657 -0.004157654777222161 0.3860310094777331 0.03708542956752482
0.026829720971529854 -0.0050869430207791545 0.255572014633639 0.003994264823175504
0.03971776471499907 -0.0034801799291807704 0.16202003867316225 0.01077059463686704
0.03021983387493489 0.0007949870208993912 0.40902850290357484 0.03088764441333745
0.04527663152882913 0.002849913781921831 0.5075671060125418 0.016475256619746043
0.033155003382640984 0.015057069199005216 0.0011083636093415228 0.05889938523187045
0.03263428264396252 0.0669150930028577 0.45990371628551363 0.029779997294925337
0.037513103336666034 0.004373330578186583 0.4789457471703673 0.03913244954688164
0.01888141633598096 0.015756529393570157 0.4591450928803652 0.04480184225701877
0.01399294991250916 0.01263630247827375 0.37736954456687477 0.02859905384440136
0.008135062947197532 0.004992269652402459 0.09707842781503241 0.05506787087992626
0.003951380970711724 0.04756807083810336 0.4376124790212323 0.04129714520900897
0.00514808082460205 0.04921949305860246 0.4040901766955803 0.003766390175599445
0.004712895993322288 0.011028139324674249 0.03259078915738301 0.07348106831908069
0.0027552210703317356 0.0018256502641638556 0.017381221813542742 0.04087274322124332
0.010081765736379394 0.018226512271800742 0.2822130791090349 0.03496533023565058
0.006386901632614702 0.025785138880084657 0.36310973090606563 0.028476376184185102
0.012484039386996696 0.011315440442013996 0.4919498695227685 0.07965447326024415
0.011446883928821958 0.026897267375725585 0.43866482678597235 0.08925548450079226
0.01052368515365713 0.018769865341828194 0.30510857487921433 0.030581477921195824
0.012739908930391952 0.026203541270254947 0.16548571336218484 0.0580828460874079
0.011092806926181992 0.02092257725395417 0.25878630101352684 0.015391949057604066
0.007284181190575986 0.03341014265296874 0.3409913842025725 0.016506802477747835
0.008852360646056254 0.039693599967478725 0.22023925048955278 0.013706301378008087
0.0065354841810936325 0.04286225880614276 0.35813929509862064 0.012760410831132395
0.008631100620814333 0.03654154569125277 0.5353756336252781 0.043941635469681446
9.415639467636253e-05 0.04318571999329422 0.508994164109786 0.03210265202382101
0.007851458975101831 0.04214361284711485 0.45586867942889103 0.0984384442367245
0.009734316456151184 0.041742442692145346 0.24475986630762428 0.012071082078497542
0.010106092698372635 0.0506434163092525 0.31454154427521097 0.03231150732155596
0.00911130494516371 0.04191037003035106 0.18090449640631714 0.00948726273191685
0.014803000582074104 0.04009363196423674 0.09847599080699979 0.0015596603702288572
0.012807914530183212 0.04721189170178963 0.1272767161640825 0.0016466327935103918
0.014404241220353121 0.042610531323594845 0.27297801976767155 0.02403473755179595
0.07394422263773477 -0.00972194820551975 0.1780436606870381 0.0008648044889081574
0.0817517221786136 0.002119977253440998 0.2409784210705478 1.4491147336672654e-15
0.06862980220587246 -0.0029571069738012325 0.18602616756769036 0.006995616949549393
0.07429084836237196 0.0011998453767997396 0.0239561041448897 -1.0878320446870592e-16
0.06970725815717266 -0.002075625131558605 0.4388328273476599 0.002062545551016653
0.07782569289004132 -0.0009225325495715588 0.5239446377864495 0.0005209829123696191
0.08296376825089008 -0.005893519126360266 0.42096002583292785 0.0035404385981379
0.08012530785125319 -0.0016518046731592577 0.326705914833727 
0.07927120814653671 0.001430136453293597 0.550317832588652 0.001690902930713275
0.07276268369783134 0.0006505658120459557 0.5859102245827337 0.08447048625605527
0.07486668688585044 0.006162455935282169 0.005624273751662908 
0.08074005643818369 0.016775217630472995 0.5983238142910923 0.01092887318508433
0.081427552902462 0.06183090403343481 0.5909454890852432 -4.710748957709041e-13
0.08256707496963367 0.07236702787148173 0.3777999085483193 
0.0892139889707492 -0.0036906321886505666 0.09657844134517762 0.0007147705042581907
0.0820646160176157 -0.0010224932711767353 0.3965060039689591 0.009450221477977017
0.08189961449142996 -0.005001844663221306 0.06431148809639298 
0.07670651551132729 0.005771891869742585 0.48809490113010917 0.00126748657765915
0.08236508413312119 0.00412347787606939 0.4630391059608673 0.002090842036629048
0.0842414310942024 0.001152359380721316 0.43553189727657105 0.007819785022554971
0.08352412360385524 0.0007923346790821208 0.3693569194049307 0.00012733778140099596
0.07448773710070952 0.0009366980138663132 0.5834147883145595 0.08538441384274015
0.0888598430299656 0.0119147541468505 0.589975571716079 0.02936555042661203
0.06243177106154771 -0.001836488540736024 0.3508138805027979 0.004002079249214529
0.07038155254955401 -0.0029751466502802534 0.26557122714911824 1.3459486829542173e-16
0.0746307704864394 0.0023047325401815344 0.513428556692973 0.002528222495053984
0.0657031186192954 0.004371548985582853 0.2245672258921243 6.365707493236906e-05
0.07696482348556058 0.03483424883592118 0.6012342905659951 0.04360533536064286
0.06916261236034708 0.004524149188096712 0.49031976016711265 0.002148265761844309
0.06474080046837753 -0.000340926640466116 0.0624506225974716 1.7460749511340997e-16
0.062468344997839965 0.006167647713635863 0.01222725659607124 0.0004245376228506423
0.06172367582860678 0.0022946473612607487 0.19705891297651976 0.0037276981798627204
0.07466694582593005 -0.00044355918644167313 0.11202261510887149 
0.06518975163000681 -0.003023997713788541 0.10095035046116392 -8.932229426742831e-17
0.059355296446158785 -0.0017896762793401964 0.2923584067071549 0.0002968272796258249
0.059433422428465964 -0.0026748152843691963 0.5786143822508758 0.08619699799147897
0.06394483657931116 0.003134291965490283 0.209199810847751 0.0013576516004535299
0.07528045011712983 0.0012107351605798638 0.28051666753304105 
0.07113299087478936 0.026488130230739076 0.599426054578889 0.04414245988637662
0.0654466938810941 0.005225409998563337 0.47628170793602553 0.0051066021600603695
0.057931246270872226 0.04492604772455697 0.5967521113174975 0.006572309379966094
0.06432097352918374 0.00208300488504206 0.3321718572922065 
0.05668811333489862 0.0032891275651901353 0.3936100728797384 0.004580671705143174
0.12707508338946 -0.00699586301403702 0.17113285153711102 
0.11775453254571455 0.003337132980530323 0.020430005268634224 0.0013812534298682122
0.11648449311116725 -0.013142316204729566 0.3598888445872836 5.165208715288011e-17
0.11711909553664594 0.0006113613743933061 0.2682914878885819 4.743984518852441e-07
0.12824089890224655 -0.0014652308697610914 0.5414481635586286 0.0037275682326484024
0.1188614911101045 -0.005074837908650816 0.0842738165525816 
0.12545864821955727 -0.0034185119753461085 0.38549034048850456 0.004206758832542725
0.11709874973375294 0.002389576057743429 0.29036260473003933 6.57955558789621e-06
0.1187123402909019 -0.005643041613543471 0.3403828272219607 
0.1247591610024406 0.0018414219536964233 0.027430351491285077 0.00042930714930161434
0.11565826316362905 0.0011251445190407377 0.5536105901205175 0.0030205572752731173
0.11689417894557654 -0.002344777267704234 0.569794745313314 0.003193415419570243
0.117700544980744 -0.011236830416751803 0.48462596402594016 
0.1265195787224447 0.003989262393334318 0.5978562964980847 0.050818783854439956
0.12218247221085783 0.040617945489450864 0.599702593519222 2.77802270078975e-13
0.12374611077614706 0.07453126626293537 0.3398209242235252 
0.12145587032076233 -0.004647107199174491 0.5231022426560582 0.0021799224725336094
0.12820058063508405 0.003597112751870373 0.040833290796035725 0.0013480072078219773
0.118936023289554 -0.0042990967863351945 0.12438734585251607 
0.12078009955239899 0.0012953767618287162 0.42283806392222023 0.0047830760994251745
0.13179564039225 -0.0010398599066127395 0.4498116192708068 7.309268429802365e-16
0.12280752226017251 -0.0028445891444688898 0.2232008531786046 
0.1314035562580935 -0.00029690888925060406 0.2810821427605388 0.0015861109956438742
0.12406961185976881 0.0006627191043722417 0.2911801045703311 0.001538402284291488
0.12829170877667864 -0.001192687698686592 0.5220825550601945 1.3945423255337432e-14
0.12599483351385846 0.009831502768457845 0.5993135463468322 0.06221173958106223
0.12951277209900464 -0.0022299174129069427 0.15428395163219055 
0.1370987483506427 0.0019553370129350716 0.0048002873529603175 0.0009347180283762451
0.13085282951794758 0.002807314993554794 0.031047323877179154 0.0016663471479191685
0.13821167215905455 0.0009985797461819837 0.42042493784197793 0.003977181439524302
0.14048063885192413 0.0005663415484752224 0.23856347988694562 0.0026728656774388346
0.13252964816341045 0.0030260950227965788 0.0011421672536823116 0.0006294707523691075
0.13562479055512774 0.0009715573424200546 0.3250557333249676 0.008186480867088354
0.16706171454744967 -0.0004156272399001657 0.0030170271122544837 0.005495927944121108
0.1787411508398131 0.0018499193566761277 0.4019495320292314 0.02995165764698021
0.1710065589901422 0.0004890019795979314 0.5231663411799561 0.003798519311245475
0.17742871114555578 -0.010150531942912655 0.19017949761066355 -1.6645950632014863e-14
0.1589259668208839 0.002117082931133024 0.28330785178905854 0.022017937726982736
0.18362865960493102 0.004011758571400406 0.5509597585125897 0.019381663116811696
0.16587600402298594 -0.0030324746394797077 0.5407343574802692 0.0077415638311773075
0.16877725705090504 0.00014846760489344013 0.26044379254977273 0.028995094348163927
0.17400319514932605 -0.000603699049645754 0.3388480728127999 0.010511902836232384
0.15967067346895922 0.016967605968295003 0.5995615042643883 0.05614249750287881
0.18037743731138461 0.06520176074863031 0.10228139752312822 0.0006066025087534654
0.18893074640767107 0.059745414535872926 0.39025158831272944 0.005428164708013519
0.1725188199725923 0.06781489787105664 0.22959187294858321 0.007154344444123506
0.1655164897387869 -0.0024194230565789112 0.30778876570241037 0.07262901499763773
0.16972245565598232 -0.0039817279746891246 0.10632595126824841 0.050804010359661714
0.1655482781133329 -0.001686618168495248 0.05657861040978556 6.1476627638372345e-15
0.16557794029098027 0.003192861337750754 0.34393045858972376 0.021430251974274627
0.17283513746611384 -0.001299265861345684 0.5090849286382726 0.012334067608334758
0.16150501874157702 0.001720047431808835 0.22907313519589748 0.006522697615848333
0.17351077082136862 0.004103260305966734 0.38957666252012024 0.0356508039051597
0.17011636100178754 0.0042869863110980375 0.4702752058637655 0.018206898602094745
0.17308253293971815 0.002277517115271691 0.4969347334934598 0.021666845077902806
0.16391001692235593 0.004413672388614403 0.41327305419636773 0.025734432618907288
0.161022458191269 0.007250752934252591 0.375313461112258 0.015555884704106964
0.1701457455441869 0.00023774961916043363 0.5908525273245964 0.006934806827382439
0.15884242099274923 0.07140714541207699 0.3097362868892773 0.003075073560132894
0.16272838013434562 -0.0028237011130130864 0.1214996866203307 0.013760498746619425
0.17956987595692994 -0.00520505374686629 0.060499016216912976 0.016200645177419343
0.17890595786625318 -0.006769752828485267 0.14550748325138743 6.424127933851924e-16
0.16290950873644747 -0.0014735665136906056 0.2657846593503307 0.031198452401877522
0.17777447533241744 -0.004839304923785341 0.31744492474987146 0.06171359519271132
0.17378237268762264 0.005563089483737068 0.36242107816741115 0.0200910085827495
0.17903411570354746 0.0047984156352196316 0.3783642669426354 0.0158617167117823
0.17026928393281 0.05870315072131517 0.5968530258466456 -1.4014881373423025e-13
0.18268003317929818 0.07246539190923948 0.41843918386978374 0.00020864858880869201
0.1806679216923484 0.0692410148509627 0.03215261344880428 0.004879810515330063
0.17681034614205282 0.06358798703380526 0.36031203039845494 1.889573355555138e-05
0.1777255990042196 0.0672096111828776 0.06192360621684283 0.0035573940788915723
0.18086382471260634 0.06479660705263068 0.21844993081053174 0.02120823198472441
0.17279319536677806 0.07316386787024198 0.13824130279273866 9.540541847656678e-05
0.18502373633151567 0.0019987945114660214 0.09348940826482137 0.015302346262444264
0.185814140118271 -0.005969353849066673 0.18214435691925457 0.0008085769334811965
0.18498797960088875 0.0056642406505880115 0.28681688816266737 0.05284800590306716
0.18316571551887306 0.003918572793341556 0.024218514714766163 0.03554630327051441
0.17809829674868438 0.0019820797837395944 0.41572466748393944 0.06672477758674444
0.1905795341378609 0.002094338874725073 0.4737415410716336 0.017669368792399543
0.18561419083306868 0.003602817531800694 0.3023882896202559 0.06672147871714233
0.18545225865793102 0.003444766045826052 0.3266730561795949 0.03223127589354547
0.17232654006621653 -5.414661954268596e-05 0.45177631966031284 0.005702984075000161
0.1861001823765659 0.0034189601727806405 0.4923549907801208 0.015506731427478507
0.18267691836513014 0.0037102684275988783 0.5398772587778559 0.02368749313496512
0.18195112143632441 0.004904252832753009 0.22746886417983594 0.07312349301359072
0.18075135943392615 0.0029242151263079255 0.576047222559407 0.026570760837502688
0.1894513419502847 0.012315279344394695 0.006571601759714595 0.0391311980551804
0.1775627606246122 0.003782710459582104 0.5856707222757128 0.10281671025160032
0.17865311235440112 0.020011526058954295 0.603191458661264 0.03542839401625232
0.1813249826010996 0.04197146521290547 0.5947974208514947 0.05318870879367012
0.18816771082372266 0.024984799928587972 -0.0016397703312505838 0.03608333586165743
0.18866945218439382 0.055897817734966215 -0.007931746881269129 -7.639044516383554e-15
0.1805618650163512 0.07104586914253214 0.5383559703394599 -3.1373027173724245e-15
0.18686381689778916 0.05754678312012496 0.3272123132324843 0.0968055499295906
0.1880614868437203 0.05762755824588527 0.29976315847927576 0.10155459928989807
0.18829829830306244 0.0535692014539921 0.24879945503845116 0.016175239374192282
0.18818741738762013 0.05728562230316735 0.5460625472666033 0.00987293643322374
0.18793786606097135 0.06238772435426935 0.4610942926046862 -1.7586265378374383e-14
0.1879281245553043 0.06288544425722345 0.32588097159351354 0.05234819978785877
0.18733363995501823 0.054921914897457375 0.15297435333428658 0.0011643528007806523
0.19113308347478083 0.045600375999438114 0.1162185366292755 0.011655135832762753
0.1859684598414871 0.06789383129222593 0.31521371554072225 0.07035477036248454
0.18511050220020026 0.055135282079918295 0.0856423100969134 0.004068817968346339
0.18086685142612965 0.06390754825647557 0.12000147099686202 0.000868073650714012
0.19349689509990012 0.009537283692787208 0.3840619517221881 0.02511876530653164
0.19238370296057525 0.008386875414946723 0.4341934184441858 0.06666470143586903
0.19040942634525318 0.01169892579563652 0.11014814184156785 0.002999909962005098
0.18455582221898123 0.007764879674407673 0.2522490246768836 0.05871436963141815
0.19427739576251463 0.006629960129085262 0.46093521993585107 0.08855196690549919
0.1936954022721469 0.01138572555234157 0.5285379515728762 0.041631441264085224
0.1884449627560194 0.009444235915368353 0.5854430592081914 0.09339826703849911
0.19878782552047797 0.058782993971185596 0.5687834693240886 0.05388172182315115
0.18422508639588286 0.04647920367572367 0.22962069691632048 0.014335628671437806
0.18786750137573963 0.05133364475615733 0.387916633431218 0.008678275805290136
0.19040618400009413 0.04535052351268936 0.513089737906459 0.010575652067305145
0.18828392898877697 0.054882797443376236 0.500799895031213 9.245135266214058e-06
0.18601167041738687 0.0517815194277388 0.06781706961245228 0.01841827767863155
0.1887601659557325 0.06054847167661396 0.2718165327250398 0.005629532307161472
0.18337153804428158 0.05780556421164237 0.20117054192990177 0.0031575395472291353
0.19372940279966394 0.048348031104629464 0.1786028079462284 8.902078753222999e-05
0.1931335176948028 0.05413096543946057 0.4792022521107309 4.161952143437599e-05
0.18895378166849677 0.058315345391774444 0.4439739535749697 0.0010816269692240203
0.1911945370681031 0.01643662181094077 0.06957432737959843 0.10078724349107895
0.19794862503057692 0.04478197421698191 0.043083733912191516 0.02309020511903761
0.1913437293211479 0.01929770062994613 0.4178087849629326 0.11627905499676715
0.18710252182339135 0.022615455050009413 0.25662127710897437 0.052270002117946204
0.19290954147779044 0.0160409192904889 0.3934449627527878 0.08362621770590313
0.1876793868051895 0.03064259930604543 0.24261142669858582 0.010002077131870006
0.1886794015491544 0.030010053456284335 0.28178110031247094 0.0015913726893591867
0.19104860574389154 0.007837005192970441 0.16654794909883294 0.00657825148290811
0.19070564646582622 0.01413495078202064 0.23047491490165686 0.07456217995860626
0.1938550533086665 0.014911568763875425 0.4933848867562305 0.06584876317470711
0.19874672271256486 0.022075881673996555 0.19338442753258678 0.023240164380685168
0.19218830341020635 0.02394937911162502 0.09175612909518667 0.04348886364234963
0.18599672977477846 0.011652484886894285 0.29798822780912143 0.08492815362486522
0.1855476458010982 0.025768774517655784 0.3096265993806435 0.030284645545504793
0.19194908533748084 0.017205863435877974 0.35601035717024837 0.008041535463343654
0.18881402777330503 0.03988724219640892 0.4210269712318823 0.021465541862251934
0.1866043489185937 0.04149049377278486 0.30220745198447924 0.0024005801077916916
0.1856113278133728 0.04181770222242382 0.26230078102923027 0.0028516719038968303
0.1922554472563229 0.04544038332986972 0.1506568025321009 0.0008247614912713978
0.19136669533748063 0.044013183294228424 0.4731491509158873 0.002034009103356186
0.1909088695160222 0.04514545488584639 0.4994570985917342 0.003483487155009906
0.19127857348435548 0.05365972069456165 0.29147592327059524 0.001878797000507106
