x y z curv
0.15268870860040049 -0.0035085392161278424 0.11051129219203906 0.00767527434095888
0.22353645662329588 -0.004542372141598954 0.10872164712759073 0.004860371973984711
0.30183139542898624 -0.00509595031739214 0.11300493152218159 0.013088099434782932
0.49146287524455856 0.002413834314751446 0.09303533754856243 0.00854025636250619
0.8000423416405815 -0.006552331420206583 0.10672931643152136 0.0009849550489016005
0.41639202231128564 -0.003902257080194237 0.10609050287372154 0.016053921159842385
0.8149137546946982 -0.0036981357927982164 0.10596190785930244 0.0022007476097727972
0.25677951766399004 -0.005300608490935819 0.17114990221939153 0.0009540063431664338
0.22801144371220217 -0.008010495612035793 0.14522265860874337 0.005592854009193304
0.20356416302363106 -0.0012556202791880935 0.12405314583449788 0.004844127288517041
0.229636011241001 -0.007663325880500429 0.16572537189169234 0.004199813507129439
0.27595428597714095 -0.003280114133941963 0.14296503547441805 0.0006736071198233012
0.4370336235714418 -0.00573063060324927 0.13692658314000575 0.006250055249298996
0.6714004766129174 -0.0022719749321838735 0.15398209721656825 0.007640286152108501
0.38326007551430397 -0.002107677876945045 0.15453742746948274 0.008671162466094841
0.5070141863599884 -0.0068583337896271695 0.14653016998971627 0.00390439216867137
0.014689842841761168 -0.004776939330521016 0.12252265232277944 0.04229084666523565
0.2852617489535807 -0.004467301839659435 0.15085813877786616 0.0009223896099244364
0.337932214449953 -0.003701710474658556 0.13119023248462372 0.010983810655863605
0.07270239946765344 -0.006311961061365029 0.13384771666614356 0.008751472865295961
0.2514281780650798 -0.0025025417970284537 0.11114116016402048 0.003692043114920625
0.12002315681316142 -0.00726209346792366 0.13610756938324323 0.004265780078136676
0.6527600727084913 -0.01158537169734875 0.16215641444885043 0.005334800755554965
0.17091654981245447 -0.006877603206669572 0.1652495366787962 0.010980379252786105
0.2313522193758364 -0.003865936997777839 0.11898703272923065 0.00746138427974947
0.12610590595884805 -0.010845632951745272 0.1657534232740292 0.019868680298805313
0.2140173496363033 -0.006158075468680796 0.12112378208361661 0.007577970117142722
0.1747619512284436 -0.0032359145118525862 0.13173630567277617 0.007412632625669061
0.04442022105729448 -0.009639735126938411 0.1059800418392102 0.01405555091341255
0.18366462959074656 -0.0022167393580362215 0.14789136221198568 0.009783083386031155
0.20492526785059745 -0.000650831801565899 0.15597730245004648 0.005472573116914308
0.23745079839580022 -0.004794544053249503 0.13283704159869297 0.0030811170243541393
0.5072594837654023 -0.0049242506826197106 0.16908742158065143 0.001468734192411061
0.11639119819045597 -0.010476502124119769 0.1528420389847395 0.023410864746424686
0.5536723916862234 -0.005001649405340181 0.1491361928058944 0.006325208004457556
0.4743738713813229 -0.005942966467850279 0.1610027041086256 0.007610821230353651
0.732050524569882 -0.006638146813187119 0.15416621098072072 0.0034626012990682338
0.020760875135096613 -0.0020577999257404265 0.1574123880797541 0.03985842317026018
0.5630196980144273 -0.010173419300788852 0.13935683146596475 0.002748331768630381
0.7076701102265062 -0.001343209775198203 0.16770559556008702 0.004259178378921307
0.026712389439955464 -0.0049281267238728225 0.135536028932775 0.003991349158146512
0.3129854665295118 -0.006171961093356142 0.1649577781136429 0.0029122085248646638
0.04320569748241517 -0.008275726244351871 0.1512932309352113 0.006324491492443267
0.4231749816054378 -0.009494581986728675 0.1374549494576315 0.01495497303596882
0.23693396864480581 -0.003625946318814071 0.11711612424626036 0.0043454134191994054
0.09704795916114842 -0.006227844527005567 0.11694295621968237 2.1563041831434096e-05
0.0980543120740448 -0.01361955605466757 0.16658344391120725 0.025738810308690012
0.27590804872309527 -0.004549964457767488 0.15583859110620493 0.0005662950922794912
0.34194646968866804 -0.002692542775690996 0.16092915936375357 0.004109483704500871
0.0027800781240655582 0.0010933603508413775 0.14334734566498286 0.09065023082737891
0.02330549334920201 -0.0069878482428179615 0.10827274773339582 0.022613807337106783
0.13878551639862233 -0.007089329726232436 0.11316318258703273 0.007291282517575851
0.25721159808157995 -0.004626503537359982 0.15020472056461276 0.0007446951593138848
0.8092050947168871 -0.003521091952661343 0.15501819350598237 0.0018189693815761218
0.17007123824773715 -0.0023042792993573464 0.11320506900692315 0.00579815266307762
0.15274193262851038 -0.0019573207352600016 0.13670522937204285 0.0012883933902212159
0.31812817046790953 -0.0020900057732247683 0.13927319070971622 0.005753817904654673
0.7619583872867047 -0.008309454255386489 0.16707528539295866 0.0034705985256881775
0.03484669556813994 -0.0038200874399119383 0.11891270458437493 0.022397680604402146
0.0752209631359373 -0.0006216650663925046 0.10465431517972298 -2.5647945628986436e-17
0.17158612674991114 -0.006321215541174029 0.15505761636672843 0.008584972176707015
0.3522693604640579 -0.007726843081843896 0.15209187213687686 0.0012438139310440423
0.3964474697424403 -0.01289538132157822 0.13957943474928866 0.001697768843014729
0.2705593893898242 -0.0035436281045776 0.1335243686839979 0.001045554934632794
0.47399053621798465 -0.006427552487808756 0.14867557602015555 0.006155337909321398
0.45735003189761747 -0.012295842248267509 0.1489676617403052 0.0016678275288839841
0.030179848587972707 -0.004386144067846087 0.12019604493156572 0.018466543605965946
0.6268124328474522 -0.0045012583026650555 0.1457406665773971 0.016461090306904298
0.44519816041607047 -0.0068601479039733 0.16724060498616464 0.007308844611298394
0.5582366696953441 -0.006628812804455406 0.15551309070552088 0.005677330396901536
0.8098657430543768 -0.0047724065867154495 0.16694843367613837 0.001528316077738867
0.6872423770009202 -0.0024066212524277166 0.16865708742139343 0.0071590296529936105
0.6282575267606199 0.0007517188899640782 0.16680258882427548 0.021350124209950076
0.06793162479348705 -0.0019240289168856136 0.1819193747953002 0.013169911993666922
-0.007944651796656255 0.0014622058025481654 0.3265313584738778 0.07442881490838234
-0.005389247671303847 0.0013191353666630785 0.34488152062918 0.06786011213946026
-0.004981624385895174 0.0029248238849104544 0.3851676099573813 0.0554479946581488
-0.009480802087188517 0.013288163239107791 0.36758881343860056 0.07783778398306013
0.29784979735137534 -0.002065373811111172 0.3321330348402867 0.0023306901408942844
-0.0037824159635396646 -0.002824381031186261 0.31720635409838704 0.08628342007911899
0.20412523976933225 -0.002707444779467827 0.3470233454425443 0.004493199248462406
0.8550699573146459 0.01705875184781247 0.39525375974613797 0.028674389378053305
0.6778683024765598 0.009455387718544912 0.38246106542549074 0.06325374346233938
0.19085378178460133 0.00033326555243801473 0.3869861395939695 0.08534537960097581
0.15594256556639563 0.00939123980258196 0.3900355193370011 0.06242888778655751
0.5333226140237249 0.005398049194426462 0.39013768646001884 0.13249920602276288
0.6881627882867326 0.013015129657024244 0.3873764531051276 0.04857072884469053
0.28037919014780266 0.003765071131260904 0.3807525720808589 0.05463057793159854
1.000039420999513 0.006805415339287515 0.3412311357767369 0.08145293601715184
1.0031597352001975 0.004533273016003471 0.32502503388936993 0.08079903612931952
1.0031291411337542 0.002661863557318312 0.35884532866343655 0.03210514301771247
0.9948345674332663 0.005651061291378683 0.3791487248637967 0.07728315248590467
0.29997656544318546 -0.00275655627155174 0.34361114323163583 0.0076833242273739505
0.6779477614997087 -0.0010730080770160137 0.3325485597699682 0.013576793262709441
0.46182431046194994 -0.004921412630670938 0.3293860054684978 0.009389777039921686
0.6899866133323161 0.0008311127068991085 0.32519728432007733 0.007689590696596212
0.5471024566557826 -0.007256617955743699 0.31743779854573023 0.006328084339966597
1.0027308890831825 -0.0023586902750230374 0.33394855011716995 0.0743120443742463
0.720242279728016 -0.006290491937316926 0.3261288057351434 0.009234636996390844
0.21931063988216792 -0.005520469368937624 0.32148132161111814 0.004199352729688754
0.859048925341306 -0.006123300407685985 0.37568908681947916 0.015148953801613376
0.7552483636262488 -0.002280415831683939 0.35841360409469974 0.06189996405868207
0.5601625865867297 -0.007714265601198328 0.35275883372014494 0.009860954935929213
0.6181053351068024 -0.003963689669655015 0.32476420175764686 0.00713107918715837
0.8283720441991995 -0.011491635660450514 0.3520069115449393 0.0077596295048264485
0.386487628378503 -0.007351528266890284 0.3307576785357308 0.005792515603776845
0.20745287601150272 -0.0019696704067056034 0.3324354170489125 0.004789273151850066
0.6954019587918109 -0.0048145845519746416 0.3420237376231274 0.014851619325959652
0.7827240454287665 2.9943456564941575e-05 0.37114540038148414 0.04721538993971331
0.9270663798269547 -0.004509224880212343 0.35334091964191777 0.004044514196218239
0.744936969394771 0.0006977804256564743 0.3218808735261798 0.00572067462451313
0.9427450954508396 -0.002007773981761792 0.32570508809447507 0.002049330545773393
0.5719732153621212 -0.0028113368329865484 0.3313671325766737 0.010643817126971267
0.8595569105907557 -0.00750367299995669 0.34055815672465134 0.005764765382168559
0.845835391286018 -0.010096825373305415 0.34459044185779686 0.011021589234454983
0.5491177244483222 -0.0066265557955455506 0.3398501457789459 0.012913589651482907
0.8400997640317799 -0.002204196251850122 0.3804745029046008 0.011691870879216639
0.8350088050171731 -0.00848777531300553 0.35621599463489645 0.01102807662720198
0.4667208225254514 -0.008063564395981786 0.34612959210290106 0.008867290234720923
0.8530599709579799 -0.006812188160626916 0.36021887484047893 0.00927215030151964
0.48074383288934414 -0.011044389739213194 0.3367277261966992 0.009530700096180875
0.729942109415471 -0.009174629760407492 0.3660785961005305 0.018892798013872163
0.6602343456878154 -0.004613598647301424 0.31944926457791795 0.008486072716676155
0.9521184543521022 -0.003699323052401662 0.37047666499856813 0.037162490466446846
0.33490733880966495 -0.0017801863512128607 0.3195074657367758 0.007405392104227814
0.6858383491338366 -0.006300623956337752 0.35368866299207014 0.030039769121934224
0.4262449732427694 -0.006748692675554538 0.32657590275402915 0.0027631645224593356
0.9563773546991017 -0.003886051953650453 0.35984905563879177 0.03439877955657375
0.9832026593953093 -0.0157250475946989 0.36239629869962525 0.03845415227556359
0.7775087475059593 2.9706135801359124e-05 0.3508515201199985 0.017606596645652717
0.6277217802879114 -0.0046057019603213826 0.3459207323887651 0.018323166861367382
0.171429091532404 -0.0009030140877051816 0.31825364183559496 0.005093090942194455
0.8330510609500699 -0.0004313074985872387 0.3785483804467144 0.040956094936435865
0.9031496701472133 -0.0008651707524509684 0.37101475352193 0.007132370353193471
0.7964618862630916 -0.006335316225002194 0.33073267627894803 0.005568549119934144
0.5753746648535538 -3.1738267839746426e-06 0.3388835482601328 0.011545871916379628
0.8863525613270745 -0.0019446446130903304 0.33705475647597066 0.004922101983472143
0.8900881146364642 -0.004731164844860182 0.32604330663828957 0.0029553560348770107
0.7368315461309901 -0.002089874068852388 0.33371433117701943 0.0045002084176589555
0.5184865717876299 -0.004634041859334717 0.3208272909900083 0.005471962539120973
0.8194453037652978 -0.009005260555731547 0.3228874096048651 0.003147659915616171
0.6591088466513428 -0.007299208991844809 0.3373872219241819 0.011724505801378243
0.7436031600876168 -0.00698431541564044 0.36674429077757414 0.020663957515439348
0.7630235775129721 -0.004631712705677208 0.368510785279092 0.06464343908938372
0.5638162393491496 -0.0036440396565175916 0.3383647803870747 0.00867366790085438
0.43450077349957106 -0.0035542509858056395 0.33560431465284285 0.012282969124828274
0.5176394644465622 0.0009031067679066562 0.35364415606044525 0.022264349406398466
0.2418500728744811 -0.0002969321310851967 0.3223144741969318 0.006057788613906592
0.36204516751582655 -0.0021719271993033504 0.32271830370887605 0.005948600126935174
0.48640222301607655 -0.0056524477911297066 0.3119595214250476 0.009015132866533597
0.4415049136320325 -0.002683971202217752 0.33138080411680815 0.004562393547588612
0.2601111415906432 -0.006204388839604503 0.32273760794783474 0.0028322511626491507
0.9590830267983044 -0.0069203819114069766 0.34554174357165274 0.01165980173021383
0.7813749409991538 -0.005587189844657448 0.32669796258449935 0.0022960761141326376
0.7145151615550692 -0.006628574312115743 0.34321877625533226 0.009783941299895085
0.7523854535005079 -0.0011391527538544685 0.3424258293468386 0.005773387855487778
0.3414490343154401 -0.005793137921580971 0.3223415293797542 0.008590027948078538
0.8701113531177919 -0.0019237435444782892 0.37509738372381124 0.024173536500666403
0.647281185506826 -0.0062122718727303 0.35128322975407295 0.017951301276081622
0.9590417075669571 -0.005920302328484501 0.3285824264822183 0.0034944873662095055
0.8019035747262286 -0.004913770066912081 0.3376776648409334 0.004515284386638778
0.3215551988591638 0.0016019841202384085 0.32974941995426155 0.003251685841264973
0.9127064677700429 -0.0017850724717397748 0.3809366672799427 0.0853343705475398
0.6125218847261622 -0.010451473748327564 0.34626009708003247 0.005996472461307225
0.8026468608173938 -0.006838706676779485 0.3578957546194932 0.006667056030793309
0.5010026902835842 -0.0010684092737889618 0.32688768561760034 0.0076494269858216534
0.5975665709345154 -0.0016979982822234593 0.34558728514439363 0.00867506071500812
0.9250646665171899 -0.004252293347368938 0.3263669260222849 0.003393048473892688
0.8813804177253156 0.0013966253255775676 0.37507421408893526 0.10292281935670558
0.969496034898875 -0.005549331742116368 0.33670239364522675 0.0318060297302256
0.3900532199263029 -0.009227216586633892 0.33302712393251055 0.00520406006151961
0.9213805926230771 -0.003869630123662244 0.34694403978471067 0.0016982207561175636
0.9902423474970993 -0.0032510926390191238 0.3178892837241315 0.08629807060551672
0.9977005905294979 -0.0009086843064055486 0.3643560772832041 0.07650512582746172
0.9820964163753144 -0.0032767219642768344 0.33247839022376763 0.07308818540731249
0.8833865037210997 -0.0021395205205334035 0.36532455082632576 0.013907988454510332
0.6514868675952833 -0.008775799892120078 0.32089590558775233 0.0061501238638352945
0.7953832438024983 -0.0028360294725575824 0.3143040698437266 0.003732420877115807
0.2884968400361352 -0.0016249295226556896 0.3719112252026669 0.012854382111127816
0.4449825148669977 0.0003950223773472035 0.37806066642890696 0.062398813508608875
0.8197238760456431 -0.004313441331849203 0.37476379624330997 0.0034636081410640072
0.22544160735478172 -0.0019949819480781705 0.3660496051389399 0.04666142984322619
0.9666234506794995 -0.0046967810132626875 0.3758679662828872 0.07166066261197732
0.27756937440637164 0.001084301187538012 0.37732141460588103 0.050405442091832814
0.6290134271939916 -0.011214077493814945 0.37209731556926834 0.05537533895674501
0.10812901063233935 0.00030135200719480444 0.36542514606310617 0.03308673129659859
0.049305084094056956 -0.012954425856672079 0.3124291517790444 0.004845501292014761
0.06047798966139313 -0.0020324707351950773 0.3397227663474362 0.003672014682899506
0.15880145337501517 -0.003936712938016461 0.3616459641284903 0.04251257529312421
0.02215212797533019 -0.007140937210867102 0.3323636018057417 0.010625230022286766
0.37228301934110297 -0.004756712989909382 0.36328664478296885 0.01504992031910533
0.30538230842751607 0.0016442353244832501 0.35951410263221434 0.01140439280670949
0.6850879853615576 0.002615205196310779 0.3776718110305255 0.05081422763958312
0.25823672629537886 -0.003327842832469896 0.3515544293725199 0.005681537071685137
0.1610968871092303 -0.004306141647862345 0.3628057144675301 0.03893927623130484
0.4988407918913967 -0.008324604074788838 0.37230645159555975 0.024857261646275525
0.1019611598092602 0.0018322715217951797 0.38334810927081536 0.0449589008321398
0.12402538065565094 0.001994102815783869 0.37524566583804203 0.02694112891984169
0.6256921941904707 -0.005964848885300121 0.37806391589638416 0.08158099335158756
0.8677302153826341 0.006912033667585569 0.387294415128303 0.06597564528078434
0.4819365307191652 -0.008888691085567639 0.3740139143085149 0.0013000464619977985
0.4850147028207689 -0.006409803030768098 0.36707512156480526 0.018636471505222386
0.2320228560534842 -0.004282813093320627 0.3639084832545241 0.05102009327118798
0.3659782429209832 -0.0038141661532161597 0.3755788121923177 0.042765625387098764
0.33313604837672567 -0.0032315132174219976 0.3605474836529193 0.006277394112726055
0.6500158506767145 -0.007275188331959391 0.37628233802196337 0.044513394336186354
0.6121272741536271 -0.001560437232173186 0.37038656654255225 0.03131079187181477
0.1631679508285062 -0.0035809039298707202 0.34187828511362733 0.004192008688707858
0.4296949985897256 -0.011823934190320058 0.3730997904269147 0.002756471997626686
0.09747594231097285 0.0004775539958730332 0.3672798404342864 0.026041378235699828
0.5552393322604249 -0.0028406774771735943 0.37690522125725545 0.02620901710079461
0.5066173287276933 -0.004029470910171322 0.38645256347544993 0.09054245969905159
0.5778619792397233 -0.0028984676175032136 0.3674373004228617 0.007483217988000891
0.2225867395243386 -0.005082574534284727 0.37964657800832163 0.060896912685940906
0.06426156721449384 -0.008327225810629587 0.383883949489418 0.04385757992207138
0.8006088070767011 0.0011468316039522986 0.3784612219636511 0.06763831178863187
0.736671268524174 -0.0013903468050244028 0.3824693571242462 0.0627680051277505
0.19183593711228705 -0.006200899719133917 0.384133589830299 0.08195064481936834
0.6807704811691508 0.011330263745579003 0.3863908125756101 0.04682472993275816
0.39757767085363166 -0.00868729308930339 0.3674386092408395 0.06257409787912013
0.5944619737584124 -0.0021612111644079353 0.37442660086547846 0.02641815573009955
0.5501110694004133 -0.01179002988508925 0.3566197148366369 0.014991987832318632
0.09496304324311661 -0.006263365974778524 0.328739862167077 0.006524894729923793
0.10920794275039043 -0.00457482097781379 0.3570842278846263 0.013194081946483896
0.9326109363317845 -0.00344147910234704 0.37764985842680737 0.0922528069480662
0.2541659724327292 -0.003497394922031788 0.3847011910061062 0.03991400187731415
0.029494185691118027 -0.00591575312961677 0.36119920704117703 0.009320318159936492
0.2012068998240679 -0.00553460037670618 0.38189666220208823 0.06573005654139798
0.07561570431898892 -0.0024651794094383383 0.3840678024039622 0.052975581277450036
0.3262864997271021 -0.000857168709609502 0.3786883429727407 0.019164780901560055
0.212711125500815 -0.0002241558766022427 0.364360449906884 0.025056228947793545
0.24618170449823212 -0.00015584960210649582 0.3447199208372447 0.0037975758720386267
0.6872395959118347 0.0008777416172691055 0.36805445050751723 0.05024488934495543
0.1238784005093024 -0.00045832454569565535 0.3498882428652001 0.006466873707328289
0.36802271096489436 0.0049775764310550875 0.383770151044627 0.05886156269730093
0.8051664537454611 0.004406440211434007 0.3937712450036156 0.03777598669759937
0.7661535490882067 -0.007874074850026808 0.38691880536034257 0.046686273463921256
0.2423082683860659 -0.002375728468001234 0.36484192954395683 0.05473116684716525
0.3563561305440677 -0.005247108907610463 0.38299112955687614 0.005962315597600571
0.17881564565479816 -0.0024467559955825523 0.3659128896668263 0.06128694508730633
0.08774806013478952 -0.008483209849397204 0.33848345781117517 0.006590575834452021
0.3179025106980438 -0.0012829557304319078 0.37354773858020346 0.020764034259657307
0.16706921721525234 -0.005284924070969856 0.3819736601214495 0.08988415140589319
0.537433640174897 -0.004007549642980006 0.3544743862023789 0.0258318752520218
0.2940538293825722 -0.0003849683459737046 0.3736740683379458 0.013103184359176826
0.27992686231539454 -0.0043509956286545744 0.3405317660228425 0.0029545791699000738
0.5343648295174743 -0.01171491212680565 0.37926379757359857 0.024365522838324834
0.32413797513992454 0.007239260139087286 0.39441800385025766 0.02063154382039591
0.18951797298524894 -0.0026005602870832647 0.35399767041643304 0.002948121106194506
0.07840236931867405 2.4498128574298677e-05 0.37744377427816905 0.05805252309993123
0.14402888212487344 -0.005767977758785253 0.33943865138218404 0.00781144424059339
0.6405587686954216 -0.009520571197488314 0.37947723193917415 0.07849072426725678
0.07846242484794871 -0.005166997214594084 0.35485891899936745 0.018466346485252774
0.9864776669395832 -0.004929705169049687 0.3785540054561583 0.12385393904178361
0.05438311770433235 -0.0010965269515793624 0.38483956107925904 0.04615994699156428
0.741700815260284 -0.004531196943872188 0.37743698733464615 0.08834986792053937
0.292352257845081 -0.002860435187785967 0.3585081941583031 0.011009319294524403
0.1538592227290724 -0.003201196416070144 0.3773474085636833 0.08273973563517481
0.21311049970851048 -0.0001552928829595323 0.3507863799244973 0.016541427816650908
0.3387423236543547 -0.005956434433958569 0.3428265497968805 0.003273104647260267
0.02548902174181064 -0.0032200596535220593 0.37376946745186473 0.029585859370663097
0.4513127141890749 -0.0012713734717380142 0.36167177977758685 0.01298692280588976
0.1313938859220214 -0.003694505236433912 0.3303838669289592 0.007266674854275616
0.13446770221822843 -0.002137919207965935 0.3861105963451126 0.02404308047267681
0.7023539584400835 -0.00027787478304189684 0.38986353797334977 0.01830890860133886
0.9013045560454037 -0.004123151447524716 0.3909056278947556 0.006092201815298728
0.09929097427192861 -0.008151126882434715 0.3346931395294204 0.0051935525108356174
0.36586539655247985 -0.005873876034359772 0.3636202203860681 0.015849273708189317
0.6112726782595419 -0.001427228772431497 0.3670300172209493 0.031057788702582956
0.057609939770725316 -0.005469873576471247 0.3583832101822909 0.05732507736029315
0.1561185970263458 -0.004360114065625493 0.3419363968728893 0.007929337397564701
0.1803792280783767 -0.0021376595715297494 0.3853257991388499 0.08259981906749199
0.14224396160854386 -0.0065328962723620165 0.3752797757198724 0.03105595345282571
0.4365631397524104 -0.004708058439674513 0.3517234056142827 0.01462858536163464
0.3146559454921928 -0.000908499238648657 0.3524086902801918 0.005020136125621711
0.41012583548305953 -0.004277611698084515 0.358929939530705 0.04338135492123106
0.7133219910995949 -0.007568715905001637 0.37339927757671226 0.033225753191103366
0.346322307602984 -0.0036216205236740927 0.37074382976610787 0.014475718342876632
0.11637732705188947 -0.0034379981259630194 0.33006770549648284 0.011920439980166817
0.026585204691939996 -0.003260123827620317 0.38037356042908443 0.0682870790199168
0.8786488077417859 0.0010027500558650359 0.3914176000905479 0.05491388636579161
0.7196436264977116 -0.00259111174736598 0.37857344155590084 0.044398472233089244
0.8173254178045989 0.004715961789950235 0.38690218092118284 0.07055350946629156
0.31674906920675255 -0.0009254659812964771 0.3776657708489136 0.02205539541500635
0.4006469256537254 -0.007705973314272354 0.3850402419818697 0.04694061158764669
0.6021104717179171 -0.0011112426639682449 0.39178505276015874 0.023514008701144336
0.7490780410528514 0.008703408693040704 0.3920986856043614 0.06868541535549494
0.42430808309970924 -0.00576397317662725 0.3888502492346355 0.05650671251310463
0.3058496915182176 0.00043882516052946933 0.3932104371061546 0.02023074903651237
0.8398546256367757 0.003325003971599446 0.38663064363650496 0.044424282194049626
0.7774982304394168 0.008319796741370039 0.38664409384914583 0.058205597087351874
0.9945115692728617 0.010511950226052915 0.3965401014242999 0.047156070071449604
0.9645693356084437 -0.0006312195959962581 0.3889174957189546 0.05622427826740433
0.5556024345021591 -0.0015382355465824345 0.392749471982957 0.02392249534843132
0.03598474941873399 0.00037763468741756055 0.38124033959699355 0.06544702505147612
0.1166605140480655 0.011931849787601295 0.38834498224347197 0.05989538990520472
0.47176419831977595 -0.0008169128041273345 0.39458508218429195 0.007557573824805911
0.08749463150908644 0.004343312274666103 0.388094563256133 0.047357148474304354
0.07677609630290255 0.01095677781220104 0.3900196175644048 0.06694126308502896
0.16271094221362822 0.004433138916895147 0.3874697423898836 0.08475387417820773
0.6322241286472596 0.005810713077177719 0.38413083932071157 0.08358577407573864
0.22133202694603663 -0.00032905086336938033 0.3901893619805999 0.04487489713970087
0.23612679110567206 0.010636463060714758 0.39218656500080706 0.07403668683906717
0.011218317733936145 0.003428691516137318 0.3858152938781338 0.09005323029311962
0.14165265707756033 0.007086767355654161 0.3932540345113876 0.053364071624656305
0.29246620140425866 0.005755472921063606 0.3879839567477012 0.05254192485826852
0.018016212918546513 -0.00013058249926865904 0.38623339532435125 0.07915878312967478
0.5965675702504515 -0.00785612027984855 0.31079324316717705 0.007116897424306133
0.13933708667799397 -0.0108599947874296 0.31969711283770746 0.004251616844578506
0.19007798765373227 -0.0010320613221527352 0.3150743990638755 0.003657728659278542
-0.0028067348090838186 -0.008024976685226474 0.29522485054610476 0.06395452216335329
-0.0037169772617939053 0.008275665640019518 0.2460300462039508 0.07648510351013622
0.0009938469369325615 0.016204427934304814 0.27507266977478007 0.0647551762780538
-0.003694477317326842 0.015242990992268375 0.26457830425826884 0.06699537100916139
0.036113072625765456 -0.004567413963583587 0.25611457859783 0.0042807232328335686
1.0091978621149085 0.0044846207350544565 0.26084568259893937 0.0805885704547415
1.0064320222377219 0.0007408364196348103 0.30663899406012174 0.05106567972883116
0.8010595306556705 -0.0011603026909663783 0.2763314495582035 0.011926768341266753
0.8701985645005316 -0.005584092786922904 0.2924016459190565 0.011197187462253544
0.9910628544859751 -0.004545220207816646 0.2726536272806687 0.07645828642929012
0.6252739280167313 -0.0031593825170190847 0.2775033089110593 0.004641197352634698
0.5533311866184206 -0.007187838650136855 0.27970953352489086 0.00230909396931302
1.0027943221845688 0.0014346204311618236 0.30057863754165937 0.07584356259380907
0.3374082413822831 -0.005365739110132443 0.2654882981817517 0.01098561515448868
0.5672704971903677 -0.005653806398989492 0.26053287247424267 0.002136102207731119
0.9223246117891969 -0.002402428662343181 0.27271911685019934 0.009671911775445664
0.7272001869402628 -0.0027695597791575492 0.25649584615631615 0.004789457109790206
0.35572755618392254 -0.0022990082736789067 0.27271358908584836 0.008439912564367824
0.7806268429193011 -0.000516844444482525 0.27282011780461574 0.006120922872667846
0.6522444031069793 -0.004827443284874537 0.2802784067011688 0.004182863136997384
0.7595913616066216 -0.003924965284178049 0.24681168403897968 0.002312348110072758
0.11327433473285661 -0.0034738934338515073 0.2480071529994559 0.003983344639206872
0.7563532403235049 -0.002724750997956222 0.2577604541873734 0.006487813498694084
0.7015212451255948 -0.006433782852458294 0.2855790235889756 0.006594788547659569
0.8314878691494806 -0.0019837134702899283 0.3050155472538515 0.003071633356750336
0.5257954126366593 -0.0022685588141473996 0.2673845733127402 0.010251113829070372
0.9884596629432761 -0.0030866354178881433 0.30236097467687 0.06038589650368781
0.26701309165434356 -0.001466089443744368 0.24381838865397978 0.008728231297216317
0.8819909829349375 -0.0015370090814228108 0.2982269493414321 0.009493925827015021
0.9496145768846711 -0.0034500317262281767 0.2504827373932862 0.002240678964480709
0.5201180028359618 -0.0019427214131518585 0.2564479834363596 0.012656771889197909
0.9672756565601676 -0.00811206307986283 0.2923115381922269 0.0051394720421393
0.6119229992376541 -0.004923846450410611 0.2755143123788572 0.005147131491849731
0.6516796983854163 -0.007961427072032947 0.2671528087305284 0.003923814236244804
0.639989351559588 -0.008887789370934502 0.26601512870164135 0.0031235571173658817
0.7060317218957557 -0.0008296977565734669 0.2541227860937518 0.0030895391588749792
0.5963506208461811 -0.0005865714683236813 0.25408946005656613 0.003012184521957803
0.5009644457954973 -0.016192044043549795 0.2738288211062658 0.008005485555601918
0.8883803642304258 -0.010596522072009527 0.2668823780237868 0.0027866560729128617
0.9167703086134557 -0.00064709161876251 0.24364527683614176 0.01052822009860871
0.8240259131529821 -0.009766090637321636 0.25347660791334237 0.007619374753154173
0.7754141709099431 -0.0012214658031067002 0.25942035272643243 0.006663296441808216
0.6313632157950085 -0.0034177755950857416 0.2513330481856632 0.004371980285207961
0.9683648125432279 -0.0077554521479306264 0.27067461180411306 0.004069975722786414
0.4228089171981009 -0.004230283945589657 0.2723093876874826 0.005458441921065252
0.3742775868677252 -0.011806809259710255 0.2634979683217431 0.0029805223721656384
0.8494792959109813 -0.006893389145583725 0.2667167735218448 0.010744264368687362
0.803901217014453 -0.010447959310348753 0.25282016007703834 0.004144044221668783
0.5487651557919114 -0.0029372652310013393 0.25862697473910123 0.004719625314801267
0.1359351930223912 -0.004048198830462307 0.25020735043910686 0.002275861962127876
0.9763338804600488 -0.002828218746016426 0.24617215453527777 0.049492352506850606
0.6783341404770797 -0.0018697103997419636 0.2750742678852958 0.006848524494034913
0.9112708321115703 -0.0010083023190801236 0.2580044066844858 0.008222807718965379
0.9816024245401295 -0.005774441055356374 0.2979258608150506 0.04588765672206002
0.9492202751085936 -0.002682008075472232 0.2804608914304665 0.0034957740823273594
0.824607903898392 -0.0070850176645585175 0.26051728440074196 0.007010205279993356
0.5839462220144647 -0.001862861887045291 0.24657595013467368 0.005670669141940484
0.38709169236205726 -0.004057678766013073 0.2793524577131213 0.01233600722927395
0.39376098218913624 -0.0011319596310275129 0.2515501939010938 0.013543090103149838
0.746331584664726 -0.0038412152386977302 0.27807709668820635 0.004797325143270926
0.7575979941925894 -0.001304581454757005 0.2617214058870169 0.006720112718255972
0.9591405676238136 -0.003745406465648339 0.30079695692310165 0.004268627240075704
0.5803103975931896 -0.003555898125850929 0.26051600221482585 0.0034805638463364006
0.9067840321162682 -0.0011924825886572474 0.2934306859112098 0.008239334720022928
0.21028737012552215 -0.006079309034914242 0.2504163062682268 0.012882313188210546
0.770986065721393 -0.0027082865947533397 0.2783062223387709 0.003996562276062273
0.6779613213221433 -0.004110891752784804 0.2553784027646995 0.003257355110133266
0.9580211845136064 -0.005701788517154894 0.27860109944355294 0.0044019980250630635
0.8036418421794029 -0.0010857796006440322 0.29226437803268374 0.008189480114263056
0.09766599702096858 -0.0012886731225425316 0.24867608342766198 0.004214944018628972
0.8600534891797205 0.00035205034068168015 0.29179032356765694 0.007944332524651787
0.47594103877806726 -0.004284135064148015 0.24363165170485485 0.020267756738598795
0.40620142209594684 -0.0017358431470244854 0.2570558055160584 0.016128462298330558
0.8606308341391298 -0.0025212044516003964 0.2668998955176826 0.007535781978010518
0.6448582355792004 -0.0052692859177058 0.27598211419581486 0.004841390101873561
0.2533645334594625 -0.00468873537272295 0.26359616864635116 0.006359385270279907
0.7342358275531093 -0.008242029744777984 0.29034657666676483 0.002509346807936064
0.9316765737363272 -0.006990706635397883 0.300245562289969 0.0024017274837645403
0.7602149936195015 -0.00023936302466586826 0.281382409000579 0.004473096584791837
0.8282733368976073 0.001260366926792159 0.2815997523115701 0.004899915470609741
0.17984499444886182 -0.008429942042043687 0.27545259377472053 0.001291957817895137
0.5784392384400907 -0.005551782549153428 0.31066034306679247 0.0042872625393643475
0.09399737551938159 -0.0040696286679848745 0.295584644722469 0.0020799510787176483
0.1984634663050026 -0.00720572832883017 0.3040887249912914 0.008874137788094812
0.5898479883709634 -0.008044448526922321 0.28757751986378294 0.0024391858221242727
0.6980876492396039 -0.005268615073695561 0.2976151943022056 0.007163186602678861
0.4790576011574345 -0.003276981085917966 0.29308098030993784 0.0019731755392781393
0.3698019916308164 -0.007246064670814109 0.30815718439769085 0.0054870893681678535
0.3519598357196055 -0.0010448362708192058 0.2954685981386377 0.005026082520420432
0.23511012280371013 -0.010723553568207844 0.26809044463068116 0.003021558580477006
0.7140128419634018 -0.00277816647785835 0.2984033852524064 0.009512477897056029
0.14761721630834854 -0.003676891573038265 0.2793005903208723 0.0019923361573525155
0.5963269812186218 -0.008109755942291894 0.30565977907793024 0.002625807953957036
0.6695722143259737 -0.005010888840869348 0.29781561979981463 0.008064906694511917
0.2222542463343931 -6.829539379945975e-05 0.2880999164236588 0.006443025418491043
0.2974040545255544 0.00044069227352219325 0.28847788949277225 0.00615663871303847
0.6217636118416399 -0.004057365898172232 0.3108484775676342 0.0037993087281073964
0.3996571581207061 -0.0020345055912518446 0.2729274259501824 0.02095703072810757
0.7914130954971011 -0.004237074199601691 0.29675344706531404 0.0020811437893714577
0.5411369165259109 -0.004005163928629778 0.3026625564438888 0.003298319978731137
0.4342013617368453 -0.007130434641839215 0.3102142196465761 0.01152823623248214
0.633680784113567 -0.005134623710003098 0.3001000377524917 0.0037546517661785133
0.15187854314372282 -0.0049720152334866595 0.29244807862538136 0.009127215008658235
0.02652487865486583 -0.003160562630029605 0.2507899729896832 0.01631036965067804
0.2927689340527255 0.0010822177359258907 0.26441999607021 0.004648903179486739
0.40719818743635305 -0.011869250329673248 0.311737642298319 0.0023443704099814326
0.572387790846744 -0.004464420979499994 0.30867718572262404 0.004880448461755004
0.19996325313002553 -0.0031478504653336356 0.2512203370198788 0.010300673766625256
0.31507603059991407 -0.004735918160560226 0.30146673540226476 0.010295099280058137
0.2888046537264179 -9.118766638229241e-06 0.27513711207001845 0.007192458046586093
0.35340752299914047 -0.0015525849403973725 0.2781038747261834 0.011337517202598483
0.056223657491712924 -0.0033987243992090774 0.28779952802850384 0.01076297453068003
0.7229767111605806 -0.00648725127161727 0.31346190492439946 0.008129610204951992
0.0786214031708222 -0.007623183077452771 0.28812827270982483 0.0072184255759020705
0.8667458135509847 -0.004766975722869427 0.3120540958209916 0.007716192846096605
0.08745895363511896 -0.00010530017284295083 0.25222304134578044 0.002549437809020295
0.5266252818310282 -0.00598083171174059 0.2871167593449003 0.015702507910840928
0.02217345267640365 0.00020379385670907943 0.2724928084581079 0.07496530944071227
0.07939315944745598 -0.0052862495684083315 0.3117815968976919 0.01315916049969651
0.6807898102728087 -0.004901784373783245 0.29397458216724687 0.007722519540877139
0.2574584836242208 -0.003984116234005175 0.28338164048803244 0.013825792086567297
0.21475722790511906 -0.002226309988092716 0.2636905081366032 0.010384426505330337
0.006076478962935487 -0.0015579147818427688 0.27891219099892195 0.09330458407103637
0.12343369400707425 -0.00521736583061723 0.2575371106597724 0.002914509843646911
0.444046028054021 -0.013318687318479459 0.28099697807862906 0.0150982455037654
0.00527664237134865 0.0014509825457666426 0.2622974520533148 0.07726691889999675
0.0360060598380886 -0.00273940870691156 0.2842676290999328 0.010915443487368165
0.016059420582016724 0.0004127460120333604 0.2821119494548007 0.09798422937738212
0.752374143230985 -0.0013275139572743791 0.30356334033452403 0.006118017191574646
0.028867719646240714 -0.0011439064354094295 0.2377004420435441 0.01290204822323549
0.5446172117576168 -0.003211368246653361 0.2991023798501675 0.0037629192788466307
0.32698833843488423 -0.0029791826450650235 0.28854462616749554 0.007903126527207626
0.2751139979869649 -0.0027178349701322785 0.2647996210424322 0.005164510534881675
0.12998261173359976 -0.007338144208098048 0.28070168252497607 0.00036639708011432546
0.5432304003953632 -0.0024984586084846466 0.29371201309975176 0.00286961508280383
0.6118970122043588 -0.004540012049517578 0.30673502436738503 0.004595695133836909
0.47024710650883605 -0.012681911904146068 0.27529364203163187 0.03003137694299199
0.8525638027823781 -0.0007968955619242924 0.30937156591230036 0.0042864290330055675
0.32053582574148215 -0.00528374669106499 0.2631292511525563 0.004750869402800274
0.6067571284040576 -0.0050491079306254705 0.2900416940974551 0.0037547494229285914
0.20822678235327777 -0.005689515093546772 0.3133713953570645 0.005879685522545967
0.04272006720141173 -0.0008151590863883818 0.2615217661157341 0.0015661078516800953
0.1518533718535427 -0.004138514201059573 0.2645699521074775 0.0027768799163584226
0.12148934693179622 -0.004190068671778577 0.3033665220104285 0.005989154494626676
0.2481430288475269 -0.0030247823487917036 0.2852970720373677 0.00857307337722215
0.07313564517826518 -0.006225785151241065 0.26460417838150674 0.006576086970430042
0.5176132809191594 -0.0062209622266153775 0.3011995863419382 0.01488307420324457
0.06367163795945359 -0.007849687847759431 0.25306807208433074 0.006164268932902942
0.15997914395917565 -0.006218909031888288 0.3162147144503242 0.00716103276935265
0.10743032655156372 -0.00426042077735558 0.24460209091211058 0.004741742112189863
0.1839044711473319 -0.0057475055501403196 0.3070701870198422 0.0043743751236940695
0.2701553234636162 -0.0030276925063011145 0.2926459979220336 0.00869426218334179
0.4717291918477444 -0.007058336816776569 0.31267260428042776 0.014115659166659748
0.335395306209115 -0.007060620955716469 0.2962114744812551 0.005916133362105726
0.2870771110711998 -0.00844392253491177 0.30338370858716923 0.0031477844135557116
0.22711113057206558 -0.0024808425666211125 0.31528485379166443 0.006913209553071041
0.6791200126621485 0.0022328304362706744 0.3128423163008237 0.00718638693750077
0.7612777175145846 -0.00290362567973646 0.3167766424698759 0.006762377744730422
0.24592366623954703 -0.001291287833891031 0.3140997485359654 0.005679000699431875
0.5573731032361007 -0.0018525774882008344 0.2407869176826139 0.006875802585024548
0.087995952779104 -0.005026930736252535 0.2360689983032881 0.004223909107759098
0.8566290634304842 -0.005644228843483106 0.2449858259525142 0.008068282663523498
0.002455948257375488 -0.0003594176725679256 0.20261922746046943 0.10102484914711006
-0.0038001134554077136 -0.0005413121128225513 0.22445153155622227 0.07014291766339295
0.15234778429628626 0.001515207677755613 0.17967438104311165 0.003001134654885858
1.0038396450360398 0.014989955582929065 0.22154895428782972 0.0638009894543148
0.9889317148508985 -0.00016208270399788519 0.18208167469999453 0.06046740772836592
0.5534286098691703 -0.009980110652909126 0.21514173184695173 0.010486254485701235
1.001209346257316 0.007133716828492548 0.18510784509195344 0.018973290893493595
1.0015100689786942 -0.009797518328019344 0.23987554206631725 0.04483940132023791
0.6913122042068696 -0.005017257769876999 0.2111970491510173 0.0064276583713255364
0.8755776524813359 -0.006174139891301163 0.20392705910556533 0.003674191181210559
0.762059509950462 -0.001764340589351211 0.19211249446791967 0.0017478960053582597
0.6642625783047694 -0.004481020554620498 0.19193960114642683 0.009597088750374832
0.5800309667011752 -0.0029746192903330523 0.19543325519333224 0.00894852686659529
0.5519272345214836 -0.007387223371493512 0.2046001533580309 0.010149543840597752
0.7866371384564154 -0.00523362370898779 0.21879562313768455 0.003094474283524516
0.1151189963793814 -0.006721482865547147 0.17584982772772148 0.03115341346524783
0.9154047825177873 -0.006142207274581201 0.2253237427544226 0.005838518728688282
0.3752721300054679 -0.0039487559247515505 0.1968795597295292 0.0036891799543432306
0.4536196762041039 -0.0067067577445585344 0.19877481777108624 0.006610569380655984
0.665082886796188 -0.006756122969524667 0.22752042516107276 0.0031647491779417075
0.10275486944710416 -0.016899430224873422 0.1691203169138733 0.023365370841374987
0.4064271595504498 -0.0015101278674099913 0.1726212137393337 0.00800335703497438
0.9226172698797852 -0.0065472445164738114 0.16669176476119194 0.002455652561211341
0.8492233603088875 -0.008644051155767848 0.212652095138901 0.002103204875533845
0.3297095442084984 -0.0025182556729726165 0.18909186733182648 0.005290847590443905
0.36180585212699584 -0.002858119751128424 0.17375339351379304 0.003935458818558988
0.9859729158355752 -0.00912294077424325 0.16996333852944784 0.04162093645211838
0.23538651725095827 -0.006812284719539769 0.16879509377600965 0.005178355946083671
0.25034700115828523 -0.006462681908962804 0.190848849474287 0.004048872169319425
0.7908259981382084 -0.007550608816073686 0.19862900790249913 0.0029409272672057535
0.528777047012675 0.0003354896086307376 0.20065031139775893 0.0037772505935971886
0.19357992023769136 -0.0013746867771568469 0.1705383914023615 0.00491051711454003
0.2780574025105647 -0.0043756188470871985 0.1772200838096019 0.0007628465185326996
0.3803514005365225 -0.0026628249239400775 0.16997883698459162 0.009134646002974724
0.6456833047268029 -0.0014009804693148988 0.17915428004019768 0.009789471553417852
0.7159852500618524 -0.008645873460254175 0.20915241472987053 0.005076070999878619
0.3150656251497519 -0.000738334827442002 0.19270170674302228 0.0029813526603357826
0.9770134843359608 -0.0033897670678074633 0.22597367441867783 0.03112437553018341
0.8053924768877078 -0.0035343110179104228 0.18451894371920913 0.0045708747423360545
0.530642378334698 -0.0027474665115546177 0.1775564311328686 0.007420308355212121
0.9611608263565006 -0.0022782471988414535 0.21100089303747604 0.0029556565494028783
0.8983164475641731 -0.004884158190775537 0.1831501792943854 0.006231231345685962
0.9295573618406918 -0.0011209047421448873 0.22626265893531736 0.004413284655114524
0.7092864827210953 -0.002961543357157634 0.1847466782592141 0.0028107230730507844
0.34857539426030354 -0.0036082702375141206 0.1926615027687978 0.004203429533586205
0.7972608481633106 -0.005117708585412073 0.1901892372663545 0.0033131892291551725
0.7364243194217157 -0.007496110686156323 0.19780346927637224 0.008157339285547752
0.5116422310585146 -0.002412142285068048 0.20408875637457696 0.003935595076483615
0.5485434742125668 -0.009101877217026301 0.18446019690808452 0.008307926834559585
0.9416646480010746 -0.003626294336266072 0.2164534624658843 0.004303403533653712
0.51613185552006 -0.004077826733320472 0.1905341520520749 0.007007264659844499
0.8151473028651453 -0.00809221394766909 0.1993520794668683 0.0039603552070802146
0.9949266414808406 -0.0029627982565622202 0.17922019763762814 0.060463425215316634
0.4653497723776006 -0.010123244693967593 0.1981557846588778 0.007858575680718302
0.6551743296342972 -0.0049344245384313964 0.20643898988049134 0.0028889311168331807
0.8837536231021572 -0.0008421590722158973 0.22825464722195205 0.007361742049170956
0.9968416645095414 0.00010748256163357058 0.2046287818841535 0.0905840544082415
1.005942149882277 0.005116066297582898 0.2180820605310685 0.07020711838910997
0.8992984887023739 -0.00045442541114799797 0.20286034675619302 0.005393053229882393
0.9492919480950732 -0.004197774202363692 0.19846257651702315 0.004697578120211936
0.9653740546699786 -0.0006624370207389382 0.2302070604490325 0.0034841214317358872
0.8841554415693373 -0.004795223725716912 0.17251435272008836 0.00558588945806157
0.7905868472889073 -0.005923055002702574 0.18097242164006164 0.004861856792748752
0.612412432477351 -0.009075894961029327 0.20724178062259313 0.0020766944430207573
0.9633603139607889 -0.0015910512525725165 0.20402572315900647 0.004606601715161655
0.4133487382001102 0.0011357896624777882 0.18223353092515815 0.0030978794260353255
0.8227939342564172 -0.005257623473589144 0.17869630617642493 0.0043084088514847565
0.6812251223453457 -0.0071415740483190115 0.20238271167324248 0.0015715861617433525
0.797519353740449 -0.0026862188448788927 0.21067558817968376 0.0023455747804583212
0.8814448706059023 -0.003325972682094252 0.17882697497245922 0.004715990146304547
0.25895915828742716 -0.004498949052757116 0.19098362104674507 0.004180064048159567
0.9103740403802985 -0.003744467106809301 0.19179425371249434 0.004231064843708501
0.8571212075265643 -0.009844529654142946 0.18436217139669894 0.0021580270509977046
0.3957260693937529 -0.0053875959087215305 0.18475605454596117 0.003141389235008211
0.8187165113234938 -0.0086506267652845 0.22283536478989263 0.003404525573614528
0.4864898868182179 -0.002847484175173325 0.1694124360754744 0.0027176017564371313
0.891121316993399 -0.0033182011262660144 0.23269660587267676 0.011841070103183858
0.4315153615121529 -0.004392817210679688 0.1778828898360891 0.006414148813931433
0.3014467475912757 -0.007982344562985506 0.19096063158716853 0.0025541122539383615
0.35956270427151776 -0.005170007754358339 0.18270664814983265 0.0033687450198763335
0.9148522041662926 -0.007795198175719556 0.21672528012347195 0.0032511997946910536
0.5947580660137485 -0.0101888216037386 0.16810026394009484 0.0018782274611491656
0.8313142399692907 -0.007175258976153649 0.20955592258036262 0.002580648587100743
0.6151419821870253 -0.001138530371810756 0.18209346909536817 0.013390099951969669
0.7146816294108064 -0.004559541677724858 0.1778762219663539 0.003390134531441259
0.6467812477353666 -0.0034250675872005833 0.2115875385217857 0.004617647483876424
0.48330415155083734 -0.005502970746035479 0.207757050911334 0.005824145634289754
0.6713682750731653 -0.006797180000037384 0.2087645761874191 0.0013653145686590297
0.12965093882726508 -0.010127117872835042 0.21074948520205777 0.0015067913099655996
0.25555039915948125 -0.0017700024805128189 0.2159263613453727 0.0044522409542864265
0.28224069154274994 -0.006801464414499274 0.2015510659047583 0.005698935802262475
0.2958412581939055 -0.0036242147863984387 0.24029055427454418 0.006346808927531571
0.5090665664015319 -0.0014928156795767087 0.21388468558391635 0.005374138412164745
0.5286093598555305 -0.006096722266763653 0.2354394243203222 0.007755143707499523
0.21852461279033028 -0.006791437732984117 0.19792080655390962 0.004585498419980036
0.3292495371491786 -0.0009842494909729797 0.21725611584689672 0.0075238607261575155
0.35372665080302723 -0.009254758610066843 0.22646397385329853 0.0026970815666749292
0.09649763341213564 -0.003996187943502729 0.2158036390782878 0.00855744471433866
0.6348358212512044 -0.0036192097414756296 0.23887062494831554 0.00477549716211934
-0.0005309802806836795 -0.001955312021113954 0.24301826927450573 0.05499384619227142
0.33566883713324097 -0.004776094564736169 0.23845370980306393 0.005921688411521976
0.5353521536397974 -0.005977440956003257 0.23636694202171882 0.008789314398631407
0.7612954042035478 -0.006101609156864223 0.2191000598524861 0.004044649457421403
0.29181741758240254 -0.007547117865877604 0.23405356689283574 0.006439859012521818
0.34454946505571266 -0.0029446441331197155 0.20985004854821918 0.0036930999847540587
0.4561280694108821 0.0012667429350995275 0.24531666513755251 0.00956154398398468
-0.006885124302119384 -0.0018799091913336997 0.18936597017445198 0.0886023558220393
0.5958118924057656 -0.00518483824596061 0.22081661861437346 0.0016763748967778909
0.705416892174905 -0.0036879707049743693 0.24527881581263927 0.007511778179178412
0.146148368758365 -0.0024028341334127816 0.22829994394884903 0.005018911269362104
0.5011405622835718 -0.00260696638536429 0.23304664943187567 0.005763806925413702
0.5653218292792462 -0.00034168300490738734 0.231818688438317 0.004065507593762989
0.10133890702397237 -0.004399630162719231 0.22507090271846847 0.008250585723764133
0.36014799768927563 -0.005521953089193133 0.2120800609216742 0.004848322601247798
