x y z curv
0.31478976274216924 -0.005913273370408504 0.4326953825879397 0.004586668824460061
0.32571497842794706 -0.008875226256813303 0.27213653547744515 0.006113919705196844
0.34248462457576284 0.0016930615349681289 0.497024777738613 0.01892461474797449
0.3317028087705494 -0.004207493043916539 0.8338252752950062 0.019670833395234778
0.3212090321464951 -0.006890879080978437 0.9189386849305019 0.009593306131311093
0.3017855007800439 -0.0007658542549218214 0.1167443831817941 0.006204653169703653
0.34910345806197207 0.004175042377914092 0.7742744466397827 0.02064970411929286
0.3505957971235815 0.00037981682236681727 0.07893279059906669 0.017164029333555795
0.3493444714764544 -0.004711497728669617 0.8793387147089577 0.013181752636587435
0.34159349164657943 0.0005668555041400895 0.5078950008004228 0.018882509808535657
0.3461925093771465 -0.004395858825238942 1.4022365122147904 0.014562095781218221
0.34643689489731505 0.003207750990186385 0.39844689760964025 0.016467588798631094
0.34065823272674706 -0.0009592841439003719 1.0202225516301424 0.00994193079520968
0.32742757479226914 -0.0052763369252774904 0.16073348184485323 0.007352458592011279
0.29554675335110897 -0.005669901228153769 0.08154241229896822 0.005672509449586225
0.2951555434412415 0.000501838777060167 0.06894029782070367 0.005721121613324029
0.34276435103189473 -0.007059559778635144 0.37829134952566984 0.03073515448393228
0.31099064525408954 -0.004691190713513709 0.3435842173268068 0.022460610042186448
0.3159018319106478 0.0010378022301765274 0.29173674760890395 0.024495672671145365
0.3394632974704615 -0.00892228976928804 0.055549311399582794 0.006422281982152176
0.32688824803696276 -0.0002705036037691137 0.5924260738956194 0.017797356729436123
0.3347129135456294 -0.002676944350750854 1.0693328995939668 0.016664425731575883
0.3232514206592218 0.003618234431707093 0.6239821824501914 0.012620993465132617
0.3029377859966027 -0.002455402963192918 0.08042579150493209 0.007929349140087744
0.32389453491680065 -0.004898880829916654 0.736217602886631 0.007094098834454021
0.3559878285581804 0.0034042247647609997 1.6863484105134214 0.01621532000602998
0.33802527819541334 0.00020721533066662298 0.9481027561792033 0.012661720275390649
0.3189753093505964 -0.007209238240046984 0.13506311683260688 0.00836148159314851
0.3278548244010537 0.0007171496229230505 0.4339892809957562 0.007834537694338057
0.3130779201006961 0.0005699407990600527 0.23240323752553468 0.01482239715099109
0.31778329291376534 -0.0014597471102075735 0.6084654144448823 0.016206073329490776
0.3258094051952313 0.002776969621196384 0.5006993364267105 0.017001339440051225
0.31449978487159364 -0.0003347330842703257 0.26894801388231193 0.01370387148519774
0.3208298388575284 0.00038402687681933647 0.531218798476305 0.010113312411531745
0.3096301300065185 -0.0015878200553907857 0.035366546513571115 0.010107708954822828
0.3500657463718237 0.0023277291201468588 0.9210331217716595 0.010405778277786678
0.291169747807961 0.0038648797781595558 1.2155763607558807 0.0220866600158975
0.3195278492178528 -0.008127189424630624 0.8670557723725513 0.014188772034826123
0.31392776174136133 0.0038435492731526124 1.7940532223052756 0.048716767990127585
0.32159167173059383 3.286188123391206e-05 1.699240541391875 0.0278861243219458
0.28936897540636847 -0.005940645793980638 1.5056972856608724 0.01837189325145686
0.3478320166312546 -0.0018522249322138911 1.7430701589765691 0.015761930032542094
0.30770286794239354 -0.0037961751395262605 1.6552031472228288 0.03932177498937916
0.33820416851939167 -0.010381246707741687 1.6528302750473898 0.021281427608586426
0.30827671450824784 -0.005423459891474569 1.218563616990562 0.03190084512164406
0.30039947208017337 -0.003888514431217892 0.4496729658266659 0.005059356279446234
0.32712433869339846 -0.01225199339117089 1.2009834418112797 0.01434690788139906
0.29072124079929984 0.0029482903785921274 0.8405136354316471 0.015592343984342458
0.2882639506840632 0.0024915423298465782 1.0530064056567159 0.012925484964083517
0.319613596857528 -0.007695236658108233 1.060041192602393 0.01813841025615012
0.30382280997692857 -0.000301094604186094 1.3956245799702034 0.010313911562517226
0.28426452176502026 -0.0040176541926929665 0.22251882696749592 0.008042010953086327
0.29426468505276737 0.005052852801819134 1.5713665991544732 0.010567954771298899
0.3147091276712555 -0.006714542338692384 0.5947410263244189 0.010931419247725284
0.32516278955026967 -0.01118675906166168 1.4797858860398299 0.017810269192841607
0.29021502521976317 -0.007218159388114661 0.8191517753712897 0.010961599681217111
0.29928072687123025 0.002454625914904917 0.5750874126093778 0.009257536095794121
0.33703286934320587 0.000604014722666286 1.1509228232218287 0.02748932310609398
0.305313804441744 -0.00458242567562736 1.093638992576088 0.016229269347131616
0.3140727978726274 0.000336747326449654 1.2775571936155332 0.014567345247880729
0.2978211697594887 -0.012240347481001319 1.2507953962771345 0.016880086353807496
0.30108722806397514 -0.001356830543027413 1.59678685483062 0.016763717126728684
0.3368302592621715 0.0012175236946108637 1.7113311187559281 0.02009020611403827
0.28985720797090253 -0.001988352383735464 0.8086182220746058 0.010872240218917202
0.3064195017695437 -0.0023312904384550134 0.4367129010785807 0.004647627699169205
0.3175901425446567 0.003522158999014242 1.3546023440446968 0.014005691575765115
0.2942066866890568 -0.0056775069253415435 0.8831134265718451 0.021652062324698174
0.3103777876716513 -0.0039362114305358424 0.8891547809285587 0.01930127425604677
0.29068163947581105 -0.0009041882839082077 1.3268892118572804 0.01796952761728709
0.32617506005614294 -0.0024892169156688587 1.4016123587682854 0.01715721167632455
0.3070754494068437 -0.0031606049327498604 1.243207505558179 0.020597949116216246
0.32572055421930607 -0.0012788086716503232 1.5650090520700908 0.02983353789607019
0.3201593270259182 0.0003543486966420239 1.3891474373846384 0.014538704998187879
0.3000998624233597 -0.0015297129008739788 1.4482599884756542 0.02175660825239078
0.2889817372050035 0.0007016968964464032 0.9083733116989213 0.01830929839617279
0.31515025476953196 0.0016750286933725437 1.6827957457468539 0.028963173207298163
0.30650972906714224 0.0033809202278786833 1.6080423819803327 0.020334288302769354
0.30103135395339725 -0.0031897668654253582 0.5419032496093875 0.008583728420689427
0.3244495716980565 0.004002612505307625 1.3272683979236524 0.013146005455587613
0.316140598702357 -0.0011237456309028141 0.988677661479983 0.011603186683096994
0.29715249470427535 -0.0042933719031457394 1.4285350286308849 0.01479423834384683
0.31133011318046244 -0.006097512295316501 1.16747424763666 0.03230209196838946
0.3321912253907668 0.0002106979008767139 1.433175813041564 0.01355271737905482
0.3281293196227772 0.001201753634087048 1.5191122270736854 0.022226895522231758
0.29684090847957023 -0.0023916426934938303 0.9946120336570037 0.005922017954385009
0.2960966350883621 0.0031635337828127136 1.0661890168449144 0.015414705545153723
0.3429435884380885 -0.002540066847522324 1.5816141145760438 0.01919252676651766
0.3116529972416908 -0.003420802237119696 1.2885517499369608 0.005166446637978456
0.31875225070934105 -0.0018269847347868885 0.7325701398270228 0.010284081850392793
0.29172462453925047 0.0013471604066268628 1.5893215109970011 0.013334138337186736
0.3031408988745029 -0.005011494213578342 1.5329935050968568 0.012412040140549972
0.2976017508637672 -0.01116001237296794 1.6597173488133492 0.03339674095250409
0.29300317249851693 -0.003301915383335543 0.6291670081042723 0.009905825386846936
0.297926895916632 -0.003093293991553936 1.4137799307663226 0.011000857469468358
0.34206475788123053 -0.0029901491572985736 1.5675046355215303 0.02066858497974283
0.3016642357968537 -0.005257559930346791 1.73855851172427 0.01940709816492133
0.31762552133121497 -0.007000882991304162 1.1774092565966903 0.020094262558817858
0.3064746322460967 0.004811101879917935 0.6225772951246479 0.008299414363242542
0.29903730394253586 0.0013780931880075249 0.5865862858577962 0.0120110500810342
0.29419814187543986 0.0025029054009411086 0.682134356545017 0.012005376497099615
0.2903187688301952 0.0025835702427339314 1.3151116388419126 0.019206173114398727
0.2982686789188671 -0.005622174569995733 0.6572447748843459 0.007652712237331866
0.31512937248605755 -0.0026909166081420873 1.7365700069319512 0.019797085967163654
0.30231703865540716 -0.0028106372317222602 1.6275281849105208 0.02210984844526238
0.30955160883741845 -0.0021954341387055453 0.7823286122418951 0.009232097780600905
0.319466111355645 -0.007512259031699833 1.0766220240114093 0.01898506585743161
0.34187790080495695 -0.0031249825027689303 1.6671801809734343 0.023667630097408025
0.3155967014165496 -0.0003183525731143174 1.040851530081485 0.013129306973890373
0.3110770129649086 -0.002620774680995897 1.3576867245877684 0.014069309780038909
0.33027969935443474 0.002311988734209708 1.0483837442562816 0.017403247021107415
0.3300188973348203 -0.004943961354161041 1.4144171846185734 0.016381157369200497
0.3161695255916272 -0.00605616327909786 0.9713936400563338 0.012763405480810602
0.3060444832511972 -9.59230187096622e-06 1.3648835519554319 0.01711643459682717
0.30922227821473397 -0.00493262956845064 1.3933300578492844 0.009198297426929557
0.314990115527505 -0.0027018068531237966 1.5653003010970528 0.02058016185581739
0.2989364592780527 0.0025106677585106803 0.6025175441383669 0.011026314946105946
0.30932585044533184 -0.003491718940187398 0.8404024799746742 0.012756817616809467
0.2874514117775788 -0.0017207671373102196 1.6937730959434536 0.031166728747694713
0.2890044074350015 0.002382174038648199 0.09113539575245558 0.006773473671902526
0.3010228601616119 -0.004485197210272322 1.6405505549949282 0.025714524661007463
0.3259697775750048 -0.00743214451227702 1.4526562397391303 0.017448609367593154
0.2977009698956799 -0.008760452922241539 0.7561084593503095 0.0068507275380062516
0.3425660584035711 0.0025442278252257346 1.4279586126334753 0.023873004471395537
0.3340111862983441 -0.0011393978195435347 1.5257468546236583 0.02956102738239065
0.3093683335263158 -0.0022165955407670804 0.9243833120944015 0.018968778888509088
0.3087772250393778 -0.003239873180286123 0.6784454813981963 0.008539628375085215
0.3398747403996942 0.000678753637293996 1.2329663159769784 0.023765094124874698
0.29500200093309464 -0.0034850161005308762 1.4273108271756143 0.012519853438048628
0.3096081476387828 0.0013142704417701265 1.4225839895127852 0.013647818100066936
0.30006561158908107 -0.0012543527566904222 1.788300819170339 0.025196585120552256
0.2869945954998561 0.0002681189857977147 0.008044045710914166 0.02041339843103515
0.34539104962217404 0.0023364507538981686 1.3782585395179843 0.021792046226068493
0.351695330273426 -0.0054889512402205385 1.7054150581861918 0.015340067199198903
0.33507985234955845 -0.0005550017702714824 1.682424138787424 0.025079207824937052
0.2950043999027522 0.0017098292989690877 0.6740446384646833 0.009970947881220748
0.28547208128266816 -0.0023185638409690982 1.5996377191236792 0.013807043590842913
0.3136195025767952 -0.004761578184832682 1.0772663541347332 0.01588899594919773
0.31192512998595356 0.0019155699363950297 0.7123470689913167 0.007322317349658008
0.29963728345520635 -0.004025388731203135 1.2673908784794068 0.021016362378383585
0.3280234465388281 0.0014534593936594911 1.5557380221213577 0.022458423608823507
0.3148832701761713 -0.0025002673631342592 1.7730516733808068 0.020456343497205695
0.31291350867150014 -0.0037641476174476887 1.3673962359969967 0.015242674935661586
0.3011950172044226 -0.00096043091066248 1.4497623018218493 0.021371127069472428
0.3122551116411377 0.0015612168416824612 1.765487434419444 0.020067193591758997
0.32045745760164746 -0.007614656279565977 1.469474519968963 0.02608437624977016
0.32648038601247426 0.0005392704761952972 1.0196664043011596 0.010813041268467823
0.2957376209303598 -0.0026582587216253868 0.7835272310127127 0.012153448824888547
0.32273486202459545 -0.0006699420845591956 0.9951964388677816 0.009661638232207309
0.2959727306431537 -0.0046407172834111035 0.514958055219951 0.004207722516357753
0.3428649986027201 -0.0017860349020582067 1.6875643383829515 0.027640742042230472
0.33007961887825665 0.006748476582892468 1.5431475129494305 0.02166756989571673
0.32845415719013243 -0.0008059054670621979 0.9139624473044003 0.011901182253744692
0.3006931070620846 0.000594375495182218 0.9030145373623282 0.017634122929832463
0.30575141680019735 -0.009356491685190422 1.4662234194845243 0.01723829155411622
0.29226722191829896 0.0004547119918365415 1.3367353318817667 0.010520531110653606
0.35753042018660397 -0.004607091746588261 1.8025451951697145 0.03503295554033742
0.29602633220013663 0.0005130502225663496 0.4875640865249274 0.0032915571176804067
0.3023807490383752 -0.003678848935157832 1.4899868717088076 0.02279291782676962
0.3226217957531406 -0.006419763127515864 1.5763596010777678 0.014952954258231219
0.30804190422326255 -0.004435103089840096 0.7453457208934032 0.010774505368786876
0.3510917661464516 -0.002032028214627383 1.6476548953544738 0.026773385080059862
0.29452506462259687 0.002149574945773126 0.27926348700701703 0.010672966903075488
0.29913017033796 0.004232516595258677 1.084165110634258 0.01504916498830575
0.32803907248717323 -0.0029624614076317743 1.7105903565444545 0.026244334545196285
0.2922174455956201 -0.0026921577485177505 0.7048862346249996 0.0127374265175361
0.3155733011160347 -0.0033890401876111205 1.7213409916642717 0.02162789311504739
0.3253971319967944 -0.008473779469269443 1.6779556537911777 0.03134764688783751
0.2942731156195112 -0.0030792215471738254 1.1463049325999353 0.026507417050163126
0.30966348321389703 0.0026247781735063143 0.8000818631859553 0.007528501005787391
0.3138735453914051 -0.003776314648688978 1.2160050568511698 0.032887537152360286
0.3025549789377573 -0.0012745142552873727 0.9673617317812725 0.016202217816209452
0.29747390665858836 -0.004953962057614847 0.7318554497213965 0.015555456929880841
0.29876256620906844 0.0007768839641344998 1.122605728267663 0.028825352206209034
0.2952034312601714 0.006408156376335326 1.110557493168928 0.023547702741628276
0.30752620305310713 -9.423980779095585e-05 0.6399627935330535 0.0074060833482313395
0.28904606800270405 0.0023347997045294494 1.4770707025928258 0.01716611606305059
0.3279798704386298 0.004275230265705922 1.5998071274873102 0.012229708002072449
0.3331788837510489 -0.009872315520137844 1.761667151200721 0.009937673331931306
0.32068177604015324 0.0007913459727599072 1.7540625890302695 0.01627034835989652
0.28580211902857455 -0.004660753843488264 1.483457920975176 0.017141061654369894
0.3316687531525578 -0.004698287878622622 1.7500740942170512 0.016478127647814252
0.2974463747256355 -0.010061330791759152 0.951764086821274 0.014441371173535134
0.3162455044443925 -0.0010239206850964952 1.6046330238557989 0.01652106489157665
0.3050549583079529 0.001953181412542952 1.7746537272673746 0.028425228233228503
0.30656539889202766 -0.0029974580840356614 1.3908108694140757 0.009870518037764533
0.3166258359379388 -0.004082254530460399 1.5092226158341862 0.020508316673122067
0.33914302395870594 -0.00024784134387622345 1.5146160850939616 0.015598224775291165
0.2929391160716882 -0.009741155368917868 0.8896099590777617 0.01741432738788335
0.3114301165250584 -0.006486761401967024 0.8442217417619773 0.013108264018872086
0.29815049745302 0.0012185610156982057 1.614786447790637 0.022310949884320048
0.34812469889803643 -0.003722091722126141 1.7624619911618853 0.01846733896165506
0.36256448670365443 0.008332610413011398 1.786712171916886 0.02659973357518761
0.2965417549992817 0.00015459466052394045 1.5882895139539395 0.011392834088902282
0.2999891290641621 -0.005155915494681315 1.1310315792529704 0.030911547727526315
0.32154451845055326 -0.010694055920622534 1.6570829076482976 0.03433387463510193
0.3010157923036452 -0.005256658872472998 0.5580550796601059 0.010208029965024738
0.29396544475533476 -0.0009134350767229168 1.547705605947504 0.012795253577937302
0.2929670963043187 0.001884611977107268 1.1689941292499497 0.020784394034553292
0.30360236396977663 -0.0038512156460831647 1.2071635557005518 0.018810198386419785
0.3240129091881023 0.004611408472443696 1.2210264162661837 0.025079557244002088
0.2874272421290722 0.001339976393690585 1.450362955279524 0.02212706327285866
0.32712304966898353 -0.0011905304914500425 1.0959357325359704 0.014453358091754579
0.33723685327138314 -0.0007133163678814708 1.1809443005658622 0.022817604940980646
0.2876556914792692 -0.005174990198638907 0.948926182455027 0.014704130844760436
0.34101057205049046 -0.007746121452443513 1.3564941815571807 0.02043890715452576
0.30280528653605954 -0.0005330921448898915 0.8730368365072892 0.02085949262391785
0.3016341971407992 -0.00105849593096396 1.62058740956599 0.018081309066241297
0.2848530818525023 -0.0011669618530637566 0.46546995531609786 0.005617161988782283
0.3160460964979925 0.004404644737484835 1.0151431804849667 0.010733000556752255
0.34009520592218495 0.00021461471789724633 1.4024451131580642 0.013600961010144184
0.3198686583902793 0.007265077867281837 1.6331334323911713 0.017287505755881415
0.3220479323665812 -0.0017212224353544145 1.2586291290315168 0.01968128398526488
0.3220522444788602 -0.0008745394548546737 0.7056671719569007 0.00784021959877357
0.33696188792288373 -0.010067095738224001 1.7248144351201433 0.012805099147856923
0.31964724610264866 0.0028077276980744375 1.704367840004954 0.02631462419599849
0.32703282901544073 0.0022709414176300645 1.2962338604441483 0.012661509487106449
0.3210987092912242 -0.000882287727462463 1.2636070737665437 0.01977402138185829
0.3188396963706086 0.0028040529891895207 1.5193300528099885 0.017046732195891676
0.3467672512220302 -0.0031590159493803606 1.623329699574724 0.021444445193311387
0.3152165923107769 -0.0006388091988851756 1.6107776949086694 0.01806117683323224
0.3131706997180003 0.0031130913774296094 1.332204524653713 0.011244277232763701
0.31805161996601855 -0.004136269535797778 0.8051953267015062 0.010057747834222742
0.32944890742304156 0.004943554201441529 1.2390831251824805 0.0244349352127333
0.3390162842934729 0.005779418642054757 1.3034143539317664 0.015488900660545403
0.31322344473802793 -0.0018442300347145102 0.9793849148149439 0.011401038212470902
0.3278721251109101 -0.00138541571372067 1.6125764920142243 0.014201963964114607
0.3314837345672737 1.1678498438176975e-05 1.7836956876974792 0.03746439312367316
0.3044994129491909 0.005453314388270921 1.5709185960164282 0.01353464990754654
0.2799432055431876 0.0038569563446116764 1.3169397127486047 0.016611200410262462
0.2956662526123116 0.005085121987508801 1.0491223041528042 0.015710485192603037
0.29091927507710585 -0.002370733299036251 1.3613110584291392 0.0062412244395738566
0.30728262336764783 -0.0011123144329292986 0.9727352658654436 0.01332125297955575
0.29420700670634725 -0.004506861930130034 0.7179069639534104 0.012659012297431695
0.30085341297312135 -0.004736529830587859 1.7074072753467309 0.027149800974664375
0.3145970911432467 0.001919960115984291 1.6407841245587809 0.020105534096682535
0.30208082541761244 -0.0012800164309964346 0.5151880566755891 0.006356204690115588
0.29555692841304626 -0.00048602579615054014 1.1707398725577918 0.020904707514331572
0.2932710427390691 -0.0023702104228941067 0.41423868342203424 0.007101149036539966
0.34791456963361167 0.0020303101961494934 1.6389238604096936 0.03296443625388085
0.2964223855350912 0.003766862405267955 0.3291633627360558 0.016468450852501596
0.31867945245372165 -0.0042885259231029375 1.3068061049527013 0.0147306332326546
0.2989687258859301 -0.0012375721944973125 0.40198446395797016 0.0220972301318477
0.35123270838046905 0.005247730734297475 1.671004228453501 0.020592092591786147
0.342507257044797 -0.005593369110378795 1.3345974239895668 0.02043765572245541
0.30442505858167684 -0.002599337110169723 1.1499417846125268 0.03008005140889899
0.3109101013452792 -0.004469903267901458 1.0916636867813065 0.013458429347665756
0.28783471570359315 -0.0020577937020283747 1.3681988889813703 0.011894416520988231
0.3103072713109188 -0.004964942652757693 1.5825565396611572 0.009564021230745795
0.3036808210758178 0.0004203754435218901 1.6024301493430657 0.01973384018285616
0.3203458818072195 0.0016421130297833797 0.941906094644965 0.013357231864092996
0.31944673032612986 0.004675231760474398 1.1132525502665886 0.02021397660264901
0.3391233308542389 -0.0023238201281741266 1.490396927925037 0.018447929822800274
0.30328063451144505 -0.005918236758711047 0.6886937449693977 0.010077321973136407
0.3048930385220637 -0.0032146776699725865 0.529492775981081 0.009617610755822008
0.3074903012168026 -0.00020381211087500147 0.7738731335699943 0.011392584556419163
0.2968106653323112 -0.0034094362559134446 0.45038665443938397 0.005638187764098173
0.33897979309196524 0.0037898055574728837 1.6332450867331858 0.016736003027699946
0.2957508485403052 -0.0032268625250723806 1.3417643304631008 0.009909057886955328
0.31601273858203593 0.004930286624955024 1.7905308843875327 0.04850289916495302
0.30588169619749644 -0.001953936187905504 1.6681417220643422 0.03429174331899839
0.3000643589852186 5.969998059177028e-05 1.3029952985984379 0.009314256133197935
0.30365462146279154 -0.0058861824668622 1.2485435228206623 0.01866458937624949
0.3212693819391359 0.006933781339196209 1.2426150678739247 0.0168908248321655
0.3215733306491218 -0.004942316395727003 1.4872206790040376 0.019361554752370655
0.29690527186284066 -0.007479428946479045 0.35846256623308065 0.02526967600202634
0.3196947727900989 -0.004421599522448831 1.4219946708579982 0.013539480089375456
0.32738813726451205 0.002491826913031719 1.159275650837172 0.022264247814956988
0.307111474861948 0.0012095041525494303 1.1236388895075144 0.0342217763364798
0.31864910723907647 -0.006205118911960419 1.0504697770829599 0.013694527420922562
0.30219452720913326 0.0010912288353809045 1.0680148629126092 0.01625551484233117
0.34761177002022814 -0.005877567782166075 1.512951890453569 0.013843196538660446
0.3068013667003987 -0.008933765800464954 1.1427623693147395 0.024392220893487755
0.3092348539178832 -0.005818223473338032 1.626357949439117 0.02020433542390002
0.33676822808756784 -0.004247501277568517 1.4692019575116813 0.03475940547556022
0.3404854460477102 -0.0035822413974843197 1.1965091335854192 0.02500386388809288
0.2947436768025312 0.001890985285138736 0.30860029152492174 0.028371756990812517
0.2970515284155618 -0.000862820424636476 1.0238780935164058 0.011011929911405578
0.30366220805358546 -0.0023434933834587876 1.1909705605927117 0.02081645828194128
0.3088388394857895 0.00014311569790442026 0.6523901401065256 0.009854754582115986
0.3068661552093362 0.0027820128136828055 0.8151611307243046 0.011000344789778646
0.30371433602138276 -0.0029716899111200345 1.2196707405367477 0.033081266571669675
0.2892750525472673 -0.008539903413647533 0.36331814040700194 0.022166947929007492
0.29440987332787616 0.0011520146763316513 0.8654950770288043 0.024823532017826378
0.28687264714474764 0.0018856898868875494 1.736736635686325 0.01807375884543504
0.3078478117933564 -0.00014803095353958727 0.5053191751901835 0.007529627236354133
0.3402764295429303 -0.0009946790288595379 1.7842162121502712 0.030243421477169706
0.3123695491153451 -0.0026267311426336295 -0.008303140074831922 0.010230077001279746
0.21509045767057994 -0.0007719265721907874 0.7183711254557575 0.01455100979368906
0.2183436926478159 -0.0021348753196458094 0.6417231885402617 0.014665904225568478
0.2186422671321723 0.0011875538018701775 0.35651896718795967 0.006799911223623945
0.21968934114712338 0.003289207617885864 0.5691144508519757 0.018373253552472782
0.22085242771721952 -0.004940464775991253 0.604485706055894 0.01810106140288651
0.20501671997175133 0.003645775802937341 1.3285549575874567 0.02109562043805418
0.20853196294081972 -0.008417176514368631 1.7166845012998775 0.015309031750768077
0.24536041268574257 0.006448591706023608 0.9385148266559362 0.023139957110770683
0.22445455572023137 0.009140955120755797 1.4346404174053375 0.027912741035816688
0.22982058378260165 0.004116883726819548 0.5435743006287252 0.007964166757055864
0.22779523693278855 0.0037213784027828236 1.2060607262506595 0.012963096573784583
0.2452004273534079 0.00010564274276120972 1.079369955755053 0.011576596244160171
0.244829580600929 0.0016772601974102495 1.0069373596570454 0.0111226847594588
0.24964383072739166 -0.004564727946226553 0.5866747954814399 0.015837759747884816
0.2304842219044306 0.0019493111937703561 1.107340554878251 0.019682031886605795
0.22052371474226004 0.0007383058681759529 0.0470635956177493 0.006161761718670061
0.24496271200028916 0.0040266646644290935 0.4515022507050689 0.03385726855444132
0.2206048461115424 0.005295139577605583 1.4722960778474845 0.03342894024223668
0.2232900128105831 0.0036465937148149503 1.7358320981400168 0.02361136688562099
0.29300702314947985 0.0026397377519658885 0.5834490433116577 0.009324946960800905
0.2813551972976025 0.002434361827743939 0.5342440309253755 0.003424217784334103
0.2614264678570101 0.007127146171549458 1.5953064089756022 0.01748081853370732
0.26616290842917933 -0.001535190703694976 1.7984748661105914 0.0437678610419269
0.24121101748070306 0.006378018420526153 1.2604721616895846 0.022232925937771875
0.24147542964972862 0.0016240339668287807 1.6322382797355046 0.014265275062534012
0.2655309462565653 0.0043712145341243056 1.4853668230280108 0.024705202876883898
0.26881972492526945 0.009863049309645069 1.495098108657802 0.015779667448199423
0.25142367941841937 -0.0001979693939982083 1.68507542581907 0.013709836370397637
0.2273923216785809 0.010686863069302712 1.602924864225325 0.024902709218531154
0.23545473320910507 0.00011384339157974668 1.5874718749125687 0.013215065487519856
0.24584486663567146 0.009239663779221566 1.6133371898852291 0.020259730550534368
0.22848599967693076 0.0013543629826223702 1.7021591107450214 0.01777133463757346
0.2698500496333378 0.00032237866846948106 0.9574036724849931 0.016672708875156834
0.28142575251848784 -0.0040825726598974705 0.8512567773484186 0.023623243748813885
0.28404407114398855 -0.004105664303205416 1.7994820613981197 0.02458435544892247
0.2811116506004986 -0.004650663700042121 1.6833746258823525 0.030295032665752328
0.2865133034824573 -0.004392337537335554 1.2518057792782893 0.017748493375185737
0.284707307047403 -0.0059029175365661445 1.0078222954272962 0.009740546302475377
0.2846033760790602 -0.0008665030497775296 0.4671596398463522 0.00326530467218535
0.2830223486266596 -0.002512887303880429 0.9604464669790052 0.01903484521884752
0.29253674052645406 0.000515815336208641 0.9374013389037844 0.01545110855603014
0.29371550648552597 -0.010128852128583447 1.7172573651633782 0.01880495703593171
0.28462340449032864 0.0071901784284658385 1.1554525950917762 0.018248254838166045
0.28344514394879217 -0.000494403382404039 1.1760292341120342 0.01921693869461723
0.2836482861960971 0.003459631620903013 0.7478749429614827 0.007484787959378722
0.28778321989486466 -0.0010277519337645977 0.8321054570969161 0.019388502978762105
0.2828551443843632 0.0003024224779709416 0.7750888259435902 0.010815522866903295
0.23039451466814517 0.000610748152642092 0.6312909849980168 0.01693085357158102
0.21071219493540116 0.0010323826278675814 0.01245441092037491 0.009844771679201255
0.26582741370784074 -0.0006799713551548537 1.0335658555975675 0.010201193606421213
0.26231061576198417 -0.0006821185420294429 0.011686062331892521 0.016468365379662613
0.23544625872775166 -0.006549327242217288 0.1111271206871505 0.0016458016458885628
0.2584286448655705 0.00013628965545274096 0.3258607866522672 0.017565126843520983
0.2622058228495432 0.0005357284468261743 1.0478284048177129 0.00949973994921834
0.23430423029924272 0.0002821365676015796 0.019214019091546745 0.0138444264513123
0.26426783795113973 -0.001280143084559436 0.4993285653525584 0.0030823270808987956
0.2503571081852396 -0.0016794426398336337 0.17822834305949406 0.004129499861287116
0.23058466076156686 0.0006276743357879933 0.06394229443995383 0.005604556140480459
0.2748316419326438 -0.008032055576047201 0.9834948685271415 0.010657798516212144
0.2759928093746745 -0.0012497973286687602 0.4923463565479168 0.002297389948988525
0.2687424588316618 -0.004219299104883669 0.4626967367585234 0.00870675146123656
0.22448890229456803 -0.0021447785250301725 0.08948179762978109 0.007313678908869159
0.26080285891935223 -0.002010114525395558 0.7049811804946514 0.011732793510678678
0.27125413596634546 -0.001682231251375166 0.3273986021145394 0.017752554900797027
0.2616276208418557 2.6521817847812394e-05 0.14267659959956291 0.003728922321570583
0.24528545914548483 0.0010961970528590799 0.7248453654453113 0.012579860977460985
0.28107763594062657 -0.002510159018735745 0.4904460652140468 0.0030084357628475137
0.24894348111966197 0.003114271633048454 0.3222505157345391 0.01165240167970377
0.2808939895038137 0.001003864169083919 0.5743370765484179 0.007714062711563398
0.2791655006687905 0.0002551633985686729 0.06449546538066778 0.005299641733532264
0.23785388191891083 -0.0038858833211363308 0.3914260920859386 0.022417580303738697
0.26533992840469056 -6.647474228460362e-05 0.8356321116302368 0.012117357116819898
0.2744749900843566 -0.0015792008476503317 1.3386128457058597 0.011921398041611431
0.27789198509477164 -0.0030727248581493187 1.2450470565407399 0.022947597927657343
0.2739770406147969 -0.0006663277734432175 0.9926656512778527 0.006762620802302446
0.2580995916699085 0.0046892928012942535 0.41876076399792594 0.014287874328049652
0.26062454712432476 -0.002647643651777205 1.0789618122632112 0.007921062774184622
0.27305211208832325 -0.0027465173070794604 0.20454778461986067 0.013039192703635825
0.263036567028319 0.0007033859155858485 0.5302185488807021 0.0067298700404942475
0.2506219968733162 0.002158643874833103 0.6790034614300137 0.011887054540573518
0.22712973141237175 0.0019612404646293454 0.026878801285191205 0.004773240590155265
0.2659915203525217 -0.0028880598363600946 0.9987456462289435 0.010513794893819827
0.27017962460100886 -0.0033584827237567927 1.1686104843430902 0.02655558104189458
0.27503341293797307 -0.0009526011960080555 1.1908064132566272 0.018129484336568535
0.2623023266100759 -0.006153410527818735 0.17563570933050232 0.005779205193726451
0.2610159590755677 -0.002878627505507853 0.9574919719358753 0.015263143540722555
0.2720046580758857 -0.006388178494175346 0.3066213265033727 0.020798231704677633
0.2482582697947056 -0.01001155445567706 0.7469804017189084 0.021179181099142814
0.2272054673102964 0.0016440630382078298 0.05230885789358962 0.005702377229541057
0.2406402725762389 -0.002700119612993262 0.5000583048855987 0.007088295179726107
0.272362980017618 -0.006234670402663502 0.885448041426492 0.02126244017588264
0.2721016098701199 0.0021626683348623197 0.082921947633185 0.007108492748058801
0.2664009565305975 -0.0014630452598859956 0.6518906260844805 0.018681889542604566
0.2879934003034971 -0.00029470593135220156 0.7825170864073074 0.012762288762582343
0.2690430388123411 -0.004150913852789738 1.1806073565867867 0.022021907110949937
0.2613796916249473 -0.00046506954502932774 0.28917783692529514 0.016729114260010995
0.2503669224083746 -0.0028921330761301624 0.4717046550140187 0.00807804703492406
0.2639360992593567 -0.0033504446412477157 0.5093603922326615 0.003627347888355292
0.2764847270842799 -0.009856656583350644 0.9491520154358143 0.017612555211004216
0.2580244730348481 0.004374455288757341 0.43732832901406604 0.02399366038642159
0.24210643935993853 -0.0005261225881369989 0.0537169395459425 0.0034768205944403275
0.2463343981588545 -0.0026993483857853896 0.15553347868013329 0.0036471054655138222
0.2503280496004367 -0.001520168915325305 0.04397130986383176 0.0046655981079308856
0.2731500475526036 -0.0009004888681751323 1.064013833386433 0.009631520788331112
0.2584519038373257 -0.0007720278289056787 0.9605830596742843 0.014455780150493716
0.23689313953354155 -0.001412654935128787 0.14135723530514593 0.0025331072418896617
0.26104318670556914 0.00031929716631842275 0.8664859363562942 0.018144406689882705
0.2590004056303601 -0.002609063002697745 0.606462265516794 0.015255730666225835
0.261639348310085 -0.005131295655204328 0.3697168987670474 0.010779903984172478
0.25037602647135965 -0.0019502994054954464 0.3425541640522062 0.012658595907283002
0.26190148705685307 -0.001632647478748195 0.02952239329338658 0.014476023000896772
0.25761916494523623 -0.0029287142862901177 0.7766670708259146 0.013033754237887852
0.2688601683899174 -0.0001604100536892242 0.5112043534031823 0.003954289138629494
0.27863299403917935 0.0008405866809510414 0.6134588414170116 0.014441405388529149
0.25928094816215014 -0.007371742708347241 0.26451698091599357 0.012092901963550716
0.27026160242884667 -0.002825403676115415 0.10503985487377965 0.011169083544457928
0.2623079063817767 -0.00040833721538639735 1.0658864592511528 0.007599030814380876
0.28128901904129244 -0.0022045237433736087 0.15757936779297962 0.007149256080376635
0.27674345226192604 -0.0014878099055071928 0.7198079739218777 0.011862407330343657
0.2655538887008899 -0.00245571482035191 0.0932059227396732 0.007289890907396379
0.2663176991870193 -0.005227153326918179 0.7590518053299493 0.016244091194146704
0.2756612685239622 -0.005931609504213204 1.3832351938619147 0.010971779863280118
0.23762135895038836 -0.0011119679831082887 0.15429961751625013 0.0030558337874810187
0.24726153501681367 -0.0031997937948671324 0.5160533219173034 0.004247432820910864
0.2571299659897426 0.0013764162039864886 0.06555956410934678 0.004046459527759241
0.27394349611722446 -0.0015552337297422458 0.19627428124545918 0.01751423352695901
0.2812734214697597 0.0011316798192769852 1.5472953357501775 0.020789517023923083
0.25394234874222366 0.001986254884494942 0.20618156827420847 0.003412783630826249
0.26512073478285375 -0.003682909666476751 0.554651565853695 0.007049634207132515
0.2780606666115193 -0.0045337867696098174 1.2752984348012306 0.01104371949151695
0.2781657490768024 0.0008673908595301489 0.11222693502957674 0.008093597292508036
0.2753094769615141 0.002377697356317489 1.345859955352917 0.01529106706856116
0.2812748526555089 0.0008932890715256131 0.41416102262422316 0.010213363954083298
0.27153866958827877 -0.0035517119591156384 0.4404988184420633 0.016764408943115833
0.22263138023061388 0.0012339427977762383 0.3156711974045075 0.005216482601343606
0.25112917459463746 -0.0018354336265142953 0.28712118507624235 0.015054809671641738
0.23534701328772242 0.0014614150344878691 0.3352692064395447 0.007589777245235657
0.2753978183171562 -0.001621707255054153 0.2614104603204359 0.013721622798921489
0.28447410503078346 0.002888743990056766 1.7063845409197427 0.019702668721952834
0.2742931696315269 -0.004620462883949121 0.5756214590599166 0.006691589727555344
0.25729178132873987 0.0031055282000694963 0.981146166544434 0.011258931375647792
0.2767116478669006 -0.001783542741948033 0.799762819297986 0.008434433239938538
0.2262574826682424 -0.004905309634444242 0.18335675973318868 0.007054731851940521
0.22925917365856396 -0.00451736703968545 0.27350071143686255 0.013262576029086962
0.2596568961317927 9.124678964028072e-05 0.08465060248178466 0.006120289293915231
0.23976277738574608 -0.003608212106164991 0.0689238010982402 0.00223577397022809
0.2546628543422517 -0.003996409635953612 0.38845550292569203 0.0063150790246097955
0.27501966046809784 -0.001027231093478367 1.3258865194294194 0.012446129131912377
0.2720854372836501 -0.0001588394742129818 1.4001242639078817 0.013485027988377049
0.24972673294474163 -0.0027099783060821076 0.10794565282430289 0.005122915760542677
0.23547458839030355 -0.00138377815807249 0.31963828986179865 0.01228663968099837
0.25433624591342807 0.006908384639998789 0.6391154171745141 0.012763168575908477
0.2788313271949581 -0.002987812186176457 1.023809660250365 0.007400131428996202
0.2767968345569399 -0.003014210782251839 0.04862424262823255 0.005496551520892344
0.2206395211482814 0.004149710963532965 -0.007801202154015632 0.01346560182214574
0.23643213285076053 -0.010764761240066732 0.257461021728087 0.005365891083890996
0.24793929269135856 -0.0045337855201828745 0.22869357336365168 0.012171278480092463
0.26514042421933404 -0.0013364657878328983 0.6084636662688337 0.017440687771614165
0.27867726779468743 -0.00087389880189575 1.61789226117887 0.012375560903594504
0.2782319393458332 -0.0003052547615356141 1.115065702858284 0.019893564301821404
0.2717479076549523 -0.0031144959221445752 0.5918805640370298 0.0106133606054796
0.264692139030521 -0.004577016872840569 0.5531494965901815 0.006731268134408461
0.28020433452469656 -0.002784043891267112 0.3531545237720061 0.015116790223071178
0.27189624325792455 0.003674290709664456 1.1496662172853649 0.03040899922769177
0.279320963562277 -0.006759194861937982 0.2214580745118651 0.008125650202585565
0.2685339385542018 -0.0006834303142932109 1.257208454007361 0.022874418804851405
0.2704267123314754 -0.010565357902355724 0.31736835319880446 0.010530462545604281
0.2753945704257941 -0.0021485078711115874 1.0170013725502356 0.007469297318919805
0.2812889907985829 0.005810847629475681 0.8675251391385614 0.022259824315163924
0.26326026399973756 -0.00657382988635013 0.8001996252541888 0.006130543060025631
0.28227008160913025 -0.004836423470903803 0.17419116929546036 0.009794049806423816
0.28306756692695295 -0.005150991904489675 0.6013143584150803 0.016492378409238534
0.26596535112370856 -0.0011030256468419605 0.18798762479405134 0.013223457052991912
0.2774426615736751 -1.542559571323209e-05 1.2316451467918823 0.024554069547775666
0.28009571749269835 -0.007173092514185742 0.8359119526120254 0.013176134949081484
0.2746277497767712 0.004733636199543845 1.3029875946996445 0.016390717635457568
0.2520016235374768 0.0064082625422213525 0.8780951576705015 0.019590583668897352
0.2552184423551172 -0.0010660819695107982 0.8143624657520068 0.007577392083800167
0.24505550095235504 -0.00221351252512644 0.5288191804671903 0.005461882499399105
0.2707782695986055 0.0006501735499373383 0.658737052525064 0.016641326843075097
0.2850632038704781 0.0015922611246968557 0.5315269224578375 0.004788877352183987
0.28166095222331383 -0.003201466428798593 0.02166575766656747 0.012920905066658288
0.251312558159928 -0.0061018989885578915 0.8409105445811103 0.010985787028338656
0.265003146074184 0.0022975772647803347 0.8942955730423054 0.028265261104754143
0.2696171272419177 -0.0031468821361424516 0.15435941501414488 0.0036469653350374278
0.2708034334689491 -6.108535127616814e-05 0.3560796233865254 0.012309212432435466
0.2852465689156853 0.002510299790785534 1.5236665944220602 0.02291768200988504
0.24588249360067904 -0.0009118856420882453 0.5610480963225001 0.010170132273444446
0.28111385425462937 -0.009285031500590953 1.206400101771286 0.013462195306114462
0.26760979598775086 0.005120661565382968 1.2315219101113097 0.030730983651876476
0.27824300050791845 -0.005917917650815865 0.7166161330090006 0.011893010476607091
0.28309381367775105 -0.004676548886122445 0.4322999276719003 0.006421484498989426
0.26174324140503413 -0.0013906988279041 0.8390302533215688 0.012734566801863401
0.28674859529988694 -0.006220859038887484 0.2697271702183029 0.011231041180442044
0.2703833216405887 -0.003038373412697363 0.4672386355641336 0.007569192521184391
0.27427503998711183 0.0005927868454296966 0.6269913943050358 0.01662654045960135
0.2750403839254934 -0.005035104482525504 0.12810658294122332 0.004034816765515986
0.27028140298034226 0.0005542533910159589 0.24448401768371592 0.014661045483434988
0.27579530617726034 0.003481510429142895 1.463435786693995 0.027061098936608467
0.22922619867394828 -0.0033053708541897976 0.11645786020942882 0.010367538218776758
0.2473609372972667 -0.0034583280968999474 0.8090114415437372 0.006082862576427557
0.2683442205892043 -0.0033226913026596244 0.7732780152056012 0.01336257681347327
0.26710825635072677 -0.0051638119961077466 0.692002127201242 0.013872525444720082
0.27965616456242537 0.00048440975303915495 0.8215253867378255 0.011785549684250144
0.24489561106422314 0.00019341583468267533 0.4367873258970654 0.03042113832150022
0.2606215054407013 -0.005821003245455566 0.12339944543642992 0.0037625613883179553
0.23114558606726682 0.0015363428707835189 0.03341528085484122 0.003962905551823002
0.28739281304449127 -0.0006869641593026917 0.37762371349978235 0.012360098931993009
0.2571495783203146 -0.0029358161437191984 0.5112454697874778 0.0042868443699762985
0.28393981723785233 0.00030317300823102237 1.0333688493298314 0.009840064782095185
0.2774536205218856 -0.0021766576342577898 0.028033132281035603 0.011777137464011902
0.253209901938711 -0.0037272559817683997 0.18646882603876166 0.005018225201041869
0.25090606187417663 -0.0013353381056141447 0.3840034337398431 0.007235975850606089
0.27158341137420305 -0.003700135306990558 0.5591349327381764 0.008033325847803379
0.26809095413746814 0.0031853461429397095 0.9004780202912508 0.02480850461792457
0.26040895279885345 0.0004014067726767435 0.30650832675174544 0.018340772752543023
0.2817875091590617 -0.002412028521063351 0.5492676352275228 0.009652018957984348
0.24801426746839966 -0.006699149963042815 0.7045666116003663 0.018845701756542665
0.21909102979721293 -0.0006584315762527687 0.07632118522133938 0.00808898597891721
0.2614351885049917 -0.006240179025970409 0.7443682128095097 0.01548185193057893
0.25527615980205415 -0.0033281333807607147 0.9013901156960421 0.03235567752300547
0.251944591592044 -0.007195510323674025 0.6621897960817098 0.013089104874106925
0.2582523467536732 -0.005501553630451573 0.4814780128909749 0.006868029870516831
0.28371077878309875 0.002298778561284815 1.435807139161997 0.022874645056505265
0.26981636877257115 -0.0034094764429179066 1.33117032465579 0.013084154576515045
0.27086495588204546 -0.0005662882071469677 0.24935610043155823 0.013999115432178296
0.2826511364447642 0.007982699426249783 1.1298954057711164 0.02834015256986402
0.26958019952480033 -0.003575037887940965 0.7873896692305518 0.00841941742308169
0.2377950829307678 -0.004069760854853881 0.21640798765772762 0.0054564464359419425
0.2230991730958171 -0.0022166316211132014 0.2298347576989657 0.015003820134685118
0.2584910905120174 -0.004342931757220153 0.9927372796496424 0.008304390933378043
0.27009058849408735 0.0015610406048032158 1.2139554961744796 0.024256333360715036
0.27307195030931325 0.0009814204034079002 1.0893334904511092 0.011650284518093992
0.23548568713598583 0.007025268175496729 0.29750082522332455 0.0048592244863287426
0.26933089685546485 -0.00099622768699297 0.85474638401288 0.017756675791153642
0.24622932154181273 -0.003011122763911449 0.34522306186541774 0.0130815191409209
0.2765765029428407 -0.006318905362899541 0.3448756863999568 0.017544739307664644
0.26577577548542114 -0.008215049508304189 0.6837832144013888 0.01041209420680599
0.27327247477467265 -4.058925668333022e-05 1.567054805241291 0.018835638705321303
0.2794370218865294 0.002482294659893645 1.407627392517658 0.01058553772443943
0.2657009505511275 -0.0034368955857912538 0.21184393682284508 0.011200571996677065
0.28065045029046176 -0.0002710197919897819 0.6737673304651488 0.012648382138551873
0.2677212474180786 0.0014623176739340324 0.8712207615951927 0.024223816911359615
0.23378140957163915 -0.004403822647003438 0.3941878929856429 0.02229808754031337
0.25704013210170445 0.0020077520706371496 0.07268232930837558 0.0038151572151426515
0.25882698511877533 -0.0014106359978968712 0.9063676778664547 0.03225156067072105
0.281889325892866 0.0017870208031137067 1.1057698988456854 0.02055654386013207
0.2717217006416301 -0.001146420779464869 0.5295065708524389 0.005229891749336169
0.27532368777811606 -0.008347454133572834 0.019217489191024 0.010500685105275707
0.27661401794904233 -0.005228686038768422 1.2855427735792508 0.015365807375693591
0.26998018400849816 -0.0034296735764492337 0.9189323228025326 0.02737843340520279
0.2827974759448085 0.0032730511308124532 1.0531501778013415 0.012709615404143991
0.2424397026169373 -0.002827290226087163 0.008534467496035095 0.020436801990043354
0.289312911083841 0.00045925102506829546 1.6198526874770496 0.016634309774494645
0.27579948051693237 -0.000818929130714026 0.4406382293799612 0.009636382681481082
0.26104515939856415 2.3967517255041607e-05 0.9395937347500553 0.025528383557790506
0.28159677353814255 -0.0029005726383009483 0.15061638441966563 0.007718140297285189
0.2576615816490516 0.002758127288961766 0.3999919170421024 0.010309297741010203
0.256054186415759 -0.0038487384117514784 0.25478575510639756 0.01683499524951889
0.27821050123575974 -0.0029776094754597683 0.3886746574771997 0.010973273952926247
0.2463835174870456 -0.001182483665443953 0.6953897626506523 0.009603179839208997
0.2528644041283782 -0.0046184295252742315 0.5734873952703409 0.006718393454965684
0.2506028999024617 -0.001406693715546187 0.48392207217802946 0.008782645630852143
0.2832763126656482 0.005712575685792432 0.8975374967427086 0.018597536547617994
0.2593245061533983 -0.0009500236239726397 0.6514107805812548 0.01571748340472151
0.227124653451758 -0.008656928406593203 0.6173530899823996 0.012069661047433212
0.2480360177768695 -0.0007023332848517415 1.016393310798426 0.010151081150843766
0.2764157003427223 0.0015668371762012788 1.5945466239083035 0.019775019543885178
0.27376770913753024 0.0010389615482910574 1.7739767102646047 0.026006507739067163
0.25030358837711486 -0.006001644154116082 0.9319741932427209 0.03454119072140189
0.2515947441381796 -0.003972412537263039 1.6243559207017984 0.013656050292245364
0.2559005226927504 -0.004330776470357885 1.6395083341497556 0.019358772223138015
0.23310953673875262 -0.0048870162246047715 0.8680029852223622 0.014341027129886073
0.23914605572486936 0.001996435663865089 0.9598617546381123 0.013498469780843075
0.2538664482293601 -0.003971382989858428 1.3588541803168843 0.010500085182202367
0.2870966161952339 0.003495990750318888 1.7760975826601144 0.025372538947383366
0.24724637136486907 -0.006562533570754584 0.7616965699270603 0.014101132024522303
0.26525830549987645 0.0014727819539172324 1.5275514689667562 0.02325347674564901
0.23387864169959766 0.00993451671732277 1.4884584134657193 0.02038179930261874
0.23596547438201998 0.007010524478593325 1.6203244949746423 0.018744450853055837
0.2380943652652867 -0.003321415161377296 0.6717055629138342 0.014710451772617716
0.22887701895279317 -0.004978504493860714 0.7691955337123958 0.00937641192421435
0.2538966013382869 -0.007930487295079839 1.3373099051335087 0.014527892251260516
0.26897464057986725 0.004576460103712744 1.7443921795283686 0.022856891612167658
0.2571142773372063 -0.0014767197467592825 1.1396643137945741 0.030531226362278997
0.2748272448053593 -0.0007733970341093869 1.627763643291991 0.016055837214582508
0.2144725131713901 -7.37295881463717e-05 0.9845434451971642 0.015610876126948328
0.2539657035095403 0.0002831889359836731 1.2854746951881488 0.04114680873448143
0.22075906881516463 0.0002212185726647425 1.369881126957419 0.014737784824087033
0.21732980953870723 0.001589441963282089 0.7670554424717045 0.014478613263758723
0.2688987195580922 0.0007366369591238006 1.6078157680459366 0.01865882543185889
0.22600552066521792 0.001597165966099538 0.7800451992657521 0.015919986741116693
0.2608409890685261 -0.00027637177896202284 1.2380734674761742 0.02780068591536536
0.24130540677139106 -0.0032163134894225304 0.7033137345970578 0.015087039073375006
0.2318377619224528 0.001406493894213715 0.8220561385351461 0.007616059125839511
0.24238489740932143 0.004651170991567174 1.0643479211671374 0.010033123193890716
0.2355609550872618 -0.001932769803835685 1.1905233105884987 0.02369859064893673
0.23550647520762474 -0.012859923632040741 0.9173888794760765 0.034748837223248334
0.21971413173033635 -0.0005189387095986996 0.2898262692609887 0.01582494273431491
0.22935357668092363 0.0008220567628556046 1.4775239940191538 0.026393831061073403
0.2229917862736559 0.003802276317449686 1.3335365500549679 0.013228116750387445
0.23438190415685362 -0.0037692653037307644 1.3755121257114211 0.017245216643595622
