x y z curv
0.020728537237859085 0.06306027887251912 0.2987398894348878 0.0940905246973423
0.41539199438143165 0.05731205768040739 0.3024269300410859 0.00041183961409819715
0.050466403772072024 0.06634137764737962 0.29767779280522677 0.007949203944047294
0.1374194523765301 0.0627470923305373 0.3063638585882259 0.008765759960368732
0.2842344511552041 0.06416039295975322 0.3036343070418617 0.004953197959350939
0.8725866847288478 0.06771804264885853 0.3089019783277308 
0.47705638072842965 0.06590009558733154 0.2959968659739773 1.1999648035514358e-14
0.007172066715055955 0.06667980871580412 0.29007241847843623 0.04839734587639417
-0.004216895250237571 0.061890515624352445 0.24896093156601273 0.015070703873206836
-0.006387560355017254 0.05362300067740686 0.05823800461427845 0.005620720661375452
-0.005855443585252551 0.059394603771890646 0.21148771629311058 0.008626563436324274
1.0075196586116066 0.06071056274347105 0.2355540050557016 0.006549244224923415
1.0004611347534196 0.05855217078880322 0.16629718233182855 0.01633024370694497
0.9998605074980514 0.06722232908055721 0.052179264119528806 0.020113390150716566
0.9930356354691875 0.06607703058702791 0.19961361653691956 0.021795685990397464
0.9998120034210481 0.06251691164922125 0.12477745313837492 0.02011129007251188
1.0018709273049742 0.058216844031056585 0.05760924948258977 0.010363157761853238
0.9937530264725274 0.06287896411319747 0.27997184492118704 0.062163623865628265
1.00021835967537 0.062495862019913785 0.14611048332727689 0.026190820053056486
0.9948403984317635 0.06471692838405732 0.01069489114537906 0.11769959482378398
-0.00044332077426276813 0.06135141206138228 0.02981441241990827 0.004956503342720671
0.0013427724393587801 0.06471267340711102 0.15237582231654428 0.009888293653815747
-0.00336272232181731 0.05683512351749188 0.051363069780375914 0.005886876150113208
-0.0016096219397004662 0.06199793171185091 0.09724326574420894 0.0009915442985300397
0.0031872470013024875 0.06462111462256041 0.1613846088660434 0.008527109542386235
-0.0024752805116262182 0.03147180397204667 0.3098717788599631 0.011926874500888517
-0.004297169836563661 0.04365721597538591 0.20203628076969035 0.01862739728779739
-0.0033862514833353273 0.055014850706719305 0.06935812453722219 0.004612141201800573
-0.005966317304475652 0.042983264798097665 0.12609727671186347 0.003951606337773856
-0.001873120616792363 0.06969562569977217 0.07883184446921679 0.004493213025204243
-0.00335615662936958 0.021162104735014935 0.0687026412930437 0.06852086926086859
-0.000566619282710952 0.024994935718333184 0.07715189954426264 0.09122741002351874
-0.006260236660419828 0.047957047399325756 0.031240097356054507 0.016417008869334115
-0.005638194791133815 0.03377891008719928 0.05104303113134281 0.0273328831112515
-0.0025663540383128016 0.02959683672360472 0.1415553185604482 0.05491787083289112
-0.007313527711575789 0.02613755907043232 0.028403983622776862 0.01315530446686197
-0.009821817092118861 0.06248672813606037 0.23244649595854683 0.009090560906387275
0.0019563956846511965 0.06599473957225907 0.2726195803777843 0.01910875163548111
-0.003860763339369163 0.05626743099269873 0.14568525847016686 0.007160960206368334
-0.0032061126181854435 0.03702387900094468 0.07700812665609447 0.005092520216644849
-0.006578433214136954 0.05116674115564902 0.04579214918470796 0.004964971943639551
-0.01647356457539214 0.009367414487889716 0.046718317352840086 0.024309128015764476
-0.005985582788033549 0.04130255032565419 0.10319734885434464 0.0017435543134528913
-0.003497124303581884 0.04795595719422034 0.13998909644721105 0.006470486963967247
-0.010052091961043525 0.012252399951794663 0.05610443457848841 0.1070655881168662
-0.0031189726773577565 0.05600254392461734 0.17886565674064747 0.007183676662066876
-0.0034457640776829478 0.039844269255924894 0.08865069659124686 0.004823484677741405
-0.0009606275739086712 0.038630738136084995 0.21300338237194139 0.01943835618342079
-0.007943852747015095 0.013252890069754567 0.18980967671786375 0.037259027229835706
-0.006847480003490141 0.011439702389455875 0.06452826114627111 0.08603650318906109
-0.008368939407692568 0.005104597514620734 0.15711735900743873 0.04787953297677303
-7.889536893704835e-05 0.020891527358287372 0.2273017033621623 0.03833910243982426
0.002924318710460556 -0.007970160211158421 0.08687099845397452 0.06156356631794304
-0.0026524106205184058 0.0013073193055506416 0.08848985826787362 0.08665231716153593
-0.001829463007639094 0.029892318437223075 0.23099835268283933 0.022923447918514504
-0.0018822166657252672 0.0062323850528549765 0.10082055441813707 0.06871514461044036
-0.0012264121800622202 0.03622015607795893 0.21086960341993852 0.01952950636351183
-0.0008835746868889387 0.009331475520029971 0.21720162916118385 0.08106764408172346
-0.0056540013791224145 0.02979098195579379 0.2600102736250371 0.015270340769802139
-0.01133382389033286 0.011557958760099858 0.20038696922313137 0.033369168108645035
-0.0014520957613731512 0.031510294240628615 0.21104032064763018 0.04218681411300445
0.0018246015297045867 0.04271147997564877 0.27484625404847196 0.030804871739451786
-0.0020489926080417037 -0.008692268344019047 0.021037589868065847 0.04739090218566011
-0.0027051078804133217 0.011904963680455218 0.1286474090272792 0.0716125109000303
-0.006412163628956953 0.03300890682708962 0.19778677358143787 0.030775101189095076
-0.0004655902207629808 0.02506164704830419 0.23743607919927856 0.028519230118516755
-0.002349351622745207 0.0079120307087357 0.2559331554836287 0.03674125061838449
-0.007515576217603329 0.03917080237465655 0.2611005700893971 0.01397997129936193
-0.002475369274220403 0.01923413499778299 0.20985574664421908 0.046156166191291134
-0.006625418637952979 0.02537757151739351 0.18980700570469777 0.03828485213319309
-0.006255436271510957 0.020820056059632108 0.1368758350667117 0.03366192465511171
-0.006876769676264755 0.01859894448347498 0.28117061014570444 0.03209730105294042
-0.0026438126694817246 0.034551936844943516 0.22902820758398149 0.019981592051943612
-0.002218979823121088 0.031896369022668805 0.17078366800326758 0.042733460929132584
-0.001170562103911468 0.006161307515408593 0.2392743217229344 0.03129547667636586
-0.002136650085050868 0.012296624476973503 0.23737617228126415 0.04238524071429626
-0.0030633064726715616 0.006139007175528654 0.005134257372520825 7.078047351421138e-17
0.5498364929777322 -0.001967048094311756 0.2904067812760568 0.027044175036559617
0.12892840105078196 -0.0037675861941487004 0.29589489213490544 0.09880132057480513
0.6251704182407414 -0.008062908993906798 0.29139053618442223 0.054285154213114875
0.05400488643762451 -0.009860850781013116 0.3022162889883077 0.010940078566507163
0.1394942962275434 -0.0032131564278692452 0.2989000095546025 0.07224965258999388
0.02826673379958646 -0.0056841556373512896 0.29503396318773667 0.020190469419362436
0.2514249428250227 0.003328707527360667 0.2945891015099386 0.07638538578468243
0.4988268740826189 -0.011198011584309709 0.29308222919533433 0.07070687555021492
0.470502710593505 -0.006361139884902748 0.2907778562055885 0.04402367256113928
0.20596962943251965 0.0023328321068778256 0.2998961889913313 0.04389746300832059
0.17310304064987092 -0.0012860678766452168 0.3066636593231456 0.03505936760037016
0.7003874757819482 -0.00996749922678585 0.29805799273204514 0.06998433810611107
0.4822656338547678 -0.006518005461320328 0.2888739470741303 0.06712890439392843
0.5160044995812203 -0.002956992496454202 0.30649317177956736 0.05383361975780241
0.9367319322184253 -0.0002632126747438572 0.29674434869056504 0.025033647199406962
0.9138536053920822 0.0012980639899633436 0.2974860157758451 0.02106054035891582
0.9842230916072375 -0.004005859246049574 0.30271394623592907 0.0711742176222645
0.8939362450460039 0.00235622193090566 0.29739135426916785 0.02444108246669105
0.6158118888806426 0.006712273565061426 0.3071673657680899 0.07894127891700367
0.7887010715796278 0.00029874793357639374 0.3035070922462174 0.044715935815047375
0.580358818834316 -0.004212752456668098 0.30314028199348253 0.01662366290737903
0.3765861167649379 0.0002731225507235696 0.3004011239516889 0.03476103637703608
0.27078078565315133 0.0041252748406968446 0.306118206538019 0.09668016319743067
0.4553202733661463 -0.008851169212386724 0.3006533339811822 0.012842600401556494
0.8163969839038572 -0.0069598498939446906 0.30005592355090716 0.03573026941447138
0.9645894376776989 -0.006823570043809469 0.29701293652082766 0.048751189581127286
0.6805990605822343 -0.00488885556626518 0.29662916891360197 0.06952393579674762
0.8164421669842254 -0.004604515033850492 0.29182942857467176 0.035131999867351896
0.22670901947512231 -0.0009747251473888784 0.298269446567312 0.027735005485695092
0.8517827968635279 -0.0037270848659099525 0.2967988128112223 0.08461042313044977
0.34437671382056206 -0.00026212244863648744 0.2985861903615171 0.06308886848091273
0.7929067283257673 -0.0031480339235011425 0.2961118173686073 0.053959747406418464
0.006325572036201946 0.0012063567474246736 0.1326089423280415 0.06369539319932079
-0.0030753544081642075 -0.005126994584932056 0.18031532396610161 0.042863606568455316
0.004915400387705868 -0.004464946327681294 0.0536629527514671 0.10442748915285695
0.013086166552629546 -0.0005963702917932182 0.15171690507207927 0.059732487708654566
0.008154682813678251 -0.006123351880185791 0.25346099609069794 0.09345541518052497
0.004890493662718012 -0.008822516658164343 0.1129147850070789 0.03016514187667824
0.003090147005724895 -0.003326304088879443 0.26047874261795045 0.09431321045232817
-0.0029863410134739355 -0.0018808646741726638 0.2624025645303015 0.030080812223343825
0.5700895035256857 -0.006760351874512055 -0.007246447185157378 0.0011124490805477043
0.05400113311148247 -0.0060248458980513 0.008241134867095521 0.017037347052629402
0.15072572033106452 -0.0035225970897904725 -0.007012641215526397 0.00017119807886963016
0.19928469977552316 -4.71732721012778e-05 -0.0033736857234399147 -2.636999740991587e-16
0.654816642656187 0.006211851399722898 -0.005891502614897407 0.016488942798043082
0.311554831110684 -0.005026380118420999 -0.0012269864205021984 0.01188940749908455
0.01371819706268579 -0.0008053087003610628 -0.0003873850878257626 0.012810779775430572
0.413292536747863 -0.004380235929589654 -0.00113936904423222 0.010346610158864069
0.07619253685874974 -0.0008665716888892017 0.007957902004514555 0.020874928945293258
0.37807550975145404 -0.0059843377117922035 -0.001331964680869119 0.004788934911790472
0.06999841888462707 0.003017871864815042 0.0010266890892139235 0.01523662337598093
0.35747357965001475 -0.00105309516008607 0.006109627904699982 0.0074520085687532845
0.515415819644292 -0.008569056385225256 0.0012299888555035291 0.008299932437506244
0.8710524150147402 -0.004160295144194047 0.010398387078586587 0.020379587165341537
0.8031285904825708 -0.007877392524120588 0.003722124786078383 0.020699503465233377
0.425794944903597 -0.010716138650381665 0.007798685112496605 0.0011119440596368637
0.7621697021787831 -0.0013327395846813056 0.006247323141613854 0.008039266149856795
0.5928223416579019 -0.005800114047255943 0.00914047391605242 0.011519925706225391
0.9378468090849352 7.15238111007508e-05 -0.007888796214772361 0.0025035787514500404
0.49366184103637145 -0.004831397564352885 0.004007083279994258 0.006994718584489286
0.6153668716173701 -0.007533263907998972 0.018695102478464228 0.011596669121374517
0.9831450925168397 -0.004243986436250923 0.00797692860760574 0.04473782610040977
0.644697912516133 -0.0045637629336337604 0.0054170113598624925 0.010289769353295512
0.27513507353057476 -0.0024214365912536774 0.011206412357425274 0.0007331520339476206
0.9943467587085637 -0.002857422363779683 0.015439383236676391 0.09038356487352377
0.9976608371350958 -0.005415021562884914 0.0407680010483231 0.05365243432241421
0.9923859917318487 -0.003804005465362812 0.136673473325136 0.053765496947173294
0.9965698982527205 -0.0015131983064985632 0.10530190933739725 0.073132260904312
0.9979729596144103 0.0029161449522874007 0.18686383899499234 0.040959451412839736
1.0014852533162244 -0.014702503883009782 0.2428523236215314 0.04684911911905049
0.9964784440138009 -0.006566791969699284 0.2572391131817531 0.08946071195341869
1.0021121163995714 -0.0052043527013430155 0.07601589866270007 0.032009611930297735
0.9920313677811967 -0.0059597278537219045 0.27031339936086074 0.06857106405155795
0.996959916638569 0.005616793537023806 0.23283263480708455 0.051310666189136225
0.9959346673403207 0.01428411647077136 0.29926614171041754 0.07938845435338426
1.0056723974061765 0.038035565178226635 0.30154083389293024 0.09595759270096278
1.0068777406707148 0.02573444401225385 0.3000153588554477 0.02183007326698157
1.00540362540456 0.05600256904153231 0.30274645254381527 0.014537288846825622
1.0053497743923714 0.051428198898366834 0.167340031022326 0.014011814589199366
1.0040636529701044 0.03695231168206267 0.19509266857731922 0.010772879368619495
1.002984524723459 0.03985991302309964 0.1440400208882918 0.019747458471416592
1.0040399924333858 0.02547825293366718 0.2335119681911732 0.021063526621886774
1.0002383192148554 0.05874635801994107 0.26111249643383005 0.04582974449823832
1.0026833952899945 0.05232508404311852 0.19635026568243646 0.025912048107054608
1.0039589638322868 0.009502286886183143 0.2588055567132601 0.06944029623821311
1.0071763654950798 0.05192810150100994 0.13486516283913497 0.023609910235142747
1.000225661875645 0.041466036093414996 0.21033433796483766 0.011252189890646969
0.9992081239130026 0.05101346535949057 0.24914670754537904 0.019264986447423582
1.007259662526622 0.01995127034155827 0.2577054670605098 0.016591944302605636
1.0002464757582188 0.06554531742596098 0.18976896709301286 0.018901375098010365
1.0133929982263623 0.04380360697641025 0.10914505367096741 0.012334545908822844
1.002103483553197 0.06207627995366109 0.24434368213784133 0.016058336793160544
1.0048632636449149 0.043836543419174284 0.29062712457981293 0.11168797552503329
0.9985019018387312 0.041039062369996215 0.24888266489758365 0.016677727906218156
1.0079840653711822 0.03549331117747392 0.2907844280548064 0.07553109505703931
1.0082603486760915 0.052328014021865744 0.10638776068203833 0.022160424721755542
1.0047171657922296 0.04649678756191848 0.1550046564127612 0.01313070137164828
1.003242445566348 0.04523072406500756 0.17790823486702032 0.013761690937364115
1.0041548814819952 0.0556269434458587 0.19106419013266435 0.020949499156409212
1.0023385746339033 0.011914543652365632 0.2031807428393726 0.05808618634206636
1.0105565137299868 0.01605364836770306 0.11533734396681365 0.0354683128512431
1.0003210019204232 0.004685305626011751 0.24560432490608022 0.10377868615244365
1.0065715438137486 0.029127938543957534 0.08444747881074814 0.020322881069651806
1.0042202292490159 0.024400774865373884 0.17920551142978167 0.02725835479449032
1.0060758451355407 0.02427044801621102 0.09056420893841527 0.016157377950017336
1.0074633289984436 0.03841299910590196 0.011687702522472986 0.029993271862466624
1.0082384561028617 0.005350779664998586 0.12890069843361351 0.057306609665472456
1.007079165601228 0.012252081213760008 0.16825785844843605 0.05283413307590399
1.0010828995100798 -0.00012084456227562336 0.2695688568700705 0.07380785736819874
1.0098276999566367 0.05922025768681867 0.008627194830893444 0.06336838167653504
1.0087519631314754 0.009954934410035225 0.038648205216032856 0.022567915528559853
0.9981822645895241 0.00591335102272483 0.155325391595425 0.07547593026524387
0.9986293350230625 0.04075399364663192 0.05163824913387922 0.005411495644351129
1.0026373116913498 0.0313784898470935 0.12446945622799033 0.02763581899691181
1.0092720230070789 0.019973070309482074 0.16503110384001313 0.03814121327982807
1.009861484645944 0.01598196231876535 0.05930983352253593 0.05618073578263249
1.0048048593171348 0.030098700372302348 0.03239165762790002 0.021809382363036034
0.9987048565340639 0.005691218953123773 0.2054313299300055 0.0639216162139471
1.0003376696979243 0.018839039487099595 0.21020439870556232 0.06064158043969617
0.9956727270156449 -0.0014972122987527477 0.003380382402878583 0.040593466236262615
1.0072179533112782 0.037558757445496166 -0.003442408412348415 0.03994247473262846
1.0005235227728286 0.00759968366805243 -6.813050453472955e-05 0.02972269832836976
1.0081817543242055 0.06064248269784929 -0.0018475593659009121 0.04895421700554912
0.978274289453648 0.07271965245679365 0.023794440936538597 0.00027012979284513934
0.9926823190367746 0.06909951731814691 0.07887886592128292 0.0005855159166602684
0.5203146359565769 0.06869773445571845 0.2870164981788953 2.5104282309929582e-14
0.7631713688560183 0.06595769638985875 0.2922186940145503 9.34776975864082e-15
0.011589491366269257 -0.003393697648874136 0.2165569160333513 0.10158816697241564
0.6071368558925134 -0.002655047408980595 0.11837199838963779 0.010113747006092565
0.3367049440500506 0.003584427052547653 0.0933758077930775 0.009092634485820551
0.8419658990192546 -0.002720847936110816 0.032031563337169985 0.008652414035232602
0.27492283424058545 -0.0022569651637098544 0.26202922590704936 0.005356904549147743
0.620662412563046 -0.0022336365864597547 0.17493425302202753 0.0033033734845659742
0.516402584374627 -0.0019399101766120648 0.28232427689540807 0.04859374178027706
0.629894784544928 -6.181651444862532e-05 0.23157905422575503 0.011245232559300438
0.42667932201615577 -0.0024205671962114327 0.2789774307166107 0.07240933870296336
0.08332808700203259 -0.004390628633651644 0.28885485427423685 0.007791640408907716
0.9315806221882331 0.0038273293406851285 0.15627259499232843 0.001589262309521171
0.7789617146367797 -0.0011103644138641313 0.16290569230692126 0.0030436583191697105
0.756818829771412 -0.00037629004509932146 0.10324933639804679 0.004976979213598913
0.8906454108607121 -0.0012741174240103442 0.15576354825047373 0.014810411202281666
0.9301211660183163 -0.004363928746401142 0.22074869837190952 0.005279313425762158
0.7791753435359171 0.0026173622575293744 0.2221339563282528 0.0061755249593285514
0.8754981934156464 -0.0002449629878932477 0.047947453158761484 0.0061313614448439205
0.0019539008813760843 0.054198287994507086 0.28385394976509387 0.03761314839083111
0.01009887020994297 -0.0031242693728154676 0.20197581181195445 0.12766257452142413
0.005071703548862115 0.0037490544073642976 0.2135898591234034 0.10876828424580277
0.011163716890622689 -0.0025033431750254454 0.22968910477426588 0.0903914578053481
0.0009718358439797948 0.0581651916915505 0.2651440339845786 0.01408912489010302
0.7863301185998051 0.006179236304512259 -0.009969291397959084 0.00019872339436960358
0.9590999568341716 -0.004269796060235453 0.0015566468036976363 0.0024563356061589915
0.6174204374965742 0.004880768394953837 -0.003980048508004789 0.009529441242606653
0.5117366726711566 -0.0011321555741186278 -0.00829730017353537 0.017478409471081396
0.9107143537803859 0.009246047578528269 -0.01096777822284563 0.0020123712927597706
0.8966034862515265 0.000842017235563583 -0.0005017974143970346 0.020595313015065588
0.32995717773443844 0.0009139047508238266 -0.0035718281857433348 0.014292662582169512
0.6625901611626878 0.007386665630600911 -0.005750375972434969 0.01575633394426889
0.7259230489008398 0.002194816781067969 -0.0054969333385858415 3.4840718262999044e-05
0.9302226740029439 -0.0024528299012662623 0.001914920137742692 0.013195831078031203
0.4843580351891585 -0.0005780897504293009 -0.0003510418674050963 0.0091363423403042
0.18292855617465406 -0.007567505931485921 0.0054412330227281225 0.0062205306198684154
0.4632888644717377 1.2361118540334896e-05 0.0017986617144516621 0.009342036880476414
1.00462350546094 0.017978267888333503 0.005485485057257262 0.03282453502889252
0.08092803854142275 0.008985367870424456 -0.0054095647835395826 0.015361612607031928
0.45568890998096173 -0.0013958720369092923 -0.0009952103536676241 0.013953849773867736
0.8704940231295853 0.0029682106851911033 -0.002902634513062218 0.014243619197203964
0.7273682074226389 0.00045588865719585394 0.0019517541224812708 0.00896441542960741
0.2459152910350964 -0.003144527170492711 0.005857674430698593 0.00021265334790447976
0.9729827233232718 0.068946178011186 0.0023054009708398217 0.0008400204701586574
-0.01331261877278883 0.06065715827986487 0.007198301923525288 
0.5457908640372936 -0.007268731477325768 0.01202247056159835 0.0029121035315795053
0.8188538745931802 -0.00992281329171025 0.00646834099839818 0.01321253691726114
0.6987599858818466 0.0030120755170841332 -0.004305719063398888 0.00041494142269147297
0.9969675337394278 0.0657108645452167 0.2576082772049842 0.01771266974727
0.9905166474557405 0.06679367814218282 0.16545672145226956 0.010874732238978545
0.9939292788606328 -0.005239685425697971 0.026078564262240797 0.08749837073173462
0.9763890672414384 -0.005725279919926766 0.27613627515975303 0.05885002788462689
0.9671400441300347 -0.011029642184824775 0.26011278036809793 0.02286574053217745
0.694592738946527 -0.005649010937868534 0.27164652897357594 0.027673330678643655
0.5852718656903255 -0.005325881392705258 0.26830917154934464 0.003825690141032126
0.7212805494516366 -0.013224002456067394 0.27347741180502005 0.00856369240608765
0.6383001546699058 -0.003099278308732021 0.2656851754180288 0.006278048348456591
0.40100023935855345 -0.0005326395076845102 0.289112437673177 0.04648024599216796
0.8945938514009927 0.00038235900499321534 0.28096695601096516 0.016033151906913453
0.440407879558118 -0.003076585196015468 0.2808669218889255 0.07311292792217271
0.7628725552900906 -0.00637067903284959 0.2657588312439345 0.015275057587244387
0.8264491533333038 -0.002124028199835633 0.2819585080915739 0.048064878494562355
0.876969533424339 -0.007417296377691995 0.2656696786110344 0.015395424154110295
0.8454413328533286 -0.0003190699169222116 0.2684972298263198 0.010874073199704274
0.23601302184732736 0.0006344621020057141 0.2825737936483148 0.053100892699947604
0.35536565396526965 -0.006564232167892912 0.2801553495090333 0.018738609985676634
0.7694044205144399 -0.012181781262661574 0.2918355003064643 0.017329104813552525
0.2716027970712725 -0.001845605270974685 0.29293466584635386 0.08636796501293718
0.5775246672413072 -0.00060629818595868 0.28727250560341405 0.024155803202650587
0.4663132789204254 -0.008921534114260924 0.28598582113623316 0.04278783481422295
0.5630423449706543 -0.0035219662574768208 0.2813741256552575 0.02073473587005658
0.7219352408809285 -0.005005862809515364 0.2868769250630612 0.06952270928476338
0.8491995547763153 -0.0017364043096595252 0.2787733236026425 0.026660543007232883
0.8426132253944932 -0.00267516646084765 0.28702099756709826 0.07894125954389082
0.4131667237564184 -0.006101207554386339 0.2683480560388514 0.004272046976138484
0.3933025530465585 -0.00321344657680475 0.27815994691868096 0.047761706966258366
0.3731120336122924 -0.003581102423658537 0.2782889419345043 0.04293690880640643
0.6521113262679307 -0.009269437982153423 0.28458651507358945 0.08470538066926696
0.6069987389158431 -0.001654440712396962 0.27437722700817796 0.018125488433968075
0.7872475936839857 -0.008182595700992022 0.27608777532287027 0.04571891991062548
0.7353233364706636 -0.0018308743526169267 0.2889816948221753 0.06983896225042427
0.8209060826098008 -0.0035624592317824305 0.2720746329833186 0.04068815608094228
0.7435576975206843 -0.006776466119349912 0.26941940141922666 0.022390980212927087
0.6842365267089299 -0.006553071043061819 0.2753897683874986 0.05882787328012791
0.9119747427897508 -0.001792569079191769 0.2779555251127085 0.013972050194151342
0.9250368781430623 -0.0046834683127035944 0.27171237376956864 0.019073085234921287
0.4354114796936076 -0.003574807498613628 0.28211819982563785 0.07514580446986384
0.9572455907217594 -0.0036773307262640484 0.16079505224899382 0.009420208157919725
0.9487910960608095 -0.002420535287992253 0.23631869937431105 0.01256259014116618
0.9574841285647956 -0.004975318686927096 0.1499962595476072 0.009433839296548901
0.9872438985931788 -0.001247534291116117 0.2231401452144516 0.08401955114008888
0.9809706423051362 -0.0025805982742774197 0.13401505591721652 0.0187782856223842
0.9733540864058877 -0.0007161164032901777 0.20953930369874285 0.02725791037661486
0.9731141098877956 -0.003745378047534105 0.18150716733987066 0.01773212534331063
0.9881266661535888 -0.003367800302412394 0.20341768775656008 0.039214117838093095
0.7779362820974057 -0.003222697915865715 0.02791977452940208 0.023096933619457114
0.3577163699525335 -0.0031936923121798993 0.036222355187255736 0.017805326685270958
0.8275957806399423 -0.004390444798095893 0.02221237232934775 0.008019402552892964
0.2336988373081552 -0.007809812528438902 0.03744686780865897 0.0029153917657098976
0.6057928174925901 -0.004838097645894038 0.02309146162193894 0.014805437685715392
0.7544609428170507 -0.007680570829454149 0.02630134829728618 0.008579007787524982
0.5831751850844649 -0.0034738649041051927 0.038854464621416264 0.0019032017483908601
0.9677536107428417 -0.008825853563930534 0.03819809186230976 0.002013340231535668
0.5210797401966324 -0.00270687871669556 0.040353529939248456 0.004711636339817957
0.2141565436756216 -0.006283291840812297 0.0420757089779055 0.004079363377986276
0.8647861078324303 -0.009242016460694889 0.021824168747403287 0.010938347072778647
0.9282226743278574 -0.004943158897762347 0.012084303026332966 0.01353231957913374
0.9432807715192432 -0.00476999224389244 0.03480315878075224 0.004433690033513614
0.9010613430645328 -0.0021714388781120266 0.034709720957079665 0.016074860477358108
0.9838010863942065 -0.004589075559154053 0.0032042028633568163 0.05010796501276388
0.7092260937391401 -0.013205781243337895 0.029347735430472345 0.002854362862806233
0.6567567470887993 -0.0024721416575341692 0.02659977239415646 0.014093836827473286
0.9600186918365676 -0.005186389212614181 0.026446950899567702 0.001758637296520314
0.9027983576937886 -0.008598161256899987 0.01898435840654067 0.017037934960247907
0.25686552093126963 -0.007479710134343936 0.042865011517899954 0.0070162896993124155
0.8018515281837318 -0.006326596910844704 0.040822620644819375 0.002170601980305381
0.7843673663049476 -0.005398378228008763 0.011068549760502788 0.01496702984269384
0.15647933827110944 -0.0024265282866881366 0.044839319113321785 0.006010226085760845
0.7376774279928306 -0.004436640866388043 0.03468317613917034 0.01673266175117308
0.6708677827835928 -0.0022758970460623165 0.028498548224122126 0.014341925420630905
0.887695093432378 -0.0015393209902912989 0.027380734673885465 0.022699010344788204
0.4919189407828431 -0.004563231728259134 0.039049199295189324 0.014574265975733124
0.6343329489762983 -0.0017606529204458638 0.03360920840221871 0.0022801933167696164
0.42392767268665177 -0.004524852255630448 0.02698443628649032 0.006659025483523749
0.39378330310754456 -0.007061374562635418 0.034439135549996766 0.00549290185323562
0.056464603266089174 -0.002053991952055163 0.01852390586124638 0.02219352971741125
0.9332456983741233 -0.0067749386156296144 0.016630334921087783 0.015260541453788263
0.26469726944385924 -0.0025188716679382704 0.008267316563263728 0.0002925872070349736
0.6204483452962232 -0.003580067409662038 0.024114803484028134 0.013305012652312414
0.4090173715059681 -0.008378985320257007 0.023438061601948355 0.01176285562273111
0.3449547102360109 -0.0039038596696897377 0.023099259016040142 0.020144270251325026
0.5861773271776223 -0.004180461532330026 0.009640129820147504 0.012128355579077973
0.1489810651562769 -0.006450657806618575 0.019803177003409143 0.0026927672894147643
0.5079824937345644 -0.0090860907545334 0.02765905598520222 0.007850837361233692
0.08116963041509707 -0.002593459544706498 0.0255180864017781 0.021045223128188104
0.1473186470240825 -0.0053903952735553165 0.017087853244850522 0.0038133079492423468
0.3567830027338959 -0.0048144600837514715 0.017342656643280906 0.03273888410219564
0.752565979926022 -0.001640063926361296 0.010649800841911713 0.005756253609257669
0.09720679238299418 0.0011166011267982826 0.03589150614240361 0.0016595781859608276
0.09200293489340475 -0.003805258203461257 0.02053242122973106 0.012472605191583561
0.39239963971834546 -0.009736452123993985 0.016129133989598116 0.006642653892592722
0.23808115516221318 -0.003932644858229828 0.01672814064774643 0.0009209355683526915
0.5318857757107941 -0.0042167788744340365 0.02450169072945664 0.009514090793416856
0.5455959664454161 -0.006327508546585178 0.027823107481231818 0.005597520543505158
0.1226384101916185 -0.004720995610388151 0.045479837031357315 0.004150339359483479
0.18926998802353098 -0.008520805851304294 0.023585104654615757 0.00545619296024459
0.29675983492806185 -0.004855908676872075 0.022864751470072706 0.004695785665722792
0.7641850168518547 -0.00414956545895781 0.023991459104753515 0.01739166239302601
0.6781448698544983 -0.0037291071380477197 0.012591095433828414 0.01622020772178495
0.10446332212216287 -0.004489081494128372 0.015788829162793304 0.012893082864271502
0.5225623484013904 -0.003812503903790196 0.01642184859998542 0.008278456149459884
0.17696696451787286 -0.0019971979581702333 0.034107689912112577 0.0012534773476411847
0.12871077162302993 -0.004342614153202161 0.014264383069643515 0.0041491681229246825
0.4794898480647947 -0.0017337415220328163 0.03813137148782715 0.006780416806838667
0.4829116819179484 0.00011957614872240964 0.015549877661535387 0.006413492439575713
0.3231831719468975 -0.015913227086524644 0.021332025351489304 0.004351374584581398
0.5551775658200792 -0.00825277005241308 0.017938892123697044 0.0022887750361421746
0.030887967193982017 -0.009819601867070274 0.029161713416967515 0.006634072070558588
0.04619749187695185 -0.0003174548037825514 0.044961321916886 0.007555613661112177
0.04590043241838707 -0.0022156597085215024 0.06859195997883814 0.005343474248491594
0.04987348705030479 -0.00350067089723824 0.11387776487902118 0.0026421410974157996
0.015908351934678183 -0.004712756349334492 0.11366114243800644 0.025942003524124457
0.010774666774476593 -0.0035618871003146213 0.18502647423752852 0.04587484241276902
0.014461461940623189 -0.007032328942886393 0.26409558115229836 0.048065436150308734
0.017538294802015884 -0.0013491124616239834 0.12697510910583348 0.06783674554876275
0.024167899922622013 -0.004582338497042761 0.08640717725804427 0.06626129867056914
0.019832079071547375 0.0008986742523208949 0.16198115900474594 0.08558061588914272
0.012033057785384226 -0.005071328976265528 0.27157863479756694 0.038046109303361324
0.03676091320951319 -0.001460976364457358 0.27162585436067416 0.001211077103590906
0.05925793623669341 -0.005082010724452091 0.15430288289341532 0.003047280814721796
0.05921374326283754 -0.0034895387171595695 0.1928193833411307 0.0019121644123882865
0.04953503183945409 0.0002145507123546196 0.18610076183767926 0.0036973794110678588
0.07544742772744631 -0.00992723180372995 0.2752839173651029 0.0032381193472934408
0.09861744549280045 -0.0031618745916031548 0.25968829737086213 0.00497886804340294
0.08380867667107021 -0.007685832596641187 0.21840708637819908 0.007338865648173919
0.07476853572727778 -0.010051673555241163 0.2329844822273366 0.005857807649953381
0.11699560039534321 -0.003418592940481785 0.2666029351174983 0.009392019460958663
0.11539434523896464 -0.0011088792477022557 0.2321271476801552 0.003022077263140783
0.10948289637824303 -0.004588534888789848 0.20919412364089443 0.0036276877327321784
0.12110027467431972 -0.005418500703739671 0.16768340905222529 0.0035037349489575346
0.11595829154054696 -0.00457557336615659 0.2151256903961958 0.004342630303271695
0.12590115408048497 -0.006201842225715858 0.21314824908469748 0.0017875810745269906
0.1105197821900552 -0.0007414342602010805 0.24236625455166017 0.004485930664723775
0.1753289726939448 -0.00899023073290005 0.2602342870357227 0.0044557588275150805
0.14910251173400413 -0.0015578366806217063 0.26566825136389643 0.00370984541702649
0.15118139150675122 -0.0055408749631057205 0.2417204849232378 0.005345698633328782
0.16071471552783978 -0.007877722144473366 0.17496037778164172 0.0055759556773107505
0.14680522947037797 -0.004339222636317077 0.2312428604306297 0.003560611169324793
0.1471739161849561 -0.002397042961870379 0.147971048625265 0.005426603138014882
0.13096814286575578 -6.986131666128332e-05 0.2698305225347725 0.02207432071446299
0.18157020954368375 -0.004719270858834253 0.22513371056459167 0.004930985878662251
0.1975043303632124 -0.006962236951671733 0.16399312969804133 0.01041834320674679
0.19269953177611543 -0.006615496612790442 0.1380689688339127 0.0054512811070388245
0.18489926157105446 -9.471196677916953e-05 0.175957758733259 0.008135640613701282
0.183507968779052 -0.004688546366665448 0.2040567302893911 0.005585451540266652
0.19156555158388303 -0.0038344439925301135 0.21226949575118934 0.005237635051016466
0.2203687109768828 -0.001959323421014084 0.1254009697254256 0.011035889405642136
0.2321301383147203 -0.004722301664125612 0.22342686497080327 0.012748750878582595
0.21505070630310147 -0.007121336221769902 0.16610021098743885 0.004355270671085818
0.217781426048246 -0.005823858374533023 0.14823062730388656 0.0132090343681582
0.22245291917461593 -0.0020194886312423373 0.2183351933180718 0.014083489969816482
0.21585409395392652 -0.006586199105939293 0.2452342440345107 0.006255593130445583
0.21805126846663683 -0.0017314054350728776 0.0671682947383847 0.003632333939102824
0.18148336500708206 -0.006373933553116516 0.27447049300020276 0.02911833258797922
0.10349315027072516 -0.007731638172586546 0.2747826779507802 0.008315467102527289
0.25275963091408743 -0.010135101050078022 0.20603358589516513 0.006720877493791041
0.2497356908501558 -0.0032842935986826085 0.13736229684755466 0.01635268607054649
0.24622555945059954 -0.011426134352026954 0.12399990802832428 0.008471570897604391
0.2572548362301086 -0.005001415834805238 0.252401923870239 0.008669026542958659
0.2945498201542778 -0.008607734428553213 0.07832351709210567 0.013801263722411812
0.27205219813390236 0.0013140069120915528 0.2186152734062007 0.010221315973312184
0.28753445949524975 0.000455022694251513 0.17691792827253872 0.00501248638096385
0.28398679287439366 -0.00044134645337263627 0.21034803776951316 0.012146321217312846
0.2567144954117065 -0.0052341556049121905 0.2671293159195418 0.023259084079139587
0.3159702299683171 -0.00240384397888776 0.16259800040542813 0.0026832109633064395
0.32177935436721467 -0.005294369236309838 0.213842436282587 0.0006751145570608592
0.3191920664610787 -0.0017967478454362716 0.17226021432724362 0.003208026446617954
0.3237569781766081 -0.005832512923234389 0.23583481690279015 0.002274300670609742
0.3112265552494841 -0.004177317840340674 0.10311773264194639 0.009102657057763235
0.31430442275357945 -0.003795753833219847 0.2657708703459559 0.003392150656351321
0.29057906738652733 -0.00720270246277453 0.2685711653243026 0.003955650944371802
0.39765750652527704 -0.007018239582840803 0.18389883526536208 0.0005167273307346576
0.38856930932896744 -0.00824618261020024 0.2079967107083627 0.011042900771627865
0.35866128994985125 -0.00950184032942249 0.25868871857332554 0.0053242251182130124
0.42185784018307737 -0.007003292682125959 0.23846745339410952 0.013764427662940506
0.41688703306118563 -0.008460282998368327 0.0953224272753899 0.0026728605543085036
0.41973595179460765 -0.0014173870798617678 0.1462584088327041 0.0027039179666336513
0.4139698764339153 -0.00181283311520293 0.15341655178333707 0.0035405145254209644
0.38859760414654787 0.0008427722056230118 0.263693811230548 0.008694648867251794
0.4433862755802612 -0.006971109535924437 0.16649274979263706 0.006750042650583908
0.45610302703818906 -0.004162520891284904 0.18958008126819528 0.00585345832179816
0.44621922835116373 -0.004058923560295315 0.128219309164137 0.005885082175667932
0.44926476919270425 -0.006565349140020256 0.22094367046425237 0.005208967217857571
0.48292800854987084 -0.002059785178975292 0.21366354143556276 0.004690750127990707
0.48758738760021525 -0.008116929714597017 0.19764868679786887 0.009551460242475466
0.48028449961341163 -0.006031687679914877 0.2483440530094792 0.0007304930500200295
0.4954850543504588 0.0008726311206047459 0.1030289006469391 0.007550441528804042
0.48680875289090764 -0.002043610944604894 0.08458053878313904 0.012148402429390507
0.47977863593773 -0.0003102500274223334 0.2211147036825608 0.0036847868985386855
0.2667861970903628 -0.00014687102962651733 0.27422219471383913 0.017715269920483386
0.5521314505986022 -0.00442492581791808 0.2586772101242863 0.0081266479925561
0.5171073731226455 -0.009738137001015905 0.13694364748353227 
0.5135616409436172 -0.004850611778469787 0.23117674209068242 0.0030742031454666307
0.5172197872903795 -0.0016610418176825285 0.07192821676209021 0.008412031154819834
0.5157705416463105 -0.003968477145379988 0.1967717305711046 0.002565647662661653
0.5164893878622222 -0.008437325446623069 0.18501532584523084 0.013362588368370919
0.32214444467918846 -0.004259041114468028 0.27476696791173033 0.030870708734389306
0.5063111437472863 -0.007301763465239201 0.26852478390571105 0.006451217602622286
0.5523824227767797 -0.006135647228428041 0.11572964420784702 0.004903366844507111
0.5575123521146647 -0.00441435929339608 0.1801654031163456 0.0011250827215469911
0.15583259703425253 -0.005034850720872738 0.27877694230002814 0.007475476065991606
0.5915811467676965 -0.0022939058932040296 0.22490011615006095 0.01207034489407247
0.585057891733346 -0.00558099150827842 0.1869967194711176 0.003395280578455598
0.5709874730085444 -0.006947903144426758 0.25684462549365233 0.0039834793933324055
0.5840177044930671 -0.0020032742188246756 0.17378511665494953 0.002459929487602742
0.619665128888656 -0.0076823329528552765 0.12494322694786925 0.005847673650153396
0.626370094185417 -0.010551036892150797 0.21116377096048655 0.00527921826752448
0.6224320370195265 -0.0027201912680205158 0.15432332176852515 0.00825965253364403
0.6199433990619221 0.00297732221505881 0.2269059433603577 0.006705725172987092
0.6475960296989419 -0.0028121710278829234 0.2543628698052996 0.004347618555428877
0.6361906593700614 -0.0032969178377602842 0.22754125784246393 0.012222857990546902
0.6448374642944509 -0.0058152819421022585 0.19840021416896714 0.008973159293468098
0.6579522640340426 -0.004820080006953522 0.09650306557697816 0.004468471702198976
0.20976557364831472 -0.01084773554600808 0.2848473739525486 0.011760547315593674
0.3511218759791373 -0.004097946745060177 0.2686522583900135 0.01112979097241414
0.6869982113987985 -0.004843628945833002 0.12052358149228501 0.005439658871127946
0.6714675410390796 -0.002092217307547165 0.24325060874889004 0.007050016849836142
0.6844189827432169 -0.007525741189075551 0.20336712478555447 0.008593447835549783
0.2250360445297977 -0.007691111114206083 0.27645259332593053 0.02719360578148999
0.7155582750239988 -0.005261569368025929 0.2431011622422192 0.01166879275034715
0.7225609968637946 -0.0011141490619474275 0.2278349319094913 0.009344747662807903
0.7184620243460921 0.00010054248504527822 0.2015830512684454 0.008814676929148658
0.7243417426844054 -0.0012630493390576828 0.1838218276321792 0.0071188191180623275
0.729966176138463 -0.003993926150135147 0.16584757170308398 0.003415931564264577
0.7108256326490737 -0.004117732046131717 0.10500922473905865 0.006277586749213356
0.6671634003947873 -0.008282596957961675 0.2638280186688142 0.004854870673628847
0.590056884068692 -0.0032766520036136533 0.25690457784788084 0.0034379506901803846
0.7478762358522878 -0.002483229037001934 0.1663788114275931 0.004772885893088274
0.757732472882362 0.0006919297014395447 0.12626128296298988 0.0031615640016692077
0.7581988880767507 -0.0033677262352881142 0.23743972797147767 0.004135356062756373
0.74838551079887 -0.005016614310346275 0.1965750959688353 0.00483935560244043
0.7570621006274795 -0.005280782816436155 0.22223265144564008 0.006287576041136003
0.5350118640233003 0.001636292395846175 0.27259810486586694 0.007613217423216633
0.16900362350942152 -0.0020240696645700746 0.2798844157283341 0.025517387003020562
0.7833351898744295 0.00170259022136008 0.19456434398057773 0.008786896682507105
0.7911207132011047 -0.0008524958676555156 0.24228860668881536 0.005511625350247778
0.7832538243446283 -0.004338594105709025 0.14382136164588422 0.0016656466183670691
0.8255349824840038 -0.005760565816682182 0.26041013043095623 0.0029895357057655387
0.24418892809166545 0.0022151916356543083 0.2875267289173349 0.056829888419088224
0.814407623835687 -0.005899504914579082 0.11734658885413002 0.006955972002212156
0.8169605882846919 -0.006133630567848869 0.21836205001852776 0.000654420726785518
0.805751630607984 -0.007530435990475012 0.08662854371521235 0.0065896406718165355
0.8478932042926899 -0.0034789145875344673 0.23721768894549888 0.004638834137167828
0.8592471149669757 -0.004227498251776473 0.13429325955785482 0.016078782540208635
0.853114552447285 -0.009108912091854054 0.06291575577482565 0.006460780370815208
0.8498428463818989 -0.006754027867918776 0.189376228091012 0.0041672493098525625
0.8531643327663221 -0.0038894192592791805 0.128815652295597 0.01803657428400661
0.8503314020987792 -0.007705910863366055 0.10879337744948768 0.0016972625167826505
0.845378684908796 0.0005043374097512121 0.15130561835576958 0.017480995084200868
0.8344209576205929 -0.006977053696162195 0.06345869579058713 0.005699569119496457
0.8498028288482845 -0.0032515744079636513 0.12846568630430236 0.009736989081607644
0.8836170795229216 -0.008522762678743313 0.2464355414339821 0.005907531806912674
0.8865171138263862 -0.0065152897587031165 0.2633785203271187 0.01133965485252205
0.8829391877656035 -0.008962507286224384 0.19190709865163313 0.005522323957860413
0.8830546402229862 -0.0065300239112051975 0.21753433451509122 0.003238377276372163
0.8890883031339987 -0.006380851702567503 0.1401632686642594 0.004256412181075637
0.8757478992768165 -0.007914557233352533 0.07661826547171734 0.006760565413546706
0.8841674222663509 -0.004091214618233628 0.09505731832363065 0.004369674752572378
0.8732667843066984 -0.005508886098732481 0.08608816130498376 0.00761299934773002
0.8622774088097608 0.0030166412572047298 0.164113630946949 0.01128159451995804
0.91998719336882 -0.002479836090762182 0.10944142888000623 0.008426204303875676
0.9233991506748087 -0.0058384019662202115 0.23157864401752642 0.0019250442191060034
0.9241250629903083 -0.009157750075774908 0.21279150995087073 0.004263462377571636
0.9112073720257758 -0.004280674861647414 0.13255543407555798 0.010901232027172055
0.9133797880845801 -0.008277270250183738 0.03695000684518368 0.0070345189152802535
0.7785499311540611 -0.00465695858851448 0.2481080034093384 0.0046185930627560745
0.7796309383879868 -0.005702565145732673 0.04410717876250153 0.007006742680083579
0.788130089658302 -0.008129766168943063 0.12109009847357868 0.0037654756772757163
0.7837961810988127 -0.0004532006717377374 0.0770376095583595 0.0036693577774838033
0.7412986261781047 -0.002473627890650649 0.11407536533461987 0.002764120701561505
0.737661002886619 -0.002627487614780438 0.08337203033065156 0.007440373637912547
0.7399855590554845 -0.0038416573647398872 0.07771206297085896 0.002242221229575198
0.7618749769910433 0.002975540719553055 0.055524387544229815 0.00244071116858396
0.7094535347504799 -0.008565500158928778 0.04565520319492922 0.010390813961465068
0.7166693698515192 0.0010547073712545557 0.18117040086693353 0.0061603748041438025
0.71216087094947 0.0010565528697167171 0.13327222548042697 0.0051409023679929375
0.7162874902873858 -0.004814233921440302 0.08881876723811524 0.008364350892270193
0.7114456792089359 -0.004300515012835114 0.24233675421087422 0.01680329658573234
0.672138136269824 -0.004295383513838793 0.18515416202631715 0.005994981872023567
0.6800582065942002 -0.005309366814234709 0.1687293818818186 0.003937403999901511
0.6812996042798356 -0.0015270621424345759 0.09258550486923821 0.0033414901876990936
0.6520204015700528 0.0006959935358195469 0.1398534811253607 0.005793414020381183
0.6470966407010286 -0.005132334659148701 0.17596785878439283 0.002223949263001686
0.6451374678411033 -0.00675331712747205 0.07713330838756631 0.0013982657516458745
0.6433679547538995 -0.0008738583059142225 0.1599379927076536 0.0019353619745892993
0.6464473768284535 -0.0026167940518358546 0.11002896016710009 0.0021725773648994576
0.634353646081758 -0.004584322160631946 0.09330070037222075 0.004132961713983317
0.6184529336114327 -0.004034602669227677 0.16250649698597236 0.007852225638932106
0.6106787431519315 -0.0019882749060616896 0.06388695828008838 0.0019358803232301795
0.6123368175156494 -0.004228896217440882 0.18404440599257596 0.003686454739205106
0.5806420580255259 -0.010153266819738549 0.09996023985026782 0.0015204878197383263
0.5873322156614931 0.0005445203415566182 0.13857871450410147 0.010043654010778185
0.587340335644158 -0.00440423234502133 0.0637842905194012 0.004223530174286013
0.5795233970000935 -0.004837193629183317 0.06471697263103302 0.004245185497928362
0.5303813307127937 -0.0022188825917863197 0.04784965116115834 0.0037362728412906787
0.5409531260715379 -0.010106481592426882 0.21870865075677515 0.0025721501031972073
0.5110770233689428 -0.005927134869751046 0.2502048570989199 0.014024994418739015
0.5152664094826177 -0.003953399086634092 0.038341600955036255 0.011487078239243744
0.5162838735027233 -0.0026836124843378473 0.09275967177264899 0.010107382976009245
0.48571077627664666 0.0008905763212861059 0.1620284307547317 0.004463777039329756
0.4873547249421934 -0.010002271560788365 0.06074545753503612 0.0068296391462180075
0.47716265648488143 -0.0014010146710108488 0.08475464544829264 0.005328534405248134
0.4770932316429175 -0.0040249530196127615 0.18916001409766225 0.012390022104547248
0.44086693276575084 -0.0114278033028778 0.23518917244738394 0.010852237503845993
0.4487180006716445 -0.00854652303100342 0.0701410252491209 0.005906711974458871
0.44150816325024816 -0.004835321060146925 0.14889074704242325 0.0031289117861987826
0.4478042467466595 -0.008539059052851981 0.04209891589288179 -2.55527279242177e-16
0.45285796081127605 -0.006134035066869692 0.21024872327407962 0.009322121629639886
0.4430289481056701 -0.00785106088167327 0.09661635800653122 0.004861946977349422
0.41346807586756396 -0.010531078887984015 0.07889296152807959 0.001016609190704241
0.3763709502941564 0.0020750853360438945 0.16536276966340333 0.009864317228153464
0.37876604680971127 -0.0023828608520998977 0.06058769503162923 0.0051886797907924965
0.3799279940577843 -0.003286539516436394 0.11018977700720706 0.0024235397742046402
0.3889132024019473 -0.004187354224186516 0.07389522641531143 0.0059744413271120254
0.3461767282502721 -0.003163042987182545 0.07291379891115243 0.009039499577444826
0.350841687738896 -0.01021099782292796 0.17561912418940046 0.001081304575722309
0.3445337958027535 -0.0027707235551235197 0.12972774462602593 0.0003575100401325689
0.3541139745368011 -0.006492340997329224 0.08291341863631892 0.004254544553665019
0.3184410741731233 -0.0013344059277417082 0.19224353237203667 0.00485519941567128
0.3148744394506238 -0.0036248545817409677 0.14816627779978186 0.003926607015632528
0.27699306368629467 -0.0050928178108119474 0.15172539975904656 0.003038972731895329
0.27936264260357013 -0.0031941573486769736 0.19133816423362804 0.007082703276815735
0.2822020613236698 -0.000819545572275002 0.11683367998600058 0.007591637632173464
0.2734087927983343 -0.008972093756864915 0.09997124344241581 0.016713285080490418
0.23459667768896939 -0.0050273016270470225 0.07656174655089762 0.0014395481772855809
0.25407061385373275 -0.0037457081566578104 0.07018300363893068 0.006083055590466312
0.2480987076291641 -0.00017068986547430365 0.16354376551855815 0.005222390121910974
0.23616849211541208 -0.00299401423618715 0.2241417530486027 0.014865964462649444
0.20935952753800288 0.0007543591261343902 0.1901242367650445 0.01177762686740724
0.2128106364227263 -0.0004438293854292403 0.09869946995013926 0.00575596639918251
0.2124739405275062 -0.0006861724513802007 0.09368458758132997 0.006530788067450824
0.1772618623787362 -0.005389120074209778 0.10208705480234458 0.005642781214029918
0.17608168269180496 -0.008347886515686088 0.07954883459484965 0.004874727406246515
