x y z curv
0.10459548651749268 0.08921196916853963 0.07945680116467929 0.009071504820282194
0.1702679225419895 0.0940125085302076 0.08469778370452165 0.007141394026022744
0.1172443282641871 0.09120293788686246 0.11083947511960715 0.007746635722054618
0.16282161381889154 0.09416092415445818 0.11326627078219623 0.009403214323977026
0.10760194874826269 0.09330615388160995 0.10840064018065888 0.017251088184505863
0.15243827711865157 0.09294100792110224 0.11671193727705363 0.007804771666164217
0.08524316378870017 0.09002127059299599 0.10351561560617947 0.01821632188558191
0.17825122299838012 0.08661957077715675 0.10837463123559553 0.006224995020807227
0.4368895534942454 0.10218152253559835 0.218880870750862 0.013660906261999584
0.4575121612519176 0.09083529399919998 0.23873002138964045 0.011510102521778311
0.4191117617731935 0.09114748921994116 0.1975486141076542 0.011701568151769787
0.48410895994428954 0.09640035299412361 0.21399056095885668 0.012770247021965006
0.4666868226038838 0.09630071890021139 0.199156898547939 0.012509168867443042
0.5047542117210698 0.09907307589863375 0.21147785772066183 0.031603558987541545
0.4420254659273779 0.0958389999358864 0.2053462522453105 0.034260055253466565
0.5118440536587758 0.09371166077000048 0.20315857066963486 0.019210009895764813
0.5239992279886035 0.0983518924824248 0.22751196960849382 -1.0231057782279433e-13
0.41032665657706713 0.08361024514947507 0.20192274191163398 0.027143631793816576
0.4175254038104217 0.08809010823175131 0.21858399168931805 0.018304869451456603
0.42295023632909157 0.09370331346463945 0.22480620312965172 0.03738553226782126
0.5018885399850623 0.08592916336749344 0.23228039545751566 0.024011434335607384
0.4813921249371043 0.09525618141663475 0.2231837568981581 0.011998995493884109
0.4776630745729943 0.09160668809623485 0.2321583621694661 0.01580347469123445
0.09370222316154986 0.0909400329509949 0.22886222872610018 0.006622261908492803
0.1732603430958461 0.09462309868692821 0.20840699104752372 0.019907911713667036
0.1876983770852808 0.09044491918502097 0.2187499805295827 0.023286121157266203
0.15609018648632383 0.09987773335133554 0.20724515682182157 0.011651388476144981
0.16586610592936776 0.09616711340595487 0.1956147221837361 0.003015754642950121
0.18045808102084815 0.09262531449683169 0.2238545951146756 0.018957452540084536
0.17916380433106902 0.09078938109028693 0.1990387793321372 0.0012175258121136685
0.08298826971816287 0.09270117425302944 0.22121877133469064 0.010225188692246137
0.08761473012167835 0.09613901852238431 0.19744943318725428 0.0032747941594925088
0.10657078264415215 0.08734513725679509 0.22693150870503273 0.007531701384679601
0.10742312789382258 0.08331298602107892 0.23039888282815285 0.0026728162728268993
0.11867382914809599 0.08874292255054649 0.22015207925592034 0.006959142931502315
0.16962480474379174 0.09437157094130871 0.2228445260155146 0.01805023148948625
0.09205786782681381 0.08912294119622227 0.23020193997252464 0.009307472151183795
0.13999431696943973 0.08641372389576893 0.23355557405485328 0.001222738631518598
0.15337058867849743 0.08873317443457766 0.23587767140442065 0.008044009707811677
0.014196246524109338 0.06101449332035687 0.30897419145017496 0.00605989852288595
0.030360805483842474 0.02919601829767659 0.30827845213612054 0.001020676807390473
0.027298350911120806 0.0149779372818834 0.3131713379889395 0.06019295373298177
0.05220716302861088 0.04860851157768744 0.30206011403524 0.05189506642401663
0.08898822608275933 0.03959873898325 0.30523021837542463 0.0061376630553691075
0.09520353594845246 0.049863269760926324 0.30178980430708485 0.04047968355953228
0.07740699549172743 0.01690771175719383 0.30736834303678 0.05365949396192289
0.11129796866060213 0.04788863025642389 0.3009208024347982 0.025706545537300885
0.14294291638031154 0.03262146265041895 0.3093708513774098 0.026135747234040427
0.19036330840700968 0.030603224858228195 0.30353814770478205 0.04702133090466375
0.14837355130564076 0.003550454415308931 0.3039090864060006 0.03038722875375126
0.15880799312820604 0.0471077766976754 0.30437714253636594 0.013317719948375831
0.14170606848109055 0.04687757486039696 0.3029538865147846 0.005822535079734422
0.23494810634061572 0.017082457005903044 0.30666880105922495 0.007467361694900173
0.10420106817060865 0.007980854282991596 0.3053478353562954 0.08706603213346158
0.18845557674319455 0.05368269789496011 0.30579069123447666 0.04331871664737746
0.3050878638801047 0.011719637014991747 0.3108243631064479 0.006573065461168634
0.18599455192715594 0.012235205660846555 0.3002742494714595 0.05101578437924222
0.31987513539539547 0.05142883568756326 0.30504883933102095 0.032595990691882015
0.33920615245089325 0.020018864028321107 0.3032284479105889 0.05905767665803323
0.06516415087299121 0.06107552409415195 0.3013533179937317 0.03488553570831098
0.052613458962692025 0.0028443277180811664 0.3114257442931851 0.05608308983831506
0.4276659377596842 0.023932025299106235 0.3132241991100109 0.004421518292582407
0.374902817925863 0.04282420969128131 0.3061272734515096 0.0010785153238342376
0.40103367419667973 0.011980420199506854 0.3050694712301839 0.05197509255616822
0.44337011770475504 0.023160816528052804 0.3078556651285828 0.015643773267783566
0.2429862224241892 0.005521608665213615 0.3024144349813195 0.056471145193927506
0.11174143065822309 0.05598884702060922 0.2968300271940991 0.03893873341424493
0.20871454491853178 0.05536613634345592 0.3037151501942335 0.07017512242739388
0.26136242104506086 0.0481878388907422 0.3056880201024732 0.0007665158379156489
0.39005722807260973 0.04552024164292736 0.30266105440998875 0.06036822753232429
0.49184174348754767 0.027622636408203907 0.30483919140620275 0.04231025239944883
0.08280951905710371 -2.4028175918218084e-05 0.3055698810648481 0.05605820771551911
0.4934234320528323 0.05128213247885456 0.3069996152258811 0.07831588186643404
0.34557803977271456 0.044960955065432504 0.3007525789249058 0.11380210831441019
0.5090670855194642 0.03479187392277868 0.3041189107350153 0.005800334761084407
0.5147649425121981 0.014847331082416005 0.29899716977206753 0.03478637932779592
0.5331258656881862 0.036162289452631474 0.30704068994986083 0.002800069218704154
0.2250309666834421 0.05721580942855856 0.30015451017639977 0.019409014480762724
0.4727838415104294 0.002591647936685938 0.3031581262349955 0.07882696209615545
0.46412377325590665 0.04785976471904131 0.3084304087373552 0.07649322869129449
0.44894203036716784 0.06113421076060692 0.3039536542881908 0.05895111409999079
0.08366909395466461 0.060774728511483064 0.2921179021890729 0.04964317514519509
0.5636997397443004 0.05633898124962989 0.30264250661967607 0.03452949363753808
0.311621627519707 0.06282019045130222 0.30211469040727923 0.027371806734382664
0.11454716660128722 0.0030132163674333515 0.3023143746418277 0.01737612657312725
0.5622269589987144 0.008455110578588792 0.3017141891681816 0.05499614449953436
0.20369547197948873 -0.005361077545378067 0.2958283194978602 0.07624191236612379
0.42384784587457236 0.0034649956923160003 0.30147202865725936 0.04061137999265353
0.4223560385814569 0.008677118883711085 0.306090235207391 0.019023056326179483
0.38182898763095713 -0.0005207865114649768 0.3019752671811081 0.044257278938628346
0.2239910753915361 0.0028635997930822514 0.3024439405006463 0.05602055431995911
0.5884231872192058 -0.0011133306417093502 0.3019324362997511 0.04649722798012479
0.5323723190020264 0.010124322657220703 0.3018259165558425 0.037250311490104736
0.19883619393459648 -0.003242995507270792 0.3011417522353857 0.07090446863747947
0.3698658297773263 0.0031331483565669 0.3073757472188171 0.04746298471331122
0.4844589993764603 -0.0009449849306726642 0.3017985672049136 0.07402698020843039
0.5666163746213686 -0.0012239936414850457 0.3000342405697074 0.04761572034446046
0.600520836962627 0.028959365234926832 0.3012947249312902 0.0029490376751561556
0.5947423192403642 0.053538778348036935 0.29678053329727433 0.03896811067068416
0.5871752773828334 0.045586585221636985 0.30925849030962327 0.07181923380666616
0.5461742579987869 0.021831802806406637 0.30397501692692885 0.03716471774755919
0.43531386459970883 0.052589186855158766 0.3066649223725152 0.06918546536424997
0.13087907245114563 0.053676603172921736 0.29953031753186876 0.021525070295768278
0.0716063578610921 0.030639690192051358 0.30588588234578556 0.05008986755239908
0.05047098109957798 0.041892165392851705 0.30294252969004737 0.04663087069595715
0.4049573720792097 0.06704860098801219 0.27397664979942526 0.030891689852138613
0.3252856702923913 0.066267278226022 0.2165726937727713 0.0005489550045918025
0.32196251936734094 0.06505376929696782 0.3002253877060001 0.041707866323079705
0.26147245341002395 0.06885381151647173 0.26337035105946516 0.0023191122107098796
-0.004718682850975887 0.0651198060386247 0.15025014912070297 0.05340991425843089
0.13406905004543065 0.0703946547487958 0.2822809734866646 0.028025347340653303
0.010706795927196222 0.073945386289849 0.188644795097696 0.020455174516153952
0.005895411676659339 0.07323177618204695 0.23439738214484815 0.009094678240870334
0.40478485923752006 0.07240148368127629 0.29798545331766163 0.04320508387362755
0.1290555580353967 0.06481436647204078 0.291488598509355 0.021490059252424833
-0.006811882111790752 0.06112366409610771 0.1860838552965729 0.04888708676805641
0.15325126545626974 0.0744995486172781 0.2875753118905845 0.019031763541314185
0.032786138705145976 0.06465943787916571 0.14889248011598494 0.03531619076497047
0.24481008355762732 0.07607909407785353 0.24348700206509002 1.2780981618369085e-15
0.36774142646860347 0.06827859789493133 0.2193279548561536 0.0003496170324290058
0.3386996213694126 0.063485109152611 0.2179334329867892 0.004458337070644018
0.5115562144024057 0.0672510035695823 0.2728621047741863 0.01916366234799989
0.2331438873229789 0.07535719650128019 0.16202863181324678 
0.3366601539545654 0.0632687552217657 0.268989259612881 0.05701549299074448
0.02267311084125934 0.06556435432396744 0.16118070580505592 0.020092599303479636
0.01438212453365708 0.06494470990304445 0.07495851458526118 0.030856812664964234
0.10308131660922647 0.06799629247170935 0.2935264486890736 0.03715946197696305
0.2876309750212868 0.07225734390311424 0.14513548116066333 0.0020274766534744437
0.01891975986044 0.06697217116078422 0.08836927932247733 0.008111235924956736
0.25437798941918843 0.06649304713142579 0.15173400939865697 0.008727680131580168
0.4235905288083676 0.06766905999707228 0.28518967411519247 0.02734812695174381
0.01733284447214809 0.07005638648494283 0.0075462298534022445 0.005798151174155595
0.24055280387761427 0.07091276263392891 0.2796715132333099 0.006508054171745447
0.03546288520061371 0.06333391224976921 0.2492677914582888 0.019693982088194714
0.041796955995831275 0.06275002309653564 0.25716140672563365 0.003962364439651391
0.33532695153887127 0.06287134349060178 0.2400197850425278 0.007910343604198273
0.2940286464020681 0.06789241286545149 0.209590482864883 0.00118969252937853
0.5128471632649826 0.06807606207047702 0.3042674511155004 0.028641389694554948
0.18160634703104014 0.06728972821683232 0.26951919779464256 0.016071460518212174
0.02799772532706763 0.06576139406308078 0.12449408096406392 0.010133870123532923
0.4445817164775817 0.06216396023710464 0.2871655344112119 0.02040543873559309
0.05284957897770156 0.05988608686594884 0.2975217373450026 0.060606243347487015
0.01731542687324998 0.06445263720681713 0.15034549618567822 0.02204415215721387
0.2598548371932887 0.06312855262828762 0.3092682479810957 0.01666917834798494
0.013697576033791575 0.06507845824242879 0.2530333986664699 0.06942892740586314
0.10717866241135764 0.06488158393384218 0.2745840978126815 0.04180873562374219
0.5378877399968559 0.06070587427651675 0.2734496039783582 0.009215277194513313
0.33657255134300157 0.06394056476769777 0.17481314110770574 0.005715292555885679
0.2132921191383082 0.062462414936077654 0.24461870676643194 7.969604193797469e-15
0.36713550228867253 0.07456829696646584 0.2588661095463787 0.00033923524130908384
0.22156600320887368 0.062408220985128104 0.28031603965009916 0.018346777864691622
0.2666886730913562 0.06645109571558225 0.20330324547644366 0.0022895900229878622
0.4983079679751813 0.06927952041975516 0.2680303605764031 0.011499039339790578
0.15943012532534917 0.06415523737333959 0.2932868849044537 0.03277395368069062
0.002765943668990762 0.06590311020251935 0.020708061893152545 0.04293536663686046
0.20202442178068372 0.06068158354679793 0.26455115954578456 0.0033000655100067664
0.3744414903730522 0.07005870015898477 0.29508869030740736 0.04556117104776413
-0.0005552631791079111 0.06647367478127303 0.2896264001341091 0.023489376939057713
0.19524780839467437 0.07097486153791377 0.14690937942126725 
0.3405261910304014 0.060170262098195273 0.29873128985480013 0.059039082935600486
0.26135484454264296 0.06664912258934727 0.19563793665802467 0.0026011214319301
0.36233301204484236 0.06391505325820745 0.19386771668826225 0.0032570185047589464
0.09243155489007109 0.06685824927120435 0.2642961401931124 0.031802967683443144
0.30977614250380875 0.0686434907894643 0.2866020614774458 0.02304117650634294
0.30283299331772795 0.06813482373326864 0.19348259018810318 0.00098209386180239
0.45768920585788037 0.061026625415176575 0.2773519259727028 0.014096299474210334
0.33725626911124756 0.06268714085708707 0.19335803685735745 0.0012422567016707987
0.30789146768102993 0.06566613106768555 0.1699665351232954 0.002784889852525884
0.001739929863325192 0.06661569498373787 0.0554119217054192 0.025755573830035145
0.22553938759183428 0.059781740882102474 0.29510999439166147 0.024360702523884625
0.030105430258852314 0.07140304029142806 0.10084333663558476 0.004166251899540653
0.34881593773786296 0.06327131960936186 0.1942640348060442 0.0045516932926400015
0.06506081774024046 0.06439927667396794 0.2779550014553167 0.03460004807397424
0.04446410821029154 0.07430406973623527 0.04218166651457072 
0.001394405396899941 0.060634025688011337 0.22024299405802397 0.0194026662248836
0.03582799374770751 0.07086726550755393 0.058426075835481935 0.002238210598017034
0.1613075987180933 0.059944907987342914 0.29579950791545223 0.03354281340430918
0.04137027364973639 0.06097677712312325 0.2752826054098378 0.05867625634534947
0.35687104708375816 0.06545016687462146 0.27567322264448785 0.057591479684733986
0.29203998841346684 0.0653923690416874 0.25762275340973334 0.0026812293517685984
0.32372368071393975 0.06498118844294865 0.19448348112482128 0.0013013473019083282
0.28273410028002405 0.06729099381042432 0.23022108175211925 0.0019785854475166433
0.27508207921265626 0.06742198350778501 0.16766321378399204 0.0037745680277525193
0.05381958971598061 0.06976769792208914 0.14246246295258164 0.0012686416834076508
0.18817765155060837 0.061803980926384 0.28929130563734246 0.05797620608012039
0.5836301718750306 0.059967060326061944 0.3066664327339475 0.0460476657513502
0.31829890932304356 0.06579908953894453 0.26019750125444596 0.001199150613775334
0.2912273982065734 0.06672602107770813 0.290694348750864 0.032707407675795955
0.37543023089228367 0.06743977022547466 0.22631947395160545 3.448176917007279e-05
0.33774474246827374 0.06539372010604068 0.29098503432442197 0.061574275152958394
0.018302304408394303 0.0710846706759114 0.29240663007779677 0.03449365848516038
0.2389784877886703 0.07138967974756658 0.19444860777552903 -7.602160691760974e-15
0.2875662539966526 0.06517295418439789 0.23172094156775516 0.0004100228231145867
0.4912170079278036 0.05896488685271891 0.3030156716212571 0.11430481384989723
0.029953189108029882 0.06819723566440866 0.06528310607000498 0.01093525104923105
0.4835202980919852 0.06039684894609542 0.28670837215430245 0.07986437647452048
0.2700380905752822 0.06446528283843508 0.2741804647289446 0.04131999633858465
0.5854369236042859 0.07165635254580191 0.03232987351490281 0.022047587374019066
0.557299025737431 0.06479882109061577 0.26311019422019793 0.010894336748824424
0.22336375341007272 0.06717235223129142 0.08366641663924138 1.0063039624679321e-14
0.2899380529689164 0.06398687826183111 0.06197094690421444 0.0029386259533430745
0.5470560613772703 0.07500436222055061 0.12080502116924183 
0.28363756614672103 0.06977315199163912 0.1261494209089176 0.0035083478069116354
0.589350004948635 0.07085793515254546 0.1432360756280074 0.023009448835832044
0.301933431568871 0.06574554593990477 0.06148169001083591 0.007044098538075483
0.5842555451894432 0.06891817403938955 0.24364170276377514 0.009759966105172555
0.3364237961461056 0.06377301649758255 0.04025006469584121 0.002941884242798941
0.16007293386220364 0.06045733892615022 -0.004316292303295094 
0.3019696471000203 0.0662226077629876 0.1247952822888472 0.00032016965804933684
0.2680103093759935 0.06364980511762044 0.10469260655739841 0.0012856837628432416
0.33282177251788 0.06446959986319756 0.0631482346411221 0.00037447780969095275
0.587094259957863 0.06371841799161741 0.18372198717003918 0.012322927055899113
0.3732760348816445 0.06361899226549818 0.04392272625548774 0.0004639023213899462
0.5939800377161699 0.06841748002472978 0.10787490593587841 -7.633652773971075e-15
0.29446112345351544 0.06404077699662422 0.08597581763909898 0.000740226168703384
0.5886550837093165 0.06130730747152976 0.26200205971807167 0.02327496485790447
0.22920908456737493 0.06798929068486945 0.07136701120917903 0.0022489446777089208
0.3291104003437045 0.06740088673870565 0.07775393470645314 0.0019525109382349897
0.01075932650271085 0.05665157428146988 -0.0043097575222762795 0.03354365419549606
0.4262644023260863 0.06859076272542133 0.0037988858054013733 
0.259654933774214 0.06901578343413846 0.049046046117266234 0.000758962937148096
0.28745579104781094 0.07081936685348536 0.018922789473260846 0.01266135371605904
0.4453782719905841 0.07629314436532957 0.017049472420890898 
0.24056308289043596 0.0638545885938132 -0.001505503106278303 0.009419675906374214
0.5862073130313044 0.062385382986774984 0.003194634246745554 0.011083532539949014
0.500833800797337 0.06493653481599686 0.009693431725168837 
0.2667480737573215 0.06426116581660199 0.08630790150836032 0.001865255661668122
0.2501038639230603 0.06791010384119422 0.007749687025701012 0.005546373686127085
0.37892017906494835 0.0677706806326898 0.1170054684854544 
0.36209619993602543 0.06966110815169768 0.09654616676155575 0.0010161300147457553
0.33385267624813775 0.06543065787605862 0.018666438452661582 0.016305129904633273
0.3093399574135701 0.07332317862199594 0.020277832965364298 0.018742990257228902
0.2128066989529787 0.06988174512109314 0.04027539640996651 9.979994483232595e-05
0.2840213599236351 0.06598761960879625 0.02912558530551085 0.011975589018998829
0.5514111800230554 0.06771521895234486 0.13956337482278577 
0.5981990306360895 0.06477966393033288 0.16969304799637158 0.014810693222729824
0.08402230454170352 0.0624407962891391 0.001947319843543535 -1.8861369542775206e-15
0.5397475651120232 0.0641560375133337 0.26067456337668216 0.011945174871876487
0.3614113394274938 0.06354963801092668 0.009331709616797584 0.0010252985393081897
0.5811846919035085 0.06500135202021161 0.17216084589599057 0.016193917921035243
0.33870167026591014 0.07692121760104437 0.14426891597659003 
0.36644154548473135 0.06224659831232512 0.0424104008082352 0.00031973563464919005
0.238171638783209 0.0659644293435401 0.057952725516932514 0.0029809488250152664
0.179346660438951 0.0682086896494979 0.008585952983217014 0.00022270645874137717
0.3621903709569089 0.06372771621469668 0.06290752027475038 0.0006288493589032057
0.5655061714183908 0.06446329570552332 0.07658618083106003 
0.271127750105614 0.06651917202369194 0.11841608524803769 0.00491625623544502
0.3820810771802896 0.06927030312989144 0.17653811424595198 1.5757392307301115e-05
0.29856998416305675 0.06649374588257848 0.0048283940353830435 0.024680362136395063
0.31525090975217435 0.06912159592223785 0.10376666597702112 0.003284435737160745
0.38410620950761126 0.06141629202074466 0.011717893834521608 -4.901450878081345e-15
0.5634121410092381 0.06721394269444923 -0.0029155052186414184 
0.3769784487201553 0.062468260317693265 0.14345290361995444 
0.23040696389162543 0.06707098504086377 0.0068428960578242465 0.005369106636426172
0.48939551524461883 0.06734596694676205 0.007916975959581055 
0.3389734006264864 0.06643428945474301 0.10455947661620739 7.125830968172915e-05
0.3688060851650035 0.06402282388691487 0.1826865537364759 0.0032631185746325397
0.09391701775787123 0.06455579913151095 0.010501254402080999 -3.694454473273497e-15
0.3100570123763406 0.07402691176242338 0.02413660650603841 0.010893036371548434
0.30749066879249026 0.06724511575459442 0.08936820640110246 0.002146648457181685
0.22971294332109599 0.06621962476910338 0.1140982439769636 
0.10529208875647059 0.06497351669327643 0.017180820639040528 
0.5646219792838562 0.06597295967742327 0.28301577193225896 0.005745222969189599
0.17344057367737525 0.06641548355432415 0.006323474616043462 0.000134514651202455
0.24399946266671724 0.06568194776069049 0.029454493920786737 0.004882929324166251
0.20205050484537374 0.0701166898562878 0.009765355283718821 0.0014196184515898192
0.5815326377534372 0.0627873199270189 0.21284956313676556 0.0018262512241866925
0.023733898798181455 0.05522581112277468 -0.007443802730471378 0.0026964460369340174
0.25520087163645244 0.06169497827776228 -0.0054566162784275805 0.012357462132202362
0.07071060177143161 0.061133100438103515 -0.005875564970800368 
0.21180493490257352 0.0641569336490119 0.0006354842554980464 0.00033925075682527116
-0.0011252050925755893 0.02408940521157163 0.004551768332507698 0.0823847915670266
0.3310866510679322 0.0037031627655419357 -0.007263603612661943 
0.17380510578406447 -0.0032733478620339687 -0.0034923907528633066 0.003003073819640276
0.20514126366727564 0.0008254499600536952 5.956100533077185e-05 0.006672219330189918
0.5884503676525513 0.05415228457531325 -0.010811306768304574 -1.1766210659504557e-14
0.5622167384822792 0.003049311872667216 0.0043424821822641855 0.006283460083713678
0.5917841084450266 0.0042763520312005645 -0.0017209661751418628 0.002147034935110148
0.415609290689062 0.003805140836085588 -0.005386540495826469 0.00042444444500252523
0.10496803645386572 -0.0059915141984063485 0.002445691810198857 4.638306780627788e-06
0.36590201831425784 -0.005094126067121665 0.00638401764714593 0.004714239599912199
0.6116393302269799 0.003288539870506206 0.16717042655056283 
0.6032432009422266 0.0031480330566380074 0.26541590723362185 0.024294301247416626
0.5968734768242849 0.06478052526272489 0.25371591856538217 0.01251441543371809
0.6047649156702497 0.05438294102280774 0.2151789252590084 0.008234544023296842
0.6072612298199671 0.05121965466707983 0.13402414479116384 0.0032374378464825114
0.6044921059426203 0.05416809017597169 0.16394369704634798 0.026150462719168047
0.6054044873177498 0.051865129411853755 0.0629617106795593 
0.6037567603439091 0.05515852117735373 0.230560066260447 0.01229619062030829
0.6006697428363325 0.04460650933255311 0.28727330183375377 0.02064945520021274
0.6019421724174345 0.06146607649968331 0.03992857241725254 0.02748081612621393
0.601266690724612 0.05774085961617384 0.006903878516027801 0.0109259789988576
0.5976262529309564 0.06935016179688488 0.10746498906248178 1.152856971884005e-13
0.5977552457078196 0.0697275641291161 0.03152321899854955 0.013610199822180511
0.6030686313815659 0.05664139393402586 0.26468995837955733 0.010331927300805116
0.6030734099285784 0.008387062497614431 0.2859725279745489 0.10208565323351629
0.5933115412299323 0.06389645771312914 0.1796567920821945 0.009745737740896036
0.03500759029750052 -0.002447263634728747 0.2327633123061269 0.0038126173070749877
0.4513214793960243 -0.0034840440525570745 0.02918684731719848 0.0022937028038117107
0.10055675114919557 -0.003087523181343207 0.19899039904251017 0.0032628983529338694
0.08172379469518012 -0.004866920466895511 0.08822685313234375 0.0015326888599415515
0.397704448775757 -0.006617034206030483 0.03650118182836918 0.0034754585420744472
0.0253950533061792 -0.0035713750563557984 0.17641026220726166 0.004127864241562047
0.5373785174571398 -0.0032896667431244505 0.013897106436049194 0.0083564226826894
0.29283690319966205 -0.005956533486084344 0.037001143101355154 0.0036957054955118005
0.03411357859119173 -0.002491365591581451 0.17146924212290074 0.005261662050784057
0.3293750809928194 -0.00440901229520331 0.03497479757489679 0.00695887397097736
0.5504360857649802 -0.004215190016049725 0.028564677913766965 0.0044045846189765935
0.01885026995622667 -0.003753164597912445 0.2526319443955512 0.012097483975661771
0.07085859247998288 -0.008472530951949992 0.11468846816930056 0.02252685097500021
0.027051626333603522 -0.0026124856815007208 0.048706528801483115 0.022641979063622284
0.2411244717580058 -0.010165750748014082 0.04737795402657708 0.000703868726541008
0.05261351401044079 2.7278254222178585e-05 0.2667865367099631 0.005868131342298208
0.3489407449321049 -0.0069746373517628624 0.1279298697888154 0.003555105983196205
0.5020083432892267 -0.009432465899888644 0.027825543101926656 0.012651931079342774
0.29210157425301525 -0.004392694317305979 0.05392898564581701 0.0024996723981132634
0.05849931655417552 -0.0047939182310525255 0.015103013770308735 0.008305749802729447
0.30130420482823406 -0.004013422572748394 0.1067859342346056 0.0012770320827998514
0.1449265932522718 -0.0030563003622298512 0.03527468038238318 0.005734851165181443
0.09335199546327273 -0.0027003792400433057 0.058891130330876285 0.0013897547201738663
0.45229399366385453 -0.00568849835050419 0.0540102055934265 2.0546905772017373e-05
0.09110657841541511 -0.00972128498913309 0.23353077729408792 0.003912823312005861
0.06691773018666033 -0.005933427775031527 0.2209982808178604 0.0033746057534805906
0.07786573892642938 -0.0026919547653151818 0.06995807927240864 0.0013353915964152995
0.4351216852472696 -0.004789210967324505 0.0623351940008382 0.0011910003580329956
0.24972121117809437 -0.013577074088223373 0.09470763010604273 -8.21329344803945e-17
0.07690445541283994 -0.003539789664797412 0.17506290312710251 0.006096638387768111
0.22614429928881863 -0.005319981662135346 0.13992531531668517 0.01185076612390135
0.17949017015395907 -0.008444968506551118 0.18314694305929782 0.00011306401198396636
0.491727466606766 -0.004750337092239017 0.05443678434171922 0.0025469931682565897
0.16667433138974647 -0.0073888189247876945 0.13909724080573396 -9.79825488113804e-17
0.2958164887689564 -0.006121360125907263 0.144624472660345 0.001364985602105463
0.18574267133057365 -0.0020006751845304317 0.07571830873792629 0.005489898031273897
0.3049252346496643 -0.0027721684211283893 0.04394786663830564 0.0024667035906007057
0.23332044933906332 0.000742759873229361 0.15498044522599963 0.005603468476564679
0.007591594086583249 -0.009687231414455029 0.10479807002283216 0.07536953768179919
0.0027612909147485837 -0.0070706200931990836 0.07205971451115036 0.0669895934706572
0.12842765565524134 -0.0072388240136927115 0.039831839704995924 0.011796128403684384
0.09368702718352767 -0.0067790159314157295 0.21795815702818036 0.004350091130596142
0.03567334195830021 -0.005759904484162483 0.02062906122325932 0.002911716697363361
0.2371625222445379 -0.009003649944832387 0.033087652348650215 0.0005624976138956087
0.3409948665962519 -0.009332588715088316 0.0905531470308792 0.002633227436899659
0.21315892775524625 -0.008559515540166682 0.026656424797256596 0.001186755369588169
0.29917516023983387 -0.007014015828764791 0.13054357614160436 0.0007249167255400465
0.2005752580282769 -0.000959197245238228 0.10658266856848624 0.002617514666545182
0.07474362225276732 0.0005542789372362037 0.036630631107994784 0.0010290940736646036
0.06096934684981666 -0.0008038140215986724 0.13768104352416569 0.004227159652089476
0.31859011009553 -0.0032679932836190396 0.08429843832453457 0.00837391615718601
0.15976863079121228 -0.008728274893223366 0.07564605369768389 0.0008490444872931199
0.15510540624750913 -0.0054200078134796804 0.10686122379164048 0.006956578325352399
0.008401757438248066 0.0001437276663880932 0.12204633209910483 0.08418630394577091
0.06262090858618156 -0.0015990322937981935 0.07049313903651416 0.0010226209725299612
0.3095114955044761 -0.004184520057606289 0.10578323673979699 0.009711608548674732
0.1365891357990689 -0.009150542348733685 0.005983940336008235 0.003014100343214654
0.4516290698322587 -0.0008908058666458072 0.012906361580214153 0.0019172847753764926
0.11834553880987632 -0.006210760049096301 0.19033517544432507 0.0029193226864717707
0.02699771221074767 -0.00035139180207923294 0.08031752064894246 0.02526272648636178
0.03539764844611493 -0.0057529351896750515 0.12693599895219068 0.019348096087548818
0.2751523665765299 -0.00665378044320915 0.01101675479213269 6.383461575135512e-16
0.5642625823551638 0.00045973365808866406 0.01067183472077584 0.007601088769100728
0.4131284399265192 -0.004558360659891634 0.057927250958770736 0.0009280314027817246
0.41800487880471443 -0.004124820725933187 0.05181498698900032 0.0025848065574848346
0.047833629669778235 -0.003447032735905779 0.24913496673947047 0.00342851844917756
0.1334391841557294 -0.009680092069594226 0.05912445524395926 0.00328772461735601
0.06393676788347843 -0.0005916324306185188 0.04070845645747094 0.0027903564247661063
0.1841254043244921 -0.0024167801365806187 0.10645461889817219 0.003948675242675582
0.06212665309048864 -0.006561071457026925 0.20982755047050752 0.0024520451572930127
0.037057590344148975 -0.004233197335554799 0.2632547715965117 0.005098919988118133
0.5129394167681687 -0.012766504989421064 -0.0039933597055674275 0.02489865529028731
0.41489809111239956 -0.005020741386898378 0.035328162214646304 0.003147199611869281
0.06776068207929449 -0.0007970361484372348 0.14710914434869155 0.0036740712961626713
0.09966852922719521 -0.008001199645041904 0.16112324143463233 0.0035926088696864493
0.43481577964459733 -0.00235821125400304 0.016855807600113928 0.0026112430555152943
0.48743600891641836 -0.0037404092645090944 0.020001959658500136 0.010092755267577427
0.047516780779971964 -0.0005898785794277918 -0.005338428161517281 2.16245730500781e-17
0.3114402813014731 -0.002253880976880954 0.047051014770409974 0.004415741677157673
0.20940374800734782 -0.001745247389726684 0.16076183381201567 0.0018160153281226716
0.17836853623968751 -0.0018224198323183417 0.04454916830052752 0.00845204684442436
0.1681530787010392 -0.004487066672730417 0.08915260632912694 0.001719897326912941
0.13034173767486498 -0.0034665172459498444 0.10249789570757774 
0.06997076630683517 -0.003604866343638163 -0.001944327632946676 0.005597926502381416
0.40007033312071516 -0.0036646915565499644 0.0640143861077853 0.004805572074265484
0.08584621374879309 -0.005263971861003644 0.01871178851706571 0.0024944337911941322
0.09428718142069129 -0.016490046147784737 0.11976871824750501 
0.18540992432546582 -0.00121706553284193 0.0027770071918671755 0.013220867013537464
0.15377815961395067 -0.007088656843219065 0.20837479093651584 0.002874810729819395
0.2259765463233819 -0.004368822998405329 0.1170885102068338 0.010634297568556049
0.14453192793483205 -0.006549757020461257 0.11509281950691083 0.0018122493297782593
0.029232251348542928 -0.003575899131587683 0.10861198384721009 0.035430316960023474
0.3664073774788332 -0.004140009851398427 0.03760251562239362 0.005416836351247954
0.014054798977853191 -0.005045167373492977 0.2038008243011418 0.004042566440439953
0.2809780167401526 -0.00816061835024471 0.14163903244226242 0.00010415529350769106
0.4502242998580776 0.0033734215904981995 -0.002621010210823991 0.0017955273575651974
0.08827406183268333 -0.0050291515784183305 0.0023655474160539877 0.0053890932992182675
0.06411964028357557 -0.004473491062870343 0.17431881046511477 0.004310749304845327
0.11580687609146394 -0.006935364272637129 0.046407410989069774 0.006438052419404808
0.33749926269256114 -0.0053025869963144795 0.06980703928742212 0.0048973517586405465
0.3999126952472565 0.0008117064537341734 0.10163227184181536 0.0011882780000456708
0.16468825658066485 -0.0006658206276448864 0.02253206666955098 0.005536346851868731
0.28138433108606326 -0.007402497580176473 0.029098415822116315 0.0016093851973656662
0.41550388214184836 -0.0015269218757042252 0.01198006624992531 0.0029203852781803986
0.053951599957997594 -0.002003046581995897 0.055279128045640225 0.0031577979854795343
0.37852893728688985 -0.005184720897697384 0.018962377740464414 0.006481101362624745
0.15061458942563336 -0.0015755032303504566 0.029844226468363513 0.0037374635200692254
0.11447121202752984 -0.006044463953826801 0.057982877345358265 0.005540872114435335
0.21427278402940456 -0.0018655761456839426 0.10520858760951808 0.0032551695256208294
0.17569702045849145 -0.0007239514954243894 0.036899857014274284 0.006219514577297574
0.08807237870844684 -0.005833564712824411 0.1615307578328577 0.003865789287439946
0.024540406245510203 -0.00119294039981679 0.062384606520116966 0.06077302620082101
0.02368701269913581 -0.005787872785503336 0.2310146749419734 0.008042801851407275
0.20501354709692576 -0.005035934334116066 0.1507817122825376 0.005835713564205036
0.07759632277801466 -0.009788747373943585 0.209928201453945 0.0036375423573729113
0.36801801835486253 -0.01196725909045462 0.06823465154363104 0.003150333433570098
0.24983770249212783 -0.009072820332779766 0.1444656670840849 0.0030564435621176487
0.5005729604750513 -0.013774057645591838 0.004907651214346137 0.01859073139634546
0.19763800323886407 -0.0050222099703272965 0.19660026425567836 0.005019074326532894
0.15681420424509973 -0.003963215745085217 0.18579422849068467 1.0831952518978833e-17
0.20815124745525815 -0.0052549130225067525 0.07666467279891437 0.000445689407398327
0.18733309684754837 -0.0037795725814381877 0.04837765253325123 0.008581174878877064
0.23575199440989575 -0.005514747544678641 0.00011352300497648551 1.7148493009802534e-16
0.17996911668927282 -8.066253298789287e-05 0.00953748995893471 0.007767885959145464
0.46712211747170607 -0.0022314794563969105 0.008208220946331016 0.01533881578657901
-0.0047309168282009765 -0.002043881010321289 -0.0009283452893512551 0.1101705009585561
0.2845593892076769 -0.005634344190996891 0.15085579240877237 0.00022234940497510724
0.047648173295803196 -0.003754492848139771 0.1743888708270489 0.00375156112329254
0.2853206033663557 -0.00987074061268272 0.08936077663689551 0.0008905037771231471
0.5238140073614972 -0.004667130283012483 0.01757686846185979 0.010611781082671967
0.01923942205095479 -0.0032245774879132746 0.024099319971236675 0.06384626350687773
0.3521003727272329 -0.0016365851160115086 0.03794184510394559 0.0035806977738426743
0.3188398885700495 -0.012202476475764277 0.009027290815203598 0.00524307054230067
0.3831749396068406 -0.002453489165134843 0.09410281885571545 0.0010797720144690142
0.26699244515928533 -0.004972959829900919 0.025618991114480363 0.000777594672116457
0.31520933478892227 -0.0024116667888534732 0.05952338009020783 0.0028400194775685685
0.04456339539851357 -0.001468038967453112 0.2086925713107738 0.0023772521035695412
0.25491619404381693 -0.0080433328429183 0.05096633960300634 0.0026040613306082174
0.08153725886640677 -0.0066982060006384025 0.24241051046388198 0.0021446286957712067
0.03573213480872613 -0.005591042962374707 0.14806433516375905 0.0035998827411943962
0.1249283267337603 -0.011651047607787983 0.14924892937750195 1.2684966707021795e-16
0.3944103990731277 0.0009913383934982394 0.009269713381871504 0.0006727915212251487
0.033771917395774384 0.0008767152575755786 0.06663785381768152 0.02899707949208378
0.1865908049398599 -0.0006561434745852887 0.03193750330757507 0.007195735000268258
0.3369840790888166 -0.0027118200558548773 0.11943835739615219 0.0030950144955069012
0.0054379381095370485 -0.001687145457080901 0.2787261076827207 0.054583790251587334
0.04244290971300491 -0.0034739962417801654 0.11492876358974845 0.013136169375360034
0.045699800220369624 -0.004414833015423432 0.12056273000340252 0.010223774444731036
0.17244954143433175 0.0003364184828955278 0.28638835960330616 0.07025162938316082
0.5283580634919772 -0.0075901996179636635 0.20058260300850342 0.001865941842903
0.28991292710376265 -0.005194118158372724 0.27529519827925225 0.008001694407435955
0.44518829129416304 -0.006127423188180867 0.2668955539995925 0.0032329368376943584
0.2747894767693007 -0.004361057475961755 0.19993522762173427 0.0018437240684239446
0.031546299679487286 -0.00623631883463856 0.2865509376464096 0.021842257185710746
0.18782479298066154 -0.0015670025602434836 0.28340593387845797 0.10494228425544908
0.5602713441276861 0.0004877129508375112 0.29818008804948437 0.043932495226382456
0.018660855933177033 -0.007553760169516362 0.296544400121559 0.022722769806160108
0.35013989474393753 -0.005780772382424701 0.1801879402237565 0.004338953718729243
0.12187534254552337 -0.008735763077671939 0.24223516098283357 0.004409154647933121
0.05187231789526933 -0.0014435366297372424 0.2928469932791261 0.06679179753855354
0.3217198981568167 -0.0053073662315189655 0.16967042556331288 0.008108810536320754
0.5914369969567668 -7.818209641711999e-07 0.2502717374589157 0.012459785829248097
0.36011067118491963 -0.004303186986658119 0.2597170059395233 0.0039018093668431696
0.6041575864929797 -0.011142778001590784 0.23310819912639583 0.00022567367723548432
0.517661564039905 -0.006592521075913189 0.20752961612685844 0.005024576624971918
0.46614260077825104 -0.010626619838406135 0.2292260528259491 0.0014894615898733844
0.2547864294778479 -0.004221061936856298 0.20970891720896997 0.007581084414607425
0.15409634114825968 -0.003501926098298671 0.2837212188765205 0.011537769387975598
0.5479567015456591 -0.007994619372132743 0.12198681791822141 0.001846774699710087
0.17977069815257224 -0.005264634707260359 0.22508976173855916 0.002163665718342734
0.5377622706856424 -0.006017659773635655 0.09442056332056341 0.008350039193912515
0.5642451569714675 -0.008735817954132042 0.22625949946768387 0.0018636154729159441
0.5970009162307155 0.0007551119444209739 0.28921378864981473 0.05396671035137033
0.2109697596114126 -0.005896061461663341 0.24831441029612214 0.00459207143863367
0.45866407981196533 -0.0007403779711372542 0.14485686709925163 0.002986166093002564
0.25947088142329694 -0.008156800509560455 0.19437787733118694 0.005593591360721544
0.2248684050788926 0.001651344773815934 0.19122278826113753 0.00508145054286156
0.4695303931737967 -0.006136505035819057 0.07749024383987942 0.002106404752006092
0.38010505210715784 -0.0076231830828679585 0.15143462922897719 0.0019508556561617912
0.5646877317301657 -0.001929438582762339 0.19468803935451728 0.0035608075345595217
0.5564640254541582 -0.0019470087425814387 0.1809725462314076 0.004810363818146634
0.3386524540547889 -0.005543820651523935 0.24451879347302335 0.002036043374425978
0.3564216804330488 -0.004020412132327262 0.27611901465758754 0.012269884880225535
0.3332477071913719 -0.0030420269446246955 0.15906907683721946 0.003977001818042254
0.2765182363574708 -0.010896865751264972 0.30350129548562116 0.002209787192007093
0.5752363479545661 0.0006352530916592441 0.04181980918089189 0.011368947917796357
0.35877798232240754 -0.004299379025564371 0.1296487939130581 0.0026969041589557947
0.07587827634807888 0.0014171492254176203 0.2868154354271612 0.06150230302316099
0.4243778117745806 -0.0017470408711580852 0.10021788260213375 -3.2365276658951754e-16
0.05895031265690212 0.0002074563851975669 0.28864303324829954 0.08603976605225193
0.3902526747945554 -0.009893697325893252 0.24891871047244932 0.0034847309500069352
0.2300680894773997 -0.003799436919404769 0.21553880350545152 0.009234660276997047
0.13685594607561793 -0.003245447509845368 0.27413108341159054 0.0022818279856758423
0.5036574410917461 -0.0025296717119914314 0.09848385934228022 0.0008681410396415818
0.501548856284899 -0.0038853547396854294 0.22287111216772 0.003267095392685518
0.4260133639394989 -0.013408463256174522 0.15273566261768792 0.009000802751688585
0.43138817885647507 -0.012562484933023681 0.1678380033943022 0.013658506281336908
0.5058632260404803 -0.004404253785363012 0.2930836478361542 0.049804922284623326
0.3719794294778148 -0.0023859306741369126 0.21731298268084873 0.002319707760049345
0.5885531456022605 -0.0029747494108407963 0.08169010609746524 0.010580813360664498
0.33737278587129876 -0.006167221475894713 0.29396847961407807 0.0642263430209279
0.1767353852349362 -0.0071677748544658896 0.262266913187545 0.0033940635097339756
0.318045503527401 0.0014812056980891967 0.30294954770757715 0.049830688212025645
0.2574838624930697 -0.0038694427557755423 0.2782129527599098 0.013818489180877818
0.3978547704082715 -0.000224709440026828 0.3023166332520153 0.014631226812111995
0.49739691606964526 -0.005521958161959625 0.2026511019978182 0.006063455510647617
0.5432815712187571 -0.0065622081484678916 0.14283424004213585 0.0055220037192677965
0.49804531974496896 -0.012296353375400068 0.26606874283446325 0.0024819407430995304
0.2282697125892489 -0.0063461699191108365 0.2683474848017958 0.009570495408696547
0.21154547048262778 -0.0012213195333090811 0.2692803962680661 0.0066557175885857385
0.40766445324300987 -0.003658813239100887 0.2097454450127578 0.0025556942326043944
0.4445083571394404 -0.0068524610457500225 0.1611553371231614 0.014313338110180237
0.3226014360733475 -0.007888927548164313 0.28289097559900817 0.04512525711565717
0.5776874579030455 -0.006438091144529398 0.11748243095365958 0.014155234857628731
0.38967053561760845 -0.004198034310050236 0.18838459155320803 0.005170185364123754
0.4739675669426825 -0.0024607603183381304 0.0997899367615514 0.0028476608644369406
0.37443819086957053 -0.010567369559929641 0.2947143951111722 0.01939979136661391
0.5803832371991516 -0.0012357949564688702 0.1917298974900132 0.0028652550179294038
0.5117287972857685 -0.003236117246003948 0.13827641988686956 0.0019789814535509324
0.45525247189037515 -0.005568389815270846 0.29610452096720263 0.04666040800468481
0.25485640524669795 -0.0021179559048063556 0.29188628270579275 0.04657017550940814
0.39796058729089834 -0.005320064319473676 0.284525862243778 0.03537071624798342
0.34654403644420784 -0.005084974851076075 0.180525963882968 0.0053054774477749875
0.5134176363266363 -0.0030808057039829473 0.19271773971397546 0.004336853915062497
0.5328929601966313 -0.007809448599860998 0.08215724915386866 0.0031269956645396096
0.09687187184864943 -0.0022100229820097277 0.27266100286425793 0.006167234197586727
0.11479969123522944 -0.0013745198302453064 0.27266388159357463 0.004053870018712638
0.269876024660369 -0.0072361105462092935 0.18170509028326778 0.006066102279801455
0.28565363260676435 -0.00766876056016871 0.22042375168067618 0.008029718770587897
0.5391371963899626 -0.0032208675852359297 0.21050318739479165 0.003519209380421681
0.4117232902741352 -0.009320265010956034 0.15053520236650414 0.0067419160862529585
0.5899712239539947 -0.007836559145146213 0.11012401825415583 0.012868033569871856
0.13733932303710789 -0.0005012707020203614 0.29321508228519355 0.044510197186492205
0.34153981388226323 -7.255521164598711e-05 0.1966897730726349 0.0012845966712318891
0.4200378926485491 -0.012451337672348899 0.2664556968765268 0.019365973194679486
0.5933463639304922 -0.0025351943366939615 0.19918076287052253 0.0038847511745189705
0.4782649224033688 -0.0067517756667971355 0.2652906448226889 0.0072346686716614865
0.6062436308067819 0.004251478118154372 0.10124527957257638 0.0006116573173822496
0.5747947996823931 -0.0002624566556448164 0.25554548331580923 0.015104992273595956
0.35189903031412095 0.0004681667497398195 0.30179774009646027 0.05273669222832815
0.16134151629099378 -0.0014984188828561572 0.2921395071037774 0.020975257647057568
0.48531756433215156 -0.0062209311251111435 0.09537267739733177 0.0010638086556344815
0.4283159703542932 -0.010584867203452935 0.28973135742919515 0.022063671128261936
0.5722660633373311 -0.00440477138242459 0.21409985053087852 0.0022864909848731583
0.1933876917264447 -0.0017803457232265668 0.23698007983806293 0.003760134477736918
0.11360147770143551 0.0023403160886455543 0.29298207632494927 0.005630832041961082
0.5540306102884532 -0.0068577127648485475 0.04248044243436987 0.003253698382525234
0.3330536101730835 -0.004456282108420223 0.14931599824704272 0.0019164303638596544
0.3995210395351147 -0.006868714853884115 0.22779531603116723 0.008983900620259435
0.39127792662086563 -0.006708251228198378 0.1765052215941756 4.321735694483714e-05
0.3884105810572793 -0.008516472117623136 0.21927196330749704 0.0032258064919576247
0.08519151432876092 -0.004539511845266664 0.2717007509084234 0.0036852364978601088
0.5524610226518123 -0.008072723603393742 0.27852978608663137 0.0637119580437419
0.33083481277335525 -0.006631892642711147 0.25098188012740624 0.0018161840713639282
0.5668463902737881 -0.0016200278698551612 0.08475594877225262 0.002762646149667528
0.5354742413245741 -0.006097897579259119 0.2752915688378285 0.031223915715282886
0.551201141771485 -0.00585307511747057 0.2557383839672723 0.006166611305973718
0.5859412007241287 -0.0020859276340440447 0.07376330143556173 0.009926342950716772
0.2290364878182497 -0.0019108166620356946 0.2963965116179172 0.04157352273928168
0.10432304423777757 -3.126212515056109e-05 0.27959168436549764 0.006943977435155291
0.3589443503673086 -0.004328847808653076 0.23195353996211016 0.00402308037952799
0.14540918672956438 -0.008186161424170642 0.23335909544313474 0.00022606132904575825
0.31843075181746805 -0.003725968252616008 0.2382985374905047 0.00033929171623202543
0.04962005430797546 -0.0004357686464703928 0.27796861489961217 0.008379275642282772
0.5903676553292669 -0.0017896166744651928 0.01802147659552682 0.018090204330742835
0.5010129501551287 -0.007610175396962199 0.28365253003626034 0.02827116739691303
0.5631098316440107 -0.002741106067430951 0.17431062046423462 0.0031366024657144133
0.2892479682063976 -0.006243444175138021 0.2336731762869301 0.00901084697835013
0.46509284748211094 -0.0038501056047544964 0.2671196000209642 0.007322660349202458
0.5493167216795495 -0.01002548084358845 0.14878983376755023 0.0007166886210643657
0.48664047689656 -0.0016168805937217354 0.1428780607786497 0.001773063149308275
0.35108884047068084 -0.005351312429998049 0.24306793066229043 0.005049841843262574
0.5089946613359112 -0.0025128970628169804 0.18813565819602435 0.0029785169455658627
0.49136878123254485 -0.006793569970398259 0.16348360705684356 0.0014678639552604849
0.5026938802069947 -0.0077014253577728 0.07452867717384527 0.0040384479752713625
0.569572099285377 -0.0023212015458205825 0.2713533712010183 0.014601383595965687
0.11548048590115809 -0.008005666775858091 0.26116270516196827 0.0015264212726988373
0.3837395454663114 -0.005159666692929307 0.12777580775645958 0.0027409972118650756
0.268186152054463 -0.007795706895313048 0.25344630309415234 0.004121339501944914
0.6037642394569738 -0.005035041759057591 0.014568523754237587 -8.45482761082735e-15
0.5824142924934109 0.0018270701948367477 0.04861180597907587 0.0034164011460083806
0.56034913021546 -0.004486502016201097 0.03027267729112566 0.006938952035059392
0.5072820592714009 -0.008016688862288414 0.2402710457108788 0.002901551707106709
0.4912489077289155 -0.00604268109676924 0.19976604263086994 0.006415235419744397
0.5116843704996529 -0.0040484961738174894 0.1511077947812081 0.005062041376815528
0.21480269779856917 -0.000728163115629701 0.2009483474219625 1.6690332191925727e-16
0.5423285942174273 -0.0070830802962932185 0.05584885486437379 0.0014810312457705808
0.5351822578187121 -0.004113712499138859 0.29227335071922467 0.04970934588792965
0.5924368573149366 -0.008707711611135604 0.1290759373755808 1.905927351467475e-13
0.3588447064818317 -0.0055325801899113345 0.14267095776756974 0.0016771332725180142
0.30181305499787914 -0.011884710330709177 0.1901831447492938 0.0020507245938419993
0.5388213894870864 -0.00424246777553212 0.1957642791004123 0.0033957112603577345
0.16199494428882394 -0.007568795474639878 0.24953240027182913 0.004332616625730255
0.23262795797281116 -0.005211051112998838 0.25217165037963074 0.00691467225249105
0.4446078906619205 -0.011514614745357836 0.20614021589040646 
