x y z curv
0.23257953375682408 -0.0025690856730026636 0.6396015791217237 0.009484315173645935
0.24364985699738118 -0.0010052263741575352 0.2606762466495977 0.012910591650520628
0.218870502188927 0.004347367843287452 1.6089976014556138 0.02311619862561881
0.23924833017347782 -0.009999718652072892 0.48614885334134433 0.005543254148387226
0.22527583433709372 -0.003853720120195062 1.3711627183626987 0.011079314778403607
0.22419887045485093 0.0017701690335898976 1.4772527969014484 0.010913583024518416
0.22555282871654544 0.0035524106584393874 1.5769976608367544 0.018935988555392184
0.21834874805569296 0.0017640656688765436 1.6971633732759184 0.019091521066635347
0.23191877890543122 -0.0040047131199508436 1.6086722452384292 0.022349654059068694
0.2389650780767198 0.0003036574826622558 1.4347095945485855 0.014115724530679516
0.21350386335392216 -0.003847339049131141 1.743150876442142 0.016385689631099886
0.22377851263856935 0.002314760584580208 1.6629559751126488 0.013138815644650415
0.24108986121320042 7.007973061903144e-05 0.22278498723361073 0.016150761887141943
0.22430994261205425 -0.0024511066764461775 0.7973121616111251 0.008347273799503964
0.23771000339723525 -0.0006127327682521771 0.28998700937141425 0.015262174169902262
0.23927048771244472 0.001231785806394505 1.5774844584923011 0.019020242120693746
0.23988658306786573 0.0027473747827240574 0.5537622868927218 0.009320487740245091
0.23315298572587562 0.0027265107155360555 1.1386166904721189 0.013316505594076121
0.21252982546320112 -0.0028405754027298934 1.4839118232671538 0.01050857896811404
0.22691977965251867 -0.000759264451228365 0.6128372515732249 0.014078726633682901
0.2326927842608532 0.0014452923931089826 0.8983610857074529 0.010321752778655574
0.23777447950628394 -0.006895372520642276 0.6823192713330426 0.015758451107760175
0.22513320268440665 -0.0010249312421068274 1.5995406794229245 0.014393570818604505
0.24709196669119501 0.0018913275694635934 1.1913891449899907 0.011697973853136059
0.2274604813706 0.003962536393950316 1.3575663730041125 0.011163073097554188
0.23375576248982197 0.0012524533964756491 1.165283728774262 0.017812774609912763
0.23298716100706549 -0.002481676370449065 1.309248874257155 0.01718573309588585
0.24146271496780825 -0.000978304060323686 0.9587676138912876 0.018228393317161133
0.23960119764851193 0.0036403271005114733 1.683505236589866 0.01856003912108817
0.22311645336408842 0.005789741725841944 1.625626760342171 0.026360720557924065
0.230420535653888 -0.0031133034030694385 1.1260267596170306 0.012238335119163697
0.22817621168585844 0.006098773216345083 0.9466277085109351 0.014837691226257207
0.24637394998240517 0.00623831076480775 0.7988520593705394 0.011501520377662486
0.24544506074668215 0.002205320125003096 0.777700536847012 0.01813503367450211
0.25012373574040037 0.004465452823594388 0.751164224632501 0.012114196801464663
0.24326634447407858 0.005982799281472568 0.9923352281216564 0.02180017558562364
0.2357486526084103 0.0038161446806762606 0.5012086914363112 0.015345738829688631
0.22775090872356685 -0.0032818967181553697 1.4402115749088933 0.013059668700574666
0.23992184347499712 -0.002811217989346872 0.742346125191918 0.010080589394448426
0.22080125411102314 -0.009758230437387388 1.1605648024656754 0.00997736107861884
0.23701368826058367 0.0021448071106300185 1.365939193901881 0.01047148196920331
0.2358931259935494 0.006024525459593725 0.7972985640662721 0.008489370462418695
0.2357079260609611 0.0019272686594039722 1.0291781806230447 0.011214975599529347
0.2157751115126819 0.0013403957138345833 0.8810045954112543 0.009753451726633564
0.23795182379346996 0.004974749577257922 0.8175350171047243 0.011033078013565456
0.2184652615970702 0.0017846597590469395 1.5266319957780834 0.018935399692479763
0.22868169767612676 0.002043238990839492 1.551764532366473 0.021859283229817672
0.21768007492335018 -0.0008877590461370366 1.1998349034100246 0.011421721533948371
0.24053719929178566 0.005018136860998404 0.8326791439106352 0.01204203202654214
0.23996321090829417 -0.00673885242562443 1.6170168442219368 0.023531040956207634
0.23099512388507593 0.0005631623360337039 1.3957486288609444 0.00930712018591809
0.2314437733487828 0.004682153861164554 0.9346500205946706 0.007414428074566712
0.23503807914051725 0.0027924029053182997 1.111623770054481 0.017662494029841755
0.22822348548832735 0.002127934254682949 1.085338999434782 0.011689036207982716
0.23476290202294825 -0.0012887424733669939 1.6181069025785408 0.02557353159880123
0.22292093994445347 -0.0022238246126609807 1.667505708605097 0.012361831748153976
0.24227321618141698 0.0026004535047599534 1.4929032197797658 0.015689863948204957
0.24056980998962743 -0.005008022108435571 0.8816065830517675 0.006938744495945074
0.23325753207187536 -0.0021133790558577298 1.57867891527553 0.01628831329018979
0.2448070051787899 0.004187828851712495 1.3597183436793499 0.009724472917550865
0.23121076428024792 -0.003782864353664186 0.5754617475012198 0.014528577638742882
0.23555167344476252 -0.00951376957316982 0.9722773806416481 0.01512878949135167
0.23358989229754643 -0.008713713319987855 1.414368272295376 0.009903545498335517
0.2408211258610399 0.0039026770870084007 1.447072603256487 0.009014680710827644
0.24337733277573567 -0.0021617432284609752 1.2920680773673543 0.015220835866037527
0.226460402717621 -0.0025798734427579092 1.4547722283552569 0.010228160793841645
0.23764589999838706 -0.0071451190490905755 0.421871360908325 0.010212222912432707
0.2369638415759588 0.006696479441215396 1.0812243882085093 0.017273664310852515
0.24663809417756916 0.0021104112514783754 1.4720840237126138 0.015110050778515018
0.23351139904037982 -0.0005904007140134816 1.7398440018997199 0.013289591263158556
0.22722173918126207 -0.0008072325642305175 1.4269984456229392 0.014953007773611648
0.23519568137641864 -0.002581546258512416 1.7374492654269418 0.013079237574733272
0.20997827098824912 -0.00046714872039066695 1.6262194003069297 0.02477970477258899
0.22888504833001228 0.009184332110471555 1.6550283366721656 0.014678858372245095
0.24045712978568362 -0.002665929487587931 1.0055217734973594 0.0218644915715554
0.217666515548287 -0.0064884031785799705 1.4541487755902207 0.008560428848372144
0.22263819646876654 0.0039944028270717845 1.1901319383597968 0.020367537678153733
0.2238130551047493 0.0015004940193418025 1.3231634390979683 0.01210051357434749
0.21647381282728664 0.0008408490048290417 1.6932017697050443 0.018988039310295343
0.2387650084118814 0.0025208748897016836 0.6321994525182816 0.008079589037016
0.23015366276422036 -0.008424011545855006 1.5202592499653456 0.01377024322533974
0.24637781745255669 0.0027152750710491684 0.7095494358962814 0.015439532110380391
0.227877282972489 -0.006143391736332623 1.224036454730322 0.017318156590447883
0.22164822253873595 0.0031534172576241516 1.726538209289419 0.014544245022210663
0.2401959924311194 -0.003082813382524278 0.5409508248186297 0.01125649354452007
0.23974212067802242 0.0053773260938391205 1.567819094809941 0.01615096962947709
0.23617014433685596 0.00011243461434136252 0.8662642033495482 0.014986638734466028
0.22723601182621148 0.008303132511394706 1.2602858816251998 0.021452700142441366
0.22611735357849783 0.004349456258122434 1.1009269601463827 0.010740177513852586
0.22318937391452526 0.006119766144656734 1.0476892904564652 0.008975936780170429
0.23664393383672802 0.0039009000534315228 0.7657180081502054 0.010360023966893927
0.22537069222673795 -0.0061757246993290995 1.22951609219517 0.015860596709543085
0.21427379809362412 -0.00490737909524884 1.2348941303208014 0.022521842492793074
0.23559861947933042 0.00030779158845178293 1.1032829452257602 0.017412057363813196
0.22730911226231287 4.0143619310367175e-05 1.1439745859323422 0.018206396418066175
0.21629149423689656 -0.0009645953969228092 1.6422826134735404 0.01978467037776616
0.23417093272712589 -0.007344587404956719 0.5980309827291691 0.011911656894156105
0.24035046144748998 0.0005747435378960286 1.1934621792685756 0.02045596786286834
0.23575186403889684 0.0013250452111828303 1.330852701920072 0.012467609281159902
0.22896818761140741 -0.0007485215944478961 1.400881319408443 0.0095882601348271
0.24157454298422737 0.00965958112169633 1.5407412061675223 0.019948137741163254
0.24670255476544328 0.0010798361270472042 1.6379688118689242 0.021665149191586814
0.2289077992381793 -0.004792649081476724 1.7170810860276609 0.009712769179757004
0.2262911223674905 0.002974838733393695 1.0551364638904273 0.013546700331776372
0.24225913519066108 -0.0013268194071206249 0.9506372952528216 0.02073310919562872
0.2378421622638622 -0.005530849637604676 1.4216032325491992 0.01323962576688329
0.2524197768744999 -0.009134347100647856 0.24079843542787005 0.006947759374197733
0.23714585481675196 0.004062632917364479 1.4575478059933604 0.015040817112809145
0.22214100191341268 -0.007758499488507143 1.5542182694522304 0.018636383414737147
0.23553995881281212 0.0032530338291959105 1.063305661927452 0.011954894911933255
0.2153889340564414 0.0025093561928264136 1.2484290709885408 0.026974425891168826
0.24098534313937264 -0.0014136237700625148 1.147069664411584 0.018636187369096287
0.23268142969361896 -0.0030109004038227187 0.6641376583711248 0.02051425410443631
0.21489402560223478 -0.0019477175305551916 1.4248352476191664 0.011208527406109541
0.2449629439382875 -0.000996990287186601 0.45894659408555966 0.018383188619327643
0.24119530604517492 0.002105752503354475 0.3188809819890074 0.01733345972342196
0.2455105493739177 0.0021822344129907817 0.30088075098071043 0.018207783107448836
0.24638095817905148 0.004409636440405106 1.533357174301084 0.02286306782397347
0.24923639828596095 0.0005689715112364442 1.5506493133517143 0.024529968287428795
0.248196834769609 0.0012282704482673888 1.3719985813444475 0.011342422099507792
0.23757582659207846 -0.006664583842656802 0.1962911194468562 0.01322642855093722
0.25146586354349393 -0.0032597130686180084 0.9091943267702741 0.014057021742026702
0.2437286956259555 6.996383751884912e-05 0.8548042461774162 0.012483778735809447
0.25565084231662566 0.0022783676335389673 1.394642066365843 0.00971039380623298
0.2460574946813622 -0.003970399897757446 1.3062734295783005 0.014351857453300315
0.24855958862512104 -0.0040893629997226354 1.67674626085321 0.014404544788531357
0.25941506286203964 -0.002267137869907611 0.1268714801521248 0.011758762024496763
0.24167549682471187 0.002617850271339661 1.5520604144121604 0.018838417886474775
0.24834618726272675 0.0031165330912147444 0.2139622534446206 0.013211413160725306
0.2510165109337021 -0.004013500000290309 1.435297574717593 0.016355246738260804
0.253505716645105 0.0010861649596318637 0.7018000215879848 0.013255662262264805
0.2542110020513643 0.00673411179928499 0.2826154594370162 0.016045623906859666
0.2608513809953113 -0.0008305692186256015 0.9361734021310759 0.016772994247910226
0.2473573030097695 -0.001353007132734368 1.1590142484372705 0.014857150189298639
0.2574555632089406 0.0037854298875854018 1.005652232890559 0.01614859663760019
0.25838667365159845 -0.0006122429204564392 0.7106483826917571 0.01484029125272448
0.26685040812935085 -0.00841593203396542 1.1934679223694724 0.013613938087727857
0.254634369379374 0.009832855192231687 1.0350307603156015 0.010374281592941542
0.25665955012442765 0.005606976169157169 1.70686557227987 0.013521433056803261
0.2546432861486204 -0.007145030526041414 0.41735369452171284 0.018275009025812874
0.2653234262636435 -0.00046054379278772295 0.535848317340682 0.012607535472944225
0.2678242238147279 -0.0040786002132056865 0.1993562625992863 0.012595852602777789
0.2568365550838072 -0.003917781963907217 1.6235155264279109 0.029890137211178266
0.25114781569198374 0.0024925418550407136 0.7803274227496702 0.016870584170378754
0.29017508798228586 -0.0048208567461301205 0.12729683367519126 0.02327262046028132
0.27634288295730275 0.004048269977808817 1.029768185539127 0.016176853393488407
0.2740260853583818 -0.007505191776302883 0.4153166766084392 0.016654902602164706
0.2779087790040748 -0.009008981286922665 0.7879936332886706 0.014762941348092817
0.26744443351037694 -0.003953765792705801 0.9001800429082213 0.01300160423683368
0.25708617863138106 -0.0010411824428798486 0.09500176029605945 0.007896361731744898
0.25162516066867413 -0.0019016846750178164 1.69385194865396 0.01618023975429789
0.27734527062638387 0.002394377306494965 0.6586513325105867 0.011176826095880445
0.2637183787005982 0.0014992595946213907 0.06952868570173773 0.006954564587881135
0.25732952876162796 0.0015851021299201089 0.5032813725309149 0.022554348341890622
0.2720177421320336 0.0031960752951103997 0.560498062385215 0.01661532954843535
0.2655561878334498 0.004092927432438475 0.8166350257217153 0.014302639513547698
0.2593734728928853 -0.0014023695084462346 1.5205149472263482 0.021211898912183624
0.25873090893375317 0.006359047012222548 1.0571733655508262 0.012627822276580162
0.2796032932796318 -0.0021659540779537475 0.7312746610036523 0.012609690758179866
0.2693344858840208 -0.009971888289215934 0.13361822670747664 0.007534849497390165
0.28699425884266644 -0.0005202206435395581 0.5762223532838868 0.016698532905980338
0.2553830712408203 -0.0007141526511562795 0.13813221894452024 0.009950031418388135
0.26868042478934306 0.0017648554661570323 1.049082782814256 0.010590196016343468
0.24677664772556987 0.0002090458604716483 0.9285882351183182 0.010727185425485593
0.2518050094375657 0.0001448119267072976 0.5178941955298432 0.015292936417771921
0.26031770657470565 0.0004089197264982552 0.6179000331620845 0.015636424309344418
0.2599253587512886 -0.0039992079707357395 1.342981077232749 0.015601354465768484
0.2663002216989311 0.005149761524824767 0.93918118853612 0.014752885549612618
0.26653813836792123 -0.007829500345544893 0.6542681234603206 0.008085073293591627
0.2766320053557323 0.002679463574468299 0.8219966431639443 0.014572073238046152
0.2729397841791111 -0.0012891111036468785 0.40016158480013847 0.018870868008126904
0.27659864565050585 0.0019238074529111208 1.1289967570026218 0.014530617538731425
0.2527666909025753 -0.0017558449708194035 1.1472278640655662 0.018202668806557347
0.28471760421603404 -0.0040295656296694795 0.07201396281487914 0.011480449919837332
0.2690266047325092 0.0014454728991625697 0.7070531717457911 0.008285614767024038
0.253106443464515 -0.0013970577950175732 0.9980033031768863 0.01855047032160207
0.2678694207062776 0.0021963292931951655 0.8276885896033559 0.00987492248150324
0.28324521391458035 0.0010367719922551326 0.18200233244851569 0.013697414292111512
0.28485549496988083 -0.0023210326254176983 0.23709419795403586 0.014448062101837468
0.27441521256741147 -0.0015590779273844209 0.6301725507307016 0.020703462355864826
0.27607934366109976 0.0019321108157832766 0.7975642877001075 0.018471685095683237
0.27347485060591975 0.005825431667938577 0.17658285322458547 0.011794587984717634
0.270081063973097 0.003420185787123751 0.5494586143340822 0.00851297495921924
0.24834852466389998 -0.0027357766978457878 0.17857059159604463 0.010057223620664003
0.28645264223474914 0.00016184070346170112 0.34420838358048006 0.014082825230067784
0.2720355999168077 -0.0032747170222362917 0.8485512950105819 0.011442865186473063
0.259571378462286 -0.006399042842972892 0.3246682046090278 0.016110389133656106
0.25200666507373204 0.00525550080571472 1.1180773177292858 0.018346029003875438
0.26278790607502395 -0.003795528970759965 1.415231060739389 0.013903330878970175
0.2575517540138355 0.0022433993691299784 0.15921546041230178 0.01275148707076014
0.26255800645708355 -0.004766066402801839 0.9655819618290369 0.015333604182822936
0.29074689903937495 -0.0021417641840992675 0.11556812073980414 0.014497732911532692
0.2758313943217052 0.0026341512516315775 0.08869968935236554 0.012302147155093979
0.284987622216731 -0.0014218760978106516 0.27790981041313917 0.0077656303980613295
0.26756200313555367 -0.0008713703089232297 0.29545845672420584 0.01170443036899965
0.2553385235733163 -0.0022227414328620594 0.1896208720300008 0.015062571926649638
0.2673380922510697 0.0024983883964686433 0.9859955678563075 0.02001227080576854
0.2719684511069293 0.0043591138592275844 0.4867994118224298 0.01730314980687048
0.25933916785434447 0.002377027322477764 0.5160402685616305 0.018169930374094333
0.26568680864762756 0.0036530059719165845 0.2475365610930103 0.013724570630958282
0.2646289864840532 -0.0048047126905562875 0.4538971915388126 0.020114125237934245
0.2812577992553832 0.002880997897373067 0.10418230941645275 0.012086902891094226
0.2562985075080478 -0.00022790490591132395 1.270330621407997 0.024763316112976504
0.2845585771196029 -0.0033648968513600086 0.40314015008886966 0.026123756605300242
0.2684486694258639 -0.0051441871525798625 0.4565920660699567 0.015742463724779384
0.2706872534824179 0.0019657609816883027 0.26950923574205804 0.01273642037574712
0.24874725113692847 0.002148736276438498 0.5434444407561234 0.009119323394347751
0.271955456387522 -0.0015519499415686299 1.10442667985253 0.014932112692137714
0.2679591192765931 0.003957390288704021 0.37738055822600414 0.011927768221329536
0.2686344505751739 0.00021346101763111084 1.0165884690315135 0.014893079153174449
0.256772149170342 -0.005317911180897996 0.08439923559471614 0.005182829496441062
0.25993288284926275 0.000705959768390907 0.7995975641847705 0.013696443747938776
0.2574053260108563 0.004436166882053786 0.8534582262081841 0.012965709417714529
0.28039379410052595 0.0029753775097916225 0.47723539385809627 0.017152423614093373
0.25810792755765843 0.0006146264378465402 0.49013366318615254 0.020589080515147934
0.2717029102545595 0.005193116561481876 0.21881002817746295 0.014774984958380852
0.2756766431890918 -0.00030416100323405826 0.3277314536794474 0.01140146041852601
0.2555146387981522 0.0032531311349879447 1.3184844670780855 0.024708297896875935
0.2879815093092607 -0.0047795529391650516 0.5130683321365349 0.008427766861765421
0.25765217857139855 0.00785253499256289 1.5660686563802 0.01758593239688925
0.2574111194316173 -0.004616348016012686 0.3718241734648818 0.010475842921176452
0.26303626516183126 0.005151249911852215 1.066766769984047 0.01198642287900387
0.26489025870666605 -0.006794040735741922 1.2122299807139705 0.011995622641641265
0.2809666907478364 -0.005513347215174398 0.6231389571088544 0.02306728073068296
0.2777360497436972 8.367505271175604e-05 0.28958254330775773 0.008539994785408704
0.286962624029577 -0.004022753944644039 0.20940309692157127 0.010177313047775123
0.2772092110435683 0.00018996428983762172 0.7395827540755042 0.01430268875999645
0.25830110390074157 -0.0029852703671918125 0.7201527415187714 0.010975809303113994
0.2886156545454398 0.00024493941149644934 0.16880066398005472 0.012617829876376494
0.2802685870036852 0.00374829176387114 0.31519513103327623 0.009238807256114166
0.2549490348292806 0.0024412581916490243 1.0971239821114775 0.016330919654108392
0.26379178228245587 -0.0016566657467381404 0.9066485718588614 0.018980504757204787
0.25228263810190965 -0.0018676644879570387 0.17124950411230427 0.008374221957549718
0.27240654163893147 0.0019850429932328473 1.0708876923814319 0.017708567189686393
0.2577559482886202 -0.002654271912865139 0.6709346214761809 0.015523081693824844
0.25585248113584647 0.001332134418430108 1.4968537107616549 0.015887725641376766
0.25209655727946584 -0.0009679585924891906 0.7615560269163468 0.0168023932666347
0.2949590164145012 -0.00021456113494381854 0.0947985171013665 0.012014777629890495
0.27417932303221 -0.0015073910497663346 0.3418693193137475 0.01755174785053937
0.26337160026161827 0.0015800425357481085 1.2237343595343855 0.028030695404477873
0.27232635127766147 -0.005430140231786042 1.12119718747731 0.010680448040976284
0.26405663533949386 -9.54877982732355e-05 0.4428132115659396 0.020678196744771775
0.2599211291070732 0.002038284409889915 0.7940526761229778 0.01605604551585046
0.2596195829214336 0.004533085419520963 1.4489635363917042 0.013960107527739985
0.25598839333042833 0.0036014867393952747 1.2442783193465248 0.02534127666547414
0.25682874522365134 -0.00010763965614628366 1.362432431858768 0.009469138614086799
0.25656200734522444 -0.0036693425515449494 0.6636344602777738 0.01321061670773244
0.2562635437979489 -0.00982741359067302 0.5848154756791226 0.012922051706153924
0.2595391557174118 0.0014260013782783664 0.9504102852211386 0.019564561713162187
0.25690500806814326 -0.0026741528713830325 0.683754440258445 0.014862850998003569
0.2870894105606764 -0.0025091094796414236 1.4001993942459452 0.014367940326268881
0.2820493184643843 0.0019122688840697202 0.652989073481379 0.015299544973423762
0.27401977453022325 0.0008590727487501451 1.5050465727831248 0.0156901668553175
0.29003906310495475 0.0016711463128674003 0.848280536574892 0.016161314709832602
0.2879578397407184 -0.001145908376542421 0.46696202108263896 0.016273290411490067
0.2956414334189867 0.0014967987097013336 1.4962486907600527 0.015382876612932691
0.2688518411596133 0.009096546151916268 1.2842088352129417 0.01622127335391611
0.30160613836371647 -0.001033532109973054 1.3457128874988042 0.032552799126221624
0.29018148098211793 0.0025501958174967733 0.6989504736737131 0.004437367192090144
0.2702182463492712 0.0031340370228917867 0.9150851161195424 0.017326255346674455
0.2781089359846826 0.0014850248156175476 1.2344605792828103 0.02672693112103293
0.2697627461448383 -0.0034026144051908357 1.4115362098435427 0.014701063917380817
0.2976750097066382 0.0014607456131350523 0.429006353892435 0.013876002113146949
0.2638198296459098 -0.005616614265265605 1.6062176573547928 0.022589385972612765
0.2865889288094607 -0.0016073958560681762 1.0630983044519626 0.011297537964344363
0.27814807353318516 -0.0011122554652512927 1.273219056296516 0.023810580284499106
0.295637149838984 -0.0056650065083785365 1.1659351749067417 0.01236518209580832
0.2692640439839895 -0.002042670115971917 1.1619532669873065 0.009122593856470844
0.27785991610863847 0.0033756442444208496 0.8753584176839395 0.024529794759687872
0.2803141589304884 0.0031728912813263083 1.4481757700692546 0.0087445572658542
0.2994548318016356 -0.007936965236078106 1.6300200509612368 0.0223123108386011
0.28795416891981435 -0.001215913861844835 0.24124818500336714 0.01235319316297125
0.2720506414362724 0.0013962804862796736 1.4533221167795611 0.015329907635121707
0.26208362727055423 0.0017322403469848023 1.6341510918698015 0.03381669409340117
0.28313219198633754 -0.007164881233174415 1.4367637520982324 0.013995592720191219
0.2844051015630084 0.0023514831302545963 1.2956606807478945 0.013046978823442133
0.2922224550425727 -0.0026653800323278836 0.3734629139624183 0.014103056004561219
0.28876303824298843 -0.004878195335573774 1.644244499533285 0.021715996753858807
0.2921774380418273 0.00105782271757489 0.837223639489832 0.017090465797375175
0.29353736445975553 -0.0035914199321361888 0.5626494921869833 0.01308440954987208
0.2726843213849454 -0.00406478089470999 1.4317920838492675 0.015282877821846286
0.2920828577229231 -0.0017297757802091321 1.5848552343976356 0.027366929520424254
0.27075275153591427 0.0021830559747998144 1.5189503305847176 0.01624419819948695
0.27435304501531405 0.001608468745777475 1.4861874872974359 0.01227058531456329
0.2940615573001625 -0.0020405790742491128 0.9682496168024494 0.012913680501507787
0.28218884869887223 0.0063940560468797045 0.8560661047367324 0.016363784073351893
0.2788613256892735 -0.002336656801365833 1.5443076735220629 0.021151235315258983
0.28963078149448984 -0.005523293809985178 0.9015924427607459 0.012726832504143384
0.28537761337317785 -0.0034980697264322368 1.2522625705831658 0.023664886156468008
0.2934024428243249 0.004559757700170969 1.4584508714247366 0.011154792557340695
0.2840675349372128 0.0013647278292217458 0.6736862211858404 0.013209608534911049
0.28348767135899033 0.0020668929615647157 1.6318865264776743 0.032123428310282656
0.2954340816514955 -0.0009017852060434705 0.6224441503533236 0.013477215929493557
0.28854275181450895 -0.00292740111430884 0.6805880405013651 0.011471572855513954
0.2653234804702915 0.00291358288330328 1.3176092263307608 0.02521159889709564
0.29393672228119805 -0.00017874116592134703 1.413961726671127 0.017402829146635018
0.2802311820145014 0.008165661460378528 1.289360661904666 0.013015803505079858
0.28620705290563836 0.006219268210817787 0.30881684326905035 0.009890961155522219
0.2858058775630179 -6.932416667323723e-05 1.729510132956806 0.018037182365837876
0.29757057068738996 0.008355990540272328 1.5195323905692952 0.013333966202594518
0.2929292003527515 -0.0025532246679509157 1.0934677372537216 0.013146951625078158
0.2770912190881069 0.002288973241187036 0.9547671113331336 0.017708080960305263
0.28082086838169884 -0.0052833474808884826 1.3635086816435769 0.015348572354478205
0.28598093901789223 -0.0036748890495005484 1.1826933164933404 0.020739896478995157
0.2867909619565035 -0.01375679169461286 1.3356896703561443 0.013348391956244904
0.28012432520167163 -0.001597100338067072 1.1800028766216526 0.01782928117546885
0.28925997087470195 0.0014841045801452203 1.2085907301400793 0.023183820373031305
0.29170191719013727 -0.0014345459290904619 1.6829638842909471 0.030167366835128433
0.27848188634987936 -0.0021157027732935396 1.6233573921771822 0.03138605662744173
0.2750995521262787 -0.0028208683746216625 1.6614346054626281 0.015433046094693066
0.2803691498770885 -0.009570783888552632 1.5567786403746038 0.01162296568419972
0.27978768958919525 0.00621040938955434 1.0311001293858215 0.015058208083083028
0.27898987543819664 0.003068564014914984 1.642854136730994 0.027855167646633178
0.26281591763110024 0.0054552325929930765 1.7168140352848071 0.019263472681560676
0.27357411777653984 -0.000991563516574328 1.6760564808556917 0.019491371560354496
0.2991706384139479 0.005252826076496835 1.0780933106546695 0.010719884292104923
0.272845045262013 0.0008857867163281995 1.2087706076897726 0.015799876543478728
0.29819239197173436 0.0051614414918371865 0.6583483453105416 0.01381706680264415
0.2823292598693892 -0.002714098729412466 1.0864240162378622 0.01663575067642266
0.28681053049317357 -0.0013695482721817372 1.1274062853516142 0.015390000474985868
0.29451996889554016 -0.0008989473029944414 0.5183121364034572 0.015281920934285013
0.275999800743723 0.00309306304098449 1.3868336708792521 0.014462373887478222
0.2571472715162775 0.0003191164331413977 1.7280509851553323 0.013715960188093375
0.288606962213589 0.0013305245222549895 1.2265418483395472 0.027617990431162236
0.2767337007612073 -0.006575617580228076 1.5252655966966977 0.01605000320568118
0.28198699902668645 0.004698030102379367 0.8209138007804917 0.01648620703773396
0.2780057521308092 0.007435819128455478 1.0070320221196931 0.020294195228239272
0.2776359417487323 -0.0001855118724370117 1.6732505392216381 0.019272423207079614
0.27771352198118515 -0.010597339779979596 1.255702865129109 0.019691484918352656
0.2955384883238272 0.005358005264735224 0.63722980754523 0.01693178409719258
0.2838047494563962 0.0016219147721398255 1.3138332622449185 0.020946193836999822
0.2795315545588448 -0.008549119472046188 0.46771980109256545 0.012437040513916007
0.25429307069809565 0.005276171831162089 1.6665837799552605 0.015954325329318644
0.2796323809574283 0.005063662963847734 1.3848392915557826 0.012870118112255214
0.28846202541954974 0.0036093068116136756 1.5720220392646695 0.025326511593406188
0.28710331640421843 -0.0079132638132589 1.198389357883883 0.00847921669327715
0.2712350253237217 -0.0024781828081439803 1.1448998827857217 0.014362573170419108
0.258837972925396 -0.009829420905423195 1.6147266175514678 0.01650574272835096
0.28400827799967937 0.0028891773770559435 0.6324727510784324 0.020247370934182194
0.2811070960571742 -0.002203755293605392 1.4255086986959231 0.018744825536335132
0.27579302775220776 0.003941328637487754 0.8020602087264164 0.014514281884065183
0.278403029465062 0.001553074115693539 1.0471130825184853 0.011287444474302959
0.2841036402523879 -0.006142766577092634 1.1190977891283655 0.0109235822324889
0.2630543433950677 -0.003273301169013639 1.5963068535817602 0.02013446322855231
0.27191407003831536 -0.0036760739139422606 1.4913740447017296 0.016584958030259972
0.26336744416948354 -0.006072202547476015 1.4842616677799807 0.007999483267010776
0.26463814704753347 0.002411353743079765 1.5809334670430684 0.025511076085048455
0.2687693926009092 -0.0007317463687102153 1.6539052878541765 0.01953218171279286
0.28326858662740806 0.001500157419654949 0.5306089431015276 0.009534739309944685
0.2686545697973743 -0.005508149072047316 1.6948122530491037 0.015795645928328543
0.28554251019863586 -0.0071867978292967215 0.6158636606261788 0.01340206697272734
0.27584470636729125 -0.005163044739235374 0.7260838425096702 0.012371939781091556
0.29344537015501065 -0.0016026267556641127 1.3575590928344368 0.02184953188327138
0.27068172595883155 -0.004739749510517037 0.9794618176044514 0.013975642672658627
0.2913862759452455 0.0016244875360742225 0.5501922173101558 0.01177978128047378
0.2911957063949475 -0.006801971463842918 0.9297856816456814 0.015696148998963926
0.29039891160136433 -0.006700173087373137 0.9279854589976991 0.016625132234791725
0.27401921101037907 0.004288985318182585 0.6996662545947318 0.007616464378863572
0.29063852946820845 0.003514217991177893 1.5377387529689301 0.0184649060675444
0.2853927162088407 -0.0038297646432212144 0.8005477390068432 0.012868929583361235
0.2941601831012153 -0.005547629583936247 0.5011702459247557 0.017593667140009324
0.27208276268056364 -0.0006711291588300224 1.3360318418286998 0.02095881034686691
0.28296592589381997 0.0003176834006922459 1.4696974380296357 0.013083446138261656
0.2939551191484994 -0.0009983815943623454 0.7345868279306859 0.01614124088072271
0.2582129103551871 -0.0016732206068111376 1.3740138081835893 0.010420738358682877
0.2778872281701807 -0.004708991972100587 1.7098923390664997 0.012733853580268744
0.26756114844701256 -0.0077673510891302575 1.09615105054933 0.010672942013396264
0.28938911332783374 -0.007813376145724277 0.15129304576436928 0.009653662048870408
0.27927717514401895 -0.0015045111799267359 1.743692121987196 0.017904838354619996
0.27216683783231316 0.0029946030801861995 1.5834788716324755 0.034089943358802006
0.2779661110010433 0.00789100469381254 1.6079710272513945 0.023182215106048835
0.26721181772324637 -0.004229221611235409 1.5395650416931477 0.025986037704578514
0.28035004723585355 0.0007778245379976405 0.8352169805028762 0.015045976671305517
0.29311375481338087 -0.006529799812684645 0.13223706745235597 0.020750165838698143
0.2843328653519515 0.0031770116935566322 1.222650919110298 0.027175611511380333
0.2974559861200592 -0.0050809608508686 0.8580553755842992 0.01985485823684672
0.30360344653968924 -0.0022622361244773615 0.7267024686367867 0.008324706816349805
0.2884902561659708 -0.002069198375255426 0.8938212539834823 0.020311299802031252
0.29218047415107995 -0.0013005970233999496 0.33103702441376237 0.014915752604272933
0.2940005879125794 0.0006586567257022002 1.3724565711084726 0.011652528382236061
0.29148966137472965 0.003320247589998714 0.44839197424106714 0.016970552796113165
0.2915831595929724 0.0010039645419757791 0.9982608961556192 0.01636405551470405
0.28991766214763837 0.00020573523217232072 1.2679668783049964 0.02697763081924262
0.29877903489495744 0.00360890866177062 1.575129200843675 0.022277456124954756
0.3021399933153725 -0.007950264940708019 1.2378956218071704 0.017599111594428674
0.2996744231918652 0.0010816002199478048 0.16550121260732586 0.011875117698064217
0.3099964194116798 0.0019700216728021254 0.272224853810183 0.007635183473684565
0.3023728284661726 0.0021315517234747304 0.1915974305039574 0.010757774110374442
0.30178757640483816 0.0017984330013813819 1.3340757638304956 0.028311404720617977
0.3068126855864863 -0.004464772098330877 1.5589580485678147 0.021095841652407625
0.30183190849393315 0.0008909145444316068 0.96222478297905 0.018333958909557423
0.30416355079815516 0.0054015216604311415 1.3116373630708247 0.02575295399607129
0.30520912571944436 0.003738988213580573 1.1890208385724532 0.013524571181753297
0.2976187381014106 0.0032151463079651338 1.0756395969538497 0.011160994946482245
0.32098467495663036 0.0018261559793900867 0.6770102968613327 0.010816112984069036
0.3090175362005275 0.004935716727044505 0.4527848687769383 0.017206546272587036
0.32395055917988147 -0.0006190448227800338 0.7573910317200571 0.017579135672017597
0.318111380832522 -0.002985769505348016 0.8020456051150314 0.016356623239462784
0.3050478249251718 0.0012171660804306287 0.38606314567080585 0.008398592877310642
0.31603888790775925 0.0056282050939838475 1.0600465011114517 0.015577996918114768
0.33927903927185576 -0.0018677656303807252 0.2441238045071994 0.01513800816145653
0.31862208525625846 -0.0006845943161216113 0.8390063309345608 0.01504770296642192
0.31959343916479105 -0.0028756223451457978 0.3099489707195935 0.012257681401350922
0.3226753989963387 0.006164541250653506 1.4070051273895248 0.013905455546646453
0.3160648828711524 -0.008799419213327398 0.8638365807930706 0.01472799231840296
0.3234057451217729 -0.002341405608216653 0.8067623105497759 0.01385358512671894
0.3231697895630046 -0.005878435667778842 0.07228213127456566 0.011095199210191233
0.31215742468667984 -0.001004574957779485 0.7197975824946606 0.00834913905756936
0.29974570840935255 -0.001164547113517963 1.4939987075949683 0.014957112319828226
0.31855291740358843 -0.0005804014017360827 0.37789657581425534 0.01378803943985288
0.309376102988982 -0.009767209875787468 1.0194027044897407 0.015795481191247303
0.3137668333439911 0.0037257691875279696 0.8158215282739566 0.013252700386081888
0.32070997636304943 -0.004915651256076179 0.4986910944085053 0.01647330548815361
0.32851717363468197 -0.0021490366596090904 0.7049516172222178 0.01193023206433629
0.30865419128374016 -0.010683665706307082 0.5927061863599506 0.015497746440420995
0.304019571222106 0.004018419794769315 0.8325686142073739 0.01705585077254506
0.31411290493466265 0.003930877845729185 1.0367561494921809 0.01684282864468683
0.30888270779346344 -0.008535711120167131 0.605851377348675 0.01669854528764488
0.3132577087760216 -0.003847273080338447 0.9823693608158365 0.02878230739248932
0.3098051673885772 0.0018336318818111725 0.7560430548179751 0.012228399337686161
0.3165727884356896 0.0004076446276280246 1.3759633478076627 0.021190061894754787
0.30459972441596816 -0.0017866148038297009 1.4283862759737387 0.013196720256051954
0.29211779790807235 0.003892622257635785 0.4716364015162015 0.023862501803126948
0.3111789677608951 -0.003455955519639442 0.7998070522080549 0.018700400886974385
0.3043838698691786 0.0028083639208923514 1.4598110802522686 0.010639555375665164
0.30612520957251255 -0.004180119839463278 1.584386415182414 0.024331388616037175
0.32467436972969 0.00223957873740777 0.7776825325968055 0.01553128752419112
0.34288358104300704 -0.0031085397264432983 0.20739984575140707 0.011558080457428862
0.3372848394118615 6.91709891800698e-05 0.07549966369170062 0.006306408187839646
0.3267889206688789 -0.00042418159088720465 0.805579173926833 0.01352713142653873
0.3160491142177634 -0.007909185734197282 0.39167759923160217 0.0062178866885186585
0.33308933088017373 -0.0032176344775829086 0.5846399801308225 0.010298773041267984
0.3201847620701864 -0.003292534802476244 0.16161719927158877 0.012639146203317887
0.3296270364200696 0.0022016981515281895 0.7308452342216086 0.017827508443509353
0.3178009883778123 0.004617604080660894 0.6219048759356166 0.013657200985061487
0.3384786315935189 0.002154171500038228 0.37401766543960735 0.012588270993369302
0.3441199568979798 -0.0001668559693367986 0.1926885804813304 0.005475587864658706
0.3287481934096796 0.0011283219845158179 0.5959739164350526 0.011955351804812008
0.32219464833840317 0.0018439201938772432 0.3626896767826762 0.01052618060480448
0.30920299009355634 -0.004914659448187086 1.2743565681033773 0.016686580333580146
0.2971404285621644 0.001802699400826209 1.0496526036812113 0.01618812833000606
0.30476249908085834 0.004226462738920493 1.2062563881149515 0.014758888619410866
0.30852181319989913 0.00022423062021150494 0.9939739857171206 0.03112879064977731
0.3217856484443533 -0.003526533780027552 0.9187937673596206 0.017622014952309174
0.31630634925857165 -0.0010092650003882672 1.1341172193763684 0.02037430502929709
0.31281905632745804 -0.001092372563738096 0.932064173742277 0.023802862064150207
0.3058219884427405 0.0009486169395169302 0.31092141284592084 0.009969076620748321
0.30823316745700596 0.00012446519550632102 0.36688954657827616 0.015946979657860193
0.3053508764288217 0.0036467107900665387 0.44859462635266784 0.016649814491030812
0.31248502127683025 -0.0025877205712501175 1.1744373038106706 0.016565685761695252
0.33616096497375864 0.0022243512678831855 0.332920253378734 0.008567682595427374
0.341562973321328 -0.0034255101267537972 0.09918658268935039 0.009466134376382032
0.31182679069179137 -0.002964414198182045 0.4243446587276613 0.0159830228678014
0.31307796451001857 0.0029718040319297837 0.22416707501731067 0.0066985634248650444
0.3176524138717512 -0.0009206706715737525 0.6582947754987558 0.011131318656892441
0.3233907125883331 -0.0034409352163077816 0.09337034969152672 0.020626043582128623
0.32026860884639796 -0.003962576292645923 0.5875299926143731 0.016620038548968173
0.3405606143101022 -0.00039244788978250156 0.34294278630880404 0.010696100442951145
0.3100205650395207 -0.002360225643912109 0.17619017873799245 0.01474135438315223
0.3101901152430175 -0.009508819076480123 0.11597188444240503 0.013698370935604366
0.3256597581225979 -0.006868193787895679 0.7503946290671795 0.014662052102842561
0.31245992196599087 0.004091928291992895 0.26455528579817705 0.005437212699916623
0.30686563828177404 -0.007687327035181546 0.8523400262116624 0.016074418796032115
0.2960681787771376 0.003022192890547246 0.8763334969269981 0.030436123976269585
0.32325539190580627 0.0017746706585416619 0.6946303664370008 0.010669879499025179
0.319766999030138 -0.008118733305047168 1.327044609154958 0.02118346513524636
0.3212959816307452 -0.0015283168364482493 0.5552590245830717 0.011252093811132237
0.3038406923261857 -0.004111159229770218 0.13545820074293125 0.02395954111539784
0.3106873125288379 0.003968825573275769 1.1454024598729997 0.011013691894492675
0.33130926470367134 -0.0028002136370866536 0.2516254815929625 0.020085047068214096
0.3112961762331665 -0.0012911989989275118 0.6879145406144759 0.008861996844862077
0.32903010556114126 -0.0102419861058034 0.12408056335608741 0.011160865550816563
0.31707637597082805 -0.0064885433852506485 0.6690197282269619 0.008027316982493168
0.30371709768545796 -0.0011213127047722013 0.4218415942022279 0.01690365736440792
0.33375265547616956 0.0028274493338634253 0.6679484550700021 0.013319940148240427
0.33097968205103095 -0.0035884735011648483 0.18188025287556878 0.010247230572290452
0.3169623788844377 -0.0020758687988111854 0.9769229402406217 0.02404526885524063
0.3041515080435646 -0.0002319210231784628 1.3930345695194715 0.015455142672704123
0.3123726638215759 -0.003487406221424713 0.2473333243421154 0.012306408791294117
0.32074435860708567 -0.0013834976895987089 0.13331092220649576 0.01763931884424452
0.31525858879839214 0.003655516358560367 1.2564029194184316 0.014396721594110805
0.324268931190584 -0.0023721671126603235 0.3219885454737085 0.010357420693090296
0.3285734156145996 -0.003873196300398135 0.4124643433096114 0.009193020848106954
0.31238320273874887 -0.006802843676780006 0.5600399905626522 0.009644935216702517
0.30032314041387587 0.0010481607295824628 0.6717260332629439 0.011600060450291938
0.3285962481791081 -0.0007243820685868851 0.30579838919102115 0.013921084931297225
0.31610311573023864 -0.00553662817178673 0.7439926351894276 0.009168464620890882
0.32872108788478405 -0.008235111183397927 0.20488306613466595 0.010233164701245101
0.3159618952053035 0.004196929415180553 0.5094073059444468 0.017594483345327608
0.3183319004142364 -0.002227019865583609 0.6379429446454125 0.0205828551258514
0.3188777748212545 0.00426470467507955 0.34770466229178454 0.004887610270466781
0.32397022680912285 -0.005470033533902592 0.21475804906544627 0.009795240561849059
0.322732920325487 -0.0016807607554225426 0.22668568611197368 0.00872964247503929
0.3128565834780271 -0.0011295597582995183 0.7030548304829738 0.0094415161020348
0.31522065744911953 0.001083645789229318 0.14106410950495768 0.012718767722981472
0.30678932541404846 -0.0011288170182499502 0.522100973839586 0.019623108695022956
0.3159655586060878 0.005724338851357928 0.8826730427264406 0.01946320021013087
0.332379638664008 0.004826786908831537 0.34927489903571957 0.008564281216797885
0.3188258692904731 0.003796881694678123 0.47037630210619463 0.008951555134433176
0.30753262565568956 -0.0031734367445301667 0.340333787858086 0.008144462128581744
0.3350035433239121 -0.0004286430587330534 0.6835014934026112 0.014177157060029276
0.3372786360634306 -0.0018731914201160372 0.38955748864196194 0.009496740189760489
0.31342166959233514 -0.004159617273873151 0.5423012692096999 0.011261824692328198
0.29799485186095304 -0.0016876526477296954 1.100933287575572 0.009830932974157922
0.31416766880232105 0.002431634114400229 1.2239070808552464 0.016710532290190403
0.33680458637825095 -0.0023882540242639674 0.13704998050175557 0.02144942804656946
0.30584577410688135 0.005173365571227513 0.921675472166848 0.02430715510000812
0.3114260318152678 -0.0008109513581715691 0.7391132416861553 0.009246905142131404
0.3248301918532141 -0.006331818270969123 0.49049663499518764 0.012578333856201742
0.30630293556726296 -0.004583543706421284 0.6265623172093477 0.015771349261194213
0.30820881394414223 -0.0009731649474104607 0.6429942028065766 0.018635181400819458
0.30803513360693313 -0.0008108445208033989 1.1231531737470624 0.02065486910377355
0.300522427179327 -0.008247687000868715 1.3538743911981919 0.02960734836823373
0.3081574132015388 -0.00044159384276710426 0.8676377584055623 0.018798793269680206
0.3106642976663948 -0.008454024226859855 0.0787811315410568 0.01316626165973038
0.31541887343583624 0.002034755024027317 1.1831557993868531 0.014925468029897922
0.33190216569416553 0.001554155152485189 0.8463247634626079 0.02262772129830857
0.3507049146752702 -0.0014242222091625572 0.30579624307533654 0.014541426935776052
0.3474855066353976 -0.010225303190201734 0.7827613699421319 0.007963959811027968
0.3367063118746229 0.0029779904616909917 0.9015464489901167 0.02109695606440185
0.324697916089294 -0.001252388094911371 1.1362015865507307 0.01850535450809788
0.3375757235844062 0.0062890712957945965 0.6284335983124759 0.014315253044453757
0.34278223366328786 0.004646129284063941 1.509732902940907 0.013166277354727507
0.3271311876409313 0.0022836140780955225 1.028732527901255 0.02264820881142985
0.3259080869162269 -0.0017074402812164288 1.395423445297958 0.012663559990266167
0.32554358885341145 0.004927156108158007 1.3450699732355977 0.027108889104288793
0.3300351263085923 0.003929448509802617 1.4655834278224695 0.010892665759195128
0.33413893378159354 0.0026675021540047738 1.4265534950797523 0.015568055848977
0.3176850110916453 0.0025698315113307623 1.5577296926301127 0.019089061162361455
0.335446120786984 0.0011528231062577876 1.7025091138537953 0.03225023162450359
0.3184151088663421 -0.002202964450640286 1.397417391944267 0.01331415184166175
0.31521732776951855 0.008308669285887037 1.619558902330543 0.025574431480154983
0.3363742162641717 -0.010419182536728529 1.1140474218523226 0.00681500559683893
0.33239827999678845 -0.00284411113382108 0.5498141767808988 0.015397679927328174
0.3427635931919143 -0.001246883210131718 0.5388433825046682 0.021432520778815755
0.33837528422671365 0.000567791904111116 1.2981127750506527 0.016791753552212806
0.33684799295622453 0.00043721373314561094 1.1714829154366229 0.01357602758915347
0.3256401116540291 0.005873207740553251 1.5711146402318084 0.016591528110368355
0.33251222625964794 0.004458377362315136 1.215235078623171 0.010406575062270402
0.3277638906125055 0.001968830601138357 0.6540361072063879 0.01359970188491838
0.3407149416586983 0.005188600657610296 0.970397064288842 0.028216140673861183
0.3140450231025592 0.0024220809555099 1.4558047244153738 0.013906849264491504
0.3287367782423687 -0.005522830546249052 0.9624907996632251 0.020520852159886208
0.3296836524848965 0.00036946018754480895 1.1805518278861544 0.015049933235612729
0.30536714501811535 0.0003087763108100758 0.8894772613982214 0.02345968387541838
0.33848097210044975 -0.001759961551052042 1.2003585080814325 0.007330334765326701
0.32555437989796515 -0.003250623581998859 1.4342676973387234 0.014090449796245023
0.32150513052077506 -0.006502485112982202 1.5059614239936914 0.014552088336493643
0.33353131640565503 -0.0007024918657596415 1.5966355159921657 0.028795476577761638
0.3239959186160161 -0.004311525769248024 1.5891346480020154 0.0182161673384503
0.33181428351258085 -0.0038237416776099546 0.4258222850566233 0.012237808603144966
0.3232561667537555 0.002378872830999197 1.1873050581356834 0.012657094061747583
0.3419137008933221 0.0018510262873933708 1.6594223990082888 0.019824535853475305
0.330281412095946 0.0007850006353523054 1.1511103450621871 0.01684458616415082
0.3323774587584805 0.005665663348955353 0.8784342889408322 0.01836395021026847
0.34796449506756166 0.0019466042080468775 1.1738154685307858 0.011863674565213424
0.33217294691418225 0.0055016432260235875 1.2833398109613705 0.013832754947934185
0.3464196217086938 -0.002099549924860818 1.134479752796056 0.01279084964565958
0.3372777910156898 -0.003319874651003296 1.3405716095400546 0.023787790112875688
0.34337785528984976 0.005684322146164806 0.9157440694806864 0.019899816798100413
0.3370195936449471 0.004642222471978654 1.4487809576549984 0.011771800432287833
0.3396870439774135 0.0027571574129188806 1.0550624653468137 0.014064398764243763
0.34573280935883854 0.0032931109068237673 1.0187120471636146 0.02665529917339175
0.34436194924373364 0.002752461949908948 0.3617826175135786 0.007442691777305745
0.34497356122650846 0.000749547551168345 0.6872218633084448 0.015723826976179314
0.3381880379163865 0.002993072703187045 1.39122937272285 0.015664538009308133
0.34206133973345604 0.005819832121798139 1.3730353424282589 0.01628753247621695
0.33740706513456786 -0.0015736583750663806 1.5315605608899074 0.018330604079217057
0.3234505745505535 -0.0003092729126498615 1.0687792201629864 0.016466501128349426
0.32527042258593303 -0.004320989120838884 1.00381686014174 0.019174006825753986
0.33145111616438583 -0.006286463070996185 1.7138515764270255 0.030795484523424205
0.334384167578369 0.00399989267029398 1.7261407181385158 0.024833066734237765
0.32824975770820264 0.0026385583729181886 1.4832964667503663 0.010958097827857033
0.3381103032462366 0.005534528018639316 0.5099095389445588 0.014207747816020482
0.31082387099983955 0.004826543536989408 1.625551101141348 0.026394249055381055
0.32022030788817135 -0.006045625102232333 1.544554580391041 0.014327715405056828
0.3475612722168683 0.00434821996573357 1.6104130650320883 0.0217833810997674
0.33709639286860177 -0.000750295161490055 1.2459373697205887 0.015852159198682245
0.3282014069178645 0.0038377297648185026 1.2875890844264708 0.015623080707943441
0.3251960216394184 0.002437409666341007 0.9092762102711359 0.02301936268815046
0.3239016237099064 0.007239951224878518 1.4240048504425076 0.014608757658881281
0.3109213980492716 0.0037816251746657665 1.6628287899165688 0.018186466159277607
0.3434562810876424 -0.00301622950110944 0.49364783509631643 0.01310490989495506
0.3421736966311995 0.0065450473172506615 1.277443732688065 0.011377131857479742
0.33509473120104166 0.0027463585527843257 1.438903976062137 0.015599946767490531
0.32793538854763116 -0.0030003907708777916 1.6548622572594478 0.02739464535251065
0.3358525534863939 0.001077396526209866 0.704993571110844 0.01454776801278962
0.33624548350553246 0.0014408788287547318 1.2694550468293202 0.015712496435694192
0.33750996964095825 0.00017260713481936224 1.2390009100495223 0.016097923834851743
0.34422416923365345 0.007306423093988526 0.9693010288970886 0.030984268432359262
0.33490467503699917 0.0027924806904366436 0.4661066303049799 0.007207802902346867
