x y z curv
0.7878332299568194 0.08071039465874098 0.9940761394938646 0.04251944776180396
0.7864558556231129 0.08489931080891736 1.8127757975806849 0.14062513708354502
0.4233976090947271 0.07892091116145765 0.07752820890089661 0.010564811204632131
0.6874814977735697 0.0760413311468285 1.8296894928776437 0.025383890051309255
0.6205853189528884 0.0751881041475721 1.6471258858759745 0.02640662687261968
0.16273935541211892 0.07769266710261186 0.30830755431984336 0.01488696586576408
0.754304712685891 0.08184012109222497 1.0341996651992484 0.05273997311825805
0.23224947257310277 0.07471696737982553 0.5409802442002188 0.011254226249778915
0.5509224974025959 0.07321471542003542 1.059053123172281 0.019098865784284023
0.5120938088798654 0.08256527170113054 0.50698139082708 0.018577474115742714
0.44172078980590834 0.07931538969298577 0.8693373916931599 0.016612469226092677
0.4700051362754039 0.08560872983830378 1.1619070889842196 0.01752128774197669
0.46783817438300546 0.07981119112897495 1.0963210452074745 0.01580052411835473
0.6206477267815766 0.07921830352360161 0.41880568263989937 0.018716594246977386
0.7166286672811819 0.08179095403434263 1.4645719479255372 0.01562329435033457
0.7366129488904822 0.08598019570094044 1.750222440312076 0.009911044271134192
0.6662767061490076 0.0762816461666645 1.6825873865468084 0.02470656278650244
0.5809159403581244 0.07570439551183752 1.2699438752155912 0.019166844716621043
0.42783425049034485 0.07424921695051938 0.17455592702989953 0.017188843406646555
0.7126305987324998 0.0809594189156283 1.703167780631319 0.02744014071549852
0.7721489935934476 0.08162354931924924 0.7424895729716203 0.042338986432153405
0.7064195232764838 0.07287897568016154 0.8857834225584663 0.020480564736036547
0.6301090420055921 0.07945762213206833 0.5119180464982315 0.01964902555330705
0.6972002758215867 0.0790671806958109 1.5014239593972305 0.017577737291647983
0.6207718752495284 0.08216031365796925 1.1389188282902811 0.013137795498968085
0.607021271828473 0.07624609274517709 0.18095501110880316 0.019347458218820536
0.6988804710264553 0.08704789676942767 0.14978272920174301 0.010361572049485665
0.7139097327449364 0.0833783921668436 1.0082270115204417 0.00900339708464026
0.6728028450532006 0.07569935511879244 1.3274262034126476 0.026286544156669082
0.6846301752947606 0.07683898745325456 0.9687229109883785 0.010833735233167646
0.2232934817028739 0.07495924652926675 0.38485603043934946 0.013975222278108813
0.612849351553886 0.07934923906757822 1.0210932818537923 0.016930968271432666
0.5397923952015802 0.08139345966252177 1.1166153181685399 0.025555283121627425
0.37871466087128247 0.08251709091282725 0.24820886883989968 0.014512513429447687
0.7495072161193229 0.08086869503568919 0.5635697880412536 0.04245684487162085
0.3709136503375082 0.07519148294832985 0.9873788926210939 0.014633273341420089
0.6750102230367279 0.08115697825338723 1.1741066759921643 0.01673407842408053
0.6268856826758933 0.07233802309667399 0.998620231940797 0.02259373818321476
0.44200021910404436 0.07537263206036353 0.3509309832922902 0.018794022667805586
0.5587485685825517 0.08030550743922307 1.3576866489223138 0.027594327666830794
0.6872393917272688 0.08029157302070028 1.2174002613297787 0.03252824343246966
0.3301096314585953 0.08596812999124154 0.20052636598061038 0.016574081114467207
0.494053137302293 0.08640062177846271 0.9924372966857519 0.014238549272158231
0.6648734643339126 0.07662689524190912 1.0875697401541922 0.025246319540600096
0.5556444989425406 0.08374648366294665 1.4996934916055742 0.01202043468036483
0.6007027505464148 0.07778590222416772 0.7665756386016698 0.01309304651913434
0.47001786123498107 0.08044689646450788 0.9504180681453398 0.028072577500286064
0.6142546724892691 0.08459954156238134 1.1520695395385026 0.012171533244921345
0.5625328884397001 0.08102351763416904 1.2047396929730845 0.021466036132306313
0.57992640568343 0.08048760363518674 0.28726792419842345 0.011999551847285541
0.749836781135223 0.08584947867133186 0.9709855545809126 0.01649941565942851
0.6434137856037287 0.07635130940157571 0.8763825920986505 0.02615066790899244
0.672195591446102 0.0851675191262674 1.0380485239508377 0.020720485044835837
0.45605230989119894 0.07702761462493589 0.4805001683794653 0.014834001538267328
0.5060128078421794 0.07866812819692313 0.6673732199872447 0.009487581597545806
0.3149189568800116 0.07902411548880413 0.2792962121264881 0.023682393832623858
0.6988090839078726 0.08511618717004017 0.3583021534740608 0.008948804677825935
0.5132728864413605 0.07683964793866326 0.3262883378802343 0.015209812608284816
0.4975733435053338 0.07633927993983654 0.5172599727254512 0.020584702068757565
0.2060217577110601 0.0786517512145114 0.3685912857939201 0.014243692599750713
0.740895009810101 0.07072515659394338 0.3562898428443483 0.0675637797182447
0.5493157761482307 0.0823339085048782 0.37031496291154115 0.012875901163348474
0.5797512184028462 0.07332263583025522 1.3133542365773785 0.012769585737236576
0.2758100830765718 0.07614195714072078 0.41412826010842446 0.008288640107425785
0.787535644585496 0.07684663839330733 0.6250873816951837 0.03940171719786461
0.4848713615722396 0.07219410674803346 0.4737457829842514 0.021574083661622702
0.32681917701531066 0.08023166010518341 0.6222776242476293 0.015451742340444911
0.6589397556614546 0.08074845455888188 0.7682871594087037 0.011725547230774527
0.6481028837206743 0.08094434186823152 1.7246255086150173 0.026922314560313836
0.6342595098469282 0.07604067944363661 0.9198944467275345 0.015302385226404775
0.5202338678832912 0.07700221507851873 0.8610055075827949 0.011555248747761837
0.7966273928223118 0.08298131211877499 1.0309406938743355 0.0841506814518773
0.7454144650104094 0.08774890806514697 1.9014869957490281 0.06588286280659048
0.46209641087094183 0.09006081374782529 0.14455468748089206 0.0230389500980244
0.6746505491109789 0.07454020229217521 0.4905013776928701 0.017124917256437264
0.625413282279 0.08424311736371375 0.5739213564699909 0.015261448322469536
0.5784201147700807 0.0851997614866132 0.2642336566911035 0.007526080197566754
0.4934863962804442 0.07684233501730964 0.8347891036768381 0.006416482557058846
0.7725743515927697 0.07491920216938697 0.8426601591857552 0.045734803617383676
0.21873837545604938 0.07921832005643528 0.2961456867310573 0.0133776321715572
0.5890184308836808 0.07286039910738672 0.8559294139919572 0.012190714161799765
0.23787561556397838 0.08307000562749178 0.23470074638303914 0.014414251355587509
0.7489987716016357 0.08172596007041612 1.726894469071361 0.018767299232918037
0.7338669928580356 0.08196949351133095 0.23986657686969937 0.009116053600828282
0.4509107972372219 0.08146088305563137 0.5425277828862687 0.03775320011803742
0.6510744633598889 0.08643469320954927 1.431236777430708 0.01782405891367751
0.7556742856016556 0.0745773812863879 0.4354218856575815 0.09195527921790711
0.7070409887431741 0.07756058151818676 0.9569494420725716 0.010905270166784399
0.20537176794927464 0.07364523629324443 0.14136971113368157 0.01220780098687297
0.1754276971216468 0.07664890686711044 0.22134668531186147 0.00964992482338249
0.11428817594433203 0.0831481659752751 0.3429398407693079 0.02130754985075357
0.5231766152887263 0.07339052333916109 0.7397473364159316 0.021632365784478486
0.5467152056653616 0.07361168069067905 1.4681301777062774 0.02289266779157311
0.6467530057366702 0.08130065142423146 1.36786297899553 0.022414554363436198
0.47194128036624744 0.07916474349259384 0.9800524351915841 0.020999317302041964
0.3441728014853902 0.07870715735635869 0.851151846543012 0.021842201605003976
0.48995941478299854 0.08149894251215123 0.3907866940448385 0.005655897188489185
0.7810847399514131 0.07991982767720032 0.31693818872067636 0.08919520713030424
0.5162853534273343 0.07566808670390329 0.1602317272276911 0.014330103354134737
0.6801057469824148 0.08315255676834594 1.3037899447762127 0.021531972361908368
0.48452362265255017 0.08364380064946417 1.1788212511259866 0.024536490728266133
0.4695389375237483 0.07692345848553904 1.014167034962021 0.020372670883478942
0.3304098480217922 0.0732539619457179 0.6664906735233607 0.01453802392265429
0.20611674021574103 0.07809408405716367 0.22592496726496714 0.01500914854369758
0.15003838803397554 0.08396637272709069 0.4417071165028941 0.010161065728150872
0.18543384529004725 0.07413222645908954 0.37313204577482106 0.012565319640954887
0.7075230310324441 0.06978398710163083 0.5275499448862431 0.018570552314641307
0.6292201085236833 0.07250077437575633 1.069848390085739 0.025878981076695912
0.259217292906128 0.0723628567312382 0.22771407876989092 0.00887937454684596
0.6706496835943121 0.07796205457484744 0.7264936836159016 0.037439729284667635
0.5351163428906317 0.07571473712841875 1.1668048126651387 0.016276685668752
0.7977764532859114 0.07523587516575785 1.3205774987368022 0.05803888624686033
0.7072812975975485 0.07582729440809113 1.165597188158554 0.03441064457880946
0.5129232821737977 0.07442469820044523 0.7527784304948653 0.03055738924149017
0.6097972840877629 0.07738229114213696 0.2778960138253302 0.018142616525807585
0.6678252474124554 0.08441869110497803 0.3759418492519098 0.014691891993613603
0.4487021109362981 0.08594624395176113 0.20519137278488994 0.0046196908530316645
0.5842955546723053 0.07178557329181864 0.6651305606199472 0.027173283536411474
0.4553566695359783 0.08234076089756523 1.1731777691742642 0.02673859927621614
0.7563355858877239 0.08355470691571425 1.443384153558654 0.021403467322450916
0.12784713889514793 0.08064521848239677 0.34337019077031583 0.02373981822313192
0.7475360054984419 0.07615332345346552 1.3636016574687866 0.017416212458168632
0.7612292341451286 0.08070946685072052 1.6635466162092745 0.036315283572229136
0.4031312281784502 0.07410594556012896 1.0674870719437382 0.021528021108786207
0.4594078325755721 0.07466923210190615 0.46161022468191276 0.022507738518924195
0.5083193243364578 0.07421576378540974 0.4550823592083694 0.008439864026108785
0.21566255311413404 0.08167642647294505 0.18274710356848203 0.009183364694100742
0.6637626959969298 0.07713635324962015 1.7753625744998212 0.01925504898071396
0.6445095103933561 0.08419120299557685 1.3903114233654614 0.01927731935716863
0.47579784198113556 0.07398458159215313 0.6016466190895552 0.04196267516454814
0.6267929239486798 0.07629777908152535 0.3631681095081765 0.023561274107816842
0.7134823345790994 0.0697743736099073 1.0851333990144552 0.036114088960164964
0.7812372729544953 0.07981949704137334 1.357011139013225 0.08798312282370263
0.42259996458532234 0.07368675676522218 0.9791477987580443 0.015980527524574083
0.17770487725697362 0.08062162696692862 0.0864155198257589 0.01507874322293736
0.7272957832130462 0.08533079282419684 1.1206705078785635 0.044786317478848474
0.6173713596575192 0.07932964703536802 0.5800975707290592 0.019727452346373495
0.5345052475620206 0.08199565451849704 0.44501195205528576 0.049243258703935595
0.7455406733842249 0.0802799732269701 1.5431650296369912 0.046193160712806706
0.5759985693200017 0.08325842584033104 0.5810608106813668 0.011439248024831563
0.3135717961882562 0.07958346018140522 0.41600050680658374 0.008907103645797757
0.43183069848016653 0.08835828030942323 0.24546628068745213 0.004668605451432162
0.6543244659802421 0.07704669928032584 0.4639880621226719 0.05183198803193465
0.7344304074217041 0.0768659588975587 0.8113586858843697 0.09584623051736756
0.7819954688356225 0.08094633243856572 1.2660902924250046 0.038804928487147866
0.5913413096752449 0.08468880859288075 0.5833500100778874 0.015107614333482105
0.45223701181719467 0.08512682628538665 1.1559178689967091 0.01837963919677828
0.2635690994367352 0.08177821092881316 0.5731658521095335 0.009406981898199907
0.4194881244627182 0.07592484965463792 0.8378987356217108 0.012585049151028394
0.3883420975490128 0.07986589702575601 0.18784570929085695 0.017351119098078856
0.6647295355910099 0.08572452517385598 0.6706866509273761 0.020764489592222397
0.6864911773177267 0.07179701153052112 1.2776930912659643 0.02228417038442888
0.2097909641684184 0.07770328447518497 0.20554125967660763 0.008352440569558086
0.19513149120784218 0.08139500480546365 0.4841979525249685 0.033966108755134256
0.2760588740588721 0.06956221567066313 0.6932458818155945 0.02003450472277675
0.04296564773934682 0.0781986905538024 0.12914735229020474 0.04309542684729084
0.73758848749444 0.07647028059761256 0.9469805433514688 0.011765872932621022
0.26992653919257453 0.08008208479065293 0.263127742901635 0.015561850736671387
0.52956193882121 0.08518063396155945 0.271309003786249 0.021236806522684396
0.49796320989632814 0.06980045221009942 1.211737494812511 0.023171974160582042
0.6605127263337365 0.07806089331228495 1.1010996909299051 0.026126123940041882
0.7754416020727765 0.08356063841741197 1.4233813398851949 0.10636546479140817
0.6794766354639334 0.08644381987118273 1.546046332744363 0.023784402882271686
0.5686607163834719 0.07757857175168023 0.5152348111003711 0.01354469632949555
0.336534866704889 0.08291538406964993 0.46688777274161425 0.021829623301990467
0.7154110086559046 0.08634725032937614 0.3643195276624622 0.014629596716222812
0.6300037986638782 0.07200382980677769 1.200865975463509 0.00919796424755352
0.5056002415995697 0.07870185616926591 1.1641792352159033 0.007205346200500292
0.6906394743419263 0.08048557784088317 1.0394938067457828 0.01981190595912677
0.7953555173087696 0.06920516498048525 1.3310221216352565 0.07095506742583813
0.5376744293580158 0.08704913125413533 1.0208622710738404 0.012296008599674304
0.5855237513453978 0.08759279861903482 0.1784351891139705 0.0344468793359077
0.648339006726651 0.07867312222277292 1.6645097423004551 0.023665200113071477
0.48649294646081814 0.08339849449059508 0.49792306457241714 0.019152220944095875
0.3353467831253222 0.08967806058074676 0.2885472278695191 0.011218073490418442
0.6318128571890879 0.07682902792993633 1.0422733342777748 0.018846262207185813
0.49644998024865583 0.08006950042412544 1.0589998183469578 0.0198589827799452
0.7923914260302142 0.08254626502484783 0.5269753138132276 0.04746063107813894
0.6809361773332023 0.0813246808813321 0.8815778940840531 0.019352088435578556
0.7580399660112151 0.07890187659501453 1.0020761856126263 0.07086149732631625
0.6345826333282905 0.07983292359005696 0.3606255460212679 0.022108788908971815
0.7328765793820888 0.07581495955114516 0.7683312104874613 0.033816990595104984
0.27459560985566694 0.08148589708534053 0.6135399004408336 0.0196495456435733
0.7242432162446214 0.08114943990255209 0.841338409200124 0.016559816898464284
0.7531807907800324 0.07221093138227375 1.9260335279528875 0.06535530396306095
0.3231501265423568 0.08356644819500998 0.10642036253037905 0.016202396180263378
0.34548973560349044 0.07450163889109547 0.25683595573152057 0.0206006731670436
0.46178290318952186 0.08344805428333146 0.07695330074153045 0.023579635013151745
0.21553127607300715 0.07188789255951901 0.0927550673700049 0.004791079038389249
0.7908671104665322 0.0788665872517415 1.3117994106280835 0.04719847733770644
0.723081162067167 0.08098522811677007 1.4536648081812895 0.021091091674674406
0.7837742265027093 0.07828973144563937 1.4984090344691043 0.04998118991384392
0.6694025261805047 0.09104455312157068 0.32120822748646044 0.011396229290024328
0.6457532898312087 0.080933160418062 0.38363888979331834 0.018024807774920507
0.23853824058632242 0.08326240735438886 0.6558424938053825 0.026924275664669758
0.2635733084972862 0.08013138411937949 0.4365690099341876 0.00690670909271607
0.17507950710075745 0.07533149075519752 0.35769418740537445 0.011531036743135614
0.3268210101450514 0.07728070198419783 0.5124281752548537 0.019717543408036105
0.4589325054377438 0.07711065357314957 0.4169388263643894 0.014551021097619023
0.1092166368237927 0.08720201168886407 0.3043620070543447 0.008181688697375601
0.5895115858564564 0.08243411915645481 0.8071026899798972 0.024426624531745763
0.6610887553016305 0.0817068045677441 0.5606906960551767 0.012195044251063384
0.6094083131937236 0.08153596508850586 1.3619435254743253 0.03491864458347069
0.38121487877568117 0.08628263089542243 0.8847144054385747 0.00932695163033926
0.6931379463717754 0.08410260424391267 1.8079052521628354 0.016975028628084865
0.4201644568129202 0.07918552759564938 0.22989202016165858 0.01118849932391871
0.5556188095579246 0.08683848211062828 0.5330157501489435 0.014650638914359767
0.7763783438071236 0.07330435673498654 1.4774007244553597 0.06338896481554547
0.7350876231868253 0.07887618778051052 0.2936890049618916 0.051520712858018104
0.5144022866957051 0.07912475340603223 0.33917067868673273 0.012812203289803854
0.4432317014614639 0.08087721554157752 0.8110895325449152 0.015399652641859192
0.7939767478026466 0.0779633885674335 1.7771728861825344 0.07249372747545679
0.7872996836970908 0.07851722633945458 0.9691357477676026 0.05744215755047093
0.46328086720245376 0.07677278390409777 0.8776727210717223 0.01768659624315217
0.4171584056395936 0.08031020493847109 0.6218396738667084 0.018129127508159114
0.709296176744383 0.07738903400515501 1.3631944739265331 0.02195131681073231
0.4953228458960341 0.07484611495169673 0.4672576217483871 0.027518173486664826
0.6706534009221587 0.07609366038991572 1.7799092760308382 0.015136796973140758
0.5228930994592844 0.08040168236878807 1.0431772342736207 0.02006021061641558
0.7820361382229074 0.08289058768482387 0.7036060202900336 0.05611095865503615
0.7649944190687226 0.08041706676430743 0.6821691748233987 0.11043268123758647
0.1239833520738851 0.0750724330085374 0.32509286897070283 0.010416150014795582
0.6904239126497316 0.07609353611399998 1.0716540309001164 0.02408906942092266
0.49452959902128674 0.0763402153881473 0.32804176994134326 0.009535474170147662
0.6351817751647628 0.07566838327192235 1.7151569611248059 0.01968139092243587
0.35916154638479775 0.07474732010831445 0.17698599797328302 0.023790450831245737
0.5499834669859208 0.07936319663859577 0.48166627063718537 0.0572214330227284
0.5105542163242892 0.08182841831810161 0.9837326855342663 0.019878641904147887
0.7057385534487093 0.08298553418705082 0.16971042240606155 0.06993300491089248
0.5593114778433237 0.08073509993576038 1.4832580212805324 0.020980029980346926
0.18658603664196075 0.08179849954779493 0.2948584280859906 0.019692721561823112
0.6889884104841093 0.07372562529170715 0.8572671712464655 0.020326584575853113
0.45159713298299586 0.07615646018576483 0.11758200186795703 0.016625857754249854
0.7132540997688857 0.07220102874052471 1.565909604251076 0.05120217099302079
0.37479362892167845 0.07679804030218275 0.749139578846229 0.018035810693262495
0.7250414452981494 0.07585085119323834 0.6915546539860302 0.03891173422072588
0.7788162420432361 0.08249400973883114 0.1336235391559194 0.04500788278268525
0.5138440321889293 0.07752700618600494 1.2276666249581738 0.030760429197484136
0.37340922172054586 0.07772278551068884 0.8686726055234242 0.009129591637181841
0.4503807801971297 0.06996184770247398 0.3298588465610297 0.01188140308937089
0.7354460131955302 0.07882107439429681 1.9080462316249578 0.056010372818572005
0.6315000684225921 0.07889512661551251 0.17892366445468208 0.012120434744025212
0.3258230975070276 0.0790264260013144 0.6480739456685165 0.011439164944344389
0.5483230021137252 0.08881372169731197 0.14809930401516486 0.006101111578602374
0.636930222216402 0.07810400423793254 1.6554641684441114 0.023675755302281665
0.7749355215995656 0.07449713107678814 0.5904293319941099 0.025132682666589738
0.674726940142734 0.07857178127217852 0.7734005125315866 0.018388896537969032
0.584266526680855 0.08697753788881432 1.4343311859000172 0.02393431413039929
0.7331472134951987 0.08655471093750551 0.9037269328695275 0.061726426889507066
0.40953424358551993 0.08232467168391688 0.6694027876412766 0.015733884788602853
0.7880846350327195 0.07647037909141616 1.6993976823845574 0.0841899566231338
0.5301658901054744 0.08017981120642115 0.24835017080020408 0.015919845470634433
0.6010066024195004 0.07368937315546785 0.2315400105570177 0.01624318066426114
0.6889331814930537 0.07253584511812941 0.6893588329094229 0.025731903440165058
0.29585398007496416 0.08145124394541593 0.13443992630176768 0.004538114452463727
0.668781729794864 0.0837770879861846 1.5279587921523647 0.022632966739869323
0.5688411865936167 0.07368175279409657 1.4053715282303907 0.024155056637547946
0.609479136205276 0.07511512753759525 1.5594067020212965 0.01615153044532679
0.6418493455866334 0.07623104982145598 1.088182292897354 0.028287308597166477
0.5794104296512549 0.0824189113729589 0.885942407017529 0.014691678612022394
0.61267177131602 0.07724756451019045 0.708821994415935 0.01839652455284288
0.6036682689528777 0.08446079557228098 0.6344009681682703 0.016417266398525896
0.45052705326031156 0.07690102921908021 0.264667950686463 0.021493956325995406
0.3111778519302089 0.07898096658557 0.8511619732702626 0.023853881743575583
0.5029345957113913 0.08622860836210239 1.1156617192277132 0.013693553054018575
0.7570178783660139 0.07317361874743757 1.2348173272457745 0.059085076319329174
0.595604480205606 0.08022060527156336 1.2607212127979504 0.016792782139426105
0.7252577287678127 0.08269046865486276 1.5177229008028128 0.025312753314694885
0.3157974283234555 0.08534790423640812 0.7426782726197461 0.014059130831806923
0.45826562249306385 0.07680660476790213 0.08995799436382798 0.011465807055029115
0.540376012544239 0.0755098805346915 0.5556582510742591 0.01814592081479136
0.8035817620082455 0.07895364851634498 1.852291957418017 0.06339173144738622
0.5443119514351873 0.07994342034015609 1.1507652492087752 0.024131511219449314
0.2929794954470181 0.07966927173468556 0.10248266412264402 0.0094943660983754
0.4932632478344788 0.07093023665346902 0.7215103763674261 0.024515368868446838
0.5518684645536451 0.0806316906794775 1.4113490896975962 0.01983649473113777
0.516956161449865 0.08126139963983989 0.26073066188586663 0.022200653822682524
0.45519950095722966 0.08230482687266176 0.2358529898293303 0.015931203962966267
0.5557807889757709 0.07888398074973328 1.1474552424475954 0.018022903630029948
0.4416976563356821 0.08102189139092483 0.9043786893376171 0.016641254492769778
0.27152419274070816 0.08213901314840155 0.24435038504717752 0.026887280841316356
0.6987244838439223 0.08612096729012308 0.12650118947077024 0.012351117509390974
0.6926882840513665 0.08367000838421322 0.12543278083941484 0.014411595643131474
0.18170791054588803 0.07783491834599594 0.21698102704478062 0.011654899446762184
0.5876828384260397 0.07903939794349689 0.7783356385101399 0.023678140228907855
0.23964891713326897 0.07690171002719523 0.42180284270381546 0.016996686637665473
0.7962931332836345 0.07962310795670517 0.13053360189642024 0.022919940686702053
0.7732272229002555 0.08009836551322475 1.1172164139147147 0.06411637083357354
0.7324643740891084 0.07705635885642736 1.2037819944572348 0.04204180953220543
0.7527272151472442 0.08631585634860896 1.5507186023604755 0.046426211571824874
0.7181527744848049 0.08045532832876737 0.5444125990968834 0.05528586715575901
0.40013627480291003 0.07942773296161489 0.27311537855767615 0.008452599273081075
0.4794491074769604 0.08010613837561979 0.7800636736696822 0.015142862022990413
0.7605557987924413 0.08292220158315343 1.302516093152748 0.064350837789274
0.5680557043603314 0.07877906330643461 0.4974625870436028 0.015246459002439676
0.3213066916403897 0.08549781253354664 0.837059458251305 0.017821751057992136
0.23449429988352652 0.07758565762048508 0.2142275430484338 0.010547022563956667
0.7598318242461026 0.07568536855943793 1.4988858236040892 0.04216542358646661
0.6984055081071062 0.07602117749332737 0.7199674995387748 0.014775942964260772
0.4369482042688056 0.08564076956875756 0.08815187793285677 0.014012426798048726
0.7837914156930429 0.0743331156809242 1.2566855019999181 0.053661535616704385
0.6843275603821347 0.08025541512488299 1.2438811099013618 0.024405556958527627
0.5066639953936005 0.07982391317122725 1.2228119326785647 0.022659757640887332
0.43881581248650126 0.07633800584355793 0.9285931843927274 0.014760633318387362
0.2243174531533955 0.08557398755591006 0.045753478543174096 0.009383548450358058
0.7057893879108637 0.07535507310601437 1.0647534514888106 0.037278900666352734
0.46486543629173244 0.08213762682134204 1.1291741742421204 0.02106688520737025
0.2450444511064568 0.07424305602289301 0.5808390942445665 0.012638482952903006
0.802692980759541 0.08579676444934552 0.864334891918 0.03227488199646032
0.5085832729189677 0.08200942773421191 0.10328011022492613 0.004619815984272195
0.20905425492343854 0.07978854866821512 0.11376670542294323 0.010585167174342863
0.5188695887695776 0.07846298664577077 0.20982481818107349 0.007484435570287218
0.639482215366678 0.07974329059499051 1.2544748433506978 0.011570824856640268
0.7866981716809468 0.08350874429277289 1.1719544955365988 0.055560880473748034
0.5270529252325892 0.0761690245306787 1.2156254912705222 0.024648792773280245
0.43794326907356723 0.07698671043302342 1.055874575396153 0.016143319069661023
0.7558256875206103 0.08585280145836226 1.8267536641236901 0.08519025303443846
0.40375854872650035 0.08020345655365002 0.7660377796425419 0.014295700707742763
0.6307000112271244 0.076229604333321 0.6435680139808415 0.010522268223305204
0.6225293309924039 0.07440936207452369 1.2408245814484622 0.017382993332224077
0.5157493962415839 0.07771820178248569 1.3100907989077843 0.011699279283588394
0.3217938598153746 0.08225415558639446 0.26830654570683177 0.016402801884103303
0.41437849773855945 0.07573972826243307 0.9266078015657577 0.012217694650266854
0.7255443232557842 0.07216726049716704 0.6781975969926474 0.060162213281962106
0.7627874712008648 0.07899444109949999 1.8628274586403133 0.0424365094617332
0.67218679786324 0.08244826871088543 0.6465967750375619 0.016278699475098003
0.5942337597858742 0.08317073803420415 0.8729877214928422 0.011885476719517469
0.5272564251403348 0.08228589274034939 1.0069678428637914 0.016164613128576144
0.561584631768786 0.08118447924995785 0.887111963762524 0.010518946691512683
0.6420820589379959 0.08125489554416565 0.5946889395249524 0.01354009165235003
0.4614058805127541 0.08922186854269315 0.5848747881359401 0.026887021159216613
0.0780123946956208 0.07742678768418583 0.19497592982841813 0.00547403302101682
0.39253811577954645 0.07714504506162861 0.08970658872891335 0.007749667909302801
0.4070528233620601 0.07837905402718914 0.7117254566812465 0.012296258928032452
0.4473035318947121 0.08521537852704389 0.6548529230454733 0.029847542320624098
0.5997727965798381 0.08117785664964157 0.31536055137242636 0.010503964869381181
0.6177342020944581 0.07684038833090998 0.5843120234531504 0.015161548102998452
0.7786721996184011 0.08884374532797873 0.4090831564859798 0.037158224215403615
0.5416966136452618 0.08191640342193045 0.6583280287288253 0.026456502923569623
0.7037863337156772 0.08000433629610047 1.797618081040839 0.019958470602875977
0.28383474665219355 0.07625417564438983 0.3145508939057221 0.01729221531370882
0.5343763256721176 0.07658340128611378 0.6779304242090229 0.027814616956444684
0.4610090777637633 0.07754883910811222 0.7850258232695991 0.017772017944926718
0.2357275399637332 0.07883232804034024 0.3072775809740826 0.011203096180725933
0.5507526973581734 0.08884371532606683 0.11961788215117883 0.011676981316269255
0.6753353256601616 0.07555852107633129 0.62871000127347 0.02255909075146957
0.656544366255004 0.06996976241789821 0.8704367299252649 0.018187627955965183
0.6148681176037224 0.0737386237982742 0.09382718467347793 0.0369252852242837
0.7254752108073711 0.08371546657884313 1.343151109048349 0.024585001417564357
0.387418751027267 0.08344131042345257 0.13641223888778467 0.012833237217984388
0.28367838344706126 0.07575720158887993 0.673552892492533 0.012572513506843876
0.7439920282281413 0.07570684966402122 1.1818697168455763 0.07984886783283544
0.7010522930565514 0.0843191984654469 0.8139690008742224 0.02138108477547426
0.48618206517050544 0.08403494759292184 0.4181600774548317 0.013774261036411616
0.30345330108171853 0.09044034848009429 0.3230885861611462 0.008527159782235073
0.7852230971673211 0.07635564770473684 0.47523576469655393 0.09374596583347942
0.3812650442583854 0.07938955522894404 0.5773721107790113 0.03280376747817105
0.5796699955312898 0.0765918347932699 0.48967831146101976 0.05922326046976441
0.2779470766906166 0.07647645321995497 0.49444121242803063 0.01580950434134508
0.8062095861073363 0.07461707143004193 0.9280017933481859 0.09195977947356139
0.7714390900799554 0.07769949826356455 1.3955354763020906 0.09581579335260793
0.6186594056051222 0.0772749154923012 0.31805705378065263 0.009168369662795836
0.2500069858933553 0.08029977948955395 0.5197197041151338 0.014334600061108626
0.0948561146166885 0.07793051261101125 0.24814312539577893 0.03926083611881375
0.2532924067061725 0.08477852889691835 0.421631987555106 0.013788631107020674
0.7718700075356649 0.07826097914105318 1.562408247313263 0.0606670616304738
0.624650831380912 0.08239677923994444 0.3472725413369911 0.019672780324364425
0.3765628186292222 0.07870000147664447 0.41938667905545646 0.017589614400852403
0.7576517765903924 0.07942797814263376 2.0416774765002788 0.06989497349393536
0.5658785449803059 0.07475186617169878 1.3707401509255852 0.027295408990440438
0.5264593976159458 0.07087796025494451 1.1204347632873024 0.022732654518989915
0.40997728173092357 0.07435353027265058 0.48449301351778484 0.007919561698735852
0.38804671129473767 0.08226380421863967 0.5873550817904766 0.03843271499341702
0.7294560103074483 0.08087242949335212 0.6514905184752957 0.053770644280441
0.34853234814877054 0.07985669039772643 0.09235434499015831 0.015802648244316462
0.4846875186117468 0.08403043628599864 1.1970236623343797 0.019302250572454063
0.0759541015074179 0.07771885245764623 0.16359635651267937 0.0028024362909072494
0.09253998508254786 0.07935393335187436 0.16810356446194588 0.006703343844452919
0.5375418839795019 0.07424820842915068 0.8601564495799027 0.010512551638700494
0.6088090231299845 0.07630201673719787 1.3301175764987379 0.025362940456478304
0.24429049435432326 0.08206410068756788 0.16880150054117624 0.015570764172500034
0.2989789200332172 0.07628558083257377 0.4888692099305226 0.022310968104125594
0.3200408433059144 0.0820768143616836 0.6322058294149118 0.007462619134313132
0.7182672328623227 0.08251489457150027 1.4778773887033285 0.01529989195413302
0.7204697417517295 0.0795672227446709 0.45730190415022925 0.020672909469914087
0.7849725494747096 0.08384330535791115 1.6512778728321513 0.05758201325443991
0.787335616152882 0.08371664961008958 1.5257438655402171 0.05969250986124034
0.6107667841392991 0.07800222276077726 1.2139096925305297 0.02400000590955303
0.7802907143150782 0.08506460570089136 1.8550040546000932 0.047422160768949
0.4105763820459958 0.07758654157551301 0.9884055406234993 0.012309679856380843
0.2918414746926381 0.0863226927886383 0.22922298895271537 0.022426623523785435
0.43807272047929163 0.07649474248277552 0.9601633568975767 0.018425220493484665
0.7746178247364826 0.07651505733331468 0.9489530032082367 0.04485867732756749
0.7922420465338311 0.07699777233164917 1.7614832765600101 0.055354796012497105
0.6731921946308196 0.07982265683268744 0.73148789792943 0.02888678702387645
0.45251945589453463 0.08403718784935939 0.49121631413727157 0.013966131702929357
0.7210805384487949 0.08363835358874071 1.5132995493051786 0.028222184724530648
0.7716412704522745 0.07452551464365459 0.416481530769911 0.07503154133529767
0.5067114246704565 0.08276260327256305 0.5159558688476628 0.01875899044067417
0.37380554993832893 0.07906905997311378 0.10710081303778596 0.006286168738760257
0.6827699307246511 0.08091202832184251 0.4265476726949433 0.009195482186542193
0.6094514420599417 0.07827226789675684 1.2310977130943443 0.02192780995307192
0.34595313640413644 0.08905695610809077 0.31225751553056347 0.021197733406965295
0.5645147640250225 0.08334102293899513 0.9700043899405207 0.014909502363141959
0.7146347799385764 0.07798741462179562 1.7593365338752032 0.01950177251449372
0.6704310155225566 0.07428502548967211 1.105357772274574 0.02411715320821489
0.2325079807933722 0.07995089547066532 0.1937749751373641 0.004990742057864646
0.735000734406225 0.08420340617670553 1.482515545252908 0.030781463701246584
0.3791977212893122 0.0799585190345041 0.8369942145673763 0.010350155206529339
0.5043522728612079 0.08895619414375008 1.3546271128935166 0.02554447360333353
0.7669483038448291 0.07268112572593866 1.487242716596976 0.04895643696236376
0.3171972938427544 0.08070143645398 0.3358846399830796 0.036964797609592655
0.7558845102641827 0.08099048298109356 0.6903539431678113 0.09639962129602034
0.19994473176274358 0.08114377480982765 0.40098820769541577 0.02052185219947085
0.7392882927070382 0.07949145750952356 1.2021967592739609 0.04755678258830778
0.6865046187085406 0.07977127350719067 1.4595509208808417 0.02096363746774713
0.5392841994914573 0.08314696413495601 0.9492664776539707 0.01585361221427884
0.5601292052526784 0.08359312090202808 1.3185224600576457 0.015272510382886536
0.6782802532050035 0.0779579991160313 0.8521208483097006 0.016740025963986643
0.4832870832782269 0.07824535011604282 1.2922400526564102 0.012481556702883949
0.5671384910469152 0.07746946481455147 1.4683715623798503 0.01181676443513132
0.4316059269243927 0.08470015677422639 0.3720793483049156 0.013146049554681858
0.7777334432783735 0.08245717595120794 1.4413330424286814 0.09448168036025426
0.2337580535767456 0.07868302241551357 0.5071487495937252 0.029344846726214548
0.7570306112095289 0.07967875561372738 0.4942395147399087 0.08859763366927714
0.31116762213911436 0.08327434408964875 0.3510246476657509 0.03169039275102422
0.40881975238516954 0.07788217989810488 0.4693126497522008 0.007487827551899003
0.7125908070994327 0.0839426923389352 0.12330507177395095 0.011686558761808958
0.77401749936777 0.08181587677148637 0.4606702393314689 0.07689742855861843
0.2771677703234785 0.08334221776904346 0.10339197718367975 0.01191562660218553
0.4201472945147866 0.07696170568600051 0.09393115868364882 0.009555974385522853
0.5866827446944226 0.08241006257469788 0.0952428263994565 0.021858580173594204
0.34745674483967093 0.07662393398022366 0.6981231114108658 0.019515608593508905
0.6025294859610472 0.08010537341211067 0.7100808693460128 0.012280786892702969
0.7808817167585432 0.07894105998411366 0.8070981643921629 0.05140950613239543
0.3971611023671775 0.08298047972647803 0.37576542964909887 0.010385592369060462
0.33378756935441195 0.0804055115751296 0.29789617708429417 0.024301744765785786
0.3714226585124932 0.07565005638675025 0.49063566328138086 0.012460122666498149
0.4367661302149394 0.08104778798259979 0.9070260760937886 0.015152191238492674
0.6072647900390474 0.0845047907828734 0.9541301809717778 0.008011240349460078
0.2403236338099432 0.08076692016475347 0.16102405973867584 0.014174705089119853
0.7793338344694812 0.08405732031228808 1.5982767891942362 0.059773562315424876
0.5420480476408467 0.08005813499547719 1.438992561965752 0.0209145432906862
0.38506557026798144 0.0834757789056497 0.900871605542465 0.011442822274425227
0.6098688303354194 0.07942715808387363 0.8489901427135446 0.020527765491429827
0.6320246681705314 0.07696122758362313 0.6838640797783254 0.01993428027443632
0.7562578736264379 0.07619398200312313 1.2272181010942365 0.062263823957809515
0.5802509986166016 0.07590265655337802 1.208276481597384 0.020741975804844607
0.4988306299465532 0.07854711523689056 1.0787101156307317 0.025628052793821247
0.5510058277010598 0.080381363594872 0.16391782174846575 0.022494271239076415
0.7602791494052872 0.0797083268038587 0.5677701816802848 0.03903283832943042
0.7803650047186833 0.0793645180501239 1.452162877023629 0.05056504712921077
0.7280077650804359 0.08632407850759276 1.4343718457230412 0.029462171707437847
0.3004017302571845 0.07825784767691718 0.6149152031802374 0.01322479672945002
0.7671117639622965 0.0805740046522199 1.56270718177334 0.06479173509506894
0.5908242418250998 0.08193725227533084 0.7243158522793002 0.021891110381920768
0.7432180138566526 0.07354319361531159 1.9282213913918738 0.04500152000571394
0.5906635163317888 0.08185250786611126 0.34126456351272044 0.013835338790406404
0.3777875792610863 0.08339894729021409 0.16770606548310774 0.007325432483336947
0.6388527367900918 0.07957681784319133 0.48993466305268446 0.04342683416423936
0.3416701033583969 0.0764466606019369 0.4927288330603146 0.017950811979925277
0.5685127768987647 0.07916024550146919 1.201008052566909 0.02273988901725491
0.49676161784311357 0.08720505248544753 1.0319706078622501 0.011472243346976848
0.6611377320390053 0.07838401981175613 0.4968159704194712 0.037034526770250965
0.7929754232734061 0.07215801488338848 1.7843797361496443 0.0946981190039279
0.7065635800918209 0.07273353251965725 1.5803352506088515 0.05137818384792384
0.7847333178826694 0.08431894619626965 1.8819459183334204 0.07670988356592807
0.5299843150338879 0.08551644035373286 0.6430368279517144 0.01000994830286659
0.12802262295686573 0.07956535197743755 0.1408308628743099 0.01717273296801145
0.3130536296267861 0.08080796167034861 0.3758787135186493 0.00935633198064218
0.7604848868554883 0.07891735108841196 0.7285765596957272 0.027121383175494916
0.5120530741235263 0.08191923689528778 0.608561059462927 0.01494330177145756
0.35079119746848103 0.0823973200338215 0.4436718874904006 0.011907629125301427
0.6882370678201186 0.08338071074390799 1.0223058259218065 0.01738896136017058
0.38369255363979116 0.0740237938651768 0.9321011071433953 0.014102351359765211
0.37241588623154387 0.08140371244590135 0.47695416452544737 0.010347864014040874
0.2602361661308381 0.0758882410069548 0.4076990783120326 0.01414120584375797
0.7229652672104259 0.0792942947146721 1.3740218559872148 0.02569065205735617
0.6490929945042602 0.07794344608895916 0.4754657668175607 0.06260504233745466
0.6252498780653948 0.07611794784187073 0.6208318739520935 0.010648788150609243
0.5066373724059847 0.08480393519897064 0.8181165203521018 0.00761149800450631
0.7968034549285995 0.07845767275858039 1.9303518653459524 0.08626967520416161
0.785259582800215 0.07805054653191269 2.0923649301583582 0.10086816047676661
0.5145292274840834 0.08099568660351672 0.4713378862189684 0.012353713532315546
0.6627541326795756 0.08531614134607013 0.6308959518809767 0.019861173634350315
0.33458095127232573 0.07693102408010506 0.3519704997232397 0.012397162797478314
0.16159301513602817 0.08163328806024267 0.23450984226633437 0.010423016065194907
0.7446247769803115 0.0788410843366398 1.0314904518640344 0.03813183457423406
0.46824892791710016 0.07572756171606743 0.76577338441297 0.01994921454060275
0.44544229009131564 0.08792550395410177 0.29069246096906387 0.014845872297875063
0.6523852992773609 0.07833761442096342 1.1853085004576636 0.010840232646416984
0.10854024043661689 0.07491237733030037 0.1409364575076404 0.01781032085348688
0.41089219402678734 0.08009201558415759 0.6461088440311812 0.016804078993892968
0.7045252751104164 0.08256583465826024 0.7510929651592515 0.006011935706176217
0.6347636799387806 0.07896663420127048 0.9288985542758377 0.02416310905127307
0.48666913732879763 0.07658240947888818 0.6399419005505115 0.004787637068878013
0.422275414258069 0.07526569440345729 0.8823918427926617 0.012193087825228434
0.36707027640199796 0.08597137443063851 0.6914425922642694 0.02021405583672288
0.6911589417559707 0.07990287742447731 0.41956377102516507 0.019514776353371434
0.14834723130833788 0.07938376713350422 0.3391965835638052 0.01509433312900303
0.6759621551875394 0.08268564027894809 0.27875016303872274 0.020919365339335923
0.7102740260736545 0.08097150749038316 0.09216321622145789 0.01371824681004389
0.6339767146886773 0.07833736435661874 0.07655532915291169 0.024824808191138803
0.7819154280368662 0.08149519317190615 1.2154052435370921 0.09856905605263659
0.7795787073101749 0.08208853146768415 0.6348819260658787 0.0495434397749391
0.4464596994370325 0.07809484168147825 0.47031286159766383 0.020078050250676768
0.46690996937599527 0.08149506861479237 0.2782994475373984 0.02787534723490408
0.5809455071046635 0.0855293656836751 0.8697715402824141 0.010873376275315094
0.420543038447761 0.08046692317566892 0.12114592614519273 0.013917219398795968
0.7686379621549114 0.08854793270588401 0.8158778279780342 0.04537504328459016
0.7095141902803821 0.08143702834317405 0.2699949612608231 0.0148211976254878
0.4044069962949982 0.080971467185286 0.7213477012116649 0.01559015575212091
0.5679545511571605 0.08486131940504406 0.34682048479194644 0.015472327377903989
0.6839444224206038 0.08142913738309912 1.314638796826989 0.023503087726277537
0.5868539770764383 0.07619126845800638 1.5390615014586708 0.015802840002126443
0.756917038040692 0.07852869791932467 1.0812044324506767 0.071993756375562
0.39959845828918955 0.0749383655246431 0.8503042160546994 0.011091485068117241
0.5979044969473327 0.0806330979006913 1.6022969825405926 0.020967890543631417
0.763832714122726 0.07432562512244709 0.9536145331036574 0.0275623050999339
0.7700797746600673 0.07529254426203252 0.47900167715377323 0.08018796359963361
0.35198397660436304 0.07503297168540789 0.15982432094881246 0.011727322596663887
0.7631200470774189 0.0813458109139242 1.284044139669125 0.035882080515475596
0.5946522738095595 0.07552782720552569 1.315440882340255 0.017215351654893445
0.26193621836440806 0.07017283509269769 0.6460888659923609 0.019646564042674057
0.7676157799328357 0.0764381362677108 1.839514969040799 0.0829574398778183
0.4752667810512234 0.07680569576244242 0.6894866272840159 0.024847176856014418
0.7006000633442993 0.08265273674522888 1.616303357795171 0.017299862072552553
0.7827990565014893 0.07428508836367327 1.0818383651387304 0.10535844545757911
0.7880865891612526 0.07333183130899279 1.286582226375405 0.05459451387321128
0.5273149244380655 0.07457024510057139 0.35101719699044037 0.009690886573167785
0.32792949824982004 0.07203965694094501 0.40805539821585224 0.009175575226258795
0.6836764082663142 0.07544231404461324 0.1662393366931173 0.07141576405703572
0.23665033656778456 0.07111843260488503 0.37618646599087013 0.01199038918274413
0.45215177424882663 0.08815337814370862 1.1137646732741289 0.024916033817900553
0.17416732132967713 0.07316607605598391 0.40190911609854335 0.008732092722184032
0.4698250974818674 0.07878632679538485 0.5152949182579915 0.015899352661101252
0.6095940538179511 0.07633548106594593 0.856612938751499 0.018120357626904168
0.6213456063419486 0.08005923198784583 1.360391528341485 0.03436440045603214
0.42059243015374803 0.07792301023069764 0.7934852214589817 0.018009548278250933
0.6984029535284054 0.07567761180856664 0.6940201690470573 0.019000703282305773
0.69507823617082 0.06990898361682445 1.1434378646387717 0.02235062120308772
0.7293173252901096 0.08219604993118966 0.42952700493533175 0.015723052760535716
0.7588234985407522 0.08358789465906453 2.030409200912601 0.06454902670850865
0.7850639943664379 0.08166244272042325 0.9990170532752348 0.041027412482871756
0.6238125553587571 0.07629396164587302 0.14696626033358653 0.010638331866226917
0.5819814759250356 0.08268469592548691 0.12082927214188437 0.012968734602502533
0.6831067716644336 0.07653646690180585 1.7813530454249542 0.012669353563661586
0.5697551642455861 0.07824402208466584 1.2523048768887792 0.01996646389023823
0.7652961430746604 0.07421461913566231 1.0105143242080026 0.06680520840553428
0.4306322607984465 0.07782518015311927 0.4814406708226254 0.009592303665109696
0.7092878450999089 0.08360738373033114 1.656724957806169 0.03189222846292081
0.7837649080149265 0.07364195411854635 1.7408107192255062 0.04502505635666487
0.6402176371612207 0.08159099269822558 1.5118721467817045 0.03407575966417871
0.7484413819106228 0.08134294510186228 1.7542525249951353 0.02585496398103488
0.34615943494895474 0.07540805317010003 0.7645908576135177 0.022592769768148346
0.4554218627282743 0.07658882858788266 0.6002676077358692 0.03327556258600466
0.7498666928228304 0.07310561432332306 1.248199083226991 0.027308940108670285
0.7156596199474528 0.07405080908517374 0.8165135480619965 0.06904772325882953
0.6400508717096276 0.08482369897723976 0.6946818799253265 0.025175555519159766
0.7709567861768044 0.08118645968503224 0.979196674805512 0.04635963392908395
0.5711891507664746 0.08106901751681175 0.1703384978541511 0.02799974363267904
0.6844372410005944 0.08028192587345787 1.5714744888224639 0.03110158968730048
0.6996529897867284 0.08377630087934325 1.6508333426587767 0.0195323226941467
0.3486551257278782 0.08100377953623782 0.2865324797100832 0.01737970544465421
0.4691007019859097 0.0790192152018227 0.8699109322166652 0.0160201677908135
0.5779597190710225 0.08202258839009861 0.3848926135521482 0.008751944932463666
0.7972217271570426 0.07687981490606295 0.8144636436486172 0.03323080396131389
0.6031015228774055 0.08014876377636725 0.6375587726487306 0.015666831660342544
0.6963219735078058 0.08145036975312307 1.3411005856713696 0.023216586663783973
0.6577825580055896 0.08215798240185601 1.4709363238775859 0.013883654627735508
0.6591862963772479 0.08229624329146168 1.3165187207557503 0.02531318175373413
0.22654831079445506 0.07539354097382914 0.14713676843647383 0.009272099309962143
0.7636715655546451 0.07744476251470941 0.8570177002477258 0.024341192789402766
0.08792343283339665 0.07833557579507727 0.1342147825199903 0.019632317460302497
0.7418036114376821 0.08424749496818304 0.19139777988234216 0.012931118639834852
0.36783859303770666 0.07307742627907271 0.4515904104977732 0.007476899386741423
0.3752130767416154 0.08196472554799401 0.5973963555730433 0.037602391000433964
0.310858780447448 0.07616557605489864 0.7036267085725176 0.013484316602116894
0.6662750035428394 0.08136422253558853 1.1573968439796127 0.02253963052491173
0.4598506440121879 0.08757887418027387 0.8431047653191326 0.007155342279129975
0.7657353583473848 0.07362055078694531 0.6093697721288819 0.04937921544359537
0.474140175955506 0.0788141977181662 1.2479825795521584 0.011156034647430702
0.666973919938488 0.08092546367523752 1.3964307474914557 0.025440902834326724
0.5908452587009003 0.07911108125538918 0.25167981735540823 0.00708546418569367
0.6680874169844121 0.07778249902915259 1.3028813862555313 0.02374448485927842
0.39195367919639973 0.07736148926711019 0.4595723649415723 0.00781755905638254
0.15897518388353585 0.07853435619938083 0.2863350144757373 0.010680761494941836
0.478976345703935 0.08191097324739853 0.11686225504259576 0.016424707428267533
0.5656698468675441 0.08213697609963069 0.7836220762497775 0.022717088748605504
0.7762278530426129 0.08351132401225272 1.9383059836429117 0.07860841713009492
0.34370267919989567 0.07682371964078338 0.564149108189386 0.01744395415693679
0.5392804889682931 0.08469139076030299 0.11752819333714566 0.008136855859068072
0.695989920642444 0.06961616509520889 1.8407223495742322 0.01690240917324656
0.5214610209662414 0.0816451320061744 0.19679690690380358 0.019018675792369974
0.6951478753805574 0.07650193796749934 1.0073351028353192 0.010914319250822686
0.21835644039613164 0.07711591985622605 0.37096348158445536 0.011274600931977057
0.7801670581136277 0.07760788444936567 0.36164407698019324 0.058520874232199316
0.6769057958990434 0.07964537300844815 1.4145391234579336 0.028770303348601405
0.7556892944021146 0.07871604581314239 0.2755105681681871 0.07725651623754434
0.4494514153140066 0.08549104629756772 1.0175140045080353 0.01327949181109424
0.6474028212181708 0.0802148605663575 1.115053839582099 0.021857406317196317
0.6312114272789908 0.07441467815239589 0.08649635923620322 0.031264579529971484
0.6344461959922907 0.07971196153347998 0.7259671173484574 0.01983439941640817
0.25604353460412443 0.08103968830898906 0.09407434157128061 0.006053258771852761
0.1281359867086075 0.09076532266387219 0.07894530877197492 0.024069840124610786
0.3957847375018775 0.08783763856868736 0.16812901965081548 0.009503088227835183
0.7549295421017967 0.07863428665173139 0.21498217316558538 0.033173055675081636
0.37168661514383783 0.08014398617001173 0.9553088589098978 0.023964174569941148
0.14010136532807183 0.0800326972343624 0.2605401462656302 0.009793087658815177
0.25042100617203433 0.07653177432439491 0.48383138928375613 0.00951674800760588
