x y z curv
0.006219341145631442 5.1347944082212535 1.8634366708336911 0.023855435400266356
-0.006326910648758433 5.123697105540168 0.09634733281222636 0.03005748831849642
-0.0036567797699944065 5.134055342186544 0.7157247782575114 0.0068567644080506805
0.0048712844484434135 5.129709709313967 2.0347013078669574 0.03322766155940662
0.015498501351726599 5.140123559941572 1.1118408105137079 0.009600958169189605
0.005653597975353896 5.128226668587657 1.6711004859319147 0.01952930572605061
0.020554604827293432 5.1268212916906135 0.8454766306282746 0.06684712977248346
0.008599838688907215 5.135811007893162 1.54913055122459 0.07670128693308798
0.0071246357684284865 5.135265341349775 1.102980322992188 0.013360341024200131
0.0011322785711412042 5.132948801055908 0.8747233634481084 0.0621604768503878
0.03768807417832861 5.141917005391691 0.7881554532642914 1.0799080536896451e-11
0.0020307317014475125 5.12942916001033 0.23302869242673538 0.030857394290278947
0.0152058484756966 5.121178959452253 1.7896160060749708 0.017092177620397966
0.017370634006867815 5.134762504579994 1.3842288433599024 0.04116087064291365
0.0160610786202461 5.129763452870974 1.2675721161284785 0.05485280239312201
0.006991361412872531 5.1346960022634764 1.0767863039900025 0.01908950468687885
0.004356475197430811 5.12822524740138 0.7569635593023727 0.01498829766958033
0.003928390212526208 5.139310127761031 1.0258112960366559 0.028244859341938572
0.005561368366623997 5.137655831934569 1.703301313290845 0.01802745200048487
0.01480962319827049 5.133507705807176 1.3347387692620922 0.039937486358562375
0.003853477194674067 5.145032761611604 1.5971616747885866 0.010415746727543059
-0.004687394804011274 5.1382234664780375 0.8086638435386955 0.009170446120182254
0.005359588244211819 5.134268434898447 0.22115790727325302 0.014308585708494356
-0.003128234195327406 5.142169353306021 0.5167043980263938 0.004655979729778518
0.004117195284458722 5.126989586054067 0.34987985546296596 0.007697986724893769
0.05422284642720555 5.147808915905283 1.0410155274831305 
0.014091469575419674 5.1460028590315625 0.6507043080258882 0.05360161410505684
0.009626391694088663 5.1321394585018645 0.44116445114271174 0.04971602966563689
0.004106162558346505 5.129950392019657 1.681861414204404 0.016079222320252343
0.0043476184499291375 5.1325741720992015 0.5395147490427264 0.014581919827933975
0.010415652839224146 5.1417262992265504 0.7501234537403453 0.017222730295389642
-0.004450875612063593 5.136006504860137 1.9833710905944224 0.032626566676154295
0.007776641864692373 5.1375222310788935 1.2644156425777384 0.05339411677707523
0.007911886258161846 5.1280005866351654 1.5584748528404353 0.026929992867859413
0.031222855054288432 5.141821281538264 0.7192184979793593 0.0032106924667340882
0.0008160161737541455 5.142965089408232 1.9644983975573502 0.042671586227403704
0.0013683198220247716 5.141923153159149 1.386469871439634 0.06502751004965597
0.0005016863728606706 5.125049822170143 1.2002516939974517 0.03928929048525845
-0.004184623608506804 5.131828309125124 0.6783682054897234 0.01406426135016059
0.001329805738383786 5.137425154409933 1.3437319261560088 0.04951400003723867
-0.005051697528095835 5.13702858086424 1.4745656305852464 0.028991545744772737
0.006548606365872844 5.134535538527806 0.3140515339665149 0.03377466372339597
-0.0020403987308439202 5.127232488223858 1.1642355561733584 0.030495895673585512
0.00565158183701631 5.136055502413673 1.4342534130694924 0.044487980648687316
0.0016020255753661427 5.139847977683972 1.9712761463547233 0.062371406348511106
0.016046081332353763 5.129827057784446 0.9915036854223708 0.006738210681814802
-0.0008960727297191856 5.135269137610463 1.5896264837064025 0.02641551080726974
-0.005124836613522788 5.136965911180432 0.6429534086085024 0.026730164939751895
0.011268419990669425 5.135384802450067 0.06932566666597596 0.018666853785810136
0.014558717521953358 5.141424205865799 0.4727465955671562 0.015196223846676911
0.002431937337707776 5.1360602186937765 0.7560871912071921 0.0381315949395998
0.008021363257877362 5.133470117252686 0.5754221642303154 0.022142603989719893
0.021440788162345622 5.147977360010579 1.3199290201390392 0.02002400504171753
0.0036040582176200455 5.1313554953143345 1.814950497867177 0.04080456720311008
0.0015604296698761891 5.137091503490446 0.7386700251830974 0.013756500700971636
0.0009165421417625032 5.123775524696703 0.5873214982472968 0.01055756043306021
0.0013449711917064818 5.138045383883801 1.329484984182465 0.04500940724769479
-0.0013576191094559716 5.13318616435204 1.7532177130184707 0.019459235876878204
0.00688244063723759 5.137091811649522 0.03301071468979122 0.010808853326989677
0.00826162360146939 5.13186881836253 0.5253523267952759 0.025602611125335732
0.0050022255828823395 5.133276837510531 1.6510753300391843 0.022928123310732476
0.01751790652122776 5.142607797852527 0.42649773491291143 0.020843645220406257
0.007707916842261112 5.130119611546245 0.6203771330654618 0.044468956588169954
0.00685316025633576 5.131820707892541 0.6612987330945935 0.07375720690074086
-0.000264640168202746 5.1365923321647955 0.40722548994365115 0.0043031237812928115
-0.00494555980663163 5.131987088774202 0.12692022584456197 0.01986974519960809
0.007091453621038636 5.134302431995916 0.3743231401301004 0.013333403545487966
0.003308893678701798 5.129365352202774 1.8555907733509964 0.02575409523237561
-0.00599258238322414 5.144680883302914 0.25259631359771945 0.005890020499803366
0.0032749192958169636 5.136103925578556 1.6041464418506568 0.007182243729965278
0.006354730133767358 5.133522867337481 2.0754742814687646 0.0787174646062909
-0.0026056352240089783 5.135389232236892 0.605036205220048 0.02254828008654885
0.013750962435109764 5.145962968547784 1.6123651392930132 0.022441445253892193
0.024402230549594103 5.142358448440017 0.3213655677499376 0.04222755314717328
0.0011900945767064819 5.13865031824025 0.6730385701223209 0.022986607493220543
-0.0002323057047322562 5.136959725294418 2.100812207969547 0.040238120449769994
0.013967788741167319 5.125895781293268 0.9385494310269927 0.0107460773034044
0.009843800557366274 5.137383944645997 0.5882732809157432 0.022331862803567835
0.010964474550120215 5.136554107948398 0.19736970791902803 0.004435392130333539
0.01951313616155613 5.130546413702284 0.2827997704443274 0.03803075449462788
0.022750922300561846 5.119542438983064 2.0941012817683498 0.02765302152640758
0.10817824689740306 5.1465853770702426 2.0438171404765266 
0.9928069565911977 5.14760330606848 0.1638674748641052 
1.039268559628355 5.147279834736074 2.0198179304844 0.030703800535700692
1.0317046898639564 5.146258366540984 0.04208132810584974 0.00031166531118893403
0.07664869287505632 5.149650053506306 0.36923669863820624 
0.07948330721119472 5.092106619976259 1.3228683828697718 0.013294531703254099
0.07936980501350024 5.100963602656425 1.3422907218803735 0.010322429529342945
0.06705616105169501 5.085746949301552 0.004093954198798327 
0.07936826659290325 5.088759662046673 1.3956143028678676 0.016979837245492364
0.08156777305459752 5.099844777176785 1.445242284995293 0.012138888882830401
0.0852472505511727 5.100605657721219 1.4579925448289281 0.002427212992979653
0.07768390984307574 5.087299833810113 1.4582434973948555 0.007563477036710151
0.07730341681459041 5.091125775088629 1.4930722285560856 0.008168379030877056
0.08045346778475196 5.100112609165641 1.4908045283598335 0.0055945638756901535
0.07828243741194248 5.099122531289108 1.5122423188906162 0.03013522191379747
0.07897730795409706 5.091598653514898 1.522719600865671 0.028357669059972376
0.07619375400516186 5.094440783108044 1.555832345596998 0.028521110059699605
0.07364213001487693 5.100117639652651 1.5931371318841072 0.01594967509239384
0.07123617368234002 5.093766330984628 1.5852381545367094 0.016072923753141264
0.0756003044791624 5.092193314996148 1.7353260742710912 0.02215660166114795
0.07571502044414877 5.103722420596852 1.7150893615764307 0.10430470225732764
0.078073003151131 5.103174781173584 1.7536054296338695 0.05052310032967356
0.07131288521054972 5.074801192080532 1.7678980276550451 0.0401158464537143
0.08130745476547746 5.092374842459932 1.7644695820185903 0.04823227675328054
0.07473845656271234 5.0906707398538265 1.8510233264438827 0.01641622480790825
0.06915218846334384 5.091790169542601 0.5542208418643193 0.0031559530028811983
0.0754627525184187 5.080273880953928 0.6114151330300421 0.01466136267538319
0.07912522577453665 5.093518176335525 0.6036235446342323 0.027230041344170595
0.07859652820725184 5.095704121745147 0.6195085790701186 0.03207747475938479
0.07826892955395086 5.092274034726783 0.7171331851454743 0.00855583059333927
0.07874443782509885 5.102663239989335 0.7106322240774406 0.017948123902723746
0.07737317287319861 5.0970509798229395 0.7263700673855857 0.015304098054895205
0.0754825304113753 5.091686618866968 0.7643647860220234 0.008015056223477559
0.07418818620103092 5.0899435860142415 0.7684086489377071 0.011901295182825525
0.06990823591719045 5.091671232930754 0.8501448727484725 0.05088308933162507
0.07985412128711339 5.086983073870057 0.8842969319880051 0.020609946487095413
0.07593595494299105 5.10221874394278 0.888513087773238 0.06079131111506268
0.07901088935455625 5.098434234795142 0.8753327456695782 0.05871666686333866
0.08128335073876938 5.087984397322626 0.9358653234906085 0.00982640868820729
0.07394908357262107 5.099445859963588 1.0061477947265667 0.038150450112082845
0.06891417641931956 5.103364783002136 1.0196785650992726 0.017309269621090514
0.06718996556555064 5.0851819994016605 1.1470470371233872 0.019891320988015937
0.07320102922845909 5.09196855893855 1.13428510647992 0.015498454174042097
0.07196259058368892 5.097161733293315 1.2007199782467295 0.021172342657293584
0.07631409981853232 5.098459792550282 1.314007793480833 0.02044909104802592
0.07428203417019252 5.075708200118167 1.5470243429735433 0.019505336352244388
0.06610391086437026 5.07669999904407 0.7371490877905843 0.010377763662526318
0.06846523379343661 5.075320423974477 1.6382489644379374 0.029042329972289067
0.07489907978061754 5.077891470868503 1.8324443562053017 0.03278462170342725
0.0669655796598282 5.077572835248788 1.9840412329478767 0.0714631898734326
0.06830909880520095 5.078212277891453 0.262750447021471 0.014331044713916677
0.06670045743598164 5.066615343920123 1.8630846636011622 0.015450117631915191
0.995858290960884 5.078683999637669 1.820300307026977 0.011943742690150352
0.994247576161908 5.069204757718748 1.263506356028487 0.05835242079786682
1.0047438515918716 5.075352448181787 1.4281661831658152 0.020791698935406857
0.9983583178690888 5.079470655673093 1.7841929662158793 0.007211924325912949
1.000322641884289 5.078058606330912 1.1068002757530568 0.011573073597089274
0.9967782214709123 5.064407929707406 1.2031641082078834 0.06952771625652338
0.9986024576931726 5.065887757256034 1.0833025008969053 0.013690788207617143
0.9980676341518319 5.079431369641474 1.4125631206530835 0.017240613458864632
1.002149061146203 5.078427351556381 1.866594656988126 0.0075449139156121255
0.9945864142411799 5.076405261983808 0.9437425693536894 0.015850516604809486
1.0073497237602838 5.076065917192513 0.580083268543546 0.008370026167237284
0.9966106165170426 5.075081008932925 0.2085177030187565 0.004019797821333075
0.9793665873429914 5.077819731059338 2.0526661863422224 0.008369385599109465
0.061130787787956116 5.071330369541538 1.2931768112684805 0.0173925809466118
0.06316677979453379 5.077539120249679 0.6686354163317129 0.018432690326332796
0.06731940527632262 5.079015995962081 0.7806921114625213 0.01192457149847757
0.06319308242215207 5.076849983277385 0.38684423746096713 0.007963926715815063
0.06238239058431166 5.070911315185645 0.940186547135419 0.07245219819032586
0.06326935338824514 5.071633159544786 1.1927103532242085 0.013802066605182385
0.06924934473921342 5.077435144917276 1.47128092620485 0.008236697931750804
0.06921467933257862 5.0807259805874 1.4136099914892517 0.016957175509888893
0.07517285510345344 5.084844500458945 1.1594667021777978 0.014484646757519848
0.06796369422275296 5.076220046426529 1.5870885135937292 0.015429993891449448
0.06641869000599307 5.07751157228077 1.1866212374755933 0.013431380603317293
0.05900205445377182 5.084042505372015 1.8677624276355267 0.01829885976142674
0.06342710407169816 5.073280765882118 0.7665826661377604 0.0446314860902794
0.057758129395378 5.070862315745829 1.4533588497672543 0.004766022294584451
0.06423426972302247 5.078473965624572 0.9997578127745033 0.02288729744035829
0.06244824191743735 5.0274305439781575 -0.0033221206608005536 0.009910301544867278
0.05947496435857087 5.035725800170185 1.7968832520415485 0.21305129578510615
0.06107622350773573 5.078234556955642 0.9597832482373209 0.00925349824255659
0.054871759592259005 5.066547166792688 0.7620415877525569 0.04406795862011404
0.06304199674778867 5.059724292143719 1.5075995176649466 0.15576768410079786
0.05839838900358206 5.063008362832 0.37011989927815625 0.0736417496874331
0.05598450451955816 5.066725164499233 0.45353394588768237 0.024547857003905677
0.053710357596934086 5.077408301192618 0.10148118820368512 -5.242035702788741e-13
0.05079248417122063 5.07252394949762 1.9147941314292556 0.010917836178799796
0.054186242014736326 5.068009003263878 0.33620891187464225 0.03454932030213985
0.058017860132593094 5.05661815710963 0.7252291093829905 0.14682086296707988
0.0586745864445219 5.065324858455464 0.2994366354507303 0.018400671698198916
0.052536358708280446 5.063713779576184 0.6664140019493695 0.037212627496914556
0.05365686963051276 5.0582309338303775 1.1617831411970378 0.13752545275717853
0.05551626231009954 5.068069331429286 1.7948446680362318 0.04044311054998151
0.05019694386179644 5.0645665275637155 1.607469822894695 0.09402007409833986
0.06032412597665881 5.032216664395311 1.2318076186562643 0.11598340909287624
0.060360436288099124 5.065918429251127 1.7247185594851024 0.05294927392529746
0.06040627207083394 5.072371335453207 1.8788742687674005 0.03189844364546006
0.06199902544070882 5.033359626517261 1.383863148345368 0.10630831747140491
0.05728838100284811 5.034250269247839 1.517691271020887 0.11773587620538935
0.05809956613217165 5.026141030464909 1.4323348212564944 0.05439097048602999
0.06088312641828473 5.032691821192603 1.6395499369538271 0.10986140919082328
0.05549905505977931 5.031088740440392 1.6160643204247362 0.17305131006640465
0.06444874390473802 5.023499210969953 1.4001718367225497 0.011670102234478851
0.06245907155391395 5.028206009248282 0.45760040413461345 0.15046556753053003
0.06050042700223174 5.026513102064282 0.929906865113788 0.010384379680168532
0.05478884159118963 5.023121997402633 0.6751630254385744 0.017636715244044556
0.05983101021862001 5.027878707914291 0.5803002947632443 0.09799487436312654
0.05380533361663327 5.029307169740403 0.361472956053414 0.11338903077479962
0.06316038938359148 5.024944683498641 1.1742652246201066 0.11992226696902222
0.06566916995224123 5.020414621822342 1.19549527014522 0.01910648392500456
0.06149481355058626 5.019594020740048 1.4494059209664494 0.005868403327572488
0.060044733417370676 5.026260302930966 1.7532738829045706 0.04239353687284815
0.056662257429423456 5.033239760112794 1.7307483417372864 0.13152343614143364
0.04677961320999205 5.028693511882678 2.0417499530388756 0.021522716029088066
0.04115544712677478 5.0278434380139965 2.058971060280487 0.015587381229040144
0.04531531739588487 5.024795596315475 2.0326723486549065 0.019299982606647392
0.06005395998472332 5.036276538293717 2.0296795808047685 0.21462786820849236
0.02825421317723683 5.034713062468626 2.0499889888395213 0.01852408838336357
0.04742243841564933 5.0310881910263525 2.027186894471178 0.0850230097576811
0.10436602413656203 5.02619389081078 2.0501802709350856 0.014098078685623006
0.06307455356316825 5.028703661845885 2.0789832635320917 0.014327582268825098
0.10761708025208201 5.025887232152431 2.0448452642484236 0.01716469529149031
0.0243226491219874 5.031046925006541 2.026508433957354 0.01552934722894386
0.052729392530992056 5.015242185451049 0.07412510853093623 0.03238434216006853
0.05457750801699432 5.011880648812555 0.11665606759289163 0.019982383102722597
0.051276522730438555 5.029604338626833 2.0837527502011137 0.020002480233712098
0.011859204496583713 5.030944354713678 0.05890322166977544 0.013650242717916834
0.02947846228552075 5.028861869278649 0.09636352907858028 0.1183351394137017
0.024491091204813454 5.033319905578871 0.07846156599607149 0.10138501763554722
0.051108005299220105 5.032276759273362 1.9874876155462173 0.09462610908127383
0.032677776017207595 5.028090036670361 2.039045330916245 0.020848465205390448
0.012340047432673907 5.037246860876399 2.0618807241193795 0.02020943973320173
0.050338655834870544 5.028525791474308 0.23311279169492827 0.018223682575475637
0.013201762122391434 5.025278643468559 0.014633235965193654 0.01972201281794324
0.055735732984015796 5.026593506778172 0.26240023895712844 0.006363425543204978
0.026504474041285017 5.030175276322691 0.1893647277340302 0.04767887418471995
0.004959763982505397 5.035421913579566 0.04016229612244149 0.036128964376470986
0.07528283185676599 5.024821482074287 2.0708191836100003 0.010592012139015013
0.034715993798760954 5.019499783623699 0.16822409855398476 0.05755186672652942
0.04331918014457785 5.028513403410905 0.21954357286848822 0.026366665921547912
0.00799862662549844 5.0317977729879955 0.08138199947707195 0.012393180800948183
0.06174439014691001 5.030795640382177 0.30623673453396094 0.0893506225197904
0.04190341243063321 5.0230814463800275 0.239835251076307 0.018788528689939913
0.028487019140031964 5.02700046634577 0.1482220981992197 0.07665355644320888
0.022404570408935013 5.023963985539211 0.17722020520304047 0.05188185264227656
0.04089556451522652 5.030013831748503 0.29261480136206924 0.017736532177361215
0.04592090292153055 5.029697968974619 0.3161954940600603 0.06017333900995723
0.05630687468341016 5.0301290719014355 0.38253573392750023 0.07697102979012574
0.010592235719640849 5.036267961658508 2.0981961301088323 0.02384599245591071
0.04302780660871669 5.032623725749514 0.3355374725587939 0.1604305329360797
0.02746292038315348 5.031057972101651 0.21055361798538041 0.030084272595109367
0.04778654006943034 5.0237099920918595 0.39219969354374623 0.005646731366632893
0.027388091315712924 5.030971981747759 0.25226368354032336 0.020535037347909863
0.015943093919422394 5.039369581440262 0.16306879136687244 0.03352317866934267
0.04525938053081087 5.033135573710858 0.3669352808986505 0.11103721785971533
0.051932466112145664 5.023418854097434 1.953390866779387 0.0349179915497795
0.055066767735217494 5.029932287634813 0.5367760514509521 0.0894220151101052
0.02785322492741812 5.031085322583731 0.20108943111249014 0.02697414377606761
0.04322450430504429 5.027971854652513 0.458625164553924 0.0694592690779124
0.03867448955620424 5.025199409080065 0.4801812104128668 0.10764369226607758
0.027424960994692816 5.0228162464448465 0.332592304250161 0.01898068220609352
0.02649972310035871 5.032025907580456 0.22926636097015485 0.014792187275914229
0.056156642973175505 5.0303414489327025 0.5681589213629272 0.0992905165421734
0.045995668972731656 5.027829664057095 1.9692275056539879 0.020378931873970857
0.04380248078037335 5.027903968027971 1.9848603016061646 0.011886391861566098
0.05605275931411374 5.028547108135046 0.6533947597521369 0.13910416563691463
0.037923821195878823 5.026803627279826 0.4546470477700283 0.07041023926463005
0.03696940983040584 5.027168335398158 0.32359208042299253 0.021726476015749178
0.04626648729374784 5.0314275201663445 0.5819413571656558 0.1044326725955963
0.01907336359564101 5.028818839942667 0.2382600206792212 0.021648270332655168
0.0271352212984722 5.030569259575703 0.29286154989511765 0.031888028511532406
0.0894444108186214 5.032530205858226 2.07047208025297 0.012179450053420932
0.02690016310348266 5.033245863946272 2.095146343936247 0.02278786216332097
0.006529415150130007 5.032314998786946 0.15159757584762426 0.0406034044744285
0.05231892977371559 5.032817756225619 0.6973901058230854 0.15719160453355535
1.0251584939103884 5.032363766537145 1.9913896713424089 0.023724697129813847
1.0096554656829362 5.0249679065164425 1.9494007158095414 0.0574433721711903
0.05544815932737463 5.034753398147308 0.6259432661232585 0.10871453604580034
0.03876145480066745 5.026799438308216 0.5342149180340747 0.00858019080343977
0.033403797541989654 5.028831842788428 0.378163742103067 0.011459277945256413
0.042190553829437774 5.031894171814369 0.6100817972149563 0.1302135064087216
0.03481672689914719 5.025624012612681 0.5885713239790972 0.01808590688022892
0.03677213301889127 5.023171175182812 0.4968217290116754 0.03193103389811534
0.056364341972311216 5.026066905476951 0.8778115600493421 0.088420733098128
0.03733117755129595 5.031121556336475 0.5106989681078321 0.01555560575999907
0.015781494212358655 5.024421632996307 0.40019401607396077 0.008094650282690012
0.05616329359752518 5.022839369032727 0.8020887112929624 0.07171686708282696
0.016483572233615303 5.024220699496593 0.3219180724187755 0.03669590875042954
0.03051008247884012 5.025197317244026 0.5575812243482355 0.018575137896137166
0.038686302528523425 5.027178742388181 1.944216594666051 0.03138269882249085
0.029513486451869048 5.030150536489878 0.032685189318456424 0.01995049155267416
0.03859297606735218 5.024005846756391 0.049240662034382994 0.02900982953887744
0.20612351076316246 5.028716555192116 2.045516222636245 0.01994500305411042
0.13614385574439364 5.030790603975743 2.0664231865924867 0.012267239318126831
0.04201304211487486 5.02492328883326 1.9643993731198408 0.029277278029838438
0.022614573960655675 5.029543062133753 1.9969215756197956 0.007403317023182654
0.17811873876473927 5.02504335317163 2.068770161580036 0.014242168955140739
0.16775362185966236 5.03006785333092 2.0693388917823023 0.0145972747473577
1.0098670972708115 5.033911052617023 1.8959758238683275 0.1623458237190622
0.1514571362200093 5.031308456695459 2.0718776277516526 0.011757663213071458
0.10127869720745458 5.025899289603421 2.0750227436867426 0.01166422492121638
0.059535720709242124 5.0308455289327325 2.0898443508612576 0.01669128402725565
0.09642800970705251 5.024789336865252 2.0908195979354685 0.015550869096161251
0.02661167888407376 5.029855217525423 1.9444955208559171 0.028490894623339348
0.18495188640707796 5.029358643450231 2.067357157512306 0.015649988161601614
0.2291374029658186 5.02277534700548 2.0568488009671113 0.018189860121037807
0.2959491873070874 5.016486120196256 2.0523130074526663 0.024242686592978936
0.049286310016838454 5.028122835637641 1.821647033475908 0.20840539001872918
0.3150163143815425 5.029414087488589 2.05252595233475 0.02328930977028781
0.2697551926502408 5.029082339765711 2.063531363109372 0.023195032776793904
0.024968128755719476 5.025589548493248 1.9637970343816533 0.016491512946440127
0.021431254421796164 5.0252562890121455 1.9879496404314918 0.018001539175599237
0.04938563139440569 5.016118268138002 1.8333261122852151 0.11322124420059984
0.3297973679693735 5.027415670833538 2.0524620957680972 0.020970652129953186
0.03378511921706958 5.028099360067355 1.9378476132601086 0.02845438864645676
1.0106967806508655 5.019659646658134 1.9240598570851353 0.07920585563638226
0.23190109771645923 5.031876107083933 2.068150941735007 0.018452688487515353
0.3569054719727351 5.036560714017208 2.048442322060379 0.009239125602166049
0.2528883360816329 5.02842127043582 2.0657686470720353 0.019065942005253026
0.05134254668608465 5.022997681203435 0.023422040129043985 0.005673216504896207
0.02604337251770708 5.028576319477279 1.931131100117509 0.02091929216286353
0.03408834872604257 5.021978957938287 1.9014525300938854 0.00977287018500218
0.2705022629684054 5.025452432720364 2.0757244027996546 0.027891929319256114
0.37379649812684357 5.029329228311106 2.0501080376588314 0.012683439991103143
0.34450012276476805 5.0299687303471625 2.0641414938469658 0.013944246769841672
0.017892426211553222 5.028133751422518 1.9978970101463314 0.01022210115213141
0.4020934797712289 5.029225096824878 2.0428688819469296 0.0076983554909778006
1.0517065367349125 5.025490035308527 2.041128458410793 0.009670123308185107
1.0228456760397486 5.032486461951313 1.9509532138882282 0.06239788034596892
0.05348854920547 5.0287512522599815 1.6886927736226245 0.12914611478321406
0.050085784743899533 5.030397634847845 1.6569173984892989 0.09412286695278904
0.031512867154567144 5.030242922369579 -0.0009139226333379025 0.030763179556067617
0.21592901759524558 5.028703609223692 2.0794254965651637 0.014893249538612369
0.2891191865040023 5.0314055503657675 2.0698007962158913 0.028923769144014788
0.040376224406825395 5.026949161441777 1.7654039189180823 0.057457520266033596
0.029533961187726988 5.02503371095652 1.8234034534539376 0.03303222490164908
0.026941076503432068 5.0264305880114355 1.9194851700787565 0.012976989058385237
0.057548184228916756 5.023222251009095 1.6009998282302502 0.04625335467520727
0.05493796799685688 5.0304996440511385 1.5795472023609167 0.07685952367844112
1.0352876580687875 5.033781782593678 1.9738587388049211 0.0280525296220163
0.0536010341660231 5.029386350730136 1.5707583287785767 0.07998267563721001
-0.0017661565025865605 5.031411935420805 2.063315378577478 0.03316564643291093
0.03336901488461132 5.029554055998592 1.7248661360019528 0.034604574229419816
0.019118374066898276 5.03367420619228 1.8994339930003838 0.015885267576628878
0.04351294108499764 5.034683800431393 1.6801456877212508 0.14388528820609592
0.04815205409524876 5.02354585204617 1.6503424097237882 0.015945413654965695
0.024110329127614884 5.02927175482724 1.7768991914810972 0.03732922599176879
0.041452829632951486 5.022787394164827 1.6273645674648962 0.02651146141502802
0.04732249021389866 5.030396649277785 1.5232961352332623 0.07024410928408242
0.05183769883895621 5.026359528321088 1.497351971998353 0.10457744705609985
0.01910391794196193 5.026740529781769 1.8124157122756994 0.03515236560100851
0.04359806924526215 5.026036752784057 1.569589972385471 0.08116194694466453
0.06281427385547766 5.022145400526523 1.4735916291805073 0.014320579643382554
0.038387480324297896 5.031748995382308 1.588864557051857 0.09968944365069565
0.011723775794409806 5.028477467203133 1.9698016249092063 0.015633993950532565
0.013647225881400014 5.025303125595186 1.856487019023105 0.04337840801023185
1.0211498087674902 5.035856437183387 1.909849519368473 0.13646410293627456
0.061133542463674584 5.0278979706957765 1.3771089323184864 0.04746611178426477
0.03664606348088626 5.031186305776075 1.6887665110576224 0.08111013448589831
0.04311645255192283 5.031162318138566 1.6144328399318109 0.12208062057325705
0.010960820855859074 5.034189680839518 1.8986333678434888 0.017464885571787884
0.04513321101485051 5.022016101053693 1.4961225976554824 0.014608982898362564
0.02994292436397393 5.033058891947464 1.6759556533863473 0.06350205398840117
0.059794147862557864 5.024407642724714 1.3149067736120827 0.06743050445569526
0.04576740437503277 5.03020604815411 1.5255701976832132 0.07236229619892211
0.043903156287273544 5.031910894184291 1.5403200842873093 0.13587088636598177
0.04664019758126131 5.024981796717819 1.3437633521006302 0.08703176826566443
1.0101051278141715 5.023014973432189 1.8679571875341223 0.026855266945106506
1.0037707605651842 5.027716977291534 1.8436384972986868 0.1494475034585602
1.0189833476167447 5.025385308163369 1.8884778021902693 0.03908765536674351
0.04925419575442511 5.028484346748362 1.4376785761470046 0.041908375735051566
0.04212591640859749 5.031850910356965 1.3547573337711505 0.09882070815330253
0.05241730649947287 5.0262703736273 1.3059244907701748 0.07002294367446815
0.014064576850779484 5.03723914083976 1.924002723184537 0.025698255796419385
0.02216049113407699 5.033537412817489 1.6864495061576104 0.02928618163397067
0.02504995827188337 5.027057334924637 1.574335388946072 0.04176500233870939
0.030379825922723445 5.033390149666592 1.7089866643113687 0.06026788207667005
0.050605341044475755 5.027546697954871 1.2881907135968296 0.06316854736822801
0.04519578483366581 5.029634228519602 1.4362729271646568 0.04693259027845965
0.04980706347608553 5.028365596954818 1.382756480085488 0.04528452209996324
0.05373036524523095 5.0277208369887445 1.3259895875846806 0.08066475499875303
0.04102496287827353 5.031260854756127 1.4201024455082936 0.05194497771143633
0.05557034390092061 5.025338828971418 1.2999054255571625 0.06485027125475887
0.7798221299036449 5.018042313923627 2.0683131770610634 0.015604884841113107
0.732327133025293 5.025058248289925 2.0580195050798706 0.01926075216989802
0.9313773591055858 5.027939876778671 2.094060946935781 0.022083080082972
0.8308003416818037 5.035702129682433 2.064403117118076 0.020076947018763548
0.7329129860958833 5.021724235999566 2.0649975317768714 0.015815613828716536
0.7434057331674886 5.02748539853485 2.0625280061968585 0.01841917348775268
0.7917198575010361 5.023925881375137 2.0688374117634267 0.01963873281039505
0.8447977213432637 5.023576218174825 2.0759023385795112 0.02588372265292383
0.8611087648268406 5.035007410613355 2.069875508339708 0.028185206719651336
1.023038275172566 5.029889446771545 1.9388664266698108 0.057256475130142336
1.0123570757755596 5.030834972767105 1.832941345366499 0.14623743750279078
0.7500160737350832 5.024607010291126 2.0562730389991497 0.016725883141845126
0.9407471762340816 5.034436667134422 2.0896278440903537 0.020110222652935418
0.8385987883876601 5.031727041119366 2.06869809890949 0.022756680524825226
0.8012199283257082 5.030689352644003 2.052363765336477 0.02689962444826673
0.8849812188192071 5.021981067552705 2.061815314128632 0.0271671668094867
0.8507631713980383 5.030048208374429 2.0694234078798615 0.027177126592241547
0.9721256566836163 5.025583336316544 2.075931219266138 0.021560945094092714
0.8706014374896245 5.030609393069176 2.0631329091308923 0.02828867506507407
0.8918779997543567 5.027583542509917 2.064273048514566 0.03085365953234975
0.8998661195439138 5.0262671064468325 2.056858214465412 0.01693757639798634
0.8794232551118782 5.0285165177827 2.0412315285624367 0.022216095118741983
0.9892953462242869 5.019945085230038 2.0731566190113 0.01928866015836943
0.9774043484912055 5.031171503210538 2.0696102296416736 0.023397786701845346
0.9224446042688236 5.028934258073645 2.056955273987964 0.014742992268602784
0.9546713182182749 5.030092738634832 2.064128440960348 0.019686757435501218
0.9472969593692935 5.03078786211741 2.0561184261618752 0.013647660230445285
0.9749757351933708 5.027695702634401 2.055006259202897 0.027617935641971413
1.0282877831251818 5.023497385931329 1.9179782674029555 0.0633194583327784
1.0093389718051844 5.029778741348119 2.0339679506284205 0.06441400355112271
1.0119038571972314 5.025721914203157 2.0028946811968322 0.022004951924091527
1.0135626576795245 5.028270991509386 0.2326316721450071 0.008350957094621858
0.9985398786060719 5.024978446719872 0.3127120038242389 0.014255362618510532
1.0256597839324388 5.031559858150274 0.2125592062700935 0.01434071202065084
1.003450674901171 5.030726385062965 0.23273003556644914 0.06683202580400484
1.0365044595883461 5.02654177267073 0.0912128495648222 0.019729408308832606
1.0244293104237272 5.027256223198862 0.10823401835173485 0.010666831068082644
1.0453311330085149 5.0281209690431 0.10250390434109712 0.025932569166895663
1.028604535011105 5.030261155997186 0.15157792439589246 0.013757044875163743
1.0008145201968062 5.027744419896278 0.19585333837155564 0.006395278448099565
1.0215143488937646 5.027759255837413 0.126289892481309 0.008176830956773025
1.0261349532847908 5.0267973247293005 0.10459319619272102 0.010664391074086055
1.034335091339604 5.023565528249435 0.08864798841057442 0.018863321504469722
1.0110472964968673 5.029468569390613 0.11743126025316578 0.0074254344365241275
1.040407170412125 5.020349937040954 0.04222563464750451 0.02556307757552342
1.019115384226186 5.028743659700202 0.07407284345676135 0.00897806998337178
1.0143210814393886 5.024927322353913 0.09361168573159548 0.009869716093015967
1.022250401661761 5.0219434768572775 0.05512707846883735 0.01836340196407546
1.0537568258620071 5.025981433406818 0.013759321304307123 0.06194333573213713
1.0066000700921092 5.030065326538581 0.07300466801264252 0.008720765545172524
1.0492850004467986 5.0409449461672855 0.011858794712383103 0.04580440664090337
1.0210425680821917 5.029878389525808 0.027055114782761812 0.029393111441467164
1.0216074857327455 5.026701249624508 0.018021008998679127 0.029037946466708247
1.0203241072257299 5.0313102602727415 -0.0015914534919281875 0.0346554008668382
1.0269880862958634 5.03083439759458 1.1345352961912398 0.02595666771637837
1.056369972050031 5.022704000687255 1.6031831265208272 0.06346136441153759
1.057977055884766 5.024653000693938 1.3994361024768505 0.045473067760621905
1.0473272484335001 5.036272459240546 1.3959375265637963 0.03702939010943999
1.0289657587584957 5.031440938221604 1.1192156790448096 0.027424092921942828
1.0573470089103134 5.0335927795843745 0.13676307143556196 0.013053927531428427
1.015786213605053 5.029926358133169 1.8453863379305495 0.14867336036582607
1.0541455937293216 5.028866300998501 0.3788899185728535 0.022282789114514895
1.0616853939813957 5.02962454707057 1.440830496171754 0.019939864230608572
1.0423211207270677 5.020091608717759 1.9017401586744307 0.03561833256382795
1.0618854205805932 5.03243525564999 0.724518758284026 0.0606371421450347
1.0462845897228539 5.033284494730826 1.100785109355967 0.044849075674688266
1.0562008989721858 5.019968527499683 0.7445806208838283 0.04321855580610266
1.0633308113970756 5.027319266895661 0.41539001265547254 0.033922804584767804
1.0010437634596774 5.020132467408272 1.5887995564225232 0.02304948441106279
1.0434413380300207 5.027039092443014 0.8698594935335483 0.027152274332901998
1.0624111903380338 5.030445875508018 0.7303101488119241 0.07257071668465323
1.0204965766546559 5.032506979791173 1.5316409174324086 0.09532403178435332
1.0640040517002938 5.028000187725098 0.8110904718863857 0.015184554324959385
1.046761480058209 5.041142814311754 1.582182559371462 0.06837592121244053
1.032264573419996 5.022294360568823 1.864783570184271 0.020421787802668203
1.0539401525056302 5.036858942041067 0.7768473107348389 0.04551833494170533
1.0631712724557 5.0262260221824935 1.320436703999944 0.01393835605630199
1.048510343895206 5.033191553614263 1.4301394482068834 0.022619432250381915
1.029936700760392 5.030042087443928 1.6950730808025538 0.0946820264782849
1.0393582990362251 5.0252027658616045 1.717403255079518 0.018110698070912045
1.0389406343106906 5.025420982361954 1.3928269609137973 0.03266271739410906
1.0536000868840163 5.027235570578802 1.0605345916892372 0.049237578838135176
1.0666076579764232 5.034602105567624 0.10367370367650275 0.03210842023701852
1.0183176713526205 5.024333941147581 1.709928934621564 0.04278499785106221
1.0584686729970816 5.031015400336558 0.6670146333571076 0.01564961362142875
1.0212839220683068 5.024571822873512 1.4075432450015344 0.0709622789818404
1.0447504835435206 5.028924780441095 1.672500549470135 0.02847216213204574
1.0514422447536358 5.031977604867774 1.0823496099183054 0.04726997775937644
1.0518615275191594 5.026488124373401 1.6663378106618185 0.02507977828038219
1.0574935583179284 5.0204395227053125 1.0946554819220518 0.03712538027539671
1.0246248770746387 5.029448629039193 1.7555328997862174 0.044136975469030976
1.0566054824176443 5.0325911188211565 1.7539451946209428 0.026483681264698446
1.056802595677333 5.032053269450032 1.6942843828463405 0.020808044472278648
1.0588651366663597 5.035208902300358 0.8665286538154314 0.0382160060189187
1.0450537823548278 5.0268660954657545 0.9548111691298626 0.018813989822843432
1.0509119913863687 5.026119044215794 1.317158265806053 0.012442336246136828
1.025737132781111 5.034514492744697 1.434897151687518 0.11848357751256387
1.021678775760005 5.0292430129197845 1.3232424515424763 0.07257778817174815
1.0433345289465332 5.040921564277645 1.130717754118856 0.032568874943900136
1.016279446442261 5.0232629638613995 1.3620735691902344 0.027030223611738333
1.0593721757640422 5.032336782549307 1.0413012250203992 0.049411183444480415
1.0182000753152327 5.027655444889886 1.542252662453559 0.09541383173172073
1.0363809552954408 5.038053789700347 1.3700487095558316 0.0353907361581833
1.044448099498272 5.031413725535873 1.863290154507438 0.020538072243194296
1.0603280568496622 5.0283341430666715 2.009894956226548 0.033985418992100835
1.0311980981041322 5.032021776840776 1.4502298906460938 0.02743009206428125
1.0335212849277982 5.0296369879745795 1.8321517417770725 0.058151511785411836
1.0213859112091217 5.022116415649594 1.5645301433121455 0.0358235040272224
1.0533690430522993 5.0367426346485615 1.1460598510048687 0.0426729141420881
1.0382547045667017 5.025338155749899 1.3538333960133722 0.02353848865735829
1.0575423864719036 5.028878627975591 0.7612477544229493 0.03325727765733366
1.0115807072160825 5.02646162941071 1.516342778233425 0.0683363577189276
1.0495509037095512 5.030605673029591 0.6531392975658984 0.018726599309338326
1.0363829026769236 5.028671864881701 0.8456867967942202 0.020791380655957162
1.056193828154125 5.023791124259546 0.7595406905177097 0.02904253610808632
1.0161664740974803 5.025838696712551 1.4144062555309604 0.0896283371991745
1.043224959542735 5.0327449758511 0.8905758672543751 0.046306431998445835
1.0391532654408253 5.031219061450254 1.4216253769854015 0.06682497518276109
1.0585420067960758 5.039035398417508 1.8834885753847972 0.02982006991552381
1.0388175387879466 5.039865072286797 0.8020818416783938 0.017105782814786436
1.0578088967926982 5.032434180825129 0.8017078439984826 0.031385269378552
1.0539212069095114 5.024542716323379 1.8689923957375987 0.027810233949413538
1.0626802187975706 5.02456058690092 0.6427906968522786 0.01902806425253862
1.049487231340287 5.023012782448017 1.6285492644469977 0.03211915210876216
1.0569009349059073 5.027315750133021 0.6759690698195209 0.02232206663811582
1.041485843838261 5.041265732447014 0.7172611689095095 0.03475516302821626
1.0481012896819033 5.024182538995576 1.6468914891701023 0.0353218015452506
1.0580447017943064 5.0310200193870385 1.7707014463825086 0.017985746180713236
1.025580734709443 5.02729490037211 1.5443193632658918 0.060965255573505024
1.024881607623587 5.028454447998306 1.3367988576030394 0.08301071679689635
1.0443293063752734 5.034329633555208 1.9255185522407547 0.09894581795671982
1.04518571341048 5.026001675975138 1.289958833125719 0.022085666532870526
1.0436801370911424 5.027716802365347 0.6649302988192035 0.01752853015217854
1.04228796348921 5.026911771385608 1.179417592206511 0.018159318973231194
1.0490946984022893 5.031026041763233 1.7801861482920496 0.012373580679015396
1.066328100937202 5.023860454028603 1.3354028995459521 0.018631491536369033
1.0332962613694128 5.036094584898454 1.1605204502497095 0.06684742076740487
1.0604968628779108 5.037396787411135 1.2594327093344655 0.03321009393543765
1.0513301539386284 5.032585605490348 0.42489426074561243 0.03349185169136328
1.0555154585405906 5.028676333172609 1.999125980133346 0.0342977727318583
1.0403588022799553 5.0207798077250985 1.9515499494784205 0.01925391311975652
1.0239947438091155 5.033431926665137 1.8250385665489384 0.14076945718336503
1.043812244246055 5.037354034407346 1.6658352505421863 0.02840831105674925
1.0588487356165834 5.023818732848207 1.0449142128314484 0.04114888174885516
1.0387579786129377 5.029178483372568 0.8850396535397191 0.02504971529237734
1.0526118583753823 5.022411286755789 0.5425103049750793 0.02608036874387606
1.053209688294835 5.035920698460715 1.0214043054378792 0.051837671864898155
1.0407983452942389 5.031109328214348 1.8136768828544003 0.012164386034423297
1.0465418685376064 5.036382403712204 1.4968931940009136 0.047697545317710775
1.060414357899133 5.024411658157426 0.5711395328226871 0.026726608113634073
1.0480063276849871 5.022647197396447 1.2575069642472727 0.026542992169283016
1.0352204696955651 5.042848725056971 1.046783923374641 0.057240811500111566
1.0456019596580894 5.022818774553883 1.6959563038807284 0.017047260961719976
1.0474812834213245 5.033557742832209 1.0617576065571759 0.03926510933335583
1.0580104171364373 5.02755279200471 0.993225897240681 0.03938895705643814
1.0371233747706627 5.026759972996026 1.3114868196287794 0.010708617972825301
1.0495792736065077 5.019957372495457 1.2358585891423648 0.023980912766668576
1.0425714826320676 5.033845406186315 1.205381597632588 0.02315193075608553
1.0447243028027882 5.031450986481233 1.834449593592792 0.014204807754079457
1.0317757123648716 5.018789641814749 1.6308551041335397 0.022828692846325226
1.0641487249403712 5.030213379315641 1.7188709560454365 0.009909360408298625
1.0516274942708335 5.027968863678028 1.1577208581415128 0.04149340928541914
1.0362799611352804 5.028534642676227 1.8043848847472588 0.014022712034122937
1.0510003074711471 5.03401571408826 1.7580265306933258 0.02540143447557465
1.018104036831608 5.015606817861757 1.5056963061647806 0.017686556201221608
1.0355525242310757 5.033536996890199 1.7932659705262872 0.038875514526579426
1.0329897453882462 5.032079087257216 1.3189067733920707 0.060631150924223345
1.0056743386978277 5.02103883033502 1.7196088509806857 0.03949027350431706
1.02802145137914 5.032042072328864 1.7766014300295598 0.04026383754919736
1.0478068163210599 5.026630329724077 0.9796026268910834 0.024930089418069658
1.0615683494147437 5.032497801982817 1.9468034686551703 0.03221979882779039
1.0119950049838953 5.026773378720381 1.443177347168288 0.0962229419417515
1.0522929317589733 5.0317202846010565 1.7439066915315675 0.027265396783634807
1.0326362644137457 5.017700706840423 1.9095077873711495 0.03141374568267516
1.041432026034689 5.022006001837976 1.3565698574358693 0.02506131930162511
1.0374897227924678 5.023925808577036 1.6665482641894318 0.02982681409858854
1.0566637299898172 5.037520516643756 0.4772143352845094 0.03133076898368683
1.058041151876546 5.029477507438272 0.3497097064885225 0.021915504888145556
1.0562874262525497 5.033536128168115 1.1885149273959663 0.022320708398451794
1.0428932813008078 5.037724464066336 1.2169596990295493 0.015142043034094929
1.0425937069241624 5.040891609149728 0.5111731172059426 0.02198051628634045
1.0131222675947427 5.026610328339683 1.6709071618195592 0.08974030605878805
1.05479965950909 5.034266250027594 1.4469316831752945 0.016434915201623202
1.0562613493998996 5.027570740471907 0.6667347483352396 0.01604859377723819
1.0410975752355087 5.021181294823046 0.49104121625881686 0.024381839295581093
1.0181815623417156 5.033812653991148 1.7779758356089277 0.0924152609058828
1.0559894095327294 5.0280914375534245 1.6265386137006952 0.06260222289283861
1.0557384383732251 5.025254669413157 1.0188837463353502 0.05694973692460298
1.0388302777051655 5.029153134626031 1.414392667060715 0.019705436044575076
1.0280071955578043 5.029345421085902 1.0551982552270514 0.06600008462677087
1.0346101024516277 5.029335067514327 0.6937500832435878 0.06624015059426056
1.0246907910525775 5.03496736935233 1.1721641378966299 0.09808956975419299
1.047262550839607 5.032236495559593 1.5450441916791355 0.029745659495907472
1.0176024605945684 5.015316315934453 1.460419831223777 0.028995806645981018
1.0682586581679856 5.034055657753694 1.5401611434414968 0.03511806733419178
1.0645669233152413 5.024700077618931 0.9022266534638329 0.029934406362389393
1.0273605070854086 5.030463839413251 1.481293850153105 0.04872209525079582
1.058444796300619 5.022990907390292 1.1345308409545118 0.04220661999400556
0.9945509964327661 5.029800490199659 1.7532494929431446 0.0931510554357284
1.0369373343626849 5.031541930496403 1.239841646805032 0.022106539865197568
1.0590309977938148 5.035440209197763 0.5446398840464864 0.03570351402501574
1.0569484249935823 5.028280073801005 0.593627430222849 0.049260849419565926
1.0306817531875392 5.02605345458739 0.9596079430013766 0.01721610998476787
1.057109327159213 5.022040842493257 1.3964478699011538 0.04045530438605652
1.0463764827916298 5.021706642929033 1.6156130284841013 0.06448342922260124
1.018634634000274 5.032428703254555 1.6882631103404886 0.12166014941807947
1.0341824176402943 5.025716218323763 1.4769198931488672 0.03656034818771437
1.059635329037168 5.036701100825774 1.1142803849337761 0.05244922712550228
1.0466817342708912 5.042299145432267 0.6162805687767313 0.027612121868598738
1.0569774466676118 5.034341783752685 0.4439150239435748 0.025618173198633805
1.0412670406653213 5.028099394938602 0.8086253778608826 0.025527510903807515
1.0538162960598678 5.035887404012864 0.9036534290011262 0.033558476811010596
1.0343842599135047 5.021515817193648 1.7730566022833292 0.010685947599502912
1.0295649302359742 5.026754248497183 1.5005256243583018 0.03388031023245247
1.0547333889592523 5.032421153944106 1.5272643350582225 0.037502787382983946
1.030912540438853 5.03035815292651 1.5769599356347428 0.045721628903074185
1.0460111827900545 5.029274505175323 0.7246267370234868 0.03971516908118356
1.0544705976957571 5.025819319395953 0.5271986405081384 0.04407202265552568
1.0361640979240216 5.030688261925005 1.254526472691705 0.02341094607809218
1.0607792442172383 5.032134427229354 0.6273479960495387 0.026488214769635605
1.0538079877729851 5.027055332176084 1.733079966191396 0.018549101611138354
1.0189139789689783 5.026464825466967 1.7435661213705385 0.08635892084877861
1.052590846307976 5.028647934753126 1.6928326280587065 0.025091483768851452
1.052796810743818 5.018437484352878 1.619480093175134 0.03342019645391096
1.038178207738328 5.017137141362812 1.0802391115662273 0.03219903304384117
1.056829310163201 5.032639422872452 1.8624146907625887 0.03287949432080214
1.0410571199515957 5.020219507261203 1.486295393366408 0.04464613611477911
1.023824155491898 5.034008612065606 1.1978971542290806 0.06736384479817455
1.0184368447902652 5.025488346419841 1.8052867141948414 0.07844015395222759
1.0363326619020699 5.0264006246141095 1.2855468020472163 0.016728957563230264
1.049644530632233 5.019328825018278 1.5203259923378325 0.032852113445514655
1.037304791224557 5.02783128670719 1.3795459373751007 0.044714085415697546
1.0112732649616791 5.0321031002538765 1.3308483559935358 0.17205309559982845
1.0442173367150973 5.031534828572748 0.45367035847816833 0.02766866075503483
1.002472952513592 5.034040678297243 1.5579944436221027 0.15498242041281743
1.0446122281621608 5.036288308974671 0.4233526039383312 0.03297765345153115
1.0161500864261575 5.030060361765936 1.2592141332338573 0.09462638962517533
1.0255242162337743 5.027575271458218 0.9361218888888865 0.03335407930386312
1.0062609397034086 5.027467847840937 1.570423045333224 0.11619095426299061
1.0104661004771451 5.02176139367849 1.4671894276418522 0.03310622814505354
1.013719688130176 5.025079873779792 1.487651048965541 0.04758704874971025
1.0088900977264708 5.02835514850146 1.372984614029686 0.07296366210042819
1.0004574916135962 5.026686939327142 1.536977831514757 0.09643003007506697
1.0170778297148906 5.032588662349112 1.0538954999971657 0.07736760576149379
1.0234587690913763 5.023057469854626 1.0301773809540213 0.029110320803728874
1.0474800579865213 5.018273574814727 0.2543683384934474 0.023158530001196737
1.0293684820625388 5.026476633124449 0.8615023893675369 0.02291984896578655
1.0178981156158413 5.023698681368849 0.9547196590048447 0.015570197295429942
1.025810544559166 5.027174354491163 0.8989975652681138 0.05534299506056661
1.00088805502682 5.033329098834982 1.4359119401998648 0.20148283446287646
1.0001986555708604 5.0304294678324615 1.4019183464984586 0.18765266175097764
1.0118374386080808 5.033939215897639 1.4272221972027443 0.1986429362330315
1.0481898052388146 5.028270880790765 0.3040516462196265 0.025811661516673367
1.0090954775441323 5.028504116649973 1.359553645403734 0.11003445159971238
1.0247465505658815 5.030385765478638 0.8081255552141452 0.018980716606815926
1.010117562971859 5.0355006348893285 1.3825616986019438 0.21724701908687089
1.034736106129441 5.03014008576043 0.5249451001328874 0.023907933846715385
1.0299643106146468 5.031490384640154 0.6578578111329224 0.011849876506109705
