x y z curv
1.019371276272988 0.06798049896116513 0.5150832441913048 0.02759121732672056
1.007958702227471 0.06902327365575342 1.7080369208382118 0.030076895270286834
1.0266817806566026 0.0598032249391362 1.9863489617008354 0.03816578465140731
1.029130215240628 0.06813906782263737 1.4187292174895614 0.020080803562127426
1.0119971197735136 0.06817988846865276 1.3830029297235944 0.026424217668351672
1.0174429111732435 0.06753428731032064 1.941293888242148 0.04182319450947189
1.0228340582697104 0.07780172042795329 1.651097466388893 0.036120451933163024
1.012382380830428 0.07826690859913049 1.4944487836422273 0.05075685347322243
1.0213803589030623 0.07576982730861284 1.7369895147350727 0.060972686060596484
1.012219630961057 0.0739705020543696 1.3496992556818426 0.03221830858367257
1.012244681678255 0.07604701578141439 1.2723345590488344 0.07211454277366199
1.0180460190537757 0.0606570915590115 0.2831135361441435 0.022280854986922803
1.0218998421296472 0.06319463872741925 1.2627865279034618 0.05394649588133406
1.0254071661563278 0.06721259886388793 0.4741197820358649 0.024478685190360675
1.0191418566152595 0.059749004797280375 0.9461351620837539 0.019140788330765605
1.022119164691589 0.06926821008193701 0.7078024241724578 0.032884570998174996
1.0178570967808562 0.07501777993651672 0.48986908130938744 0.03301948325411744
1.0143216082375357 0.07332808557421834 0.808005514723034 0.03227470434526644
1.024342389793641 0.07349086411012308 0.29755065041959616 0.02383280055417419
1.0130286294860933 0.06594776517011397 1.0852586637816126 0.010271044607792166
1.0185158158297063 0.0816565747661269 0.4167671333375604 0.025376422633452217
1.019966808831648 0.07388991313597497 0.19812213585250393 0.02169094374613279
1.0240738565148906 0.06070654042694207 0.1078142826488978 0.02285745333726992
1.0012828817802588 0.07835234089175236 0.8048080482999731 0.042675825115461495
1.020296985478755 0.07468985171625889 0.23114898744423865 0.025732515427422303
1.0139143910340669 0.06895673797076306 0.7581754491406636 0.035535984570293805
1.0224546014035831 0.06182837413963237 0.17801553809003187 0.0371474413496145
1.0149806724633958 0.06552411794931164 0.1459313881676076 0.03561036909535845
1.0143869199523403 0.07252684401313554 0.6229791134533846 0.021674555417022266
1.007942761715019 0.0705397020965163 0.456717958831499 0.007577598300515969
1.0145930931108766 0.07750456433166707 0.8573676360502648 0.03135751712120398
1.0192313282153633 0.0764544686374041 0.38363846423046977 0.014815792911633643
1.0292742481923538 0.06993994560937919 0.6883497729355813 0.048096567500503805
1.0177169425809165 0.07001542486340169 0.7110025283911674 0.03536622256598179
0.8630182872197749 0.07198361020093252 2.0224248634807798 0.014849813423921119
0.9928996595333754 0.06441781300430793 2.0280641235542043 0.027901408443987707
0.5646894864099666 0.07982288507635485 2.0205916401015878 0.15459215778839824
0.8238039662705927 0.07373996124396726 2.011599638671854 0.018568289462098785
0.4777513398926668 0.07701849782254326 2.015220512596718 0.027764894216036205
0.9754815160201509 0.07771730056532472 2.0159319650309326 0.02474470011325871
0.7540517056882956 0.08179198917411101 2.014868886091945 0.10484442858016597
0.8964856976550665 0.0685603104892185 2.0159332906147207 0.011843213415415627
0.939998072918965 0.06267214778826351 2.0206396660630217 0.02020465395386522
0.5149220760018881 0.07568519937534707 2.0153696524443 0.027499104648395455
0.6835626105065581 0.06667382310674216 2.02490888302868 0.05709719113008469
0.9942467070260975 0.07223810485459764 2.020511283106534 0.03159448991173175
0.6372939995655462 0.06611557988196716 2.02293416003346 0.03696452623047062
0.6630284305402194 0.08495363439732825 2.022279337180023 0.09760763432315424
0.8081763225707123 0.06998552894869903 2.0169419905625006 0.018805678912682467
0.923278283004769 0.07276436808260783 2.0159717087841615 0.017895244163258956
0.7804675158300926 0.07076725062070614 2.0229155754112096 0.02355247241157412
0.20774281881648646 0.06308434609179998 2.0238703032514103 0.043260749526122855
0.4749747669109164 0.06620446056269874 2.0245144995316986 0.043656164922309795
0.7654206343272749 0.06281261416704513 2.020424010689165 0.02583819277318934
0.594238235150016 0.061214263815180456 2.0177821161747738 0.0518663035406524
0.7408763273958802 0.06418444488627172 2.016876271574472 0.028404784743175846
0.5266847150182973 0.07049597664515463 2.0166854617412304 0.028022730320222698
0.2361388821612853 0.06619759271900438 2.020677760810606 0.054290341927090945
0.4053125138501573 0.060487975052360546 2.0183870769909444 0.028975281776344276
0.26816156507022876 0.07652517221541524 2.022198161321628 0.12037767110175432
0.4203741577126047 0.06666223688604668 2.0284321968429464 0.03584038116663044
0.5088743029721446 0.05848793513666732 2.022427912701855 0.02445404697757885
0.4285882338502232 0.06850780266361231 2.0095777010883937 0.026261527399062234
0.884075475880116 0.06614930920900214 2.019406994225866 0.014244246810344807
0.8668262889356901 0.06891435467438596 2.0244049737658227 0.015696583580782096
0.3567386770607665 0.07339427593120247 2.023190168447162 0.0434704182232861
0.38114795661709505 0.07014655363282747 2.018232471396405 0.03052838243657404
0.3446443388362523 0.07961775117405837 2.0149094163728627 0.19208094904302148
0.3682264394214841 0.06296975060382552 2.0190041589745977 0.025435210754114576
0.8331758729581976 0.06977610743287917 2.018867808004447 0.018958129207285426
0.72805478111953 0.062402875641856176 2.015867471942894 0.034475496916076716
0.19809427880541441 0.07769543457501296 2.015396910552518 0.03732756601220188
0.31679327280289105 0.06278527908242848 2.014092842063468 0.03947844211842428
0.16089807190300318 0.0740917635131589 2.014319961410476 0.025803830839621344
0.25613266490788966 0.06135336000223561 2.030515640825794 0.04658195908746852
0.6788609441708547 0.06338984136672923 2.0137288874855668 0.03549897380490815
0.9078780045460193 0.06486440461994569 2.0167731466514787 0.013454993491945226
0.45678986872771626 0.07043421596915066 2.0162507380291643 0.025589561129712425
0.4474563019192344 0.06760334092852988 2.020605896591728 0.024886378652273892
0.12130511387479274 0.07854768613508586 1.581972581322268 0.10504222670989165
0.14266410561992282 0.07316819977290188 0.9874332713893847 0.028322573857742228
0.12764798466304444 0.06647841533916259 0.1372915019907347 0.013744283513743254
0.11896328540477293 0.06356739076453935 0.9176655518077145 0.038785055300818175
0.13505294621880623 0.0679802507613524 1.0748526233085978 0.015808876942826795
0.13212944698222634 0.06639549025621029 0.698135903305971 0.04933899202286401
0.1383354006149516 0.0699727780559319 1.1506657156468096 0.024443418165779916
0.13154977137821605 0.06854916956368037 0.7790995876485259 0.017875984634659867
0.14201723552163345 0.07749190681988284 1.6411888535734975 0.02693676159772448
0.1308366935170316 0.05725221878411517 1.447744663065737 0.018290654074040763
0.12551275369601184 0.07228387318965158 0.16177352902270659 0.013426072512186322
0.1249777160590034 0.062792016780852 0.915923290872547 0.030498579062298036
0.1306356957131731 0.07401300307236112 0.5872598801209491 0.016141823192619708
0.13510755164409602 0.07313006317994668 0.30007856283094153 0.023044396612787815
0.12756649540314996 0.07566943805056614 1.5626762038546553 0.031348915443641025
0.12490050146025074 0.06750415855406465 0.4395649635285383 0.014740201475061271
0.1271064982217675 0.0685530301589864 0.9734519723698356 0.040571395133521995
0.13406441672815708 0.07130363254212219 1.2360422407673168 0.0415737401525288
0.13141957681337602 0.07296201788281143 1.0576910571131866 0.019739401598204247
0.1354876755340213 0.07512177804831958 1.8381169278230125 0.025151676342651173
0.14167223589838365 0.06538164525932232 0.6646433873472227 0.022960694713811965
0.13537835719893934 0.07050484929184517 1.2154379511207776 0.025381582463902527
0.12797231529241837 0.061996311307770134 0.5669991125943387 0.034210325618383955
0.13124405001065592 0.08417058499884963 0.7225952244350627 0.09748311537219775
0.1321867136519282 0.06748328131839273 1.3962359092301457 0.0322859708322662
0.13298662491454666 0.07178257901704783 1.0458561731372638 0.024809814589442543
0.12333895123511475 0.07245716021362233 0.33997448062210345 0.006534886380815762
0.13056376839428804 0.06685947456302932 1.119951974793201 0.022596509730163982
0.13701144047248628 0.07461879606987244 0.44444486822427537 0.013181331666964568
0.13015307736033233 0.07100704582179772 0.8857890030400937 0.04331797920211324
0.12741929093824592 0.06480724160587624 0.9995112948796447 0.022585376333327477
0.12845342861641504 0.06734187916580554 0.7713570706029762 0.018013070245562226
0.12906819844601713 0.07254215201586019 0.7497771483596575 0.023131769707980476
0.1348955182079115 0.0760018691263722 0.6074327367993615 0.05560549980255159
0.12967477620642523 0.07108524511651544 0.31048235748268715 0.013341168475006975
0.1269517477174807 0.07403357072960161 1.265154419717469 0.03149438621835264
0.13853116593164233 0.0711792122098821 0.6367982084357976 0.02619234622010395
0.13072940285956963 0.0738387778949503 0.3463938364269174 0.00671427962923535
0.13600801328273476 0.06289029228680368 0.5034519587438971 0.011832509275304024
0.1230185245470816 0.06524067547424577 1.2132141194857442 0.032810678884966034
0.12965982995387018 0.061612394085622024 0.8471919831524163 0.02982751253628125
0.13205825569107493 0.07873238462359458 0.47404019563031385 0.018048423156513647
0.12347177612273501 0.060278500491130135 0.545559457314578 0.038918160934074256
0.12481166646356591 0.06918098398675492 1.300937022345688 0.02865955212319753
0.13668800698285127 0.07031087260234346 1.5260310653260398 0.05459159071980943
0.12336004832801864 0.07509606391581858 0.8183165885550697 0.04871050632107285
0.13179124312908486 0.07240129453218352 0.7577703319730754 0.014430819063304153
0.13207200764627272 0.07297984009833601 0.42836194774220293 0.012308672206964145
0.12960905607092651 0.07161127446331664 0.4544047493642954 0.019605973283441304
0.128641220454745 0.06869760984528213 0.580679388455289 0.038017901618463815
0.1257103387964198 0.07206966414572327 0.7112297771092062 0.04166919980801889
0.13003737504506976 0.06560861306322852 1.3318660647634393 0.03289519451558595
0.1320818370837384 0.0707399000763717 0.361784184651881 0.008964224203879547
0.128392230865175 0.06064047195310837 1.0361600971593505 0.022302840585061788
0.1315760120741891 0.07512423519115163 1.7888977180046954 0.03347796200483082
0.1332057659266671 0.06874902044802361 1.0910167047009676 0.0276907681563137
0.13301109348966605 0.0632348521626261 1.1797372176467982 0.025976890692938827
0.1355803119982983 0.07642793173490177 0.6779415006410596 0.02244276556500069
0.13068308600089648 0.07647632671363586 1.8299282960667886 0.020643844706367757
0.12558343533160152 0.07167861533008582 1.7488500208777003 0.03642007127819833
0.13545057111348832 0.07887975424853744 1.1283147952572152 0.09384328084470357
0.1337367742090194 0.07110116633940186 1.2963837414432815 0.032630918036557155
0.1293217383223458 0.059584346053072584 1.8787859115412648 0.018598541714059388
0.11929941945112175 0.0702991087277808 1.5302666720525302 0.02667182540801253
0.13425814104753836 0.08166954442253609 1.7855007657477138 0.11964728907353533
0.13246220337684772 0.062164485688369804 1.6735664157084265 0.04761298948718616
0.13923117756816938 0.07973764163335216 1.7258090527393042 0.034240693742545784
0.13764810796513816 0.07417243405668215 1.4958779782581189 0.023601783354556236
0.1314903008676491 0.07455197440667445 1.3042375694892292 0.09346997502976878
0.12746211809626065 0.07809957026494657 1.418883437355817 0.06192188597542046
0.12649592267354898 0.07142100803368989 1.2064170381650652 0.02365572983667981
0.13573745551683064 0.07450471444458975 1.6048717442222293 0.06741113909413923
0.13419938157569136 0.06529409258575172 1.1513001922268438 0.015709445346462746
0.12973136608340374 0.0705332082101627 1.7672254659430076 0.03809095128519654
0.13179201330568924 0.0655770187680322 1.853866784016108 0.025516503380137712
0.13291487408243766 0.06914263971557284 1.544902368335078 0.024843618962781738
0.11719652750805719 0.06738911105059457 1.8157405517953382 0.02213870487067166
0.12323134699942544 0.07539265437365676 1.7114652185477752 0.04294415659947912
0.13353989183156184 0.07984146457053663 1.87105506654982 0.12515314792736573
0.13167909998113803 0.07021077957751704 1.9256911664843845 0.007568936643352981
0.1356548957862217 0.07640969146055701 1.4557124578856853 0.0426481267230124
0.13143529466887238 0.07397664886656882 1.9379948804508673 0.0652079058581193
0.1364143523955118 0.07028469905594875 1.6314098180299499 0.019435615072684275
0.136258440800468 0.07234496879663602 1.8849364793304024 0.026347650829808528
0.1531398702941141 0.07716853973785089 0.09985790335558116 0.038675347953417843
0.32190377478501103 0.07859029029805821 0.09194933822135674 0.028625624607683964
0.3864185558313718 0.07434959026129245 0.10074648333543305 0.013125838692179956
0.27448662319575495 0.07092547708674175 0.08930878659695696 0.04308618659335037
0.13775592606602174 0.06476652555631114 0.09002803402952178 0.06083089727485873
0.7115553160439091 0.07452217085441021 0.09796237593983553 0.02544354419537916
0.4889345622452723 0.07435644054542594 0.09339109086965032 0.0298398050198314
0.5139214171466907 0.07930827279353754 0.09157123550736564 0.15235383168924332
0.29241722788382324 0.06825788228765459 0.09544561844199136 0.025547963253953906
0.33733391792193357 0.07975262910075573 0.09873814565654974 0.12758502867490198
0.256537612011423 0.06795897999439753 0.08770599848872346 0.02370026205788318
0.2387147920549111 0.06557290163817958 0.09888663203054861 0.012356531849423097
0.3742789334507327 0.07162479946114403 0.10061830583607446 0.02049785122347474
0.5502293351796202 0.06828785272291976 0.09718526268705588 0.05184926351952733
0.1831786549835731 0.06876538417848002 0.08844318615969965 0.040542262476202545
0.8849395964359038 0.07383426099131857 0.09600303700998573 0.021158669687762338
0.7926466016331356 0.07741738863003782 0.10267270614309305 0.07495420555797835
0.4918285419777304 0.06077819528704501 0.08830964986785309 0.029364951599182697
0.4151486198068547 0.06646169327247728 0.09382570292745482 0.03913621339199004
0.928041037325873 0.06483365578596806 0.0895794996812048 0.023784433748522304
0.6421305892802681 0.06890574485152258 0.09313881102648235 0.02201425182291378
0.7151334513806288 0.07191087616214048 0.09081402075381428 0.027875210135506572
0.3031293729389721 0.06671343387849239 0.09233394137090799 0.028033568945300538
0.7303000990967307 0.07061178169411494 0.0888842164230492 0.024706964389188797
0.9665587765803324 0.06608260887075967 0.08656706962823714 0.018205674483317686
0.676345361162827 0.06530855562027765 0.09380856614672131 0.01715886244997714
0.3531956941835906 0.07013208672851436 0.1000826012764352 0.017991960728214157
0.9941359594632149 0.0775100125374529 0.10532575834519949 0.14953689223472144
0.9580744994243056 0.06509790672506277 0.10401451684357071 0.01078592678593536
0.481740143514988 0.07157970623645041 0.08546227978256304 0.03243692408914414
0.9097642721637175 0.07184336359365193 0.0954737251671885 0.0178178293476338
0.8649293506750393 0.06436013303980853 0.08735814612267605 0.02130014800028853
0.8424744656020844 0.07657403942927743 0.09374337555290867 0.0180432151100385
0.89897960811663 0.06651655840181332 0.09711147301168226 0.019086788699850196
0.6328449656315205 0.06437081795992773 0.08481958897666433 0.024431024231215633
0.5727579245098156 0.056198183486703246 0.10232156237371863 0.02775805849201926
0.788025283111105 0.07708258909399883 0.09148800635799562 0.04821249431410467
0.21223519036114094 0.06639689576086502 0.09435818386291693 0.01755273702099725
0.6775039138557333 0.06827619047186799 0.09608584709482529 0.015743132645795375
0.6868055802846861 0.06149276944359586 2.0303841004062524 0.058815267871924586
0.32230642368998724 0.06570474348378352 2.018312259373117 0.03217227656037305
0.9505491418904614 0.06706927748703564 2.0325070707074535 0.026468604101172657
0.7604340332411011 0.0642857429302249 2.026111463652901 0.03163867212296702
0.47119223753256345 0.06728421518755984 2.0353161064463205 0.03778735571059787
0.33611456294874115 0.06757747072355633 2.03658429667895 0.0656937542124133
1.033134352497749 0.06213935143349143 2.065455316746225 0.028286314221277746
0.6700856121349863 0.06724473069399226 2.032316893968425 0.05202784590167636
0.7055981832017028 0.06141848662808497 2.0308909029701296 0.024182097452956283
0.9221233405469681 0.06249611986066465 2.0316493366882358 0.018098472498043992
1.0171984322710261 0.07010549990093883 2.0404076270788094 0.025173193652346625
0.7857152736960298 0.0644853656225055 2.054756023555922 0.03507069446713816
0.8388100909110492 0.059793482195537685 2.0560848111038674 0.027806944486414485
0.8552321582676522 0.06530587292961534 2.044658000451575 0.03563772875767886
0.9165054084764434 0.057004827736387924 2.0522940835339694 0.017017180598090646
0.39313145868622296 0.05595602220983207 2.0255183939282393 0.04269407162599402
0.9614792841709103 0.06172045596149644 2.049269704059774 0.01978474728772745
1.0504767978542644 0.06434496245290004 2.062254671387579 0.018964425488655876
0.9645625675904541 0.06697590650035425 2.0400818321464786 0.0245287711640636
0.8828029891759653 0.06252470544936478 2.0455266984335485 0.0225442281883663
0.8876406638796825 0.06220347499111542 2.0317325237332473 0.01217402827124483
0.3712194607637767 0.06803293340188996 2.0312842219596163 0.03782907256607977
0.4671657913186172 0.0672993604364218 2.022711309039556 0.032208777852716225
0.9048051395729595 0.06108425758711218 2.0339718759211003 0.010906268180359079
0.9642258118173526 0.059013964177003414 2.0624715666320133 0.021405140138356572
0.6674813110585368 0.055525172056759046 2.048213112395701 0.028387876318565715
0.8016916561690524 0.06434238921614786 2.036877365517943 0.019506950287710146
1.0570207128347722 0.06701277344670452 2.0645107889968934 0.017617258322045904
0.5477324353698851 0.0608998165425787 2.033640196424741 0.025483564199943392
0.5441503306406335 0.06992825660878652 2.011423193086246 0.018221403647967267
0.8274019437191141 0.07389254496745873 2.0407810520609377 0.02939158548190245
0.5045983000856711 0.060050966525326904 2.041553457346326 0.030766568967316874
0.9878140438188301 0.053862446287518635 2.063599854207375 0.012821972450184281
0.8067883548926061 0.0611871505268259 2.0231174569315553 0.019147366814308668
0.8554894344485987 0.06225192708797474 2.0310361913626185 0.027432228496506228
0.9411048568654118 0.06854370317044256 2.053775210717259 0.01616173639262887
0.4960165575825913 0.059509948651950056 2.029407816710207 0.040801538808406417
0.21579580093250306 0.05655383694303401 2.018917997102544 0.03661890609356805
0.782232881279087 0.06192937651461173 2.033370255805981 0.02952045517818671
0.928038321247191 0.058564603052878014 2.051033466868564 0.01103016349528523
0.2970566883484879 0.05815541598439407 2.0233664535050693 0.04454145703146095
0.5760285516845276 0.055662516196512454 2.0355926635116277 0.03848514266723716
1.019446385186516 0.059471824944006914 2.080029066407949 0.03714324760130711
0.8518614578952249 0.07027936724571748 2.0187668877714886 0.018970684867730177
0.8669544762094115 0.06813506978223836 2.070042309815196 0.02494183739190816
0.9719741839854631 0.06592332039751601 2.05080815085892 0.01857099325262661
0.5429189030993807 0.06934466418780472 2.0124897476254158 0.01876401302599403
0.9978748930008391 0.06320570809093073 2.0398647866009187 0.026160620006860903
0.9960778218158838 0.06807571459279495 2.048407175418842 0.02076929530748416
0.7912057495667317 0.05804218720391927 2.0549989645594144 0.036611211936524155
1.0164804838882877 0.06418454582008906 2.025406928971276 0.0312442639305089
1.0278048154595578 0.05883742686784921 2.0419758794390006 0.01343277814161189
0.910844687067723 0.06475400615332697 2.029054341533531 0.017738015058235718
0.48139851857836524 0.05924454572072498 2.041095258461109 0.0416372547728437
0.8284558049866368 0.06258157353639886 2.0588273434436712 0.026695616354825848
0.7631640522788182 0.06110850096182401 2.0436108492373437 0.036262712934126334
0.7775902112718188 0.06434191297109139 2.04046685922826 0.03534629593632319
0.6645975516177489 0.07235151684040987 2.039892549441915 0.067878297939013
0.78673219648593 0.060122076526194806 2.0371239066063165 0.01789620595955076
0.6093175485490305 0.06217501017506935 2.0160434267193095 0.04187878422397124
0.7257271184692535 0.07003628046366549 2.0348746084530913 0.03796987012703463
0.2825108724448679 0.06959473036636414 2.0216398771313244 0.0346567791106585
0.9498329484002509 0.07112241866113865 2.0209722692765073 0.02663712093605604
0.16155136295713152 0.06149490986188288 2.022997006450878 0.03355756336837122
0.8541115499251755 0.0729280928841092 2.0647751168116977 0.030621743975709027
0.6310071044063813 0.059506092956123316 2.0224681729897793 0.029961309802415757
0.814626756839721 0.06272685576056936 2.0626505153997363 0.032310987075162584
0.952177576027579 0.06319697976816432 2.060126675598511 0.02403899660317115
0.977535783283292 0.06341431024847016 2.038146748951681 0.01863192434545959
0.43396985216804096 0.05745564396726372 2.0346498067549987 0.024760681093084352
0.6317147797294048 0.062530958057313 2.036709401556586 0.046113616289684085
0.6074352794859866 0.055728460054532414 2.0199930706990035 0.040174948752438135
0.17946618769481623 0.06155926169721279 2.018251661124194 0.03720753049828959
1.021760786961025 0.06711375961546835 2.0544067478481622 0.024866282684021433
0.9671224881113295 0.0626557709682512 2.0283121158772714 0.02280856167034795
0.7013176069533824 0.07048800351956155 2.0442736956492533 0.02225958752011299
0.7418266999650608 0.06318717956154342 2.0343921090750294 0.04387367981927704
0.8332373419002742 0.0707338404060108 2.026579314238195 0.02354813700337202
0.7382163471691834 0.06869861048580281 2.061514249623773 0.041365751030158576
0.840375489793311 0.06452977479728175 2.065200770282945 0.03340977197573261
0.7532373733120941 0.05402595778703662 2.051600735070846 0.013403775595763973
0.49180585174121694 0.06460453379061075 2.0228077736470893 0.03463687135642302
0.5182597842440865 0.06862506892641118 2.034026692798945 0.03441978686030021
0.838767815560272 0.05673909319573039 2.044169063248013 0.01992551358985641
0.6447739923170086 0.06832608823989243 2.028152815940711 0.05064972857647865
0.5571699751863296 0.06826266761853114 2.03261412185323 0.03150793771650854
0.4244072992537152 0.05933355010316105 2.0330827700424177 0.0430053898285098
0.5305738454340705 0.06702272984389614 2.051486284652402 0.012408813473174808
0.5704996364703242 0.07270007106092366 2.0226085134156833 0.06105425745446756
0.5975026752821414 0.06263159190157161 2.0536003292356315 0.010875869149864362
0.6172331898764215 0.06496020128655783 2.043416190776208 0.019598567186386102
0.8693917982183692 0.06103949646336179 2.059328064674132 0.030978725789707413
0.6832622822496474 0.06504176120261704 2.044649460267072 0.05741349059149749
0.9051916407259151 0.05198063869993267 2.063634630231729 0.01087686541399824
0.6427076223650516 0.06267571484786083 2.049927111419524 0.03307514348666304
0.7255790606312169 0.0692136592016402 2.0338098006389114 0.03743334733460955
0.896789379651973 0.05650069365402505 2.048213379104214 0.013395914323179332
0.8039034696972106 0.05917608995194001 2.0489902529588004 0.023968330158292077
1.013688124951971 0.06586467378461525 2.0507588500084895 0.026764263752823435
0.592488560674098 0.057048106827336645 2.035938961498372 0.033661695570957106
0.3241863411810138 0.06533600925706819 2.0718534700469524 0.03676068155811679
0.5817830903182427 0.06649198148621317 2.0656985241711756 0.01788240840699645
0.10822187554511607 0.06527424941929964 2.0556799380550985 0.018736013316108076
0.5982434231527137 0.06369234897927424 2.082951876973038 0.017992265836339373
0.9394999641411472 0.05411327416159569 2.0745013702532265 0.019457277705684298
0.131265310505135 0.07125303298838263 2.0520740694192683 0.018525228789270157
0.35074218323068795 0.06362286377760479 2.036606688601967 0.03388073344728232
0.22153189598506118 0.06736618807903598 2.0769048825074585 0.02415397706143604
0.5347456087895291 0.06896364211578843 2.0629987403809067 0.015062966914566548
0.27083977969670614 0.06265291610090763 2.060065815438882 0.009376703606529658
0.11196979902748444 0.06333024271028899 2.0319686052712354 0.011762627555198996
0.29081587638345285 0.06177139308207828 2.062281078692335 0.018064319696665602
0.1515752607395507 0.059260085750971796 2.0135283933414163 0.032966600067976276
0.34389828212488144 0.0722830154386349 2.0569447664274563 0.020385066254119618
0.7646995629289879 0.059383303817761704 2.051988648380259 0.03371759513876007
0.2545204314985752 0.06192003403445939 2.0757075589336242 0.005772903168872339
0.9812884147198113 0.061386677873305116 2.081114481610278 0.024634329076981817
0.6525970003792807 0.06708467693099833 2.074911956094051 0.026347323177222527
0.35348319723814114 0.05432824892479998 2.0712315742212533 0.012436400100348173
0.14088630033272356 0.06028999575551602 2.0403244012819184 0.022382897293185808
0.4664547065525661 0.06282749027674026 2.0744709988748915 0.008547862858597422
0.4002869870747393 0.06469974222236109 2.0874996729838373 0.015123280147073178
0.1855438332159768 0.06291130253421917 2.0361163098434245 0.04293913560474766
0.09284002977239786 0.06907591718258631 2.074059611328943 0.022590014529934126
0.23254854557907434 0.06894747331307659 2.0484176071892994 0.020581929820854338
0.3248353332426383 0.06327487182676718 2.034385438853273 0.05701535918173939
0.10490565836980081 0.060418439447033026 2.074177185490998 0.027412413310622333
0.6919163637871215 0.06769140682032916 2.049807985617478 0.018871895446403362
0.8367336426301747 0.06387286938759357 2.0817978531695167 0.020085110859085674
0.41524758478333457 0.06355237163511218 2.058247859724994 0.013870303148120941
0.47719113208025804 0.0607868579075535 2.050358539840765 0.02535655533407509
0.13284353690399658 0.06975844497285424 2.058436682563504 0.021231650681077362
0.31463624193869405 0.06709161668214644 2.0783067401101394 0.035000474652850846
0.4415443503334436 0.06464368529469929 2.0478751476586297 0.025429619685196258
0.4911258428883497 0.06449171154876857 2.0426757772837485 0.04506565700241271
0.2108835352055947 0.060563909935022434 2.066501948130822 0.010280197879234752
0.15845073499227916 0.06183356674221935 2.0400211405124766 0.028995648686954
0.7008505392072755 0.07023157152846374 2.0639016095766203 0.010757278505276703
0.6892246474109228 0.06202473098821397 2.0748468807196554 0.015731541659738564
0.26881790370630354 0.06488965083029224 2.0761122690728455 0.018060437560329334
1.06229299849076 0.0647872453268168 2.0889777892218024 0.027148597856837965
0.30687009794604486 0.05007979220165846 2.051681599052298 0.01759233878137353
0.6619363759864416 0.06140196516167106 2.06334117802109 0.023811028436442228
0.24542341445262755 0.06614030102033783 2.053462711994113 0.017700982446774236
0.6410845393423348 0.07165381128770813 2.0694027418367216 0.018347447306231144
0.5262939182196719 0.06162555196352476 2.067641570618644 0.01581396928101138
0.21968827770017083 0.06881618555188602 2.049409236316038 0.012036504997658624
0.2396744179354707 0.07065439108931224 2.060061636746051 0.013698663331210935
0.22119525839691973 0.06929349548777439 2.0694338065234144 0.022302115602292845
0.4574444139232527 0.0556075923022136 2.044013365878966 0.01427681918295687
0.2468610299267297 0.06552181738238633 2.041420129220389 0.03518697190267205
0.7158660390946203 0.0588182372629693 2.0695599679806898 0.007061241142737184
0.3799284850584754 0.06251015361754561 2.0429085345228457 0.03138929245257043
0.36150688770615413 0.06588686697422079 2.0513759837618775 0.027332058266536344
0.43315055828055316 0.06005778859000067 2.0547527726725963 0.017688822377370066
0.17803395030268654 0.05813904056435198 2.0781855642255502 0.014410031944757616
0.5458423243842709 0.06693952046533468 2.073715597939837 0.02114885904339157
0.45000723527751413 0.06490021281946656 2.071183151486144 0.012455469471766038
0.4757440361558211 0.06183898069331918 2.070098775061064 0.009575229286802593
0.522835367964998 0.06448255815443002 2.0511256478869155 0.02026403453777946
0.45414744721000483 0.06357852495024577 2.0571965565529697 0.0163544284228001
0.8791383376754013 0.05908538860781576 2.070985639824291 0.01526391490370506
0.8685768767257132 0.0683756363829322 2.071022779083712 0.024822504975494087
0.16045061170412472 0.061056685497657734 2.049253088710182 0.023315388705174436
0.222029784285644 0.05752418305993655 2.030379290642544 0.043286780767512766
0.19373563889114687 0.05689235553044186 2.0591586687739722 0.014040357426971397
0.16443359603586546 0.0673280353412898 2.0688746306947676 0.01522698413162439
0.7231550266049898 0.06499939938714414 2.0555493515518637 0.03326069867936665
0.4939547488419686 0.06713683645653014 2.058959030799 0.011139714067799551
0.38453054152554317 0.06385254637381033 2.066864176393223 0.020004151935889683
0.8935697648002815 0.06380757828952564 2.073021914607406 0.015966551811791584
0.4234917008610202 0.06425038506501615 2.0458828015279726 0.022065046484179368
0.5393452855830229 0.0666090273449154 2.0512608042160445 0.014048734444377813
0.5280930379039407 0.06137116138808576 2.0726184375901777 0.016420389143310687
0.11489091584724222 0.069902935342764 2.049639059867747 0.018525642846411176
0.19839339743545353 0.06544395124478551 2.0770147140866797 0.016322686941824805
0.7666399167896327 0.06082163201190678 2.0541429860321365 0.029908083666078854
0.3994618917161699 0.06259698645327888 2.060825650584904 0.01530386575758754
0.2073993199531771 0.06864127832373493 2.077479948087811 0.008213977226634393
0.6279676802998794 0.056006005279190973 2.0718652842824343 0.008171708992270661
0.14556646751222227 0.05637841580004431 2.0581957071576835 0.017688762494383063
0.13102377460700929 0.06556667706849158 2.025860662549336 0.044482188472714235
0.8120903900659303 0.06063369314334757 2.079562214779065 0.02797284703820791
0.7322636757724362 0.07042583204598231 2.069909741038039 0.04253614600267054
0.10356042886070435 0.06409137696032667 2.071005432702882 0.02760638428806907
0.6303464951058403 0.06231683915743479 2.0608664187485495 0.015521081987626197
0.1433538638662085 0.06357945151973936 2.03274594015788 0.04642110086650113
0.6183085373580117 0.05659814669526921 2.0584290349377046 0.009283352210643341
0.1877418088122057 0.058772292647828385 2.0501625236389778 0.014222019613416135
0.42193662632013657 0.07279903522780419 2.0703126282874895 0.005215292842477524
0.31999594818451504 0.0631662475203431 2.0534938534569522 0.028468446564188503
0.5610464196672673 0.0656978257745489 2.0678116607435193 0.02094715248256997
0.3110657968729135 0.05252919050434575 2.032978553067316 0.058379424032442805
0.2981766673770591 0.056597486367840115 2.0260523072361547 0.041622851382631075
0.4879194517160964 0.05997699093461694 2.056906266132686 0.012740601406081539
0.5727303166580067 0.06621607069676398 2.055691723750114 0.031100090046442833
0.13873601129842913 0.06537532983889724 2.0782698666087245 0.03463954441076985
0.36700756255173167 0.056737975743448014 2.0591088569279865 0.01843354144904973
0.17435464314938084 0.06498069684661373 2.0397947309537594 0.042049453188245545
0.7918521368366634 0.06946811073608478 2.082392478213997 0.05670742399500176
0.2849040564137786 0.06238257487943709 2.0464245594649024 0.03274730610045567
0.7444420214086415 0.07164714167521653 2.0682968982302574 0.04807655568828967
0.794785199866473 0.06606735158152446 2.07511191352616 0.04057495945374166
0.590797534430579 0.06268934069974408 2.0608753649909968 0.01676925511941251
0.40557193886596693 0.06861120205525485 2.068350675412811 0.015932162666805347
0.38878925145554355 0.05937905153827601 2.0541227003687723 0.02319411292686477
0.1481209305204175 0.06991400556646629 2.069219453661775 0.024351463489967713
0.2401355874372934 0.06894362891698623 2.0265832426627495 0.0610984521435272
0.5680501413456294 0.0663951541073452 2.0567546329944997 0.032942319882774435
0.5647701560843565 0.05657437527956452 2.077015784007278 0.01854245269333132
0.07336131162453075 0.06954381994632107 1.8922635759430393 0.016902510698669822
0.09490967062584246 0.059451780137457604 1.0631793627840398 0.012602198657696254
0.11266651421828115 0.06202259009551561 0.42642422242495787 0.0164436362840382
0.10565269759882595 0.05769928760527543 0.5164600982863942 0.013625715798990096
0.0838216327422357 0.06282744748585763 0.6056513372758823 0.017346087491335774
0.11206640217322975 0.061469082531307714 0.16372736764740492 0.009891351702426216
0.09504361411353825 0.05792921264453671 0.4842374402869257 0.013751047851291965
0.07286615113053069 0.06546104395199602 0.17903369491121254 0.009218804660549385
0.10539630586389007 0.0646547777617854 0.6189839343147759 0.02688040130931158
0.08965226136501005 0.0636297086408687 1.0336110663861053 0.016004506006252122
0.07392991106069854 0.07003008987735874 1.9902371419017402 0.019662188378690233
0.07947579416633443 0.060550200249112694 1.472810219432535 0.019066890189509484
0.08577153036229015 0.060739142405442245 0.2749526054149129 0.01730171518878634
0.0873073342982 0.06590696166284311 0.9669466486484096 0.015198447529508033
0.07490398078476372 0.06539874993596102 1.1831093985373897 0.022794955478409783
0.11193567491469852 0.05490478640360835 0.27716944292887397 0.030835440597180044
0.08483614323290434 0.0644844007704778 1.4533518398159542 0.00865789198600965
0.09959226561603247 0.050592801090570634 0.809037599113694 0.039974748626621336
0.09022724484366022 0.07217051547991955 0.9482241751779481 0.022760530861303887
0.0726661726291811 0.07358550996157294 1.8372988612359922 0.03157878375933496
0.07761572213255338 0.07020463996855433 0.4112364288869227 0.01405400173508026
0.09801971302190421 0.06623665382526873 0.7576784052360124 0.004281457580741823
0.10105310281546698 0.05802146523654141 0.6816305790898315 0.02749801597226332
0.10141229553147334 0.062200253946712546 0.46243968146396613 0.027218860062438517
0.0769976873076394 0.06021787397085747 0.7268795731284191 0.009286815076470991
0.11850025046488791 0.06274419687485036 0.24645886447210627 0.04466085833256526
0.09382144843384535 0.06251101286298306 1.01798127310839 0.010536110907605749
0.0666874146081821 0.06592174599613437 0.8920386624597755 0.056863091307997694
0.09032778005088611 0.0644379313690452 0.9636549330198647 0.01654854295863449
0.07795995570448744 0.06770321511295022 0.8173222419500232 0.026162302709936542
0.07729706543418745 0.06240115018221966 1.738826710814534 0.017588950885148225
0.10145314595926183 0.06926058592035735 0.8833746045121901 0.035349976338181335
0.09226800658237275 0.06412328414889829 0.2428169735443619 0.021120833717580563
0.09150616165045632 0.06576441703957626 0.5666313645511936 0.008864818875317678
0.07612505044850212 0.06636815548229645 1.1151340693722755 0.0269929149374138
0.11859377850341582 0.06363924000570882 0.19593179005786454 0.01872224359519502
0.07719272212043467 0.06512977079196282 0.0468473442674204 0.009109533121443976
0.07890763447748698 0.06221196996996431 0.5554942920536121 0.014010360259138545
0.09411417503590637 0.05448974034359908 0.9021676753958839 0.02341994823886468
0.07951437593122643 0.06265539563688156 1.2821551188518618 0.023639901787596406
0.07806226260993898 0.06898420886306256 0.48120550507277227 0.00680170728052811
0.10495758831135674 0.06494437992511466 0.6503216294751508 0.01576470437564411
0.08806200933939005 0.06327682435817455 1.0018669353611958 0.014201459795671846
0.10710368970493786 0.06587435235768321 0.7414992023970446 0.030784719725000714
0.0886717070189411 0.06400865302012622 0.44465432884944983 0.010344098693946584
0.10280315060783464 0.06340549297620622 0.6254900874602412 0.02408034333204729
0.07194282178802162 0.06208220897959078 0.6457720310452236 0.016135306287517026
0.09044556739326061 0.06149357254030659 0.735179485757846 0.012097951461149678
0.08309862799104648 0.059150052582203926 1.6132643119566596 0.029028058954085105
0.0981649332956858 0.062153476712376934 0.34610003688658614 0.014906456569056393
0.0992335664440022 0.0675096796664846 0.3262411817058398 0.013292761443343864
0.1018552417851511 0.060502058947057305 0.4920700250653702 0.030323221294920495
0.0893478941451869 0.05293587284378203 0.318713177516203 0.008730350457953152
0.09823245880131416 0.06660461562037637 1.1087812815226274 0.01861129490610887
0.11089494890504484 0.0651140046558902 0.64214644994795 0.019192086651189107
0.09645971508368567 0.05839181987757277 1.2259100202627136 0.020161519908508074
0.08337523061474725 0.06507480698460279 0.09492097952672926 0.012534004758024209
0.09601302144725894 0.06691127216324286 1.0443071276713252 0.017945476420401403
0.11369632228071629 0.06076814321460544 0.536654423708453 0.05040142629375577
0.07882940514829409 0.060248777058565336 1.2885987067255047 0.00391392516035197
0.09492488143610102 0.06655009413083066 0.4093112301716261 0.01838815092603582
0.06338114550196586 0.056413364728100567 1.5508490709372305 0.030580012774482156
0.06581573039498123 0.06303757092083949 1.2805264529183085 0.03457707127659062
0.10336714860598616 0.06193477795096699 0.07503705196292941 0.015386077408328667
0.11313049827803001 0.0646476134264237 0.37294702223116555 0.015558583299089225
0.08528184633325893 0.06583508263713304 0.5049278865471224 0.017751519519877502
0.09235062370147211 0.05992375964769814 1.0156105240629343 0.010765392990077857
0.08755825008717452 0.05648732653338111 1.3940981058169881 0.008749062238233496
0.09559188989499486 0.06466735875613146 0.5250792922855952 0.01864357133441498
0.08076400177743998 0.05772444933664493 1.8082015205371744 0.02727029596746409
0.08046684102393892 0.06271133381470964 0.7130231660003891 0.012782302299769639
0.1030542857255881 0.059509488814804244 0.18077273836222582 0.01477438578540823
0.11233746146082171 0.06561042015246397 0.4810905763286101 0.040725385466615464
0.09476967684786394 0.05458948207720507 0.08915041216226692 0.011064417972070629
0.07211430172537417 0.06072104813984142 0.760787716546974 0.01139879253596672
0.092105084227776 0.06590839401905242 0.13591054217518567 0.006594518447481475
0.07572451382083764 0.06395411939238434 1.7090220407201906 0.01620422026457821
0.08215499285944368 0.0631934336006999 0.3609995303563085 0.009521589833582568
0.11308872943572973 0.06368182714628491 0.3428501928409708 0.015963331996799963
0.10671555517797776 0.0682694948393758 0.3198831625403776 0.009954769887049205
0.06706618417712874 0.06656914949293265 0.5360177790721611 0.02209712876827145
0.09331399560706852 0.0604159258033199 0.7203503902605223 0.014598166863320453
0.08365178145329444 0.06352737195846836 1.403469041784907 0.011971832461466615
0.08754361781475747 0.06852602788441929 0.8198034512254238 0.03959982287990089
0.09992947251184371 0.07337541963454337 1.5680171155105067 0.05116409409852481
0.07267844724968801 0.055030315313363096 1.0517109191674126 0.012983825832769748
0.11335504950482743 0.0636118989164503 0.721286957183987 0.04837290323585596
0.11917087611270262 0.06427941968208445 0.10777431191995583 0.028586942670087084
0.07823836172923924 0.058947275606476016 0.16291553212589469 0.0067754643253646
0.08036854743129217 0.05779811838741475 0.9050379223756396 0.034840529266373946
0.09596605316281358 0.06635965805294687 0.8364149193056852 0.03386976803135126
0.07413339984045782 0.066865974166895 1.49475202352214 0.02230563150439389
0.11279456969767221 0.06595567636305875 0.29883061606410555 0.022099219221174086
0.09318474110447328 0.06055032638047204 0.17023274400793884 0.01296062957515368
0.08967350411042531 0.06468817629258487 0.3548282242923133 0.02010614453135233
0.08525100912383742 0.06059112576888235 0.4720374581781573 0.012395823224642942
0.07599420438758109 0.05424294016159732 1.1338950230108844 0.014469968177456372
0.07688671592356196 0.0580456599969299 1.3484171037187769 0.03418642027020832
0.09504705598241647 0.07366016301778931 1.097544800693125 0.014694596687242234
0.07564386418213595 0.0612795174438423 0.19975679951992895 0.011269369849207192
0.08552590651191395 0.060951696028252074 0.12459141290746538 0.012050799307623806
0.11210857191195389 0.06371873555457679 0.11534990396431351 0.01182149449740074
0.06899274267803587 0.06338468564929021 1.7823621700235406 0.035834650521039485
0.10010871660531057 0.06317369792230196 0.2837373160381373 0.027931163367756008
0.09535453806218719 0.06582514630351893 1.0835805335556492 0.013837531992261702
0.08749319290553444 0.06889423461442636 1.0870266494557899 0.014163942594901871
0.0704351458264796 0.061214789890489014 1.3260467066088208 0.02266189323878151
0.09107328209243429 0.06603534840184223 0.19480491372948033 0.012122247791517417
0.07783797504006242 0.06235902243933945 1.3740932130546475 0.02093266834624941
0.07414248207761583 0.06730065871805702 1.6586730231923041 0.037376600099337624
0.10716907290169946 0.06793140876787294 0.941835931154617 0.021240769340544093
0.07657150735038228 0.06405006069186346 1.241502284052088 0.019604013698525363
0.06671159340238783 0.06346451907213418 0.5004591237914755 0.018702313286382076
0.1236781059214967 0.06627495978578263 0.19313647833693015 0.02763756560193801
0.08241504185688542 0.06784986524933594 0.9728390010086674 0.015738813248760905
0.09321795019642079 0.07105410959665259 1.120743601091176 0.02043072036601736
0.08001029864691422 0.060911054419152136 0.30593539144420406 0.023821965438237832
0.07742141957862841 0.060293088720276534 0.8609973564592274 0.028190046529441633
0.08643393724037211 0.06462571896650311 0.9288476692947062 0.02981612392406105
0.07726495231383389 0.06472907890524274 0.6672287192446867 0.01611452214938786
0.09494299645820473 0.06082774924338221 0.6345828344907724 0.015243183874708119
0.0867677379611049 0.06149661294250463 0.23501819396740095 0.015473623130826198
0.12313898811704325 0.0659767190857344 0.11616053747470267 0.025339390576633942
0.08363675178963337 0.06446778677595928 0.935776717300961 0.02654521197232101
0.08081626497676613 0.06988889017784852 1.3374965822145084 0.0208011605967288
0.08996947265444256 0.05799369327915766 0.5567421863636035 0.010490963239382166
0.07224763315083672 0.05425185854726673 0.5255519018030145 0.01915009558902033
0.08343060035257996 0.05647369591035947 1.225718812380179 0.019174452941097715
0.1005170747470652 0.06110138820403237 0.537930749698422 0.039175134485773484
0.11388105587958205 0.06320512818416131 0.5634801881584394 0.0421055819831941
0.10522445157140936 0.056629985779405013 0.605634267531203 0.022084531317536793
0.085524236520384 0.05624641336059032 0.6840575654505586 0.010109499304521695
0.07925534716362652 0.06701383187824438 2.005389775038681 0.020901056604237144
0.09526914117390581 0.0587325277203819 0.662869571967587 0.017388420125853107
0.12796307653575903 0.06530918034772733 0.10956194708188793 0.024381587445151606
0.07583537368757473 0.05899103244763454 0.4552397917611345 0.007787141133705595
0.09925130942104905 0.06887266527401911 0.39540089538851514 0.013727272458726634
0.08002254912195386 0.0652230482860271 1.0064412324733512 0.017324526595949553
0.10669184412091723 0.06799659361768828 0.7377287259207088 0.037028587354326056
0.07322559457668644 0.06923814993257478 1.155243430947874 0.022480681946550615
0.07331022377115094 0.05213109402401307 1.5458450924192637 0.019579544309176727
0.08633719823521098 0.06582513248384875 1.2296879426997656 0.01674731970140401
0.08764044523107044 0.05953376436991311 1.4871598873393745 0.016924252617306144
0.08606137735862493 0.07112649267523154 0.850029201429162 0.017670508817348555
0.11103592628964014 0.06104055438632155 0.4006299037496637 0.03278273678740439
0.08132615392634032 0.06440643310125993 1.0423569457059652 0.01560900203647946
0.0982167757191414 0.06028272515823407 0.4436566910409207 0.009933401681733508
0.08984407172076783 0.0602378483129324 0.3498192702484411 0.019008292898192926
0.0985161836921564 0.054777188440214224 0.22825891911270652 0.015245719710627931
0.08741617219668829 0.06506867364948885 0.1519853772746209 0.014643569898183495
0.07197784410904493 0.07055683201133912 1.4366233149314973 0.01236642375770828
0.07397633658091719 0.059277797642238665 1.0898593780090766 0.02053758331923295
0.0908986039477619 0.0660800108528572 0.26274433689836946 0.022855597206832914
0.10298476552143417 0.05843317423493448 0.10231419343564067 0.009543169856300658
0.07055321268368887 0.06772958929808968 0.28068466904065803 0.019159960849651176
0.1184098181694224 0.06036188742072076 0.5869723521122291 0.03855665489673565
0.08398140535466117 0.06572192662680083 0.799342111182494 0.046727967309673706
0.10929062762086883 0.06119184137653166 0.5848026520591477 0.03659433608666825
0.08058776807167668 0.06434359044596441 0.3393279819596065 0.01813225478077214
0.09472094003146136 0.06412488909291011 0.989718866097932 0.018978602688020405
0.07587334001658838 0.06709665736463806 0.4402911552741587 0.00926795831812867
0.08970963511386842 0.062023457744869816 0.5981127580805423 0.015314290142250943
0.11004225624405209 0.06338513192892499 0.35811218649824567 0.01078011134303239
0.09546918658410551 0.05969976959002751 0.7924028222064451 0.028749948533145636
0.0639197239206871 0.06459868090256692 1.3600894055034003 0.034292781321636205
0.09323456306729691 0.06927912729880967 1.503444683532071 0.016056455237494265
0.0926331587778473 0.0679858129574476 0.9582150217632386 0.012375306343099374
0.10618432943066074 0.06383623476560546 0.15355773699823524 0.011849103810907197
0.07258936031640903 0.0666133834448977 1.5244465738291257 0.024509065844018716
0.09716128863378667 0.06388053343249256 1.0543317058853086 0.012191117313295249
0.09105013573911129 0.05974104420219002 0.4845032346653604 0.014791153684991143
0.08477263056581506 0.060305234745359405 0.8776508005809543 0.029722829095359303
0.06602068420222779 0.05957850911008502 0.736986243460285 0.009152435559274487
0.08117064304296076 0.0638279586572002 1.2508342412124414 0.01911246832502649
0.07905484602162413 0.06639644751529263 0.9638988448720714 0.01803996571433398
0.07613541837352084 0.05724890274952638 0.36434245973395585 0.005782933268685366
0.09265367763846584 0.06250477825060706 1.3230962213928725 0.019803294537785125
0.08390192530910141 0.06627696239861308 1.1249788936364098 0.028447269386629122
0.11174251022787907 0.06693566794902475 0.12761933468621056 0.008100295660574155
0.07453664766621741 0.060614955189891365 1.1968296975199775 0.01951308155708366
0.08642975308348597 0.06313279750066927 1.1457138799731952 0.025504463035531225
0.09406942492457811 0.06421646636737556 0.7051008598468607 0.02211817208710082
0.08280775793824609 0.06627825054203457 1.4371497944951244 0.007879143783114244
0.08907058097471243 0.0626262629125655 0.8650008443094513 0.02505082612810727
0.07134809109940494 0.05761150117515528 1.304540997964299 0.020527693827116122
0.11801026975168849 0.05935165982890883 0.25932182633826445 0.030588917747664715
0.08503214158845503 0.06819480983349982 0.6207185302693455 0.014916349015242721
0.10317023046249398 0.06296296062140319 0.6936235208452713 0.03509416938382665
0.07707221747771116 0.060413448649443056 1.5599808581667374 0.05203069445087854
0.06722381768142967 0.05933645406081564 1.172279935720335 0.034727924549777314
0.10605086380355469 0.05873058437696371 0.24694001139316735 0.025435766686432718
0.07274663661806167 0.06671503924911869 0.09652038979778285 0.010703316455597526
0.06757820547819793 0.056165322090391614 1.2415644909000605 0.017580081650021864
0.08880925436257726 0.06295824711900479 0.3847098921916113 0.011616247328882941
0.10588385515219946 0.05711090586948989 0.8514423368322411 0.026107099285877178
0.10608893843212441 0.0614971998450491 0.955952940503708 0.02782006927080893
0.0881413708213345 0.06645541854700941 1.0723981166644656 0.013086816803629064
