x y z curv
0.714723722429729 0.05109268590423057 2.29909168412587 0.01596968018120189
0.8168032061283536 0.053606845341219594 2.278594439192154 0.02781447241756931
0.2218541226097517 0.0512478543043005 2.4039398853752427 0.0292189428032625
0.5106128913062548 0.05501194973539505 2.195362373756075 0.017830839246980604
0.22008441034430093 0.050266532790436254 2.3586655985814584 0.014403273677585676
0.6880487818692237 0.05229621340272867 2.319790650992764 0.00906810676969362
0.8137009813541365 0.053071267002475025 2.151609102015846 0.023712185267672856
0.7582702899378733 0.0493510208600131 2.277167194806505 0.013532330759018097
0.25716662330458695 0.05302224160069931 2.368302281157453 0.015551919588168752
0.7919895387503197 0.05003238312718404 2.114866214931614 0.029351239028849573
0.5233917646370082 0.05455624857922135 2.203453441226407 0.01245831506326456
0.5279884180242844 0.04555315644892167 2.3267602377878407 0.016062185606388207
0.519969341913659 0.05635659726921742 2.3884936630392537 0.02090018040090806
0.6103599995320904 0.051292607071676564 2.3093225693867243 0.01924277660233101
0.4911066217922202 0.05104541198594874 2.257865592920219 0.018416854335878533
0.6871373434687759 0.05150026439382045 2.4229452635823385 0.027854984132913943
0.8911443741722789 0.05097117731560171 2.0965864952441313 0.03713696802616689
0.8552421068050136 0.049770620137190066 2.0850425386553115 0.014140963998258049
0.5256536993523512 0.04960754726006317 2.4319545152809288 0.011725950616618503
0.3814124728394769 0.0413356580573139 2.3697927630754374 0.009682037531877371
0.7728743039996036 0.04716479654353264 2.236985173037813 0.02286641127357977
0.6875599413449397 0.0544904992545745 2.276010143467773 0.008705606965520333
0.7882454245434017 0.05220077046299985 2.3923585628732438 0.015202774497539906
0.8855354703500987 0.04941827462684193 2.435911075418743 0.032786960113510226
0.6541224697664214 0.05480920094660012 2.1293972507610244 0.00867254266471008
0.7736995078483903 0.0521812462514042 2.183485724074624 0.010583860387019561
0.7561075888795681 0.04482857441983537 2.1800778834628196 0.012807123974548678
0.27914289690279315 0.05393595820552426 2.4444741733389246 0.029478932605563255
0.7521193579622035 0.046221870946186974 2.1978109275528106 0.011868800970053743
0.7903188259292945 0.049341912445209836 2.4359178434723767 0.018069925595794897
0.6733597212088931 0.04219158291261031 2.372900834250392 0.014262570081521878
0.6663763294982399 0.056336015102841294 2.385359429854616 0.014304760956060281
0.36464423149966685 0.04947431915408981 2.34053423734179 0.014514683581188997
0.4556059829818087 0.04933032796902603 2.2361904294135915 0.01953563570725707
0.46390530993241824 0.05486588197963204 2.284719063421063 0.010382867517897585
0.7575985000908573 0.05147314288514459 2.2440606222257533 0.01394802972479904
0.5464310845435014 0.048065513310343 2.3576787553641108 0.013344387685963544
0.22833999630045904 0.058759278960596795 2.373517282140848 0.011063145747668639
0.8348549889801201 0.05071617123677554 2.085475336120457 0.0118252842978938
0.40658720015965566 0.057218099235245845 2.441918011430278 0.009619965552793945
0.7666670806665904 0.05921768425200174 2.331459011308902 0.011246518200645995
0.653002536978617 0.04983256334748389 2.2811847306943576 0.007682790167165772
0.7709775086131065 0.051173770015192355 2.2075696404484537 0.019312897621710817
0.4043652852947009 0.04577033853567861 2.4153373180435644 0.011506066992909542
0.7400592469090435 0.05375162154845734 2.3015851792022604 0.013727840461612684
0.7360921713381676 0.052256367830246286 2.2195892116275298 0.010483417361488757
0.8364118718241206 0.045850853864080846 2.283770082999759 0.020878342131077334
0.6733015202875681 0.05262860101474459 2.4120115109368245 0.025904964045458587
0.4836734840869625 0.057987864419156605 2.429556193231823 0.013732449716168747
0.8245039486838732 0.05532635386593296 2.1281282546109326 0.019140340977767376
0.44260743199270947 0.054051622498223366 2.376352560506308 0.019123698303769206
0.819427858380788 0.05229186850731751 2.1409667020448118 0.027779220906650845
0.6460160991736978 0.05408578957221638 2.4210513579283823 0.018605162762684212
0.7406036493327068 0.04658022355659936 2.372744859560434 0.007055596812870267
0.1648256904988651 0.054057678041098296 2.400132680579446 0.01218516303527316
0.4315320434165795 0.04682664645998316 2.2543974889534355 0.01420725457365772
0.6924336335410334 0.04078382002101886 2.118656086757248 0.021042227241203717
0.3691481763039939 0.04917266639521462 2.391751289429694 0.01480936868852999
0.5647845316221042 0.05395749115672626 2.182018724435826 0.01649736278322354
0.44004144816299007 0.047066879205001466 2.3985496057199 0.01605402288974362
0.4023446641599559 0.051209493849064425 2.354530907033794 0.008650852157427502
0.461654541576444 0.05577290999481178 2.3491377031127945 0.017831434548840393
0.8863191022179367 0.049299280679229195 2.153228665908247 0.0974792433297657
0.6409670531352039 0.04828868939033518 2.3827052348789866 0.022697905864529695
0.7189278420660813 0.04948573196224135 2.238524863303477 0.01564492735994964
0.6137187507623625 0.04248438976204648 2.2946116430852643 0.0138610217418234
0.8906238045409174 0.053354044052225505 2.3088779819584007 0.11034136847785865
0.8936292007414318 0.040232604943997045 2.217287282154066 0.06740551112594285
0.7364752659489145 0.052848413157881184 2.4016624575817263 0.010741143632507614
0.5749694923018266 0.04689048498877528 2.3059683019297794 0.013172796418434355
0.636645667892727 0.05313607712000113 2.160033666435626 0.010925056361399031
0.8650544570812482 0.055263756631877804 2.4330886620354413 0.053163314052919595
0.63391543340631 0.04610160396657369 2.2267795856684742 0.013903543749215735
0.6394878361522105 0.05474528983548909 2.4068420440743505 0.016655794323459486
0.7955712720362521 0.04857091776610629 2.1426962600960615 0.026314574337619245
0.8126824057104975 0.04998392332727284 2.3948020499101865 0.018577400626571785
0.5964148011809892 0.04118989640473566 2.179987188544146 0.02261772852607749
0.8330317019311934 0.050742544403752525 2.3309083112155156 0.023140725403472503
0.12008478163807329 0.0566491163004179 2.3971616114395617 0.015744264174252984
0.8489939040762183 0.053990772817422934 2.0453656615782725 0.013193805278801157
0.5707621254745843 0.05495619378236449 2.433640074308071 0.010866831837061875
0.6698027000329959 0.04573351229504924 2.2236365258521382 0.016586667305762515
0.4326361523270853 0.04865050286642531 2.3847868110935546 0.023434969294552
0.34751666729292335 0.04655485676661316 2.3726267676909827 0.011618404494253462
0.8815425140952711 0.051917946767858464 2.0645986615022727 0.05979997220753325
0.43713842612714227 0.055045663077171916 2.307837962434056 0.016205420985964968
0.27783267948254775 0.04454301661135062 2.3838834463675678 0.015871578293491343
0.31400362551729166 0.0533254319997572 2.3222975090193585 0.020589023922620495
0.8418566122698921 0.04722448601117942 2.056411162451582 0.01417142476194155
0.7559218529499944 0.05089495009558617 2.2184959473050223 0.015727593019850186
0.8875797850130851 0.05000892921860918 2.2857809075822644 0.07641228792030323
0.5850824717141336 0.05099962533753125 2.256094868504378 0.02245352930733021
0.0693089099096509 0.04265083587949426 2.416663234070276 0.02292942324668094
0.6764753980688248 0.05146284261128521 2.2071622304736414 0.016186795884414035
0.6055519525853552 0.05234685246984669 2.21910135056347 0.016887560086447498
0.5884345270499223 0.05409113179535195 2.2570843995378493 0.020593821339799374
0.7788211132689207 0.052261494603980226 2.100952575235783 0.01686016163923471
0.6156287800925417 0.05437885159157077 2.2658243323157756 0.02285033043083176
0.2495128309835789 0.05297381853856304 2.3567490309355446 0.015121772500381127
0.7891891069826272 0.05262293500683144 2.3293327867142306 0.020181331471306047
0.6783960204422111 0.04903813315405072 2.2389135673841674 0.011822409206081037
0.8697592260501464 0.05467996489341504 2.3836746826667294 0.04670812812282522
0.8211930686782235 0.04567017929895407 2.2919869641530197 0.021661582998187722
0.8062674893143268 0.05061119157521086 2.323765730011988 0.020322554695350416
0.8717470035235053 0.05161769638548134 2.0759882692514555 0.02952939262405803
0.4512552996677437 0.051354432653408895 2.403412116995849 0.015141716965825391
0.552075844593437 0.05462556773503613 2.2434647146871995 0.027685785475473314
0.6838261926414076 0.05585497154366544 2.27968279503015 0.010065053933224863
0.8033840743693812 0.044262527383697764 2.4357633081330623 0.020223764445400624
0.4405439715605535 0.056392635629174084 2.34198113401003 0.014115472787004736
0.5144843951504762 0.049625235318181075 2.338045879079679 0.011019922305570515
0.874370404278294 0.05935694606611838 2.2269965518960912 0.08756557862468185
0.254200964308087 0.058794305011149156 2.402405401590103 0.01468048941419873
0.6144265945154553 0.05469200552055734 2.4424498245871766 0.020313925527208787
0.2844099757291148 0.04510743610882471 2.3388148265322237 0.028751395040368725
0.1280788965149095 0.05252139633168295 2.393077537641176 0.013010472873481376
0.6475930981193169 0.04670219620951945 2.4012617184125764 0.016470192519648923
0.8951548205000522 0.048295580399124044 2.018470882174479 0.08693027697178553
0.8664031134891446 0.057412513961282795 2.315147744310855 0.041753182603787464
0.5962926067172409 0.05359117856815648 2.4277914261573823 0.015324503602838966
0.4286223753742925 0.06299830178153684 2.353891873625661 0.008566966927998033
0.7375683626951375 0.057276700801152894 2.3180443209621107 0.016718197982444498
0.48984078757964866 0.059192458756637034 2.23595011440274 0.008776532739598483
0.32287293098334935 0.05737143616671568 2.3074175863923077 0.014680804542474713
0.33584187977188307 0.056908870503757675 2.285561454500369 0.020557494715776906
0.43298923960667357 0.05000755725438412 2.4463017786770775 0.036685557674147815
0.6718368218215424 0.05226728333417377 2.2747286858556497 0.012762229601671329
0.22804964494477611 0.05040800542118192 2.4169080019324705 0.02753049680338202
0.2103096301659087 0.05584862694701113 2.416342723751328 0.028357636276514168
0.8291339360415305 0.04994705051115377 2.382936354478271 0.01806343312019254
0.6952506264195882 0.05377753858370404 2.209948174763475 0.012936197800595278
0.5037219344174293 0.045309852199576874 2.3903425790018304 0.015497760307552743
0.6456061215344261 0.0425387948342053 2.234718157767776 0.012629414236532337
0.8852473483425262 0.04577193352128914 2.255806839681243 0.08094403013551588
0.7096228786710725 0.05194453296686774 2.1997792345833567 0.00809557289765223
0.4688267390724746 0.051141850268269964 2.4284073038469574 0.022009217115336058
0.20811965659148973 0.052933233857976374 2.4442585961757017 0.037925800084844176
0.2526874666723807 0.05433284338470298 2.3353358525097887 0.01710479720290571
0.806604868159545 0.05797561754115704 2.1808801182911384 0.012262988510082258
0.9016508693226012 0.05133485411576284 2.080649872079808 0.026332326016759645
0.44142286703933153 0.0488630331533887 2.363911086617426 0.0161109960779308
0.8953380219815351 0.0459062746756241 2.4060518902271797 0.0859466441030394
0.8927552901971676 0.05094927609430433 2.295544227661811 0.10941804451749657
0.33813930407627996 0.04908608214171492 2.2930942237187066 0.020359618338470328
0.8256308307672888 0.05207875464281451 2.1694837367007267 0.010625266616359007
0.8675421418354141 0.04896398689253232 2.335545481828336 0.020117262913923503
0.7686638679601984 0.054167551192370905 2.3551434918720546 0.015896502049018293
0.6482791410340978 0.05501505635389215 2.42693869070152 0.018573602542109203
0.8119335701064444 0.05681739912435119 2.0886544662034416 0.01747532373555965
0.38910973959029077 0.04561672774373644 2.3530954120702843 0.020085323703421285
0.4108303407371123 0.05345348756446152 2.2479678815055735 0.01949446378495258
0.26602461626983054 0.05423361766040899 2.432462104424534 0.019366052560978918
0.3168484388885921 0.05219781799378476 2.317957223534318 0.01995234087464005
0.7419886921024113 0.04482563116634336 2.327221222495838 0.007977656201008569
0.8462121425249665 0.04781195727158235 2.0733442378632816 0.012119359784011489
0.7104846046203391 0.048179542669051986 2.2727726555410905 0.010944566507132672
0.6935968868154945 0.04647606614301126 2.2220313423340747 0.013695356304841942
0.40202676100183704 0.04455317777315104 2.4272139043807934 0.009479255797791889
0.7837876883115779 0.05143401576553795 2.162447202930298 0.016851205234327565
0.6293212115876624 0.05558610882873274 2.2052764725507332 0.024548704583952564
0.47290875338227883 0.0499435309407056 2.3220074197996885 0.009412761977817024
0.8275494101546533 0.047019564660087054 2.3326861359313815 0.018247063837139088
0.3586781378742687 0.046133446509393 2.3990914060511868 0.016709377768654603
0.11212172420859398 0.05804085624162937 2.414692756791656 0.012210254542644725
0.8927487029396378 0.04383749291879077 2.1431097589309163 0.10004088076094643
0.6925706859868579 0.052248993640292764 2.36556360501995 0.01735767877666014
0.8665037488157725 0.05300296156313268 2.3790566945682787 0.02309398152340315
0.8893311254167555 0.05870547638555381 2.355210404433001 0.0745020144561791
0.903393680392831 0.04828899722601478 2.1843313792106587 0.0982155671085081
0.7015372228612112 0.05633024138320156 2.1812282889154564 0.02767524619115981
0.6859888596378775 0.06259220492506155 2.153158705791816 0.013336027062240307
0.42222956618314833 0.0542776153994026 2.2883921151523645 0.022876485044747267
0.6596643360715022 0.051536675401850834 2.2341822175463295 0.0177672855356497
0.7935740264219852 0.05323829164212026 2.4087678429918737 0.0156785233339688
0.3419058843925767 0.047334602141061465 2.3302846864075284 0.0070108062616249505
0.5086390864394621 0.05449975319760697 2.3774252049154847 0.025908996053220668
0.12646643854836295 0.05551478917720332 2.4402748455356114 0.029449389061908072
0.12171894892786031 0.05270068859045737 2.425909407363561 0.021637272819793628
0.7462389403607529 0.050627615285629396 2.2580088777636846 0.014452157969966099
0.32411253294495507 0.05317325595163766 2.3520232397903937 0.01998897398719756
0.47199936049206137 0.05495409764661995 2.3374215012275954 0.010609438637127877
0.6130042907733613 0.05653828062034323 2.1976159226787355 0.015939411130359675
0.8157914429631848 0.05738851584493069 2.346749019622511 0.020855799819257153
0.23718257261035872 0.05428967321378454 2.4033938106434545 0.01970707019142252
0.8585703917590116 0.043997486795074654 2.1818506966987563 0.01934112226704679
0.42542248508028196 0.0460548619492283 2.3159284809088967 0.019269186404982656
0.4602264427244023 0.051157707629570684 2.2566197892594877 0.018585260175765828
0.6971268641517486 0.055032711343556716 2.145873727293635 0.018359941462480146
0.6594272157619877 0.05264465062503994 2.2799600003292126 0.009314560530780487
0.5022510264404744 0.05707838975040451 2.3700483354258997 0.016982593094179495
0.8694538038442243 0.050944145181255444 2.3662682385283706 0.02405339908441022
0.6419606529688993 0.05319912870808903 2.222514988781392 0.01834948012583622
0.5573762132313955 0.05494192197377704 2.3573196725477974 0.014154555953286078
0.8069774432147785 0.04485463706036822 2.3763505128355713 0.01292166869427781
0.1051283330996732 0.052500255442887625 2.4136874746592967 0.018838454495579755
0.8138389409351791 0.05509443204539003 2.0667739741724005 0.024809051841759317
0.7761236008438728 0.05628644839512761 2.3153478316620664 0.017405421892787702
0.8495678542074523 0.04824000156722684 2.2899119811611803 0.023697839980028196
0.819832662074012 0.0548341343817938 2.1563550685064046 0.021364087151005597
0.5604491519968042 0.051372069971114924 2.4198014991019035 0.009754641755926812
0.49996854238873106 0.05190631756368386 2.3213177452075437 0.010671480117392098
0.6456862778390977 0.05335419461042832 2.356173104844969 0.0213051054554615
0.6283796390034863 0.046282781647394425 2.3611747655754396 0.022204846553404402
0.8969131609663565 0.05759772271200636 2.255374047874844 0.11800380218860458
0.25721775234066196 0.04309005664402769 2.3142275205778176 0.019330357689477835
0.6660626181238125 0.04885871006609454 2.1473939495411654 0.0378673871727934
0.8544150542061446 0.04812030510125676 2.199140460321817 0.03183658654839188
0.8472606931041727 0.05998933578048215 2.264565709064602 0.016397464870971202
0.7211726977974727 0.05014159598917226 2.086935533984898 0.012236926865347364
0.7346208579132374 0.04277529133259201 2.166831524450097 0.010046326716897439
0.8607550390309018 0.042280655950436695 2.1058069732880553 0.006793792629747484
0.4640767260044622 0.05038325529064815 2.385731152561915 0.011653874921897017
0.851960495484001 0.04582938388687602 2.322262420403025 0.015238079391965847
0.5183712352606751 0.0509765464549427 2.4077281514139623 0.01700449923442365
0.7834210904100652 0.05224845381197376 2.0917502446738787 0.02272630640222536
0.2676650131047227 0.05407563761566341 2.340941345577503 0.020370898619668124
0.5892401377044458 0.05049591136752888 2.232535091842816 0.02459266772292146
0.4006565629017365 0.051045760062174796 2.3224959544285637 0.025427254834209993
0.25425356901265905 0.047993645298723304 2.372626403508503 0.015624959515603496
0.5709883839663634 0.053193525405298044 2.2800846843935774 0.030896112561067612
0.6491229995271722 0.049417002672213155 2.3095919406547765 0.016069566444483603
0.7887388619409174 0.0607074588226964 2.305850323100382 0.016335023982156412
0.3928126203231377 0.05525501472502922 2.282915306964992 0.020054321051258536
0.6629042888743762 0.05045782068035506 2.1409621266753756 0.03313704153105182
0.12399406572342411 0.055486383889595224 2.4140675046431954 0.018124988227835
0.822293289390646 0.05305625186965528 2.108181993197645 0.020306554024461597
0.800330991212338 0.05045973174958402 2.131011573143544 0.021980505200749914
0.6278478808993508 0.054346122041669186 2.2502857401073006 0.01416829942202249
0.8099688680607083 0.049508854099533525 2.217351214192902 0.01870645892101183
0.42208693356744936 0.052111600226759064 2.387232290077285 0.0146744333314791
0.600070410644438 0.0534100838953885 2.4383923650887622 0.01994730763962203
0.27603677724698666 0.051273417238473167 2.334709523648842 0.02587057285671737
0.1771704254259936 0.05161718528857815 2.4057952951736996 0.020933679216924253
0.5177485725510367 0.053293987441698075 2.3346524846499803 0.010334323005576239
0.47206601535067905 0.05182364882291841 2.404651663305547 0.0179932396975658
0.6252101228097796 0.05417797796721967 2.382371168522673 0.025826757061793566
0.20701217815361303 0.055100871727122705 2.3679433889369266 0.01613631021918396
0.6747304495487453 0.04323443802084494 2.1161618840305603 0.016868217081447395
0.5489361747482624 0.05273545038733622 2.231886117768442 0.030595771071993353
0.8905448672117724 0.06076664276089118 2.381142342125719 0.1035957669708551
0.16812915339779363 0.049845934692924566 2.422962768374825 0.027451519826210084
0.6974648355358518 0.05148704345481537 2.4125008079351247 0.01837787041943298
0.8133898072462882 0.05423947390754741 2.326750859678581 0.016417297669134325
0.30093921698221543 0.051937227752812495 2.3747667034631386 0.019300923838508125
0.5698839266750093 0.04594705539706546 2.364941881191497 0.021759910567444196
0.4013999321323454 0.05474100272771144 2.3477816607979904 0.016962824386692617
0.6570385904149249 0.04283858093723763 2.201859821278771 0.024822366803988537
0.8718817641378966 0.04747922317515513 2.065577004267524 0.02783302589553376
0.5867510070577433 0.044035934569715725 2.4032016969815855 0.020166768201500828
0.6584909964993437 0.049123429286125335 2.350534389567653 0.017530985578830992
0.7567459360932356 0.052087657857782514 2.408816562198357 0.01804504043134581
0.5001708948316925 0.04778043274652957 2.223555753526632 0.011993796263352174
0.750550394257038 0.05140299224110012 2.2786350301957983 0.013353683289566546
0.5102689977152411 0.05330097354082519 2.3868173932748964 0.020190348230691168
0.7211644630003657 0.055960857979507644 2.2691137948821387 0.010562087516599147
0.47027974661280997 0.05286179345188714 2.416981491678827 0.01649519559242118
0.7599185550613675 0.055067930650594565 2.4088945917520004 0.018461266534626396
0.7267646869977062 0.05125650901547375 2.182788753026953 0.011340821060382412
0.5567086744912974 0.05039067150842487 2.4298069750484883 0.0118559279966998
0.6068816958671613 0.058682851230982346 2.4083476109342477 0.019011915745479797
0.4514964310394376 0.04781998430031853 2.2770418056990263 0.014227307369724482
0.8214496955316682 0.05393957998695261 2.3371501042126943 0.01850811335091796
0.7416894029385949 0.04863740240573806 2.205526529177598 0.01696473512390594
0.8709444574730104 0.04767499542689349 2.1997257124404044 0.035324009556503354
0.4661235582919605 0.04950557763466514 2.2177287921401385 0.014095937835276864
0.44451499230334385 0.05360462974239634 2.275095145587914 0.017622365610322682
0.7321297315963466 0.04538687769865391 2.113167252869909 0.011153236027502251
0.5367071793607667 0.049333484816293925 2.3509769419561706 0.01492584934697512
0.8934457930739741 0.0508853332121394 2.042000416869178 0.07399322463979638
0.7340153857870241 0.04681043320184767 2.2873142663143273 0.015905204368252164
0.7152038651450077 0.05012752090660502 2.3514452422462195 0.008411238378875089
0.7990648153431907 0.05509119438048363 2.293211200799293 0.01748594756206539
0.19431780085292422 0.04736681447080539 2.4095950089879383 0.01994116612602454
0.40409377294197396 0.05596235450581602 2.318427441761145 0.022298056143107644
0.4831190417230911 0.04940083991442792 2.403509772072274 0.020911487125698822
0.5992466247344266 0.04833788896149648 2.1702451663925744 0.02635881557981895
0.8350020938320917 0.05031069846525303 2.1158696639655776 0.02066582126740046
0.5534705268473628 0.05440054675590542 2.2115794720118664 0.0166655066876749
0.6972617862127953 0.05435250306143132 2.201208812892134 0.012168207241028958
0.2478219948130031 0.04551989302980896 2.437156875361668 0.01679207780291909
0.4538181309125725 0.05381750642383199 2.2891738838350015 0.011173231985411652
0.43654180334433196 0.05501008803805298 2.246069552086472 0.017988172100603068
0.44937381167193735 0.05337948329437246 2.3461169334604834 0.021994498150422676
0.7239782003951712 0.04805091790299134 2.3297042503964387 0.012243865982997029
0.8281315338876611 0.04700196983233826 2.2428941126716744 0.012802693323010742
0.590139691834508 0.04944023153752254 2.2918147207541613 0.017623863430010298
0.8794864182421747 0.05697340689814967 2.3290348183440512 0.06697604322545433
0.7184671996529576 0.04545025106047351 2.206004580720585 0.0064925649396667855
0.17358542929216222 0.052451993667632694 2.3656223780037733 0.010795546627390469
0.5127544580314104 0.05076180787768636 2.247513076913454 0.015425192709080104
0.6980498893997604 0.05630966734954726 2.312941580656606 0.00980774748314517
0.8515151357679516 0.04634666795948781 2.220256743685125 0.01980404843345877
0.7471627439498195 0.052194364950616606 2.333840742543812 0.010204772989576125
0.37785180746911773 0.05006513752281396 2.416621112569129 0.012486225661248981
0.5648222309500828 0.04466614666772731 2.2590256060416145 0.02557027623021893
0.7014048277546909 0.03918144795048958 2.4361646539874373 0.024163788054662176
0.19736208726339743 0.04105059516738322 2.432547215747716 0.0243128467239118
0.8894136888633148 0.05070703656753878 2.422271722168271 0.12374268520288688
0.7832143110067362 0.04692866078085171 2.1223490427655585 0.029787824527228023
0.6350018219675556 0.04911832058142726 2.14011460658727 0.011168869633443124
0.6229606011999063 0.04933668050477802 2.2342335454820317 0.017756569596059597
0.4628410006494389 0.04257996597774519 2.375427543744486 0.010752503443110368
0.4853768151740715 0.047877741410953224 2.3306367693288204 0.009869743802000073
0.20608949278525363 0.0507517250343676 2.423751242591985 0.027911256755164166
0.8735544575459141 0.04900202714134709 2.0404011923977734 0.05183657352419421
0.10289582818882909 0.05062371452216738 2.4349201570023293 0.035788379324398545
0.6325491298207324 0.043515982709613536 2.3355699852602534 0.012163360963888531
0.7688149829448326 0.051040723561852554 2.0974095374230854 0.018246035274234088
0.6673096472910133 0.04939817821718289 2.3189196867080404 0.009530477757098574
0.6600296177106122 0.04755519925904392 2.3058283903486685 0.006687127135268903
0.23873347578680068 0.050197694603635726 2.424675539770808 0.015558016197824825
0.7904038534928657 0.05640537836135695 2.091610893110469 0.020861263643233107
0.5760471561015177 0.045188360930856666 2.194154633178068 0.01824194479875228
0.4489143174712831 0.04140231258013542 2.2400360078089303 0.009254857370858823
0.798425168100674 0.055550817695637 2.2432544557275653 0.008353933234545391
0.8623788403034932 0.049141733320050736 2.1406029076564117 0.014541885837359802
0.6240986182267073 0.05056111159844877 2.2029740618730105 0.02782168826871512
0.5214783951360105 0.05246738882828528 2.270173947951261 0.024299514584003458
0.7195573648789211 0.05385248417730623 2.177738671988451 0.012751542987416794
0.5303195126052628 0.05472891374385681 2.3431933310682105 0.011617228011693126
0.2310627861847993 0.04774085522876085 2.3894601375912035 0.010865073238387365
0.8837713497034032 0.05688755395712568 2.34933846361606 0.08168680739277584
0.4748573994484301 0.05160621296932419 2.24913889260755 0.015348990820680926
0.5382436392732158 0.04563476644686787 2.28332403071654 0.03015728914268814
0.3040535747567295 0.05130505846017866 2.3279564177196295 0.022558345409229765
0.38076611297259505 0.05846806928319967 2.30123733558672 0.019097258355343587
0.7551526505491769 0.05352835060127903 2.396510281679307 0.00684496298966818
0.5518812031069446 0.05237286204326645 2.2512899065457384 0.02762248350322579
0.4440449187386373 0.05287757336091081 2.259500282740098 0.01575679496148528
0.6702147027346211 0.04112019482148946 2.174453393556285 0.015811806744343456
0.6031804773755592 0.06012655629856214 2.269797349440949 0.018839199528519156
0.8825034025502095 0.05130853554960418 2.0322848922150016 0.06840601174305085
0.5514483664892462 0.053813700928377624 2.285747592700826 0.0264377583203879
0.5405258124824168 0.047293090377894025 2.2968139966238246 0.01584699357889306
0.750961363676178 0.04946603571376455 2.1040290361295524 0.008863212690489347
0.8107089009434458 0.04533966670531526 2.1317725519493345 0.023824553919168767
0.7696821423999595 0.044591597339360314 2.442251071826661 0.015912787644993168
0.613824676643981 0.046594663903691526 2.4170498002613474 0.018399984513520342
0.7214014665254797 0.045205284987258974 2.3085155296007507 0.014840036508948598
0.6970910109393165 0.048641844051875466 2.259186574605489 0.013936975451012563
0.42047195254115954 0.05067912504565223 2.3089308517626645 0.022056245790348216
0.6743668790121737 0.051959243396127244 2.2932372675503583 0.008565293432557623
0.8010625369916431 0.04796668085756338 2.0656544967085204 0.0174246086961845
0.3336312279512077 0.04407220407887325 2.4157113886919346 0.02688031009696902
0.46138499559604096 0.059145468125851273 2.340040049155746 0.019746072686644436
0.7776535834114634 0.05381628422939659 2.3934865335847872 0.016207822964011524
0.5712747348144962 0.051288474221249145 2.3294412562544737 0.021951592961632817
0.7532311920149438 0.05530219637077717 2.2238206684916575 0.011860832026573972
0.2283567637244654 0.058642139842466766 2.353334802597031 0.01199001729672518
0.8608216490364643 0.049472523165958085 2.052726577838651 0.018168245611850813
0.5381948213645699 0.05444808451746926 2.253405880190037 0.03080461807077141
0.7915404833684367 0.049013368638080375 2.4307648594044737 0.01584652524857875
0.3683763315508541 0.05851166041932436 2.277264304778309 0.012362344643394549
0.8877900521646056 0.044842563564858814 2.212991307415403 0.05748884517840458
0.749529627177445 0.051521760438849026 2.3656857338971053 0.011249918451890535
0.4903454313303108 0.052466775781547806 2.3100106096908886 0.010905185822653157
0.1461988854129533 0.05327991880142885 2.4201643432249074 0.011697539020224737
0.5507948528975137 0.05678002513168473 2.304697065106421 0.01978844501427941
0.582911885934072 0.049687305701872755 2.1725462970532146 0.024887566281256105
0.6008876615094216 0.04330045827156444 2.3567347768579587 0.02123223550083366
0.6905774793602298 0.05213745955774969 2.1797426751271254 0.025300766097725077
0.7826399447850488 0.04050673955047058 2.2256716837943658 0.011079845868095671
0.2951883921448619 0.035790534620717226 2.347294637996292 0.013112516371455704
0.49698050744541183 0.05161370120905425 2.4372981566629077 0.011480071218959996
0.43670401241082774 0.04984521973879072 2.4226079349936627 0.018200173332548
0.4928769144962927 0.04642749298748794 2.265762952711597 0.015380080256973764
0.5608924284746755 0.05029699230237808 2.407982197566372 0.01686273003415187
0.43086958993784985 0.046903292517533016 2.2818138745065824 0.013519097705020933
0.24196489357326906 0.05629714193466669 2.3317700433883886 0.0173946884234119
0.5652391827051159 0.0551924366866534 2.29806216167831 0.01827690791746587
0.37450980176235743 0.05507796649688651 2.305930165964337 0.015604743403944495
0.7822646466504667 0.05098984025386767 2.352835654887312 0.015622462794031289
0.8097927028770673 0.04940632907541773 2.1947886173363167 0.015251959190873276
0.8253352542893605 0.04793717030772797 2.4005922596124774 0.014329572438372054
0.6351740513973428 0.05396103501598318 2.3697034514074558 0.017686215952840464
0.8394482500133338 0.053337671072309786 2.3009086412475086 0.02380241233708286
0.6571825408966231 0.05234911804557429 2.372581126897263 0.020290702128162946
0.7207917729655279 0.05248014315316098 2.1616817518640947 0.015403112078244834
0.4731678033277591 0.05382371846410336 2.2466184564397733 0.01508505695769344
0.8185191558507471 0.05016165717475231 2.2691109666579026 0.019215692267638005
0.4675315942252211 0.052959408286211096 2.360786903628547 0.02258396679019548
0.3882211935180699 0.04351008919795865 2.320843604474549 0.018785948239257985
0.1586390688687005 0.05503153084042142 2.3698946107559733 0.014124503716699854
0.6135704978116638 0.05848010826508775 2.2753582214517976 0.01475355993967954
0.711335064846406 0.04579207417937512 2.3615831529628823 0.00952594813637382
0.8668231780363158 0.050533127498440994 2.2402844107612507 0.043000350344765535
0.8052955013951753 0.04576985758648427 2.3599189191440564 0.01373300201496974
0.7687626639318704 0.05201775438582264 2.0783183692421288 0.016138884260218988
0.4808509041374543 0.05399625084015087 2.2821871966593466 0.012195428055983313
0.24158816898230018 0.0495831811810713 2.4185580824855077 0.016574555758464296
0.8177408591810146 0.05669541212114475 2.1253275603785533 0.016576534066939555
0.33614988333128787 0.0484281051779277 2.436082094967505 0.04649869790139387
0.8765642031199946 0.057030837719416805 2.3066708203376223 0.07171504416427063
0.7518633469889399 0.053033895076310886 2.172233929708102 0.015176571256549492
0.641379110822464 0.05275470295063878 2.165532470850429 0.01786849320812512
0.8329978968876401 0.05323210063621455 2.3800559460564856 0.015573735567426389
0.6706248788456806 0.050141491518532956 2.4257995607930884 0.024881747045155944
0.08574593995991057 0.04846718659110702 2.413951667135456 0.02927338478855948
0.36264771641422705 0.04572320769859218 2.2886719998668674 0.01448589909712954
0.3143683911622842 0.054831727704887895 2.3753970764351715 0.01976474430279342
0.6507127767599964 0.045364509314012536 2.189863484338389 0.019121902992964224
0.2684723841949188 0.04778575912480719 2.419462482442132 0.01851029705922013
0.7007869130934292 0.053610597690521414 2.401873794102468 0.012274799976690235
0.8877397614720705 0.0514678321622299 2.3678140754396604 0.07029720130761748
0.7243436183543553 0.047190875395501646 2.3626808520057905 0.008000728758618783
0.5821886041519885 0.04360810933860708 2.3201337295183575 0.015579102836243156
0.600512797975716 0.04931303382936075 2.155253060454672 0.018665460203715897
0.692437961955161 0.04973819480512094 2.290567257027311 0.008451742289122887
0.7258903815419568 0.04772540797649746 2.247641775363647 0.014782942373837968
0.6681890808509313 0.050671298030829606 2.3612120593184267 0.01779240705965844
0.8151538348616233 0.049314705052728315 2.2664045749973916 0.023186975824610077
0.8755812346841124 0.05861595983881182 2.171268669893525 0.0727851727787444
0.5838699857796823 0.056312828915097514 2.216409627420716 0.019780189556977704
0.7662692829019017 0.04930830217072776 2.2994266027363985 0.014825323652354724
0.4121059307048401 0.054849710783423086 2.3423955258309674 0.022902099063915927
0.7114411570639961 0.04676275392197969 2.4060330675725647 0.02341682060511556
0.26564367397220745 0.044721367314995646 2.3190632651774528 0.02271989670732461
0.5111372128856683 0.04735721140510352 2.4291659331405846 0.009603104353431301
0.6131806922812478 0.054034488116396245 2.250727995975382 0.01630247068235045
0.7835905372761418 0.046998988741829076 2.2552445124079328 0.014127732328283427
0.5302146685259672 0.05493423534757662 2.371415099877963 0.015728617178515578
0.5262977903041937 0.05467241451278814 2.2200257116526125 0.012533567172460491
0.6378549197080685 0.05435370823994684 2.3033844686142824 0.016870972130808667
0.3500453361603087 0.04863712743056301 2.4158793492436472 0.013961530241364206
0.7589971474855102 0.04911169452423314 2.159693252639462 0.021325411382492974
0.33042561780139024 0.04717825968997907 2.3667535111691316 0.007558245738899753
0.3530591917294267 0.04769024170684787 2.287900073794128 0.021003278208189452
0.26853301996434675 0.05434459233972726 2.4079605373026562 0.01667759836866476
0.8380155768172617 0.04836957600560688 2.101394231595862 0.0072449366750607985
0.5692166959786634 0.0518914167445374 2.343048631916005 0.017471246270698695
0.7816075469793351 0.06185491014265434 2.144036625104362 0.010517956025372083
0.8226088677541927 0.05231427272187955 2.2301904578889995 0.004153769637051452
0.6853268731459293 0.05431856175214606 2.348322121916325 0.010032113774311766
0.5953287416117291 0.05456556033891492 2.2725486170764837 0.022218454121738902
0.8379038614245263 0.04218190088188943 2.173850130457053 0.010584888880130773
0.9005123303576428 0.05005329436988594 2.176366406014618 0.10288871544494345
0.32060384675995773 0.050945041732029316 2.388734585950283 0.019293391235582463
0.8404701239245325 0.045125814101731256 2.2379477436600785 0.019977666082924957
0.355281668998052 0.05247545609739693 2.3792934368193657 0.011071049674471149
0.7114619686707565 0.05162449486505926 2.1341228921761934 0.02714396085729936
0.543855298534977 0.053116016759137546 2.1541942327676367 0.025389627457120714
0.3612566246653226 0.05093504522538657 2.162034432090398 0.01451385650900842
0.4828712783117977 0.053391994058280504 2.1893992244145504 0.015731058282153397
0.43625215965669134 0.04976383435115709 2.1870065909612815 0.015127507602159666
0.05007730230952099 0.03982182545045954 2.0793911223705 0.02329243628175668
0.05927965355316898 0.04429493346359569 2.1921431061736874 0.018416714475937315
0.4794544539227251 0.05027968768199969 2.0220133172097206 0.017296757321057257
0.29175662858707885 0.046703655838451825 2.2271272172754077 0.013868125502208574
0.22400585852570118 0.04823080734219935 2.2191621983487866 0.014084681811557193
0.1450239557766114 0.05763847960591462 2.092936762188007 0.0122299191228842
0.008520612239801205 0.04917291679297057 2.433071987046142 0.12959838251178576
0.10978567421683283 0.05372666643758401 2.0342139260660814 0.018057756148586315
0.40705635416962255 0.051794582370128336 2.034471867809362 0.023904863748652243
0.32697119891386545 0.04849448024609102 2.2755634575794708 0.021433790213289682
0.15977605793242097 0.048510631826090736 2.1167074349613633 0.01311412995850703
0.3424722850290903 0.04948545192013989 2.178268371066142 0.019917680969281735
0.36804707127720876 0.0647088299988249 2.120660510683978 0.015156342142424182
0.3775956213861745 0.04929948079821056 2.1894254078180415 0.016652449690814156
0.15367007638926553 0.04606124318838997 2.2962061174329254 0.016205330238260655
0.20877635558545296 0.051793046409321225 2.0491653135703056 0.00656914135613546
0.7663399925244264 0.049797969206681725 2.0740070204332435 0.01792408934605288
0.012511388869003756 0.051852982808629586 2.223299215260652 0.0676706281195127
0.46965562781369863 0.04561045204241094 2.1716619405736135 0.01966947966000407
0.07591070311711755 0.05570996270118934 2.0647122646648857 0.02891726807448577
0.2193644646743716 0.05316293106869788 2.031722187532639 0.010742754756214796
0.6654664721746846 0.0470203930544699 2.0382161642725745 0.02943386818268168
0.3041766411555804 0.04646894210163852 2.0970404727232035 0.01737603529738141
0.46969765868333985 0.04944596540832031 2.110142698475078 0.024964474589865174
0.5326330512956503 0.05132285217739989 2.138828289569897 0.017227063785808683
0.26073218259454095 0.05573115471483154 2.059850016609832 0.020850545785953595
0.5120175470038427 0.052413300465821266 2.18012054085489 0.015169084139873081
0.010098333585515434 0.04951022470939731 2.1221536256788194 0.062709572079363
0.1561777473660025 0.05483067905463139 2.2381210505623854 0.016665374846174932
0.25466113625910336 0.04547322494749395 2.3031186235797048 0.018864578454380887
0.17848123314534847 0.05187343675095417 2.0260091230471233 0.009216032937056516
0.6206101832074092 0.054069020803273256 2.081212031133104 0.010659604967084043
0.1296810516381953 0.04930266792532249 2.2097192437885163 0.018731568695255853
0.4981744756545865 0.050856281790300495 2.0830671302224277 0.012683761928596356
0.022781805740537953 0.053465399253929374 2.2077941859664767 0.09781629544996624
0.7863774883891161 0.04249596907189279 2.0590132964225694 0.015028042608868324
0.4724403326877023 0.04356391838114372 2.1417079796093916 0.018401807500358552
0.5168824015913865 0.052493695146147296 2.1344523980795786 0.01248097512974753
0.3637740503021274 0.057789073478138706 2.193613790303479 0.007777011473230108
0.22339235632858861 0.05166181471683019 2.081335777331314 0.00965793433000913
0.4275668062012468 0.045155777033653956 2.1557802312686145 0.018903452040213705
0.4136745123768063 0.04778549487832985 2.0649116729336603 0.011804797925422715
0.18601698609254863 0.046599603573527694 2.276890145743607 0.01644188421909733
0.196029664966672 0.05778821345810646 2.3494123591755827 0.009030206518620569
0.4167506210769328 0.05024621213018901 2.2206648168270133 0.025148518899367516
0.1247762386149216 0.050236365542080746 2.069950083977514 0.008619590458947444
0.240452637541581 0.046715858664828185 2.017271612940764 0.01179631041057828
0.09668979271535058 0.04933828110252847 2.3659258092352853 0.04247593395999169
0.05717986485809013 0.05752751430502687 2.1476191735606234 0.010618876280306515
0.48673424142370225 0.052862626654640324 2.170973233893817 0.01994332944032789
0.023661920499503608 0.0515871412923148 2.033803675811151 0.053548408257773863
0.08791410816499105 0.05198112733045477 2.236711759533896 0.013134747387121235
0.07872933264026745 0.04806433757166956 2.030931367845977 0.013634900021038185
0.27855086566488685 0.04872652436352207 2.308425261008462 0.02737867648870268
0.23155555097184038 0.0582447557128732 2.3093248348072155 0.021571583636423038
0.21964746724689255 0.051720103720960565 2.314217168320047 0.020577847960554715
0.6965503237111736 0.05868943943685241 2.0538243428536997 0.016643159568147846
0.013797240221109088 0.04601742950675524 2.2611779823788978 0.07432474584566066
0.38329834497274107 0.04683655576891522 2.0165063642747856 0.016322447224165114
0.6064756683939005 0.0428244052527235 2.129786621022529 0.013277237958157153
0.3965857930045075 0.050853947759206215 2.2126723595287587 0.022236789017341094
0.251165466387289 0.050073591247832255 2.186910208244535 0.0059532750015901465
0.05958932705005742 0.04856044361772321 2.1105002785446914 0.027722782778591522
0.00027390177489483835 0.049717001547242116 2.1434731250610537 0.10983841140332352
0.3733673620921128 0.04415086563335179 2.0215730423107936 0.012051194642360038
0.06121824709221811 0.05319855457026762 2.3791663724267518 0.019020851075596156
0.4115867605650629 0.04921127238313291 2.098654842033702 0.011210609286260881
0.23728455513689262 0.04795905608492737 2.114061453071691 0.02271834883701601
0.49791424037639087 0.05488755701006699 2.0582269929932653 0.017029572341619916
0.030920768231206135 0.050863920924715596 2.0911654492091887 0.04304948260937501
0.0030531426854785246 0.05479735136101143 2.2863112688275256 0.09082847597461169
0.1449166478881467 0.051476272727600095 2.234285912771349 0.023556160591639865
0.37309565048661747 0.051595232618857984 2.127360888386511 0.024652090627226446
0.32725350352880167 0.04961631788686139 2.2548304009743805 0.016357022466846255
0.46336891463409907 0.04823086841722225 2.176710723071322 0.01970395917238848
0.13531541547499393 0.05409115723603762 2.0565314677663835 0.0143737101250389
0.3239942792503349 0.04802258562185493 2.1927585756469896 0.011595935996926812
0.3117240957274984 0.04366055915918578 2.0986629625847457 0.017027226474069606
0.4352131131781087 0.04787552869991351 2.008455687141262 0.012542484851803166
0.34516261733458753 0.05280563028860153 2.19135090661432 0.016498610133784685
0.22357963320965024 0.04938895596867862 2.0201608118416496 0.013793180538526137
0.5746277349050708 0.048902660649316344 2.1055986566748905 0.011050568412522126
0.3331974883281666 0.055179527203115517 2.115646720983748 0.025286146704487176
0.18423473581127267 0.041620143031543995 2.2727606147145383 0.014335995616645272
0.25708005887101115 0.050686903027527486 2.022345078190594 0.022142655059317968
0.32126692652550015 0.04627099253586295 2.0238021840128355 0.019942355929168275
0.11641501476663305 0.05455158408837656 2.3313872521577097 0.026075739457442754
0.07688450145696878 0.05100586411570597 2.3100388095508593 0.018409169649524295
0.25463655231675086 0.05663042975302629 2.031014174045489 0.01787101018807347
0.6484177975273999 0.04991573487691481 2.1099866220972805 0.015137016099961197
0.5161705272011886 0.05154234853296801 2.10001543786772 0.010043124531576094
0.13402969579950366 0.04982846251314187 2.3106222879809324 0.01706713470698919
0.5958829981443776 0.04915033507678121 2.0704343050870335 0.019235613105896998
0.6645521972176699 0.0557731358976461 2.0084685051396014 0.018355397815682493
0.06260401788098148 0.05145866318622702 2.3505694432090145 0.023475496200426483
0.20217426954902007 0.049275036577509326 2.08407055552237 0.00620176607423793
0.8450347886395949 0.047721756425887996 2.0331541427639768 0.02411366932752548
0.3179172241187477 0.050058251596581824 2.2209568191914224 0.020260334909522584
0.462073233894451 0.05467577948085689 2.157354536549082 0.033687758760301105
0.021002061543839858 0.04188033691233465 2.121296928263111 0.05905574521877987
0.04306961454869361 0.05706128253262476 2.3227457070565887 0.01665485456710544
0.046675104986394364 0.052666414646753444 2.309135989708576 0.016898253541603077
0.11027448421181955 0.0558692063164848 2.1335015361167784 0.034664364580007344
0.07158278614380231 0.04717020569522026 2.2461155110398545 0.011789579509776816
0.01965806742919021 0.051339127620159186 2.396901283164513 0.060771530998727064
0.40589009001331366 0.05637038532948195 2.046131382461849 0.017895442084258542
0.7638381450887511 0.050824010733934985 2.0210639747850463 0.01437348717212801
0.230764326226941 0.05034318300040705 2.155007591785474 0.010372428244523913
0.18805186414978425 0.04554787149312962 2.2560345132420623 0.01177596490837462
0.3122106517214185 0.04773700695859499 2.020536364500406 0.022812950685303646
0.16480062178193977 0.05138283090081998 2.0477486993777827 0.010021950448106285
0.5753153002502924 0.04982866114588845 2.022753766400039 0.022820471397537952
0.13848653145965342 0.05327156500552014 2.3611296938740325 0.018004399610290718
0.04705416871265479 0.0492575532841069 2.2715039330369353 0.01594667875736706
0.09911691248624607 0.052900072140282625 2.0619253275184093 0.015179955743426989
0.08068078261124548 0.04868980708351894 2.0135317230242378 0.019047753739153916
0.058324015495707204 0.04868402120042308 2.295172646459771 0.013227965577733777
0.18700195151517263 0.052669310259108176 2.132655822561235 0.013387420393117454
0.36270853508533873 0.05041499670681099 2.037980952074081 0.03367458791513999
0.027190721282973507 0.04608073841850535 2.2618401014366625 0.04633318983385777
0.6907083212181919 0.04352145136783677 2.0313517409062043 0.022740210076074935
0.13159077083790527 0.046054983045455355 2.3368023507497395 0.023620949550492522
0.15305799192786979 0.05477284191250334 2.126189664981753 0.014849289837836907
-0.010296976622293843 0.04846378905705456 2.430089052192768 0.12693988732391617
0.39315890499178263 0.04729987142038675 2.1321369894427145 0.022229159121784362
0.10860863269209975 0.05986854411519323 2.1923041925143 0.011386061817640306
0.14307168993566938 0.05709835856543881 2.1319414171872517 0.01622750514666293
0.11869582397749968 0.048996955913539426 2.2595579923412052 0.014699508878418983
0.17235928435877465 0.056566487780607924 2.0690595831258034 0.004400637783809116
0.002699474822794452 0.04152373127124636 2.3404913006473387 0.04965352397583392
0.4320601615079317 0.04967922896651203 2.217459260160648 0.014149075651246353
0.5986647051274966 0.05874052194146079 2.025490087088259 0.026765290792566523
0.02520878067958952 0.05113522203802079 2.140285948280851 0.1485537541786741
0.5890765215307084 0.052165373377834084 2.0588185003215367 0.024835616615849786
0.3643663973439908 0.053208585481694146 2.246510882755991 0.019812199868586348
0.5101008614809384 0.05132140810338625 2.033972043671483 0.012310280707132516
0.2203303622009783 0.049227762157608365 2.0446312143095096 0.010037981014948008
0.5439436710029714 0.05029961593365075 2.0171659790358967 0.010512876872045643
0.21576715896623985 0.050220003925829024 2.270357400465812 0.009532062605900971
0.5600783681043837 0.04876970248246554 2.080747392549782 0.011876840972444779
0.29465824595177664 0.05255256659682422 2.1698784589535935 0.008535909036088717
0.7488013794526446 0.04615083967508624 2.079448772728124 0.007730608078048865
0.4062549468038357 0.058673359233914604 2.2296737824744697 0.019459258909998476
0.12344458640901095 0.05036286421965802 2.2799957225284064 0.017455573531484095
0.06955430585881636 0.0454128584352207 2.210013939603212 0.009853201599825638
0.20174037291183877 0.044282232427612186 2.3004207621141277 0.012309543638166831
0.00420870680916509 0.05485091488834768 2.0339617399215597 0.1057491592933238
0.21759962111689088 0.04799418099716932 2.0981631661018043 0.011697455399774894
0.2775500669028423 0.04996136511881863 2.057788562544639 0.019097937110106964
0.034137193100367655 0.05401455524211389 2.0213149865865856 0.028969506786935044
0.002324991012488331 0.0533797825478216 2.24061744425605 0.09673731600624212
0.4505643585644375 0.06148355696692095 2.103166019876299 0.01535554895152185
0.3488166022936704 0.05438908944211618 2.217079761650801 0.016122997283871943
0.11874937871451938 0.0537442112358293 2.194734098259895 0.015978311812449467
0.6155894159517322 0.05424171058493365 2.120288048080487 0.012622059542515161
0.5232385401875846 0.052243887314310365 2.032207984622844 0.009810558955986409
0.3612425992832195 0.055324205968558346 2.0960835601171537 0.023177647235533134
0.38328349224404556 0.04937838424910439 2.1557534903085647 0.013614990317959394
0.13766564435287015 0.04656988876890907 2.182109761029643 0.020968362995378326
0.5508868233077943 0.049289369032086035 2.0319734939998413 0.011576890080476016
0.6881518931729994 0.05469701984092202 2.044267764847345 0.0232144496716882
0.5815871621259134 0.044590701539225806 2.0302530234070755 0.02460680162902967
0.6958814878830001 0.05310725058530976 2.068595764793535 0.024165672585537663
0.790863222380197 0.053610041640081985 2.0391368474182174 0.021945397464190674
0.033830662478476534 0.04722236144103137 2.3604157649918482 0.022559130769927594
0.39207406655361565 0.053526900470209825 2.1490402499676167 0.018763259675971318
