x y z curv
0.07839424870809036 0.05514799039889812 1.9646657101530245 0.02707572636777366
0.08829347472139057 0.04855423590978643 1.2861319498276225 0.028160258504061505
0.09829230059739258 0.05018934207985137 2.037794454970104 0.02343679338683591
0.0588734774871111 0.05542724825133216 1.8644563030092212 0.10593187680798927
0.08658175815433997 0.056166356955392065 1.5792790916026955 0.01899146022632555
0.09449470378109924 0.05631169440368566 1.402740698576766 0.03740695766125011
0.08565612570554419 0.05159028258939222 1.561528472819871 0.006628369136637987
0.06326877000383192 0.05332355226536665 0.7166937447277907 0.019305082260923916
0.08737285874527567 0.054519194809529305 1.726759251045618 0.01940037372924803
0.08969546431234436 0.05647324544062693 1.6969932039428333 0.027429823474202007
0.07156007398428173 0.057875073780300976 1.214433749738826 0.17771779922521566
0.09854062473171538 0.05632375269570501 2.0509709629100334 0.012963730451172172
0.08948160970087493 0.04777247651562411 1.2205203879273452 0.017858838586516712
0.061252850730752297 0.04538199203098694 2.1078244277400193 0.04005835517496787
0.06720428951268495 0.056439788175086006 1.5111426588662982 0.03181524308966082
0.07597419879145015 0.04977320672206136 1.6617702183781584 0.02835826489405084
0.08672606409157368 0.06045195064735945 1.443409183786671 0.23877862105512432
0.08445442427974707 0.05543420367979995 1.9303581544446302 0.011800102634646684
0.0771658423624423 0.052702063145254587 1.9382446825650195 0.011377950444692074
0.07015593411998812 0.05006444835412514 1.2723833584877018 0.05968105766852415
0.07148290161603768 0.05763968834336143 1.8280172544959903 0.09004718454231013
0.06066145435250831 0.05400182434798499 1.2064943450670709 0.07730743505420996
0.07689038433858199 0.062393136253082626 1.6477759674409889 0.22188796641105427
0.08515927610288866 0.047517263225211555 1.4925208250601478 0.015840270525576433
0.06325412120276616 0.05812303080581464 1.2915474541656988 0.04888272770346668
0.1056214905877207 0.05230916655606145 1.7558254635096633 0.08978420026341735
0.08497049772959325 0.055242609034418355 2.016796816429327 0.034238551903667994
0.10083296831747539 0.051172310922617745 1.8914805711849767 0.017477232632063827
0.06738863196428457 0.0585108710260848 1.2237938796597065 0.19846945554117248
0.06463320975184195 0.05273072507227162 1.0401264246462631 0.054743391138618855
0.10649972850933717 0.05685709697783587 1.709752231246999 0.025529314107767716
0.07883236129705021 0.05156568217092693 1.3228362054461205 0.029559563568722046
0.06377606791022815 0.05965695386660414 0.561478898524736 0.010290020681099446
0.058462570682590344 0.051670219585287745 1.8873241940745924 0.04006935833990064
0.05516770183865176 0.045662260637020446 1.206481374496966 0.08505156093149471
0.08273145941358921 0.0445810310861591 2.065799388484036 0.00725487226306907
0.08853772527897943 0.06027049404447073 1.4488356888059994 0.26204959066729655
0.06193530444615465 0.05702123221746599 1.6178754356920928 0.19703809567045438
0.06831355262307535 0.060533130910729066 0.8516292165895495 0.16930030067570462
0.06260764124757671 0.05854992469226097 1.2247254103792438 0.1965495207400545
0.06621495399207583 0.04471055863008177 0.8149973117069645 0.017309489615683637
0.06504775491447208 0.05798941645211142 1.7289469201979337 0.03093862206383013
0.08870945705296907 0.052308050498137006 1.9069252981307498 0.01476258431495719
0.08223454480354218 0.053413347025844084 2.10220650843285 0.011992903583209336
0.0643556515894288 0.057142424764552564 1.118922015553351 0.02259586775361628
0.05300273269186235 0.05144341088545317 1.1213220084274664 0.030996437752624128
0.07893942367915012 0.06009321582097687 1.7207456778332613 0.12057398311223484
0.07881960429995968 0.054796643184362205 1.7000450331276264 0.03358637344233577
0.0824797394227637 0.05972553017652201 1.7792109397464724 0.02176486845544878
0.06121418128110959 0.05506557231649803 1.3113642570282191 0.05195003003493883
0.09603308163154861 0.05276132878925384 1.6843319892553141 0.028510639883301134
0.08013197934105902 0.05408659350450705 1.4202436469393291 0.027418726687487755
0.058028144670486274 0.05249547388392944 1.6516139551910234 0.03638648765359241
0.10866515764205081 0.0555105229677375 1.880152619993999 0.014214640926139051
0.05415776254602954 0.053007338417046024 1.5672568684159665 0.06607109234172652
0.07076995275180809 0.058849458700427335 1.624024913121238 0.07872461686525384
0.07689739178608788 0.05656614602404068 1.9674186818930326 0.01916995221084811
0.09579304750122232 0.054350797358956204 2.0159450277485007 0.017399336021275337
0.10206830676495154 0.055915255487071464 1.965744474644303 0.01758755921107889
0.10186747568763932 0.048257958828500785 1.6814059192915152 0.021977986111752362
0.0754746939851181 0.054682266089691976 1.0614117650905999 0.02314020266810663
0.08228826468967972 0.05675642382353869 0.9898790999458983 0.042211295307568376
0.09133841997389278 0.049747893054081095 1.7814874530493057 0.024841890540403314
0.052031078489190634 0.05505929144150116 1.8543528577369863 0.026391623632561294
0.0778977726048178 0.06068412756317702 1.4307509180049056 0.12972099387302302
0.09469964737958081 0.04817567885934626 1.7954260608507808 0.02575943922126021
0.08077362608037972 0.054962998253017224 2.0061359732271966 0.03307886557646017
0.062253209170136686 0.051951321756209395 1.243069505320571 0.08560273623765778
0.11869307780938208 0.049044394807592886 2.068721535651098 0.012106205370087024
0.09821356477296292 0.06104641945549546 1.667693267795522 0.07396868369164034
0.08551816559244217 0.0520097137847233 1.9688240001683228 0.019319566900345336
0.06514279808254506 0.053679505077653546 1.5266575146395014 0.014601884087064965
0.07586133179708823 0.055314416801919015 1.862316312136018 0.011725891764101033
0.08475250761152932 0.058383464750838804 2.129093947162357 0.017148391420519448
0.07555171880658564 0.05565857178632629 2.0299289866367634 0.028955257069711863
0.059081216740224436 0.05287681698907346 0.9894572007911401 0.04258348146293559
0.08522048337510309 0.05315737283777822 1.6107592931013168 0.02304457269855653
0.06939687766558499 0.05991430905092993 1.0043377804084652 0.05119882103138241
0.09777005931170728 0.05104177986084287 2.092348927753583 0.012294122898930946
0.06603201512800966 0.039347062205660296 1.1006928764237283 0.07743906031606422
0.07558081198012816 0.053117891636471126 1.7512986016191885 0.03230385567494147
0.0721841751935757 0.05189005133931315 0.6863370001200444 0.06282382154567362
0.09208357469463382 0.04939590821654839 1.855269985281218 0.008599078304777122
0.07032059811989957 0.0602828258840854 1.5679232989192695 0.2353224751800524
0.05589654578275595 0.043215496196584074 1.0848532403265991 0.07118840301596617
0.07258151211410514 0.05222907459859771 1.5537144212580036 0.008204189277344214
0.0797504904783887 0.058133026381132616 1.6355389286634596 0.024243767605609173
0.07617302689873652 0.05332887176193057 0.8740769601440035 0.032079517066312714
0.08872771238921127 0.051566859813362356 2.1063626106352507 0.012704413442126248
0.09960622022535029 0.05288296096112135 1.8343399236978994 0.02004213613221751
0.07292233461932565 0.058188285719783794 0.9757784079862686 0.04893822951541562
0.06319968901030154 0.054670567051393476 0.7003843428705445 0.06596473300922778
0.06057054561614019 0.054435430967459265 1.073301365187215 0.012953366685232018
0.06992696168588573 0.05714386898424871 0.9763316635654365 0.027561032562950283
0.10712629045698878 0.05977354051449265 1.8608116865963862 0.09443962495981448
0.06890701891152845 0.060280208894192576 1.2857082961493425 0.1416961654817826
0.07355609489726574 0.06004347072777778 1.7589725498633368 0.18913809863549155
0.09062472435268593 0.04771397173958808 1.986968684925433 0.009484344334845051
0.06426061967561023 0.05748131244635792 1.1450267591031176 0.04132469567230269
0.0691528000242599 0.05851034412413506 1.6119416500766595 0.07494957368567652
0.10239968027867334 0.05972120160864593 1.8059912738570396 0.09616042826263263
0.056408585894811215 0.05968530480402131 1.783476945529575 0.17290351958333022
0.0655613588943663 0.05492518806317983 0.8386209376875889 0.025086129824723975
0.08251457288093803 0.05515959523351884 1.2396210271281891 0.017671138911143913
0.06399344763361417 0.05251085186152582 2.0054223191469838 0.04552033754003494
0.07307000893917572 0.05428807772421237 1.4841901535998567 0.02264774566963513
0.09153277660377021 0.05953620286274844 1.515131343429055 0.0144383163668529
0.07963668769562844 0.06034615196827426 1.6529769813661634 0.16402437802341585
0.06905599280377044 0.04954221365704205 1.3486054178884017 0.024671762006282533
0.10433104939961954 0.05685762788852975 2.1010584449772356 0.012833821173415985
0.11858662158390933 0.056736663831505246 2.047010946405278 0.07509898312192712
0.07434488489360934 0.05100872712129301 1.4454995675093585 0.024575454803720306
0.06291403139011978 0.05209798823699745 1.2724811160325726 0.05502411502773967
0.055695157494034975 0.057094488621470506 1.5772389936204907 0.07216098920145152
0.07222982566263447 0.05615008463728228 1.1817981939423463 0.0162258470449579
0.09400445028279873 0.05895307789637884 1.269155173018512 0.04859718453734007
0.057003676566786794 0.04967917873893489 1.5583844070687345 0.06791693853443144
0.06372431740377066 0.04683158616780834 0.802089626366816 0.03334983898969135
0.07276315752976083 0.04609691254681808 1.9149966151348334 0.04138493699921774
0.06809890374995067 0.05881163020407792 1.6724147747608387 0.13756316630280235
0.06428392401088856 0.05185120360946158 0.7738865990923443 0.042831588507191674
0.0718523303534885 0.048816831698415324 0.7514402916606975 0.07885527429320634
0.06680267661619281 0.06329428782188862 1.8387510751545515 0.17023167088525876
0.059397862696020494 0.05166196098615402 0.54830136879345 0.03133132709914804
0.08065590248551575 0.05188854478652375 1.6747734335080646 0.03561820378851524
0.103191169714485 0.04934300386723148 1.9752196031374432 0.015886146161584326
0.06667900725456355 0.0642010336191913 1.7783111182937645 0.2609034757355522
0.06019374774609985 0.05213540775019636 1.6613866470086118 0.04378957528042222
0.07092530197067357 0.06069434967159387 1.4088940548354922 0.166738710339964
0.10417002185572752 0.06450089164349194 1.6574074562429508 0.16566581173608827
0.09398064570214848 0.05142935378888874 1.918035818592955 0.014374882209685443
0.08495473494445184 0.05364299414059377 1.3506793375696926 0.019281341090167575
0.0898615682824887 0.05383504668073573 1.7625334078183714 0.019043223081613242
0.09593144874174858 0.05743900139426544 1.9418147103224976 0.1269846962032749
0.06609595511529857 0.04370940387951987 1.388181274297926 0.04999775426831352
0.11410504285619735 0.05634405437060995 1.9050604922129883 0.01779192567283898
0.06537048291648989 0.04875089547435691 2.1205209260514972 0.015272320649229027
0.07254990888109544 0.05255254247265191 0.8297087046902705 0.023686299121627587
0.07412988723521298 0.05489480217442027 1.8860056654232644 0.016119807875952623
0.07817105838100688 0.056074069955431065 1.140888487437799 0.01587724887793711
0.0694436817850303 0.05744224881621064 1.5113461887472874 0.03087761386373616
0.11203702065760163 0.059068962387868365 1.8449407451690338 0.13583942988446185
0.09490051346233692 0.05850357269799352 1.638254444087031 0.01923874413841578
0.08378919279647787 0.06371218636363235 1.7501318537860118 0.29376034267431755
0.05067161991867148 0.05249895617173313 1.7977646128846638 0.06168597444686726
0.07456157084175702 0.05382875346659727 1.0845323933885647 0.03326584788766454
0.07837332663730497 0.058725134654442256 1.823932898923324 0.09803949790356836
0.07876803149935219 0.05454943999387086 1.5297958883584226 0.019655246121478363
0.06753649888125209 0.05453746791254473 1.3345511776765069 0.01740502675313543
0.06607814089557017 0.05588052349018448 1.456547776459056 0.02618185067386387
0.06124435090017584 0.05774666056454604 1.248129990745398 0.05136983717088854
0.06810479770646864 0.057804739321878885 1.514244363048066 0.030484460743087458
0.06816075202989685 0.04910325218677042 0.5995640323158454 0.1013397896651701
0.06982770992158835 0.05479218884497763 1.4673541529794085 0.02502538043072483
0.06900454963151696 0.051781058712241375 1.9331462238568302 0.011744534653857209
0.09429362178487623 0.056809796448728016 1.8249324960250262 0.0880413586388461
0.06813383987828578 0.05838034722821686 0.9355699627677598 0.1982832625065205
0.07579837709673734 0.05333937623122232 1.538740925561483 0.015275324207020229
0.07511481234817992 0.05766348835884788 1.5844305550818412 0.015496681597602537
0.06781646040554244 0.05525678636253583 2.046310420252348 0.17613747619045805
0.09566039039152968 0.0589279642221148 1.9025937764104037 0.10231943389979263
0.0799601071064438 0.05292099843424614 1.0717936378442012 0.020818882350971717
0.09770183524542862 0.05347701629632123 2.0097824372023734 0.02071051969439452
0.07784274143600024 0.05252654360098803 1.17182229686091 0.011743619035404421
0.07196427031100999 0.05644035430347147 1.982480949814043 0.14476269464024447
0.10285791302681178 0.0577069375302445 1.9425659741420638 0.1472577939890653
0.07756077125266402 0.05303182904757103 1.3768968568191977 0.027188511949735254
0.07617439456795835 0.05512049441255959 1.0958681533246906 0.03600801193429032
0.08032200298026215 0.04881803482513688 1.457453792298621 0.0186613625344342
0.11180529759057212 0.056507792100969935 2.050670757522298 0.06964504969665214
0.20425822139846586 0.05671813510718606 0.06773089981052206 0.030008362401164904
0.29905791979773183 0.055753310236818045 0.0662348798935586 0.03207412157929616
0.3289859263746158 0.04540118638724304 0.04772619385394606 0.014193632535893643
0.3569487655367629 0.05761020421658698 0.08282406873768794 0.08181878218412307
0.2184926020942617 0.047592181091681236 0.07351532318772312 0.010310323911555525
0.3607403264743183 0.05005496016909692 0.04646338843725839 0.018833537501959048
0.45837629765243 0.05717610081546361 0.07849451063652466 0.0787743355162992
0.45629269932800537 0.060969408750322834 0.048248545564221146 0.019196465923392837
0.44147478881351215 0.05554432784664857 0.06806811090188271 0.01983392123043172
0.12757884719566417 0.05665756729095548 0.08033366030666717 0.015218987999843506
0.3110521686186548 0.046899242925744586 0.06223363394530416 0.029211562068677976
0.48166746190166665 0.052897075665699754 0.05711962155344538 0.014392421386924517
0.2271999663636772 0.057776274371535374 0.04849042375770862 0.014608681390366392
0.4033971120576247 0.05178256614627142 0.06228252533734938 0.022123558373352864
0.4310395715455516 0.054732939568817106 0.0602055110333692 0.02543498666144019
0.3863343031520672 0.049630342103221925 0.0533570856255835 0.01310332173386359
0.21084197777971053 0.049643332909349386 0.06173927584058003 0.019535283705937625
0.48007701202731456 0.05711617503930882 0.029138900639701513 0.016028543603363657
0.2761047618565375 0.053428024248385546 0.07038552402695789 0.02209176127569459
0.46737921956158374 0.05999048857980161 0.05915290102956047 0.13402825873617713
0.17317557716704307 0.05193206304166327 0.06567887126827558 0.0235382486223576
0.4583627043629287 0.050268141872018265 0.03515515619412665 0.024861103853483314
0.2884228142295727 0.04902721896968767 0.07053770857313524 0.023051927661982607
0.25406096884835255 0.05348857240423018 0.05850266850013978 0.016747443029742758
0.4848801112774266 0.055187467394073805 0.04982362305742022 0.014573503446567784
0.4348336810332902 0.04288154234877283 0.055745924577568905 0.008865290093812065
0.3780874360509325 0.05482767182194107 0.07693061582009901 0.06223950963807483
0.3479261922610535 0.05319026905837847 0.04154560285955475 0.019847785123286117
0.34586607321309143 0.05270255137524455 0.05369239489541304 0.016467553495745628
0.265646866424937 0.04909747084945796 0.05659628011454704 0.010514491047388776
0.3290399323322761 0.056224602269329106 0.07416611778874507 0.02262668627179448
0.4050070015584942 0.0511216372624902 0.04468608930242147 0.03304570839040572
0.510105678997323 0.04942586136563987 0.01223073459943198 0.02465919289864186
0.49541176907625917 0.04395779940155966 0.021991188794769936 0.009902720841214803
0.3690882033659781 0.05932979692478664 0.05074881886067288 0.009322583791244721
0.16926336024639274 0.046952254904896046 0.07399003259057763 0.015073524196926195
0.45657675140534015 0.05241380139819542 0.04036272314451145 0.016861233726249553
0.5235207070466309 0.05034970893642447 0.027026014617047716 0.017471359927585892
0.4203864004055295 0.06001955119134708 0.07067911572258674 0.08875329993757677
0.42146985682735977 0.05104760797993657 0.03757611771378804 0.024208876638354068
0.34636742835915263 0.06148172811690049 0.06916275676533586 0.019739919159662028
0.3177854620471414 0.04938057512295141 0.05875519933127717 0.028201145952530822
0.3208998207619652 0.051529507857515144 0.034098570178159114 0.008331867817459905
0.29252020867288003 0.055278141217167835 0.035321445254148556 0.006943390016475673
0.16289939844271265 0.047450092307304376 0.04537356645725321 0.022107001124568926
0.08632500492862732 0.057482210164713554 0.034248955695941816 0.20584805754539226
0.41165007430705874 0.05933429230033886 0.013807901849782414 0.02226315487225239
0.14235511314978513 0.05730266926659424 0.061335579198064163 0.016063076216684374
0.47005861145809397 0.05654774067597247 0.017950649879115797 0.02269206296867898
0.4579839369102723 0.056681289315561934 0.013813379888935497 0.03504202663091902
0.27723428013612145 0.05052609382247923 0.01170450150640496 0.006551612945377531
0.24560174916823843 0.052512573590220615 0.02324516336392284 0.00824527903175354
0.21982849379516997 0.053697968433659385 0.04402422004003956 0.013482830806665022
0.2467733871368004 0.0507658574536552 -0.0011369324160845004 0.009427387395779823
0.29270173996535254 0.05272442949560411 0.044166882194186366 0.012571607832533598
0.2380263818313548 0.05436967851625126 0.027024331683253036 0.0076550121313014195
0.1214871710089787 0.05444274003463085 0.03366027420480536 0.017130227147235926
0.1909054017386295 0.05229143030854409 0.04153502618543847 0.016321541208596878
0.3668788527614473 0.051744678541431374 0.026849192316810527 0.03207763464687882
0.23137685680633394 0.0568846857192422 0.008165712648938407 0.012448567140242225
0.17970518634206217 0.05736147309660265 0.0578002744683705 0.029893144127354596
0.14560599805246124 0.046209611862368875 0.027524979542450877 0.01831420799579755
0.2688055619338005 0.05580552980428678 0.025125795004152775 0.008771352595260266
0.3788085271830032 0.045597641315874904 0.030773984645303162 0.020019517255736252
0.09690875512679 0.055543104291025575 0.03394744844410948 0.011505356200917376
0.1730739570601171 0.050679879172300886 0.06017122169231373 0.023457044763422696
0.24474319561046995 0.055774220241252434 0.04449679491278885 0.01151010037279732
0.14349088500099674 0.058205891579008566 0.053874267699190286 0.11326674303428104
0.10619950800874892 0.058249335208006355 0.024038528611123947 0.015039597778262281
0.07390387753693518 0.051666148963383854 0.014657048548772188 0.01023877440292802
0.47243999798012937 0.054388869461813164 0.005317017144050563 0.011538180448061883
0.19858375471341239 0.04867242425343126 0.010498829151655495 0.0021522020766565992
0.2946746045668611 0.056758532688254995 0.007348581999937968 0.006195452938924311
0.28215208333654945 0.05411997243388121 0.04552246893232485 0.012356345873149498
0.4136475821564496 0.05759666484388111 0.018461739766272814 0.022218318978412525
0.3891044963249899 0.053068616355565756 0.021804120347872304 0.04114695530529448
0.21828624357914633 0.056591733207163306 0.02225460290396306 0.01072906323350397
0.1174021000681654 0.05500621667180082 0.01740864902018926 0.00959111339099914
0.3248999821209698 0.05197636319342543 0.015204657949593914 0.0101337167132647
0.258325294193449 0.058550992873281874 0.018684905511737543 0.008519619463695357
0.16741325776440022 0.06053014758724322 0.00548394640953526 0.0520484689573982
0.3589041810407241 0.04687637305788031 0.012383603244970384 0.008294088057076647
0.42425681669617166 0.05112649966669156 0.01921210657548857 0.004631654517719225
0.09351186027298009 0.05734232966015385 0.013178236460166031 0.020636690064853407
0.1331317763966594 0.055675345073433136 0.04407134686589906 0.01598319030778819
0.10455930501220165 0.05429273179797304 0.05523861391166028 0.014901835225838057
0.17918436768080154 0.055380560406548984 0.00876262207603666 0.026290556374467446
0.31319402094006893 0.0527969187873833 0.016145219206663123 0.009226338828937846
0.26170029400800554 0.05644441724085063 0.03739299318081419 0.007108287406228642
0.12313183024230291 0.046666108806549526 0.05604468340327665 0.016077668671969244
0.152491668389189 0.05050598133270286 0.01928714848856948 0.02210164562696443
0.1703626656486287 0.05286579936428017 0.037874085555611545 0.021922627467783933
0.5420087767947237 0.054470499689667655 2.0864596955182826 0.019776835501336423
0.5255899502837013 0.051556488566334074 1.0215066001231146 0.01994955402934736
0.5158916284880699 0.05100733790867236 1.7817041370780493 0.017840642897966705
0.503716350713 0.054196923653050726 1.6540018790448168 0.01847586757526438
0.5086755464163396 0.049813713238487815 1.8134404312828734 0.025139800009263427
0.5285690493075555 0.05067745468524747 2.0410347691731614 0.020927272286987916
0.5352848448341913 0.056466895665550465 0.8847382307935543 0.018007257826376036
0.5290753306752847 0.05509316801403142 1.599045691056404 0.018038289671654342
0.5028535192994554 0.055818863090751514 1.7837272094959737 0.14865462849614197
0.5163372755756083 0.05359931894871206 1.6848366058147963 0.02210208473986681
0.5123933493295566 0.05433073672815513 1.1107604321407505 0.01702565783472075
0.47832732004925926 0.057182385136371014 1.999143974032553 0.17040929501266674
0.5490063850800486 0.052684297764058356 0.2202418776395258 0.01783447420782075
0.5330765248406784 0.05736125633879233 1.805459373530234 0.06867000892276683
0.5103360234580718 0.059587830302829214 1.4718522159034333 0.13891793856378437
0.533936557890517 0.06208480581721384 1.3645824039357217 0.2773565681416778
0.5317135950218443 0.05091446297206949 0.6404343694163552 0.015330920057164578
0.5222676217068499 0.056987728526631344 1.496033574225242 0.012901002125898321
0.5335792128447306 0.05388330593820196 2.0745941478625953 0.013954646764527918
0.499996035079146 0.04805435153102769 1.4485433193437247 0.01981783609554194
0.5011849796466966 0.0594839740460367 2.0285559173184136 0.17683307054501934
0.49126883546859645 0.05376464422436905 1.7315306712073275 0.034681459553658624
0.5473441358098743 0.056527086667682504 1.7749373828504669 0.030677092152960963
0.48840835111900893 0.04200444331645298 1.9378043440862576 0.006010366818973383
0.5144264397646131 0.06127389727870554 1.7084909054114688 0.10312395605000325
0.5123919853153066 0.056846795136578525 1.4984322242650598 0.08535745556852699
0.5368303484683796 0.05148884622114445 1.0085196836163068 0.01461206192749857
0.49328305663963673 0.04986029277496436 1.8132788708287961 0.021518192911418384
0.5149195044990182 0.04988598248471863 2.041915878525141 0.009433518992362569
0.50934038628551 0.06087014078921385 1.7167871364226743 0.025147414372053045
0.5280191557931998 0.05400708917043058 1.4890105870973704 0.011233524628623912
0.5064357470459592 0.051514113039823985 1.4152834138570825 0.0282607829497096
0.5202832350822186 0.05445034451099488 1.3340845400102754 0.01875912250257176
0.5428244287475708 0.052815731037442665 0.554941856180234 0.00978196999607893
0.5299582926530361 0.05295193137518741 1.1435343416885784 0.02775044135898536
0.5152955377571079 0.048888817613249466 2.1041599572857774 0.015361715278542375
0.5267083400113446 0.0565723570086349 0.7770630640390948 0.13150170836586395
0.5404551425422219 0.058254546618058636 1.069501910265335 0.10099078265187632
0.5289210332569161 0.057023954164065624 1.7077791440450283 0.017675581410898655
0.5366381062456341 0.05592293475583898 1.093281631690805 0.017037328110901986
0.523410070319923 0.05758642828788177 0.8049009141038874 0.0632697187673906
0.5075458698907694 0.05179708387573605 1.5851858449008014 0.02379541352820131
0.5464869798426211 0.05796750417682323 1.2965592763312395 0.036472391579977635
0.5232918636602578 0.05619688137459456 1.3699356950557393 0.10964090587849036
0.491645876559427 0.055784598137222266 1.8900085101439112 0.01750940172138907
0.47667605212335934 0.05789076667211114 2.061948079870893 0.026060636380139904
0.546441291701388 0.04530092579888242 1.911080550582467 0.008165296778370771
0.5361984616975101 0.05181154884342175 0.3935038763367426 0.01037096467303358
0.5463785861078074 0.04973499230768887 1.2739653210359194 0.016722815491325475
0.5092392216003768 0.043929580198963675 1.5604269281662482 0.022152799706774976
0.5068514027312321 0.058815018229558175 1.2607035880765343 0.02912749643688873
0.54580971579674 0.050274707962795304 1.1391270704888399 0.049096704756672584
0.5174819676469083 0.051711795624524395 1.1833013456366641 0.03906455502061362
0.49545721903053563 0.054402381595350296 1.8312313589405884 0.022193995951930504
0.5367718723466196 0.059178133957886736 1.765695375193895 0.1467024287850261
0.529641309891987 0.05427991888797208 1.9160631836980542 0.007093461042597931
0.5278678089069634 0.05378873810289586 2.118287797167581 0.026073890504570662
0.5368025546022409 0.05498712910832157 0.7709608070493276 0.07520538361786946
0.5252640315660247 0.05541520649528068 1.649932286583183 0.012682316665713317
0.5101545897176136 0.05433852608046016 1.4574755429625001 0.021174147788435835
0.5088944673637955 0.055003020963674515 1.1224629270683906 0.014300545438372005
0.5065136136313947 0.04706320896524819 1.3851251982610158 0.02085345598615861
0.5176952078581069 0.05491470256946743 0.9434301607889309 0.020488578529048136
0.5413230454183686 0.05739168166100568 0.7556684641181033 0.06687503137868733
0.5153184618096341 0.05268292253565299 1.4800159944863829 0.01977653724884227
0.5400796095316721 0.05789803519122122 1.837474292519564 0.018592383314797747
0.5409778388742632 0.055395013990394246 1.9539681172474295 0.01710182534046802
0.5481444756824124 0.05397211082662829 0.8285843080892736 0.018140066649068833
0.5029128359572663 0.050679716737187686 1.8332482445137643 0.023182574083044975
0.5156494949722347 0.055729698495897075 1.9209068550305304 0.01679435574007447
0.5243970057974771 0.0505628953612605 1.3956064996176838 0.021034890859873805
0.5443202808591233 0.05561611016291549 1.4114390447788308 0.11901384303773337
0.5312746443230923 0.05057381918983818 1.2501776862912344 0.031120018653145703
0.49814328494208804 0.06607373633229224 1.8742432583047586 0.23720738294029067
0.5307528051751316 0.05406854217383872 1.8954054999699272 0.014153187826809018
0.529015135155425 0.05243567496476831 1.1678818881906554 0.039774011022702324
0.522708351358785 0.04986321821538122 0.8711620271946883 0.011689221899663597
0.5196771818522888 0.05353747983565335 1.079518315206902 0.0200677507496712
0.5207821460239255 0.053038958283206476 2.008040180555108 0.013543327185006367
0.5105014204646222 0.05089746773717871 1.541766623426876 0.027111670001206522
0.5415844746301879 0.05639326641825444 0.6716468220042477 0.033996575633713305
0.5367544829872644 0.05943654781293328 0.8990638757824625 0.20989237100260674
0.5125667038053278 0.05316089123218164 1.8894574216223303 0.02202317659435036
0.5243291229369966 0.05175678101103196 1.6149123277849766 0.01814840935042726
0.53061965781087 0.04620790453518378 0.917728024529608 0.017590304207481283
0.5261058595081138 0.04756170863696516 1.594806575951129 0.018510422223620968
0.5513409852334008 0.051055759327030374 1.0764920831837854 0.013423660259239073
0.5179655907931529 0.04890558321489982 1.8405268603574028 0.03224918255373261
0.5359031860963188 0.05534256018413162 1.3465952718184149 0.015973614150542367
0.5250658030565867 0.05170742840170014 1.546778013978415 0.014039292374246589
0.5215623168105606 0.056885786113374734 0.7874131928186312 0.10820349094898421
0.5356924357003835 0.04913121765344736 1.4339173421084852 0.019627529029096816
0.5427285220906061 0.05363771539012026 1.8988342318418125 0.013085826218243082
0.5137448766861912 0.05728353961891211 2.0667648506266487 0.01176790790093133
0.5351814273647062 0.057592846844522115 1.4686665624116466 0.18052752573589395
0.5254009430946618 0.0592471841891749 1.356100816093704 0.1743396733489337
0.521132408755445 0.053930246295841935 2.021219542502411 0.017842472166702972
0.5225486959222334 0.04764411378069384 0.8651887522527169 0.010029150098847785
0.534029310965613 0.04439461889208758 0.6236255856221782 0.014682769313349837
0.527668974989803 0.04948521858888425 0.9467074663538699 0.020179657930602824
0.5445812970971092 0.06045188970067699 0.967896309634136 0.17645296309272843
0.5070923593125818 0.052483862395992 1.8867351058515995 0.02050170758785745
0.5297398088621379 0.05457733092420892 0.552175016317221 0.01951557706317109
0.5423943183811949 0.05089746840861949 2.0389741419229885 0.019480294785244743
0.49989003559454326 0.04926260210688139 1.4868770182976945 0.016454594920444068
0.5454706327533426 0.06199836354780026 1.8323273374890279 0.22747166918445905
0.5050575705966006 0.051196818108302504 1.976125297898 0.016048269907757238
0.5233672960277885 0.05714180807106351 0.9370695021472382 0.02144222339277504
0.5233766963239663 0.04948262378178728 1.9021125170678923 0.013821024107297502
0.5330593752858532 0.04847184536474496 2.132863671306157 0.04903149494900026
0.5439763866785436 0.05172158270692651 1.584449415262845 0.018434626945178605
0.5301121152601023 0.05590015051979023 1.1129085790400697 0.013551998644909066
0.526460114208642 0.05843100052584964 1.0578742711663047 0.022450786314373708
0.535243144243467 0.0603071900381462 1.232571660465708 0.12156177349869234
0.5064929194321662 0.052101821131163996 1.8090243704430327 0.020261363466852755
0.512932650315522 0.05159631078014299 1.225068023974825 0.03232935989745025
0.5419389181402273 0.06235872155488862 1.4004626681727397 0.17665266461864734
0.5319188983643173 0.05793727469391211 1.2651543042307494 0.019422619560428313
0.5167258048056776 0.05332207234358399 1.9662534772205538 0.012323476543426038
0.5419423995413123 0.053313735577403536 0.8057743575916513 0.006869691471115531
0.5067786024452058 0.05150749604528851 1.9798479935720525 0.016070762595711954
0.5045836805756938 0.04800910577096131 1.1630154696620205 0.0167232512742884
0.537464379614567 0.05618596051842245 1.9380053608039716 0.01458880570991699
0.550301471976371 0.04913465126794946 0.3558095524629416 0.011665224587722327
0.5263085537792296 0.054524963632739475 1.614223667273778 0.01893604710141107
0.5393838599627306 0.06054265070768277 1.1733021063143447 0.03226958561904168
0.5182589890404738 0.04188029959902415 1.4183499361551815 0.01528487794487539
0.4940191262322849 0.05042418149217162 1.5835326536827583 0.0262537985468395
0.5281267567227732 0.05793033619403466 1.0724328481467094 0.024915921875448707
0.5250381683459077 0.05211660819381464 1.5370424638636915 0.009742327504843688
0.5407696290800401 0.059870234990272185 2.1037255275932334 0.09597557775747771
0.4903766684537934 0.05703188678083095 2.02539840659822 0.07555185449613212
0.5393387950236322 0.051654113253332266 1.6326737368449562 0.01492448614982375
0.5094903988605752 0.058966010373734216 1.6726597153588962 0.09315901613051411
0.5216089613659498 0.05394605258024818 1.7438796296038814 0.018253456645854992
0.49313963804034483 0.042117816671916546 1.5703691954184438 0.02441856218153026
0.5459183876327713 0.05344107050168492 1.991902371301183 0.023230730019491982
0.5346586374667793 0.05211850010716139 0.26434542040598275 0.011301685273209107
0.5301306138895382 0.04547128131419522 1.8770865938896049 0.017262516064951845
0.537102811111187 0.061705002222186375 1.0754902658288954 0.17289365101595341
0.4915261758032652 0.05386684672272757 1.6379797761315589 0.027954681810044537
0.4951112843913728 0.05306493745778289 1.4373261026719388 0.02184976723817816
0.5444638125683224 0.05569179427714279 0.5339450868900174 0.011996870631230384
0.5374639879994146 0.05667844385332688 1.7469071242593595 0.14908752870080483
0.5283208530381798 0.05343220767405864 0.6018179106803038 0.017490779770064496
0.5119021836290816 0.05668550010238225 1.5156669611449445 0.086593113632491
0.5427730571597236 0.052676633979727404 1.5122098607578938 0.00792956057514749
0.5356388806624509 0.05631900370820976 2.057656445867334 0.021853573125837335
0.5026003261645863 0.04753810684724209 1.356410405910075 0.012559658607681549
0.5257547613916876 0.05349167005052707 1.434719168637325 0.0190789501996867
0.5400326836588331 0.059748417410073966 0.9445088646129053 0.07924439752093115
0.5261896624937301 0.05265138329851986 0.9692789586965691 0.011013894654360866
0.5351673949866139 0.05042790267760466 1.2241891501809248 0.02693370499543084
0.5083001822101848 0.055073524952406284 1.8630763523157068 0.021092704715807212
0.4826656086923061 0.05559511524470163 2.061021618761356 0.023376319820140566
0.49720248331151956 0.0636512333040808 1.4609827606880357 0.24468173198727014
0.5186460553932141 0.05676931270665095 1.404068681331862 0.022711169140438664
0.5524310530274389 0.05207358807761064 1.6967790523800617 0.014750537725682498
0.48563682094950256 0.05539732293118343 1.864167006935066 0.021266008507020845
0.48336510024358914 0.05506701478552456 1.913537008235449 0.02994601317940351
0.5390974834009178 0.04982622102194392 2.1391801713167196 0.03485059054435206
0.5262535915919945 0.05874716910773239 1.7306154401143394 0.030603052210108773
0.5135085570499296 0.05868105915994659 1.4896547492057683 0.01191749455580216
0.4852910278035136 0.049950731656564114 1.76678355955527 0.029194470855467412
0.5053605743936549 0.0494710846225253 1.8913352782492612 0.017025324978374737
0.5370150488950816 0.06285394380916716 1.8104351137319716 0.22650605699840962
0.5081984412040644 0.056933033690307014 1.7232965721926674 0.028799263218325828
0.5358424906910484 0.04607716683004 0.30733449588250855 0.022777256373504914
0.5398086527140626 0.052416917264458254 0.2584677071966627 0.022146644672717444
0.5015925690755701 0.057044808820931464 2.0049642458600325 0.1035441990655689
0.5404429521685274 0.05186980008228855 0.8142191326823698 0.01397369233366043
0.5288600222720055 0.049376034155149684 1.7682620502630506 0.030486596257730727
0.5404599199408732 0.05571246545274508 0.7433022282982452 0.01757414379136834
0.5106963750684806 0.043508060604610765 1.0502407061826282 0.011151867369277767
0.5476145743729897 0.04905336151175579 1.6562281535480379 0.026733785006741506
0.4948994402713262 0.04828049978758138 1.6648495603464584 0.03214493369018272
0.4929758288680708 0.04687593578978051 2.010785350538907 0.013478355784770525
0.5367454456465611 0.062261068232794474 1.9771503167896618 0.11777959878574702
0.538642093696069 0.05632505206917545 0.721612969716925 0.018003041077713725
0.5174093501462348 0.04814074366665706 1.1446786120757926 0.016237396406305397
0.5145221477290068 0.05554586429019777 1.25626138983778 0.03401839056516621
0.5148260421295535 0.053547669886909934 1.6039444674226935 0.014308778270191908
0.525154467658885 0.05248007037556691 0.7678734497135061 0.0824258250451737
0.5196020066647814 0.049838717472816305 1.030527265420274 0.02336774393192975
0.523627424882584 0.05829861771707155 1.3243360901633154 0.033250119613429094
0.5390439258510864 0.058076800427365606 1.9955845768017455 0.08667225223697168
0.49453259200529776 0.050117790236241376 2.104374551014476 0.02094117750444264
0.5144732984610334 0.05888949967303879 1.1951534040402219 0.028123328060966526
0.5228083059577462 0.058764012359656996 1.1062073013749092 0.016846971248144837
0.5353733720113284 0.05180788361981908 2.0158772992522436 0.015378526101460694
0.5305683118480923 0.05395375282527427 0.9619352504331256 0.013877785574953
0.522485645025205 0.05826810637801661 1.9953377490645863 0.014429590282022677
0.5220804144530733 0.05585358072391633 1.2331739965899564 0.0321051471326472
0.5045609749988004 0.05414597942264108 1.7461097956207725 0.015827434438292636
0.5310974967516502 0.052867461973833005 0.8259356649084163 0.01475674619497807
0.5256041964304402 0.0630352469929809 0.7496520791161307 0.1620669287477978
0.49014228845188174 0.05270666252100643 2.0632480300042717 0.020189732724283888
0.5359348018695397 0.05016740574211451 1.4487161506802886 0.01697453191478814
0.5129531042133658 0.0540140933089405 1.63678909408741 0.08107844685678875
0.49865578501756364 0.05399118972009886 1.2451896075116822 0.03322491987563148
0.510449308764424 0.051147189756058746 2.0538647368070535 0.009159006237587482
0.5186133821190136 0.051328529411846006 1.6718078546076212 0.021664755095025492
0.5051981989759947 0.05800057059247217 1.7240884820891036 0.028583157320554498
0.5209419863316224 0.04745258668032218 2.1198512747912903 0.035115048302434226
0.5078955296244297 0.056306669908793 2.0727374637159293 0.015769212406613258
0.5269236583130433 0.05840829849582098 1.0937030230764593 0.013531994821238513
0.49794111161283217 0.05066230084382062 1.8012141773073795 0.023423531966392075
0.5268246159316 0.05448583076373152 1.0413206734739784 0.017902252789497395
0.5278013448222262 0.06361115004175318 2.0978914066449676 0.19550140556482515
0.49868950756183306 0.05858837922108052 1.738907337968159 0.03536041291080923
0.5368964706987629 0.049199567244860826 1.6719099352562266 0.022244500094734866
0.4920911230606281 0.05562822968754819 1.9235433341478778 0.02327627824211151
0.5169701769956939 0.05195213054000674 1.8357122346592383 0.029180963602860172
0.5491509879629694 0.04780272752326461 0.9120141277235247 0.01747061903011508
0.5293801635394146 0.05519432503138335 1.5218366260675749 0.006480937625835676
0.540875363756484 0.05810168530188219 0.6797613953611514 0.027849573684520557
0.4974076545178663 0.05529097406196986 1.9030974878126519 0.026316213771897266
0.48308373838964347 0.057192466786424874 1.952797829499376 0.11200672313908655
0.5380556167606168 0.05876100862595268 0.7888804748546716 0.27707258482265523
0.5294182824771907 0.0523029349826175 1.3394201457907315 0.015084601744359867
0.5476939318259983 0.0486765286261695 0.17295804851981114 0.009737383178504776
0.5383789944328377 0.0574024078365984 1.5612612790133364 0.019137764423196743
0.5241227621441118 0.053419059718445364 1.8392069139309974 0.03688412456654588
0.48538545476557093 0.05008146064682686 1.9711099773081375 0.013275184102009258
0.5403900156876688 0.05430510553505525 1.0518050794793596 0.027380626749711857
0.5116509573078958 0.04961745251719841 1.4454598424348102 0.01847977681777119
0.5426764319907426 0.05467610720052843 0.8744475082045124 0.01952674421020184
0.5468425128078431 0.057215809381917886 1.1914296346996573 0.038841062377305106
0.5219620089140908 0.04112789742851587 1.2831509827337388 0.07342389856385914
0.5361807183325948 0.046463916485574575 1.1203272652248555 0.009952553570105478
0.550328932920194 0.05872738998256175 1.415181062686459 0.1431867961169832
0.5163172802810478 0.061321491113676574 1.8015014964759284 0.09392496214878444
0.5029735022477947 0.05707812920802879 2.003252679402263 0.08885071999083789
0.5199498187655235 0.05931279715058481 1.576989290365909 0.016989082733667078
0.5136184836725242 0.051291111399992234 1.3633744542745347 0.01384418860798163
0.5199379932540964 0.053199576727788786 0.8388013184182873 0.01596895271456172
0.5462540292216763 0.05804709746790303 2.1099149908089667 0.015788284963323546
0.5360958068638882 0.05533230727469474 0.9254870061040321 0.0948650709296177
0.5337354590555161 0.05252300440926127 0.31737210825779333 0.02278042860097386
0.502237884781475 0.04370163633181583 1.6889021939831987 0.017534167968550035
0.5365034743571777 0.05900606790193851 1.867311883607831 0.022129512534496527
0.5421827480409597 0.054485220930728155 1.9392424846027896 0.017104189064083834
0.519893377200083 0.04920846791567255 1.6953787450029254 0.01972188083681054
0.5369151436852752 0.05929602332472615 1.3686279622791582 0.16581853972993463
0.538230407865916 0.05135000267322433 1.3210065857551936 0.03182098161480818
0.5148387255134572 0.053354381642085925 1.6220684873888533 0.012603108230490458
0.5325492949079506 0.06645608823366651 1.7867837808384452 0.21028041516925633
0.5259005996685481 0.054548306588050106 0.9007905231455492 0.019276891425240833
0.5154122201939548 0.0630309507665008 1.247790302428431 0.2196552467113974
0.5162436652086394 0.047225842690295915 1.7532069620091175 0.011501136608913725
0.5267894130808162 0.05622275757545642 0.7740490709547897 0.14057476158745943
0.5067675555932705 0.06458212389670277 1.1976089935638454 0.2439574237528728
0.5029018960801597 0.05321668540160705 1.8999188999663426 0.020269838356953666
0.5277974564849426 0.05912918855274455 1.6301379430193104 0.09355352860756586
0.5097312923879614 0.053452344299298876 1.823554830016129 0.029993983638655984
0.5361853522837904 0.05595370772263366 1.631072353102014 0.01754052275489886
0.5285412423811887 0.05709707905852201 1.4617428156489398 0.09771224658083028
0.4912356240468476 0.05212208965740667 2.077701309436784 0.012055555953296285
0.5132204155330123 0.05869855881430697 1.209040184702718 0.03163115746393109
0.5059900767127208 0.05456711627640385 1.516417034995455 0.010853221093676096
0.5261681694754421 0.05568769262919131 2.0676854024425033 0.011830263163346082
0.527971336283058 0.0419334333330259 1.1989429225342094 0.02570001064287785
0.5147005810861186 0.04559381791918112 1.1558505877332612 0.018702788265116708
0.5320447239997613 0.05728855515713482 1.714839812648169 0.018344913611517133
0.5271677070106069 0.054463370487473566 0.8420266817943924 0.013622112836059356
0.49548796792155236 0.05267936360970259 2.0357691069487625 0.012992942214214799
0.5034789118851803 0.05720340107022693 1.5886758439590558 0.0245252315165107
0.4979960163517276 0.05307188625176406 1.545170836577592 0.024006371400848357
0.5340251665488559 0.053529033196538935 1.5200780213749259 0.006693573022267103
0.49422458187729335 0.053854123886120625 2.001428618776789 0.019715400335718572
0.4750887123887922 0.048178073698235256 2.087599753951007 0.009916579035120988
0.533046532616667 0.059026492058710335 1.5015055928276737 0.1795842314248728
0.5013988747225484 0.053249900285409164 1.753778598214762 0.027814292931578125
0.5256066183706373 0.055073206058343586 1.9467251186514667 0.017208410834894432
0.5099088693604685 0.05800008677862519 1.3279591755043458 0.017478496778345173
0.5097909953661736 0.05825904991556854 1.6179288367842601 0.12970644075702822
0.5315857714775474 0.05019253750146718 1.2865260967691883 0.0658031175027954
0.5327256005940192 0.057717041200410595 1.3783083237699936 0.018070459632387643
0.5477808197802144 0.06241298994004851 0.8455152181191181 0.1892963457841763
0.522586703742998 0.046970904105616156 1.8501609224351057 0.04269498076952073
0.5215972451803833 0.05019124373822279 1.9681286852434667 0.009819136072411269
0.5347926484556272 0.05786941901211784 0.9346915222594084 0.025021557638222742
0.5302616378987192 0.04618867806099973 0.5169893477731478 0.026940589140794204
0.531832353362877 0.05081691139047246 0.5925216434711273 0.014906836391894406
0.5083571822428268 0.054325113230197876 1.9559915185639067 0.017462968526228344
0.5072845497280875 0.05919873994760956 1.064653399180396 0.1975107476581478
0.49643327046714475 0.05465448712640813 1.6887121535625236 0.01999935550436593
0.5297877406641098 0.05688363191595748 1.8492577016401543 0.029949409248557938
0.5014519600692782 0.05299765046430581 1.6294542750869196 0.015383741235024465
0.5172024419104467 0.06033546799331335 1.0928384959253947 0.10109296045861477
0.5345672201283646 0.054065429015140956 1.9671404186721644 0.014573644845246272
0.5250613813772641 0.05317611293439469 1.1298316704084745 0.010409654558501708
0.5184566381857666 0.04880950823748882 1.7655076240410112 0.026280070208378626
0.5195870484321136 0.053941724054205456 1.9534686639848595 0.018117745669285597
0.5416140752284118 0.05871641160012947 2.0132093888328133 0.014903123538466638
0.5361314605502586 0.04804979004631589 1.2168477923468293 0.027006330573930336
0.5296914095604282 0.06013606390186617 1.9274075870865244 0.009153981014389209
0.49009953337671625 0.05855526754882258 1.7070062700622677 0.15907725557136304
0.5421632202147265 0.05560465033462816 0.5982676426244722 0.018168179476522793
0.5362088747082124 0.044675776826523225 1.698698279137095 0.016354832880605286
0.5440694075971717 0.045325190787521216 0.41793724430933726 0.011305931236935166
0.5333883908807696 0.04809453527235284 1.1648638708156926 0.032991604410891
0.5263336368954622 0.05033637389590235 1.9653936912923715 0.014270779799040888
0.5144747911561263 0.05430048873517402 2.1006253914111337 0.01482152744530509
0.504458580040535 0.055011883661817425 1.9353053230540873 0.01412475782251312
0.5301195249736987 0.05065951516939064 0.9937371237747151 0.013440342180994356
0.5413277159586369 0.05714158699749373 0.4939275313312456 0.029856646676679345
0.5152482408051978 0.05700305652180308 1.0003592530613425 0.008061363976617072
0.5040298288333245 0.0532240409258144 1.5047450280773746 0.01080470454225307
0.5004180935776926 0.05588403206377825 1.5262868644779646 0.015630328178863975
0.5202608251505052 0.05031842975925243 1.009581135427943 0.01126793063680414
0.5363186920047092 0.046492421019671146 2.124175781398368 0.027414828244387603
0.5228140265956867 0.05222559756597133 0.08611575450103222 0.009120772236494597
0.480136413036934 0.05177034911866861 1.6141190403474401 0.015920830101184214
0.48630253925258843 0.05830698805274998 0.8415130964029994 0.013440274386288772
0.4804388347264784 0.06001834448309074 0.5309151121828306 0.10593814423041237
0.4777551160671868 0.060052161784767 0.59111742815108 0.10322409083830307
0.5008748187460846 0.0631266979871454 1.083189341417574 0.09678338398871801
0.4838745522469021 0.053921484759361454 1.4422937777426457 0.019132384411179187
0.5086184053525977 0.05133739773400599 1.0301148323921592 0.02230973126092383
0.49822838396647656 0.05029724192064909 1.2126867985414025 0.03130372081779997
0.512170637599886 0.05418364016586804 0.7830723650693238 0.014623820963376354
0.5046683879157958 0.05280930684266177 0.9324042764695661 0.013871693468025232
0.4761895367547783 0.05144682076562869 1.1963697949017564 0.03107345252990384
0.5046243311919444 0.05437907682585888 0.9620538149642717 0.008869371551902176
0.485723190573124 0.04900218634823594 0.3223298305114779 0.019686964799075404
0.5200713839518992 0.058014019749788474 0.8854082227071814 0.023688876238514543
0.4982478849854948 0.04893805685896077 0.2409910572771802 0.017718185692731134
0.5208664492601007 0.05949306129020033 0.24846253143244135 0.018708352251102508
0.4879801796728769 0.05888771297478076 1.0914858552507611 0.13041199563343173
0.502950846888808 0.05255938688326242 0.5669905161100341 0.0223696040643008
0.48177534774127934 0.04917831733511198 1.3729137974182946 0.01748365929303783
0.4897902831119378 0.05556401487913124 1.6749547466943981 0.03510842766426761
0.48149488482704533 0.05189776734654265 1.831612116191331 0.015429808135477525
0.5041925864996427 0.05396305951004325 0.07144574035975729 0.009791132818473464
0.48383521242795424 0.04953988943543722 1.6527773378316297 0.0264034030286686
0.5041799048215719 0.05837432262611577 0.5519459890466945 0.014227580690367718
0.49492132597162036 0.05686497446626456 1.4269308788295747 0.02453996815727948
0.5261992894341753 0.03869627237856904 0.48585800562811127 0.01906327213309128
0.5125499099331711 0.0501969545599939 0.7260497275764947 0.07108770904841256
0.524447576394035 0.05108662831536933 0.2795850346782087 0.005038773813357329
0.4848959000260908 0.055472684078361714 0.22542791314511684 0.013856455205185143
0.5172206767623232 0.059450222043917034 0.5987535953776458 0.1342038122567069
0.4954037306986269 0.06152611190893295 1.1928767129542373 0.22224729082706343
0.5319742962170564 0.06067904329414405 0.044672566861919435 0.014392533616270927
