x y z curv
0.1529693724224647 0.30141079996354214 1.7499213432095357 0.013501029338436629
0.09585645844548743 0.299276785678768 1.4481461547319148 0.1789769810485987
0.2600090796508916 0.2980539730838559 0.8887327588680366 0.011560462294799378
0.258191014276469 0.29390475741032884 1.8933781712009068 0.029107145718044677
0.39358945251487154 0.30835064841150195 1.614708710613259 0.01276813868249904
0.1858220691128364 0.3004000792663472 1.6104989781643648 0.01881353357108389
0.1944054778061491 0.297851500233524 1.7429671016206623 0.01725896761639608
0.4610964537934344 0.2964742902216873 1.3405119108125267 0.13629618908229355
0.1422964773715034 0.29529305653331595 0.5779098821948759 0.1973882880238543
0.6564831948181675 0.29554654892282256 1.9639336780539418 0.2149914102721123
0.408533126337709 0.2939597132614323 1.882793050497833 0.015559306446734282
0.25603861709221953 0.2964003713312311 1.3847858637714932 0.08528685034728298
0.07430317709048637 0.3054940278012813 1.461679366390844 0.026158093356666145
0.12942646784995354 0.29379272478798707 1.4211047098572842 0.2234657932140151
0.40745160776620176 0.30225516907958094 1.4508630109117462 0.03747793722263702
0.2596517868351376 0.30056637425524957 0.6872933379795912 0.0074844567088846355
0.37893954680098496 0.2999888508953115 1.625515364758522 0.01904035181717424
0.13803772257434332 0.29404459994384935 0.7535899819053067 0.18459735322759405
0.23865857219229708 0.30506891321627944 0.528885214485825 0.009311237596290845
0.662082927973391 0.2975159504178189 1.9082884010553882 0.02704805587425566
0.12364877348517435 0.31027041833704777 1.6895762137179395 0.030222901172330324
0.4455922890130505 0.29586787148944527 1.5611068055292894 0.1718967836610689
0.2501520358913536 0.30457721459059195 1.5734392054678425 0.01941474455559959
0.6997791151701889 0.30778773744256693 1.7718156946276065 0.01897346737595058
0.292798235257759 0.3096159764866844 1.2291966129535392 0.021603312066401453
0.5825756966782252 0.29330112547033715 1.415562688948349 0.07806993505290571
0.36549189469935406 0.2928125747220908 1.762303255543435 0.13823839164125076
0.5568404222580832 0.30435448269383314 1.5090319671911958 0.009496355253995888
0.2046879349406301 0.29782673718282415 1.1191363849323523 0.08049520610955994
0.3530187926273083 0.30389531590473684 1.6721178687058262 0.013719514513002063
0.6330794158857447 0.30362337595194067 1.8425013549362217 0.030680674230459677
0.3098213515391828 0.2955907714378472 1.1110793882983172 0.015103941935214511
0.5121691353778384 0.30729764360874245 1.9381248459792138 0.03622409734950307
0.17877562680614845 0.3037372279934755 0.8620607566822036 0.015084963676307064
0.09954212472561709 0.29914047195081356 1.5473073666118267 0.028000994706782602
0.38833606823160394 0.29866133285037855 1.5878071595379868 0.011373771591274966
0.4108654843937855 0.30142256777860676 1.1676496092962059 0.01992027355553981
0.19269859941898942 0.2997452046368645 1.2629419336234842 0.017649328389842605
0.36048419300757667 0.30446665046764276 1.5247539547731046 0.018014654374584226
0.5152412026193212 0.29878890052186696 1.1590856413731303 0.01933994761806617
0.07072726632136077 0.29885328004350287 1.8185456919161658 0.013429097366987821
0.3376071651652694 0.31178360724834925 1.5679372324788585 0.012588510177156224
0.217905965134521 0.304738208535456 1.615204125870194 0.019094244176203666
0.2961905238278528 0.29394261246971115 1.9770815490474583 0.022403299417658326
0.21078218967679882 0.2974084792124573 1.0834433448412109 0.1380777362348378
0.5102593114033359 0.3023094639049473 1.352510837846498 0.019744776388131973
0.05777568416866523 0.29365501851996545 1.3863884652631266 0.18171189129731452
0.6160879603544188 0.2975767637784987 1.6808985754218881 0.02018575814186513
0.19882576417917633 0.3040302350312022 0.9868560265156309 0.023139686883449487
0.09027877274420798 0.3061499973949299 0.5968979249328701 0.01930367221116465
0.21942765289363467 0.30142132318078363 1.2812294330434968 0.0189355526064518
0.2922907896468364 0.2957740251570967 1.022760761053551 0.19351179198334467
0.0997071711362377 0.2937883344379984 1.8600610415050183 0.17010383635054704
0.16238464580899617 0.29988379699855705 1.0935109789265964 0.01313589311353699
0.19117054327693767 0.29558944344417326 0.7252943004548917 0.17084678608014106
0.13254732039580394 0.2979573337092317 0.47106996862473094 0.020184005632867
0.37966989261113404 0.3001510694857759 1.6706737121975186 0.016408797014270192
0.5287352884455516 0.3035943774893586 1.6754196940447874 0.021046695148039397
0.30931574706245507 0.29756079883834163 1.4791223484511598 0.01680472057615579
0.39486342581352063 0.3129836487417375 1.420571294082044 0.042878016848463846
0.15906166371301697 0.3041610705386145 1.7182723065580265 0.009064023306219434
0.12043489530058796 0.30443457056854045 1.748939865110427 0.048773291773335274
0.33701811956478844 0.2969572430190598 1.4340409348565186 0.12851986502008242
0.35131575341539795 0.30240593463430443 1.9080790653921254 0.009553245832811327
0.3024043270226766 0.29839681498759035 1.49733125301416 0.1070485534190095
0.22724705773325699 0.3000864082242677 0.6909551241162533 0.006999147080093702
0.13521135238916968 0.30014716358277865 1.3343354201352895 0.02630907259833336
0.7369670047963122 0.29829772481932293 1.8855586402175906 0.027864507457990295
0.6163873633000442 0.2945381079297695 1.565186604826226 0.17030875302967552
0.378606351362971 0.29482067344744933 1.1483247352256434 0.1764795120585008
0.3802313361484921 0.29986381993454614 1.2626996163133666 0.024594904240260045
0.4918114607703834 0.29736032621512454 1.1368493335313838 0.07820338655377712
0.2647782588093226 0.301959501927668 1.3484667718315009 0.019104240617369664
0.5770616423520928 0.2997988278038442 1.3011195445207409 0.02271661542286345
0.19207647341555067 0.2987594904893067 0.46811361737525736 0.028119056032552995
0.3370866992759656 0.30149795529844475 0.9264006239139195 0.02283565278560742
0.033577478800428336 0.30208316390788864 1.9170534890357906 0.03456590673778846
0.3368075664202473 0.3000390422965994 1.1685054506262478 0.0786019763945403
0.32406969820649556 0.300354911648233 0.9443650429372882 0.10940520269171435
0.3348806156673761 0.30578543386416207 1.8948199120221385 0.011454287476715421
0.3196212204295033 0.3013285729786554 1.535638322610774 0.02224235406340878
0.24729528309754734 0.30007663095857984 1.7471511509597542 0.00869579469711192
0.06143322143208671 0.296899457262557 1.8210564695048292 0.013100867533621635
0.050213571144901575 0.30138820300296953 1.5493893776427174 0.02558727923021257
0.6100957898818254 0.3034842160223052 1.6541108966599054 0.012830616891024063
0.15393716339398614 0.3065525792403842 1.8318589703616392 0.0134205954755081
0.26080116324613245 0.3046714092214511 1.9524334011868623 0.023601679685326896
0.2970554723401146 0.30618427874154236 1.5889273634621723 0.01572246254680271
0.5461655548799198 0.2982011118041106 1.5940821916164793 0.08503029116517657
0.11790293425704247 0.29858764413645866 0.9977309843884284 0.13237945386157182
0.16400793214916873 0.318770615620821 0.5231764487491781 0.023062739249530385
0.18274156475332842 0.3068024637322635 0.7142726697999926 0.021421846277496364
0.6938484040520989 0.2988088788823605 1.6950630449632496 0.11735314470691273
0.2730471424729915 0.29729210744814893 1.2629246496904283 0.11142065547886966
0.2738792665845522 0.30106139217327854 0.9665315302631027 0.007580065079154411
0.3238857007037853 0.3061550806564363 1.294876001891985 0.01122709886202945
0.19089044009175885 0.3010704029040718 1.635994414179573 0.021640080677170218
0.1287511090825001 0.29877108384821094 1.689356430798637 0.1335482145042435
0.0330817730246063 0.2994055279521277 1.6507066308439002 0.019997195322498978
0.18494943281973053 0.3058734075853659 1.9396895280121398 0.022634186933708816
0.4435321999095506 0.30703495777629153 1.6523073861343494 0.013185955857976292
0.6158834608755246 0.29860939250696567 1.361490533859677 0.01767578005412696
0.30891573905885483 0.30839992898949453 1.6895547790015053 0.010037305238361766
0.47359280453704816 0.3046053660349619 1.1005223171395206 0.027465544040969025
0.4724306495885066 0.29893400799325426 1.1842523479493832 0.020338541648046087
0.285280679607194 0.3013078885740639 1.6571997696438343 0.0162960730413673
0.42940043822183754 0.30005270548964375 1.5756371771015087 0.014051090589939285
0.5119535157119819 0.3079520192757945 1.563796064215998 0.01781711211317793
0.5810008895793738 0.303926531642437 1.3853766204041094 0.024766228623465236
0.19606222652775823 0.30907497653048877 1.6612977422789739 0.014553105866000615
0.544425946493268 0.30125893674365034 1.7805114718877 0.019009441626496752
0.6465096772280922 0.3016382130662678 1.668030859134843 0.014466736614871053
0.28056384217136465 0.3012814103795652 0.8176767692740945 0.01817974258336256
0.26056019496333005 0.3073176930887219 0.6653603660965879 0.016207193554405974
0.662885273769047 0.2967875933276016 1.878047121617502 0.13596255858532974
0.3694324366928166 0.30119691694161455 1.35351962487143 0.027831620213097964
0.2585778411771319 0.30295086131688687 0.8219317344140493 0.017294384348507535
0.6629115868605056 0.3028295049968752 1.887538338133694 0.02326157212629307
0.4088470182351351 0.30127284349450983 1.08216539602327 0.013947785346922821
0.05956143115149831 0.29964431351405174 1.920081561291927 0.10504539008672192
0.16401208653925772 0.300983270946478 0.6107004030486333 0.009554626251000523
0.5897155042447905 0.2951825825792808 1.6733748290003905 0.06193046359177988
0.6217863365052458 0.3015101675820768 1.6509041577626948 0.07499731787162342
0.4863264691376446 0.3060198065126288 1.3382423693573844 0.015272835904691442
0.1560907711521048 0.29232120330564615 0.6636504228435125 0.2178123550286812
0.39279422159904304 0.30297300921095094 0.9814662525725515 0.031489190127011846
0.09825767892306249 0.3040724560536102 0.37714595162287945 0.015751778871906836
0.030800964228280513 0.3109535632082417 1.971026325408823 0.03514103518435275
0.07156867769104085 0.30545564203560976 0.5872836534121362 0.02197678902443881
0.18971996366129482 0.29654114134969334 1.1612497920613967 0.03137128708942634
0.1949441393550662 0.30045124028667636 1.7012344324689492 0.016707889508085945
0.098381987764414 0.2937689716064792 1.75112292834935 0.13589320087044
0.23054454976992103 0.3084872597030723 1.6780722062818243 0.03297968993523418
0.39220978960094727 0.29404959086860055 1.4033677008310281 0.2247092027793249
0.19375113092183158 0.29830769263770457 1.919108486453825 0.02336179461700682
0.3064256240601571 0.3032654303719031 1.8576037954297981 0.026849842331544277
0.052235554220978614 0.30271060552246737 1.15373375025514 0.015742290164321812
0.1517298097333641 0.2929791456901824 0.9698745273974128 0.014774094966753692
0.2814658259475844 0.298323972238602 1.1286750742019087 0.08845578102550428
0.5052102572161528 0.2970152335875776 1.815897683384071 0.027896136261680294
0.3626782321584739 0.2965873959760474 1.3618911316107063 0.13373571742158702
0.557181619656123 0.312084813948906 1.6515387065298424 0.015084991472275959
0.2152840560146181 0.2938720097211973 1.0308213050485753 0.16274256718642957
0.33223587227196927 0.3032304134751294 1.7449062080778257 0.017309767496028944
0.3428323785924079 0.3038890358803048 1.6223216597088594 0.07404242144377396
0.671626322851142 0.3031741059966894 1.7548658218680708 0.08396418997714197
0.33847178361383007 0.2991127687166911 0.8350733495576281 0.019673782459136962
0.07169670051274242 0.30935538094578713 1.4903619543077937 0.00894213815375397
0.31757169779656574 0.3014313925142926 1.553367090677415 0.02243157660657512
0.3390918622063622 0.3052643071411131 1.927070137926526 0.008952548930085217
0.3036987072106501 0.29944689218333304 1.074860218884816 0.024495840149359495
0.5408456581253384 0.30553951462755824 1.2345849105713669 0.02337112059839325
0.6059719583472591 0.2993261852008722 1.696197294768515 0.08131834663594809
0.2615849884611159 0.30206986646653244 1.4040867668306303 0.0211229179933442
0.09674387119504427 0.2995689457751968 1.2312146008612896 0.021396168460697088
0.4840056214779197 0.30473297316557824 1.894698192327927 0.010712953817943797
0.24227847456255 0.2932044501211012 1.971814061571027 0.032525216862984055
0.06977667037523413 0.29103347729654466 1.3907701896997609 0.2850975291850099
0.5043108774341221 0.3043941293404704 1.1817887047046174 0.012641362107033916
0.44406383745268824 0.3080956537666379 1.2694120120801755 0.02270697520262417
0.6601681858717693 0.29946483521579975 1.6078530392388146 0.023835975500801035
0.4346684453404776 0.29899377280636763 1.6222395537768899 0.15918773623513002
0.31124200120761036 0.29662556034691595 1.1143202847005544 0.019874495749980237
0.315970955346758 0.29960903528147925 1.2118692380424207 0.027850724118957233
0.4177474253393561 0.3011796508834497 1.8184434429173832 0.0282661745772628
0.2499321282801427 0.30278826416596055 1.0598261385710996 0.015344416126840456
0.3053359354726233 0.3074855329825165 0.8722421946795975 0.024931115110268656
0.24424597448818686 0.2989607109128517 1.5219630194948053 0.0148275730954527
0.02669665523419077 0.26143272171463705 1.848006900626576 0.1388436635986654
0.02216316756810982 0.25767731941073735 1.2141652889605865 0.1568223210826965
0.02866616895389845 0.25200650658546214 0.9606215655207075 0.019184000233381085
0.019419859233963443 0.2513003881366546 0.4967038254094341 0.04314292184330169
0.022215737736268466 0.25240146306734845 0.27031210328321914 0.02005347300399203
0.03587547026966746 0.2533573270704866 0.5786604151613406 0.0705761201272616
0.029972243743760993 0.29856366872285095 1.8657057475850376 0.04022003410529892
0.022636909029919803 0.26249271579319644 0.33274978871359623 0.08265893084851966
0.03708377507498736 0.259687202738157 1.1532780094260835 0.11373210181288997
0.02381894825052004 0.29787321175149734 0.2692087513733667 0.023786722206623562
0.03373076332874414 0.2962825020737425 0.25856956671322606 0.013366778722512547
0.028381137415303886 0.2986184948406945 0.26111327659076455 0.01938440182209801
0.032035817691265754 0.2972243235775671 0.9970217479227954 0.04941879069857424
0.02298926750005011 0.3075673855652942 1.723247824099849 0.04334327524388012
0.033934277970182745 0.29221215382149873 0.7267195117367934 0.08801762352718388
0.03277175411382407 0.30677806872923347 1.4271375286404286 0.033150537735044165
0.03817031947521276 0.29515444784312345 1.135642813580458 0.13327861343080674
0.0342654091179232 0.3021677235315898 1.2677231763142496 0.03654380315923535
0.03613530039439162 0.29862078252229274 1.5020848752342342 0.10430914350004952
0.03552914264788021 0.25602787254745324 0.050333742053101614 0.01243133333546856
0.01616328693567256 0.2967914125711401 1.0656910742417303 0.10606523834455842
0.022442349056203802 0.2559413564781978 0.05521037610461055 0.07157636274168501
0.02921343391174954 0.29258555187944185 0.9784554969180608 0.18094922652819662
0.036583353963929324 0.2927616790992711 1.6929279338502534 0.1884945592265454
0.026812146939132978 0.30258118735118505 1.5487748293361636 0.0742077187814525
0.030676246899131652 0.2970986852367261 0.4244219996665554 0.043830320204442295
0.03481960027130381 0.29162897568213725 0.8229136812673934 0.2613828089229152
0.5913495211637733 0.2867677225738288 0.006246839807465486 0.07627819564269693
0.863879399021899 0.2569832441549976 0.01703060480897661 0.01142869938154358
0.7239497953603226 0.29852380195596084 0.005613289611035729 0.013485523529820435
0.39168139930932616 0.297750542733497 0.01485442096997234 0.0025404139363327176
0.8724870456838564 0.29672424325583857 0.013579098676065712 0.008793336714372353
0.8381584577960046 0.2549780431709913 0.0051541527387805024 0.02114187619151937
0.6395318686666749 0.3070596653272569 0.008761844836039867 0.016727740009919966
0.10472760900753983 0.3093152625965086 0.021681022444536367 0.006614401676521232
0.6596716227926495 0.296475346076661 0.010292175864566586 0.020546949201691426
0.4520523080378181 0.294960013117848 0.011312923646387243 0.09778280502160247
0.520422978001242 0.29683337259713055 0.017388157572560778 0.019336799830057403
0.6885241517226842 0.3042002438175965 0.014919680451475634 0.010616185827477049
0.2040442174674606 0.26392377279241586 0.00939996396378532 0.16468344377505276
0.08071022775230563 0.25280367713597857 0.003480052298691529 0.004399048779504581
0.25804060722327476 0.2663467541305898 0.012672810723542784 0.09060771697310974
0.16392209724658882 0.2543705207116844 0.009988488705595022 0.003949300241543703
0.07428267114331326 0.3053185836488014 0.015183743181323513 0.016886675593154845
0.7367061226603553 0.25428142510015916 0.011272434581454618 0.008877423155919335
0.18981891985481564 0.2716768442651852 -0.002368548499648123 0.10208585029423616
0.5497107248054057 0.26199807232621974 0.022347224938960367 0.016907479363590546
0.6687361995854896 0.25255084813858614 0.020648169809722845 0.0076637027311780275
0.36277225175892475 0.2710552991027358 0.006740265489695476 0.02959919746665763
0.05166202200700136 0.2991515792858899 0.008001135676050819 0.03333123828682663
0.23138896133846312 0.2683132973394139 0.010254289412500414 0.05231987907232695
0.8665301847144228 0.2635375386511 0.8972727723723175 0.26307221341916065
0.866375059592547 0.24310921144764702 0.9644960609423936 0.024011809868982114
0.862719990120885 0.2924489716745947 0.5152033276841935 0.17013571513306902
0.8658868782001599 0.2546671490232766 0.9202833842562552 0.021356939904659544
0.8757874077167234 0.25849086633142987 1.0052408101673171 0.14693773421866893
0.8705501664901317 0.25154712839584226 0.09535514599460866 0.01850740978043555
0.8738907393744264 0.25025641900735546 0.4660327791300296 0.013915169477574341
0.8597507152989027 0.24976108509096887 0.2553766106147748 0.03027272723216979
0.8794173396659616 0.25166713241913835 1.323056604026279 0.03406124980892983
0.8578163587814503 0.25552873539853305 1.4202670168692357 0.008308692441579054
0.8668737556099976 0.26439105416432007 1.3743660525053802 0.21578677616857192
0.8659876046500531 0.3024923535406934 0.17650419755063942 0.0095244718884601
0.8729324577235031 0.26073561385255284 0.762240503588948 0.14470436051149402
0.8707278889518733 0.3039792303376471 0.9198278632382908 0.01954825499967985
0.8747029481497409 0.2943728433268352 1.9078921408100706 0.2900049692376739
0.8690316849634863 0.29106534414637264 1.8625484407392165 0.262529286724251
0.8722837321778308 0.29839910521172097 0.7472018156467459 0.11541296289020268
0.8768966801176405 0.3018485688702662 1.869111590176861 0.022062964873957928
0.8731218835495957 0.2915327763227524 1.6257158571032524 0.2722861446405241
0.8706187736574308 0.2586383179365073 1.8082734361230481 0.018139007591296552
0.8709050219536144 0.2986999589761633 1.1323894947423379 0.09775459907653694
0.8700921971500788 0.3068080240207894 0.31171305614950506 0.023205767282994397
0.8738696650555082 0.29587730670503126 1.770317960524184 0.11881953504492469
0.8764514391257505 0.3012744813339723 1.1228806553603705 0.05469539710824343
0.8741522083783344 0.29756728325435156 1.340195376461873 0.08742986928567377
0.8641537826945364 0.295612100467649 1.0510920889562279 0.1297176749688404
0.8734866652535294 0.2934540135436653 0.4769908320276919 0.10656874937173194
0.8723330768124369 0.2984656334738906 1.0003924351092197 0.22323561639065984
0.8717964236743024 0.29364383273585026 0.564989513019809 0.11724863260523348
0.8714356342006071 0.2932198427236593 1.7842137676955387 0.15941122832354662
0.8769135343738512 0.29719189986391664 1.780000985887962 0.0713526425244373
0.8722545861778397 0.30318188977829 0.8600265758541069 0.026415328069020708
0.8628532588949397 0.2914265146469523 1.1105773517793573 0.2301548044275835
0.8711259257352159 0.2538535371514458 1.9989161491357572 0.036287977124599156
0.6613022433239168 0.2568603878180573 1.999227087228804 0.2058751835412873
0.4379666234406387 0.2595394839588608 1.993108340226606 0.018527845547624013
0.4319414345275238 0.2553167061221274 2.0143652512405414 0.021968384691705013
0.6139224582937026 0.25338353902293653 1.9945850894828694 0.018702184943789227
0.057672882437615994 0.2548022104603259 2.0081968041542733 0.013948492189251526
0.6968065706810469 0.25643624019770167 1.9957196548566267 0.017286414827782634
0.7225088462732573 0.2519849344482937 2.0075069044876463 0.010850384147157888
0.48024247052986735 0.259419873007195 2.010146060556534 0.02027462374139135
0.7365990499053333 0.2600006930138701 1.9802248549339838 0.02111495264803334
0.7208269254596852 0.251235921142971 1.993144380772524 0.01742139291134802
0.0795187181670858 0.2550112347457646 2.0061847540327484 0.01916847752192134
0.5208952376804787 0.2496634796865903 1.9887904536944905 0.010848442746753974
0.7561972843388937 0.258811259569879 2.001782406600951 0.10041776844877419
0.7722490061173404 0.2612449733783824 1.9982710585172032 0.2154899279152903
0.8229411701315336 0.2496419015217027 1.9752490349014158 0.01294933133994045
0.6296283276096071 0.24799283013349863 2.0056843241887905 0.018578066909648888
0.4204706234884673 0.25784028863782155 2.0076388340081426 0.024035250477682173
0.512780303779817 0.2602174559403229 2.0064996396632506 0.0119126471003484
0.8877391817404273 0.2525974533854159 1.9974338336962876 0.020963686105946483
0.6757736976443627 0.2525843773218521 1.9928265984111189 0.013670428418839111
0.6358071040816234 0.248982770577627 1.9895624557430622 0.014447689714212402
0.8676979585995839 0.2568289989279942 2.0017151671439155 0.025654042528096607
0.38668791726062807 0.25023096809259654 2.015629078618988 0.047682541723109935
0.5538852219212056 0.2511629747846966 2.0002103712434063 0.018413683109558352
0.9051562299381746 0.2520302410860918 2.0155217920381356 0.03060365956276724
0.5903950889438667 0.2532262683774129 1.989002293398412 0.028971267819669726
0.37169892250383973 0.2522008566407923 2.0125143601760054 0.021333112007707586
0.5175217812973228 0.2542618466834319 1.990781466357855 0.010985727557814106
0.4638241539223651 0.2553178028129365 1.9941952112827206 0.08553213963694399
0.5416726915990159 0.2535310753617252 2.012640383753279 0.02305092718089197
0.8047278925662613 0.2574493656021084 2.002850419246728 0.014051879024456723
0.7351717471433424 0.2540290010964049 1.9936586895734798 0.013294764234545028
0.7024025073965307 0.25111088910075724 2.0036888979377148 0.01229188856165449
0.5429335561224569 0.25543179374951797 2.000211874462696 0.019125435426216437
0.8294092271668023 0.2535957510772215 2.0006811501989987 0.019476035902052755
0.8090195380184337 0.2520229972662577 1.9871070614033368 0.01907102363304033
0.7881026243516455 0.2560003405719659 1.9910153121607583 0.0228961682594368
0.49028545090084136 0.2534862570694122 1.9960377750074871 0.017488133697022
0.6824219523609858 0.2577954281186175 1.99544011877829 0.06802235850893269
0.8551921192785434 0.2588411614253671 1.9912703907712856 0.02512122546548401
0.8219579017128377 0.2561041721316077 1.9945807372635818 0.013850217578701682
0.47309912179278996 0.25468860035145635 2.0015604255125266 0.020360112979378016
0.5696059209543981 0.26162802609953273 1.9928960707447583 0.2854569772709561
0.6686893961571682 0.25408962210090186 1.9961908312071472 0.08579425267065531
0.036794839774007784 0.2619233363770851 1.9977103128009859 0.19245482468252526
0.05266964750941955 0.25567820990816215 1.9915267782951078 0.09279092114069998
0.5693323374600635 0.2595332347608763 1.9888683091337043 0.2733922721152169
0.46595643922351804 0.2527318685049894 1.9878897369684667 0.015597966857492996
0.6460540973477243 0.2514995044127518 1.9961710210411179 0.015101503100112455
0.5045064263030954 0.2557641831630517 1.9856269016123504 0.010172399705773301
0.0181515637213159 0.24763194887699475 1.9890217775123158 0.04438322329922612
0.037004149365152575 0.2518192379351536 2.009935375396371 0.019455951214132152
0.44089455343111 0.25674620366519346 1.999872960600696 0.01886067176492112
0.41678614941468556 0.2546883783267273 1.987332956761638 0.025480328726660135
0.7817143807685013 0.257958145563287 1.990756697092627 0.12842663424967096
0.4928080857997154 0.2561471815493835 1.9976143204283876 0.01592630253848705
0.5470650592969417 0.259473288649774 1.9794283229536762 0.17417810859790311
0.09076320223076273 0.2569960032638761 1.9956240410741037 0.01843811413015951
0.4300698239503279 0.2604599821261993 1.9848389612433235 0.1443024452218453
0.5805624669096988 0.2570440202218931 1.9871639584340939 0.1258119750173382
0.7992630957953721 0.2550473585260258 1.982909193956591 0.018967497041337083
0.10488290963558694 0.2550209142809917 1.9936698972084175 0.041312991219673766
0.7752810049926531 0.24756671224167495 1.9774660072167016 0.01533691539933036
0.05699403575362509 0.2575425943807695 1.9923937395389297 0.08118489287437777
0.07135328905771558 0.26006355775961043 1.992245732479794 0.020587215582388733
0.006577231074050258 0.2547862199078822 1.214636935555875 0.09305557233011577
0.010509280489679682 0.2535657376072893 1.957258264367901 0.10013014752341413
0.02057263578932323 0.2566664357698741 1.4851278662875638 0.045562291137928944
0.008752444490271814 0.2600127039352296 1.9513377442009807 0.11951483565631675
0.009868044753444369 0.2507131051331692 1.007385783603832 0.12664922449485272
-0.0010317292091096227 0.25126050947671064 0.6640290608479316 0.07311877118624391
0.013278311785486645 0.2652939246560816 1.497003354576978 0.1976260665113388
-0.0018516518700780545 0.24032035560171888 1.013822923657217 0.08776146674650635
-0.000704808039560416 0.25972017226859856 0.8983839563629897 0.10539344149043896
0.0068181082659445206 0.25642480908138027 1.615241891138704 0.06711427045807916
0.009289470524728342 0.2599852590919093 0.9382017104376271 0.1541328698552898
0.02174670899595247 0.2526052849244664 1.420620067192602 0.07550155548790778
0.006590659318768894 0.25700956997754276 0.9342639046689182 0.04851639821095929
-0.0052851955657323806 0.2480922122424754 0.20350326883332234 0.09517896270262334
0.01229734983385103 0.25316455784672903 1.5919823291305664 0.0904029125690436
0.028643294337340346 0.25334052657361095 1.340035466314875 0.0314258201581063
0.0052015958331582774 0.2598119298869891 1.7959743160019406 0.12555166524486597
0.016268574883840963 0.25017379118635813 1.3433917566732279 0.05363482734189622
0.0046543568256345765 0.2486089882583633 1.538795465387633 0.06775258503048329
0.002485927293316358 0.2454887009715611 1.2241124235434335 0.07063467097410431
0.008987253864327437 0.25551673666210295 1.785078111970541 0.11799229666656817
0.009661856283978186 0.25700888993468923 1.6391381003789534 0.08204128234826712
0.008006473370943415 0.2528013668278867 0.7808413752621419 0.07982506719212813
-0.008026889870995323 0.25087988572313646 0.6678259786545858 0.0744524789635918
-0.004585125506043187 0.2497229801531699 0.8112306742547185 0.08505450444618419
0.026151218442074135 0.25710267247185753 1.9545356794885023 0.09532467390746543
0.013494249827964185 0.2570516942910408 1.4789794635269684 0.050598905667894725
0.019361708555684774 0.25263118858968125 1.157235041485588 0.059555840818432765
0.0011732273507154276 0.25212066536455113 1.739108953610173 0.09337189128820711
-0.0010108734544927956 0.25595606881018523 1.276979429164963 0.10631636443119528
0.009511115253293291 0.26214940837357675 1.0582129544228644 0.15342077344765317
0.008808636999559744 0.25252147378676276 1.8493640785415713 0.08450862201148318
0.004402061939519931 0.25464705970646817 2.008740736003799 0.10012625134773714
0.02356388220473667 0.25679990638394146 1.6376824405755672 0.06773360708078913
0.0057052935886432385 0.2658599893368637 1.6778644476815419 0.10890844314082833
0.00047577889538674874 0.25730966951759193 1.3468774428473584 0.07355513393160233
0.00782328131829653 0.2581578751864537 1.7809568062729657 0.09370143975089837
0.0062270010548331175 0.25497286156469173 1.4080661696270944 0.07350225349285135
-0.0004640939964242135 0.25136403216932796 0.1712777165207825 0.1399114549471495
0.02781062720247619 0.25326396687990377 1.6640230789374109 0.03194263601763919
0.0032096632802653844 0.25512535443131684 0.4357317490121399 0.11549718613384875
0.01650244198181736 0.25192055672388963 1.8100764830163296 0.12889586134471515
0.0021567175305601013 0.2478089872523613 0.7270015664115336 0.10408013582866033
-0.006107136176645154 0.25940606524290427 0.7016117147568723 0.1166767488938568
0.014709777746632763 0.24804977163135222 1.9384708935536836 0.05810583504559292
0.02131797697595001 0.26077218302076355 1.8541131789339067 0.10662835197484438
0.0013375673885088887 0.2534672485562368 1.9247224672828733 0.06282081168116173
0.004061653136988206 0.2545912406631443 0.4044795399586383 0.08396212896794475
0.02008612253175758 0.257699940121701 1.669577736062158 0.07435038399240292
-0.0022277606405198425 0.26135040556951655 0.636088721057147 0.08815771871175039
0.003702845007435923 0.25141406434201014 1.1659092028058906 0.08824420596352284
0.003968656264190165 0.26174166646647234 1.874976285952491 0.10066860201497403
0.0010855829886325624 0.2643185681397134 1.686887179760221 0.11361356238867737
0.01232068536561792 0.25199507962261186 1.4431386062859546 0.08071887643908769
0.016316407158014735 0.26528796910736685 1.1827515336569179 0.2025168103700775
-0.0005186213558656038 0.25960998403070795 1.460805922076068 0.09529742082286677
0.015602286318367443 0.2565799759818324 1.6630764303983456 0.07084512263742823
0.0073357590470698834 0.26383042890621267 0.7660801937286121 0.14875126366120028
0.008122413330276461 0.25562766519385277 1.8656814486781217 0.06368490959243601
0.0006500348494263772 0.25271088104592054 1.0861689963394285 0.08159670634454305
0.001081858238824179 0.25484082586833046 0.1382383598822805 0.09875887298235544
0.02062229668828322 0.2623553285672219 1.62750326325782 0.11644677482091834
-0.0012426456797172847 0.2535625970736329 0.7311669221290346 0.07641213680618036
0.020644237328761316 0.2509303381270283 1.578213916529728 0.05395734463466761
0.019465832914650427 0.25027344955284414 1.3855587353104282 0.02808415451883819
0.02377505092745698 0.2439038186311888 1.8695670491972984 0.020690247103004388
0.027087292375914573 0.25538522287333754 1.5384912532131214 0.060702628904718996
0.009126221214025012 0.2505064989802666 1.8162152357849048 0.11689068519541815
0.03133208690468465 0.25600082958235093 1.9257497562820773 0.05927411493659145
0.01771019178350493 0.25658201331086394 1.3942670396102923 0.12245972795596245
0.005850805826922056 0.2629371260773806 1.697064574451685 0.12075172094490187
0.022777055627672977 0.25747242687244154 1.4428132093355122 0.13117467763990215
0.016547503417908543 0.25575285128510294 1.041905885990634 0.10856774076989206
0.012792430126182879 0.2565512964611726 1.5857445412757243 0.07790271542292296
0.004891001942269556 0.2515073759838374 0.5990608364859586 0.058918000770377996
0.0008943467129412432 0.2583834765556647 0.6089777388042422 0.05139722510089393
-0.009450768248742492 0.26127586256961244 0.16059188990094972 0.08540091193441632
0.01793934466559889 0.25574119546608437 1.5655667423751332 0.07318848349028133
-0.011006285063861561 0.25720039326039273 1.291504031597535 0.061534134174836115
-0.00524715177720387 0.2628639646906026 1.7550716670793693 0.10352553311790821
0.00022666531611700223 0.2618300325164714 1.2418661249696676 0.09782959138228342
0.01936031733007715 0.2537973677287181 1.7692794147298443 0.04148352592862904
0.012164432241733934 0.24917665768882552 1.1680225787969194 0.05914391977037862
0.009696517505659245 0.2484499201452024 0.8062581016198614 0.08674677897407097
0.01753570441587263 0.25255426075936593 1.7248849786490303 0.09771413227848982
0.0012185145731337934 0.2493586315265512 1.7126106174378466 0.1059340451908485
0.017770452872653313 0.2643054691922037 1.1910027078346905 0.20059170872790136
0.007528078068388379 0.2520387511699805 1.4814820422987964 0.061717820174633134
0.008581003830304905 0.26228370863923756 1.8865392563881815 0.11310788009565695
0.012201031533386203 0.24908219430020045 1.3018666446118756 0.07174117388352243
0.005116085898295247 0.2500988017125394 1.372721101261937 0.05226165480366293
0.007072297574171426 0.2544008378505117 0.2185021462822027 0.09184748987308428
0.00999048535069964 0.25716265134564886 0.9740623313909689 0.09998785306718666
0.004309137693938111 0.2513399763482468 1.7287021130631124 0.09903145438967882
0.01989827614551549 0.2577327574905219 1.9207364042226163 0.13410377632201184
0.02046651765450907 0.25286631075002575 1.931002516983067 0.05868836870423409
0.021039596847643467 0.25140499004960576 1.4587998252422854 0.06522991492202986
0.013103243073043825 0.25367018103119127 0.8645570918444127 0.06217494290307531
0.015898587374550504 0.25253083156955414 1.5226275794556854 0.08514389171557726
0.004850084242903034 0.2534071247480329 1.3099311203592072 0.08654490084165946
-0.005951431918327987 0.25334885268361024 0.45067418218604965 0.10203335477763097
0.012386106133624907 0.2542571843045441 1.8340702446438242 0.10875498205072079
0.002587205864557199 0.25588704090654724 0.35590241684428786 0.0664728914041301
0.004372634086165757 0.2494712834856626 1.432856421163234 0.061363479206024314
0.015178511311555542 0.25420847129549934 0.9154997419634713 0.09395270308030068
0.023644544973495524 0.25250825093167945 1.9709153034914122 0.07272234088318741
-0.0016101174262931055 0.259049208720759 0.5852718973659862 0.0945821895520992
0.01510723362177934 0.2524289758636625 0.8910571434323313 0.02936473350883243
0.003410798327257371 0.2611372376011343 1.071739152891403 0.09032526892518292
0.008995853680478293 0.25386399417042604 1.1368705913353563 0.0823175091817187
0.017786782088308556 0.2574080907434377 1.0888520603551546 0.09596165555404869
-0.0031356075100636466 0.2529160977831301 1.0287800689138413 0.07503454169082685
-0.0005021683900385478 0.26143069064352853 1.899302949095288 0.13687741415372653
0.0006624402762300233 0.2505615045627031 1.6285773067650497 0.0755723576682785
0.00575483673005346 0.2535930008866908 0.9882241659600371 0.13306967397954028
0.011035727986438173 0.24762004793224504 1.1000317057996358 0.06658099188072471
0.01710576469428628 0.25576790271449495 1.6979434396085786 0.08530254914826209
0.010916690802029966 0.253639587203114 1.8309348202502602 0.12527389236165762
0.00501006010302637 0.2511554614711805 0.8427971242356477 0.049736720545053084
0.021212355690592904 0.2554618224897609 1.7345881587761363 0.09457708013482877
0.013361761910579839 0.24608041851635096 1.6584372896302002 0.038808769322962296
0.021039968143844373 0.2616257918637392 1.5046844975432971 0.23349296101921188
0.004298664156013321 0.2617869677057907 1.5012960605208652 0.11707081628330418
0.0034219952762507546 0.25443439000078916 0.6841034987324857 0.1248817266603711
0.007228203652661134 0.2607569680732886 1.5286616185000006 0.09990855310118413
0.00483788773330843 0.251498150411463 0.23286080313430751 0.06905373223533942
0.002565335622133826 0.25868039948132154 1.9799831244889061 0.1323859977897912
0.0029895082449421526 0.25382016719058514 0.5627452967256106 0.057423817187962606
0.014566610077679735 0.2553000760356311 1.5647139728402655 0.07799259599782155
0.007495587805164002 0.2630652002694116 0.8281041780964817 0.2354026493664003
0.014268463200107356 0.2506118717658798 1.2723205330192162 0.10657142290062105
0.004003509559021156 0.24860607591221176 1.197495998381147 0.13173883142023787
-0.005358603023064507 0.250525147012049 2.000638414248637 0.09906423889779539
0.032867383428531995 0.2563436602760231 0.17005488781581699 0.022743644276728432
0.0042188599144073295 0.25182273228472996 0.4362989091616131 0.07017942684030033
0.03479794938343804 0.24598199554336692 1.7236865782254736 0.01636033760506988
0.030059394216992944 0.25595467876054634 0.7685785991724132 0.05266315998045969
0.014026060740310608 0.2555441943025807 0.6049565007998824 0.11661267355943465
0.02456973323134033 0.25690448641244507 0.7261466008637302 0.2247834681627103
0.02349765551540646 0.2552152121450148 0.15742379362870076 0.022929194902978116
0.021503774217051616 0.2481523854246609 0.6415310366697944 0.03880746906265526
0.03863500467354838 0.2541337543164853 1.5364959303615073 0.013845997785113157
0.027325082901096715 0.2586784178904219 0.7775513058836595 0.09971194887110303
0.021738140856654473 0.24936093670644674 0.8576531454318982 0.02169133653369362
0.01609843239231431 0.2541847409665312 0.26143981627850654 0.02688476185676496
0.009045582272975444 0.2565679521333155 0.6667049571585183 0.104305597183415
0.026744619248570155 0.2559288974039107 0.8407214322248137 0.02474528678842703
0.01379058327609808 0.25539825790414017 0.6407900107174151 0.08540752834065786
0.014071035055024921 0.24487957482185604 0.7986452538960932 0.06976059895398135
0.016185000707066972 0.25337209471610445 0.25689129005025424 0.02489730333686738
0.0225806795510346 0.2537469115575527 1.3731694291216443 0.041563896050980535
0.030590600744745438 0.25181991466183734 1.6986174001180594 0.02224900394200746
0.0020087450912326553 0.24801299224293286 0.1749275597677764 0.11901521165277873
0.03177629408410926 0.253515391258396 0.0679579689214225 0.01761801283356816
0.011929643177681136 0.25426783473546277 0.31937575681460084 0.06545861289294674
0.018287234320073193 0.24912942764991766 1.1041827747466748 0.06570213822203212
0.004678236876253244 0.25706860888217264 0.5887100535696814 0.09953183677004618
0.03059635329726831 0.25844690481910415 0.3164240969351414 0.03224796400972104
0.00974588502529616 0.25395028282090704 0.5073515417737526 0.06045849233670213
0.01966472628025854 0.2595957561807947 0.5365446667805114 0.03193774310056945
0.012917951624446738 0.252060591022739 0.3002342747063962 0.06570638267319436
0.022572455102190206 0.25010052621770307 0.6951564348741153 0.07795937638730398
0.02152286208893184 0.24840422031882947 0.2527440464833106 0.017429261116223137
0.015506137726896681 0.2566045953511855 0.34924972060580994 0.05541631250981715
0.02229035531423056 0.2575265903851962 0.80739693052106 0.18783276139044666
0.01968031220914139 0.24986140835679424 0.4110359131887079 0.03841760481856953
0.021690726258438656 0.26226693817482427 1.1636266712077779 0.12213475313033274
-0.0013745484179278518 0.2545689560648175 0.0652849815923092 0.1170925079937188
0.02095598221963413 0.2453494336891168 0.11321530138330457 0.0279826991888243
0.024438722504170455 0.24770602089615615 0.004076038108759426 0.010785796531983858
0.027141390714457404 0.2533157344096131 0.432645867429878 0.04914743810628944
0.020292852135787395 0.25872517087972363 0.6727252677825779 0.1675180263512366
0.019219676271322893 0.253461587617107 0.32362262579346607 0.061961308617278194
0.029600887977008324 0.2590693983205663 1.0899845412333589 0.08172282658187092
0.03715513587393198 0.2607189135633924 1.1806586323192638 0.22520186324853275
0.030165088053034254 0.25360226357470184 1.1391394468371323 0.04303758675607179
0.035757312479614826 0.2600676338021162 1.6906090631150683 0.13421662508824656
0.0001732661822187835 0.2525539977238251 0.19663812342097423 0.11715957785031147
0.01600292056768422 0.25794869052958047 0.5447126097477634 0.06234147418435934
0.014319046601737226 0.260706872102617 0.36654528880849613 0.09270332052833218
0.036576303741126553 0.25829731056841587 0.9798509229486468 0.10998829302194649
0.022162353411246654 0.25249604981365353 0.5867407153928114 0.16043388505397274
0.014893135946373169 0.263439342883108 1.2419308818606138 0.16938411747434187
0.024132838445487633 0.2534111605977855 1.0762664179359724 0.057749993993426514
0.017190483804917632 0.2482663483483637 0.5195308018344821 0.03524538401333778
0.024047669429285077 0.25535203441404414 0.02023122387008717 0.04268164566689322
0.02462278169854881 0.2603483824177312 0.18949481161841158 0.03848933251878729
0.013627671523926235 0.2582613880969704 0.4647068688288651 0.09982240046074539
0.020420095334993414 0.24758923405796512 1.072574189692288 0.052818276510213515
0.016991596799266845 0.24941888189943684 0.618598897797857 0.03288199428672286
0.01954188978256646 0.260040146432734 1.2444315272911817 0.15237661461854496
0.017592383974470566 0.2571083216125882 0.04522099689250308 0.06746548534937076
-0.001090809229288869 0.26118513016381034 0.2610087808195767 0.06884842413478791
0.025152362753703972 0.2574549227820742 1.355742323719497 0.12914942343002264
0.027397350652999062 0.2553790985416997 1.4225027706750581 0.06738345624481382
0.015961213126812635 0.2576588052203822 0.8119629334977921 0.1813256549408425
0.023300826171114113 0.25606321384078923 0.3589090436741585 0.044663731236167216
0.0155403719212479 0.2579105955481484 0.35190649550433883 0.08184567166273837
0.015753232920187068 0.25587813549471067 0.5695527130777993 0.07679581748979972
0.026479457196013176 0.2566633011394527 0.677837486358906 0.0714106083770256
0.01687253304407611 0.25243675306285407 0.21204726914627256 0.07457509865201443
0.015058410123931654 0.25604882666239015 0.8253701245920916 0.1396701602533829
0.019879476936888577 0.2562099987653994 0.39002568187603903 0.054243396549335736
0.031973446613491954 0.25887887319637154 1.208756862830271 0.10032872539618769
0.005893204519254564 0.2512348162597529 0.15116506639237123 0.12011050239695359
0.0006346091038962748 0.26301312634593005 0.012024950441832674 0.0921269063201585
0.013115565033087407 0.254509972116594 0.5590672853398079 0.025273016076563945
0.028476077764614992 0.2558747789816937 0.36555934574689286 0.03044556210825692
0.020204851948601703 0.25083315590196786 1.222917236116486 0.06321839623193669
0.023298485610674116 0.25369891704483777 0.792239175743228 0.09440790791481175
0.018870035794344035 0.2538124532476915 0.8845698045123812 0.044510453805352
0.03142623634386626 0.2532300421746993 1.301208667170493 0.04259473535134933
0.020225719223841428 0.2586819461683002 0.747735833593933 0.1738447207761556
0.008962487521646426 0.24805747295633188 0.03314327860436845 0.040620465352213184
0.029203362954958217 0.25697035511594385 1.7492925609525312 0.04623938240977088
0.029011213250274313 0.2529849654236584 0.03856478903444743 0.03831545517610013
0.011686981359505319 0.2518921171457457 0.11924808203826175 0.11341901641853727
0.020388775013253806 0.24855803451718694 0.9965078618240233 0.07126629006308308
0.020236646767735227 0.2590535318473017 1.0287940935346738 0.16015443825005754
0.02354075263907867 0.2557890172161569 1.2733864607986103 0.10963079550814747
0.021152158205103237 0.257625919842569 0.908905365663508 0.1742856313177263
0.02285066291787201 0.25527574310033857 1.407016335309891 0.058236735255383684
0.012169813990487737 0.25634793721340826 0.06485534668089422 0.12604324214580917
0.01834230723336592 0.2503109266987806 0.2770833516614536 0.019269368026243912
0.008831338572976393 0.2558429092860359 0.37812521575513347 0.062414448468545033
0.015771594282649595 0.2531742694111496 0.9543152573371761 0.06481149655952421
0.012344107698906884 0.25124693787640484 1.0902096037751083 0.08413415034051204
-0.0029474585010031027 0.2587760838857516 0.12373556340834453 0.09689607956343849
0.018395043572662195 0.24660135816399173 1.0176086560656603 0.10555646577161579
0.025293220188925044 0.2533400932163307 0.21932878168768108 0.01785430271957763
0.02306662497939002 0.251044109528117 0.4711609230685858 0.053238131890618406
0.03039895535250521 0.2556469261349723 0.4219176104753602 0.03750508921417107
0.01667891101969181 0.25591880226454455 1.5114747913816202 0.11570119271497398
0.8782088105072637 0.25388731692284633 0.6379517424236649 0.02940592722659291
0.8940850258529605 0.25311007749082176 0.4873986423679659 0.037238738719028316
0.8884448989616742 0.2536988088694887 1.4841032527364086 0.08126441208553938
0.8737385222119787 0.2546797617791814 0.5203048933784713 0.10470050457592632
0.8738206323935627 0.2570419334716253 1.7751330704222619 0.20291332910444618
0.873798593093761 0.24972669164253264 0.0731834740719758 0.02182166262676793
0.8818544479951443 0.2621851297222893 0.20165025327606756 0.013648184278730843
0.8856301050618782 0.254026634232068 0.8689788184462626 0.08548812358898164
0.8786449130745267 0.2502351122597002 0.16365194214809564 0.012493841213057107
0.8837041377440362 0.2560505678788033 0.22667035930948284 0.010257411140966583
0.8893911075524944 0.2540012194350907 0.5202104115766989 0.04830291781911256
0.8917572307500478 0.2509721641292726 0.28473524995551847 0.0237124998178792
0.8823905059732797 0.25539932151776584 1.0585653972354125 0.05683279587537994
0.8909250871086299 0.25909477629207345 0.3228495905530928 0.12323380791558976
0.8724188699137824 0.2515076084460712 0.02401459102047877 0.010184669977058544
0.884214490923345 0.2537060733826209 0.6161457044883303 0.021848253558242853
0.889346747126537 0.2575575306085726 0.5823931812504581 0.10501934310581745
0.8796492871807705 0.2531354659473964 0.5590924184416077 0.04640008726271801
0.8976153911697865 0.2583230276157587 0.17456993159983342 0.06414042274540148
0.8958503727545855 0.2503424871760084 0.7620195565012731 0.027744072350535758
0.8772249074222029 0.2543714484928111 0.7345912341327919 0.04321783828735227
0.881227219092565 0.2543581811124132 0.6380425433905046 0.02904621020345331
0.8715779470127591 0.24745957313525654 0.06217300527578073 0.0124187798539266
0.887480163095766 0.2549092878792806 0.14552777745646234 0.007009147043148906
0.882279664524551 0.2517738539260847 0.1280243680997298 0.009658847846194777
0.88380636355935 0.25767362606972644 0.4000029789939156 0.07488036688711762
0.8736320456738269 0.25724276438787863 0.7803040341512104 0.024849966524621497
0.8795443689118618 0.25018152773002156 0.9530784000566537 0.03686667523026228
0.8782149496111701 0.2632855144297003 0.9930487243249256 0.23493792615208903
0.8802304788876407 0.25987795400053504 0.30110559795854414 0.09602715219183255
0.8899627011624425 0.25449596202752706 0.38168596881867795 0.029956568263402265
0.9021462333022726 0.2592440742340501 0.4200652504509547 0.09570410680971476
0.8775096118503294 0.2596544898241721 1.4571731823186795 0.10195200280810737
0.8746579009779663 0.2609890430840599 1.2752077654121323 0.10825110701542569
0.8846053157130837 0.2557710122685889 0.3834446999812057 0.02914366788585251
0.8713437575784122 0.2536655205799582 0.31871853121680316 0.016061678053442423
0.8712126574870174 0.25147575856606247 1.5396990195288647 0.02203957041697974
0.8757324083748703 0.2661333208455853 0.9783169066750214 0.19844046457222467
0.8808894862507803 0.25899888687510836 1.5001169650978299 0.07806284968368903
0.8770574052336189 0.2501438611699909 0.2452010665236489 0.010591566598084965
0.8959004613384637 0.2486092086500599 0.8000759605092387 0.033411287569835656
0.8850942517082635 0.2474244113069855 1.0347140553678789 0.054488936106838824
0.8855416504466507 0.25710353667560193 0.47296543329621304 0.1476084031334734
0.8874338078857543 0.2602039463441336 0.2626112346397868 0.1470637772782477
0.8863365951676687 0.25534642201752145 0.7409769508022728 0.04614884599998741
0.89606443082928 0.2579337245063181 0.03705242742243877 0.11389555828014696
0.8855859852260319 0.25885659747155915 1.2248117407755832 0.03610436391610795
0.8857372028967992 0.25541551754904296 0.4562859745111385 0.0454277950660107
0.8922139462123745 0.2524837910553503 0.09316328409858358 0.024982846250517082
0.8727790329254875 0.253911688522919 0.3659478346342064 0.012059816797409738
0.8709740152125877 0.25389486474583456 0.2943920309992601 0.021270188144206212
0.8891358756602824 0.2558657887278181 0.4024557777531936 0.06536082790496676
0.871339485645935 0.2516175294859498 0.733490507573524 0.017104879246508616
0.873997804119337 0.25350628518302804 1.2996755934562396 0.04651936830108348
0.9012109835989385 0.24526048050994423 0.07272765726387398 0.016835224088242343
0.8658614632010807 0.25721020819940416 0.8749876142584292 0.1527439505538238
0.8820900937409899 0.2545838665903007 1.0999559398882588 0.018343632094762627
0.8937727755614098 0.26375616555922926 0.6175846064463333 0.17283363142304628
0.8859902296547314 0.2605239852411237 0.32544441213704156 0.22841584645586707
0.8772809366223899 0.25891572624246695 0.8061591964346215 0.1646881106760091
