x y z curv
0.462923075769589 -0.00558555343678633 2.2983489488967366 0.04179333619261863
1.0473287227072021 -0.005751416079923703 2.3950755859206017 0.04323807824902154
0.22573550296518988 0.000889959440423073 0.5016810315364532 0.02001867533578801
0.19500787741214315 0.002941368199596597 0.9385887946214142 0.029562642250854226
1.0083603310348983 0.005618677894347171 2.11003709363384 0.03804386317222197
0.44363973503979887 0.0008922719439555114 0.9874363339123953 0.019999471802604037
0.45424573909171984 0.0038593446821928944 1.383832586860645 0.02891998352440068
0.09520141918955503 -0.002003498555478676 1.8469042864333756 0.02982668732886636
0.28666254399014096 -0.001406641544967556 1.7052292253109849 0.02230728782211874
0.02601620775973185 0.0026542015649875634 1.4271118712835356 0.020706290021324528
0.13551723665378587 -0.0017746888135155808 0.9941108451400597 0.01580898679534668
0.41207148610453725 -0.00315815213206195 2.0725345465017555 0.03675513184298333
0.667477673992375 -0.0006093046864711339 2.370842546850433 0.02366808583161337
0.3870762874409076 -0.006438603365605557 1.4784896010860211 0.030022648517504347
0.40518812395919446 0.0032110776395368333 1.3507456202765966 0.02491661616404799
0.4253404847781143 -0.0034493783042415693 1.373341945556043 0.024192021353412693
0.7020463409043691 -0.003027443425428132 2.3461378493412552 0.01685446967357899
0.6393065406935753 -0.005270121718491946 1.677048172249604 0.025503987387257898
0.5680721116663634 0.003400482188607691 1.8841441449872338 0.018423094358916432
0.4344351645046313 0.0004616064302215385 1.8106295368102103 0.02118434252157847
0.8248992102911658 0.004521456816551076 2.177193781526012 0.01950768018351639
1.0893272276909827 0.011013240945204672 2.228933409910347 0.027785884314879515
0.4659223311634628 0.005151476735513815 2.501948563851724 0.04841283695841887
0.6055134624765688 0.009074238766819757 1.3292274046788344 0.03185890823094717
0.20545571047547903 -0.001048184431075257 1.0040975187151866 0.04263677533790802
0.5274232859536786 0.0037044074592054613 2.405739192781412 0.02227727995895602
0.1341567007098962 -0.01042823172146097 1.3284402415434708 0.031099030504039005
0.5538991072450006 -0.006494329659635763 1.3670545128835812 0.03632530529138492
0.36074559607610307 -0.001050360205788065 1.4523677067250254 0.027284770836264703
0.9320395785587717 -0.011532871414751315 2.3352136521964972 0.03921131269728946
0.29878885593519094 -0.0054903759981944165 1.5496750190593476 0.019042147515083676
0.13536090368904227 0.0021016966273531613 0.493069420156812 0.0323192780870509
0.23841400366615487 -0.007557515409674793 0.47936209242575123 0.015009300533500643
0.1907120648186298 -0.008222629900552832 1.8001128901106282 0.009527283213210246
1.102395783514799 0.007059231070031031 2.2953845433977302 0.029732789558451322
0.7512456824726382 0.00105549776142906 1.8767769352161316 0.027120701378619296
0.6233353111840906 -0.0006750314379945335 1.4433645740740855 0.036088115503871976
0.02325188244860758 0.0029676475650464392 1.188163165160769 0.0279530286998337
0.15350588789186712 -0.0036349547878354515 0.7115025267501083 0.035351002834484745
0.44269868794033695 0.001960230631595695 1.1295831432472812 0.016833446451201835
0.4536665155994841 -0.004480964172970492 1.4637182009429686 0.03681337459129156
0.9908541656335935 0.001006937175624633 2.339051288845275 0.0287527042402971
0.34299766020847333 0.005765139588447084 1.405575956437886 0.02046232513638926
0.11394332396886694 -0.0030040571564905463 0.3065980986758006 0.03851588491342789
0.5758769900868035 -0.0015555809818388424 2.0456209536923535 0.025482661986684356
0.11099678862994844 0.0027566802994917765 0.7995193806430355 0.0273563592712179
0.9813023169378342 0.0063908842696908975 2.2720144194107244 0.02781253396140533
0.14637597107730843 0.013968240440801425 1.6574369412277068 0.04710677218119846
1.016983719504505 0.009741589645335181 2.0567527513038284 0.02557773573489796
0.14121303579397224 0.005729639628111405 1.3626766570623168 0.02786519516230986
0.580908985356493 -0.005872834855699372 1.8044285937687772 0.029841079429615443
0.28069048530135976 0.00565049437810551 1.6909093062453568 0.024412626304606277
0.03480673369306089 0.0005884699953616825 1.8989217306946167 0.023944673451208157
0.0394178049967601 -0.0014409273497423417 1.7608277896848274 0.035890497780790336
0.6733269035455213 -0.0008369164887792646 1.5407324886314553 0.022204496257329245
0.662859508701283 0.010173779838562472 2.2683381548778105 0.025144498778443703
0.3067917620750818 0.0074551571770886714 2.0839940807362924 0.03846430716402653
0.5225195198222556 0.0026593638962274092 1.0944409383400155 0.030228814723001176
0.07521525230442647 0.0007145093726163015 1.1322619305998274 0.018456727349385107
0.43086745717924907 -0.0019970276704503933 1.3719417334581285 0.026474519932881545
0.5478075560177025 -0.004104488435282923 2.485239089299636 0.033423816050245074
1.156253071163756 0.001933934865362763 2.496808451096683 0.025008671985464165
0.2807866731413341 -0.004821340180220803 0.6231513851423254 0.029984542829962966
0.13063337129394192 0.0001698536928511966 0.3676513188565505 0.032256631012555596
0.4298194133477722 0.0037252742865077817 1.9846275827420108 0.013926614951394464
0.6822976276260341 -0.0055793468425910505 1.8840439566293472 0.04618972077128047
0.1919261108833521 0.004125561124127092 1.9438741557323003 0.02458592936988068
0.12535208757718797 -0.0017745037216697153 0.6454304529876291 0.02426161015874072
0.6088632982577631 -0.010355504756191751 2.317148562133026 0.019681429545632782
0.8440551050012111 0.0022692989763506235 2.154334592459985 0.028818102759461138
0.5964293916183507 -0.0019364522952137547 2.3204847989605017 0.023235314676243304
0.31152609428120465 -0.0006634757119210323 2.2945869110456174 0.01975204218639775
0.1892105744585373 0.006499558491352312 2.2102471545847733 0.02789916469109235
0.1386145528374662 0.00036659345879026003 0.49485490126994924 0.029318334748312337
1.0172312888781747 0.012532422739986811 2.4122813447969396 0.027236379192298155
0.5105091532187493 -0.0006276908381465319 1.8238998219399565 0.03112015050080414
1.0719117377788083 0.011856261787808173 2.2705395113428852 0.03616215735616094
0.4802086314900343 -0.007918398150805514 1.999593967768726 0.029164699752142236
0.49254614714384953 0.00430716737699407 1.9618398105393682 0.030023020667253365
0.7402635823017363 -0.006533955322230731 2.1074241546744763 0.03876748073637247
0.5423978594401851 -0.014852702859098725 1.7235159154910558 0.0172454869091496
0.46188120486884715 -0.002132978235799413 1.1268067535418318 0.020220035729251847
-0.008224770141761801 -0.0005028482863352398 1.4458697952991417 0.0284769728546449
0.4836250283371093 0.0022589285619407573 1.174026245025502 0.016162849125311952
0.9317148087041346 0.00933499851235194 2.2317286305223663 0.028631420270480674
1.0681531863901172 0.0010565546357305773 2.368589508272219 0.027027042514633805
1.1268481039710998 0.002061137438790373 2.2530133502322833 0.045148544063022
0.08264235973126535 -0.0011768482941729617 1.7673238968595042 0.02859024532088869
0.207295684997416 0.002860796087726153 1.971419612313315 0.03287985341472313
0.7299683937397594 -0.007913928924318355 2.43626163274088 0.030896358450766773
0.10692762199878833 -0.0029009109634681746 1.8564148965026608 0.037762740577493105
0.13251108440474332 0.006571376499497298 1.3982828394102642 0.04239796840244733
0.7091486648465563 0.009997945848276277 1.4321384721651016 0.024933987409213907
0.08378101601792026 -0.012868079282368206 2.2100572902102824 0.04059267082117467
0.492826272607851 0.0007229469485322189 1.8854678351288552 0.02155441477330456
0.9530248954646274 0.0010932178306901352 2.1870412993367445 0.03669429089654181
0.4963958024779102 -0.0032843984186217354 1.207190103924334 0.01760424518817996
0.4018595276322208 -0.0008678738299517334 1.8688071790805116 0.026549214680669838
0.44042398096335306 -0.010304247340582794 2.481906353146337 0.026236523806007928
0.03874113040736891 -0.0009029981535850422 2.499646011799889 0.0428634807799693
0.40107101785614846 0.007267356519745389 1.7621097759216466 0.032551579556877513
0.08303532242447796 -0.005862043061620771 0.9386091613485595 0.03043513264311509
0.5610523066794878 0.00035896601267848256 1.3099588443263013 0.02796602467716052
0.1817729983665224 0.004416709281941651 0.7307157100502785 0.03472576373416576
0.4051441127337384 0.003535586417567153 1.3061587937281898 0.024153468044988982
0.05721228729468467 -0.003489379658704466 0.7506768259251637 0.028318065094917716
0.1872770291642686 0.0029478723019599235 2.3437902860199453 0.02446910895542691
0.8495532063470566 -0.0009278123375053603 2.2073125940408347 0.03970115122219471
0.5235355747696532 -0.001728102703989658 2.2321762230056756 0.031045141528118225
0.766412327953286 -0.0009989073214111157 2.0348696592594657 0.02889095791261154
0.05086542817137552 0.002002906911655309 1.3381555991964336 0.03004310292170618
0.2360266284308629 -0.006980221079205949 0.5310267875717667 0.025918306777066802
0.5245346285215795 0.0015507306324137222 2.1274383609316345 0.02860732291773877
0.19176950058091952 7.513471334722852e-06 0.8125307566683764 0.0225627749181778
1.2232686936246377 0.000705327481571468 2.466210749358282 0.03414476813523185
0.6255303899365158 -0.0031476215230728413 1.321935596983129 0.023801112246297607
0.22524933965513233 0.0010018139255022075 0.47259903677573184 0.016403038796498032
0.4611172185057241 0.004853252320521731 0.9296743423137377 0.025195585580738793
0.8173391927384597 -0.0003783320785260294 2.050979830648021 0.03303939114496737
0.724806719842514 -0.006236885946619203 1.5815733610861646 0.013639430216042586
0.010308865703474062 -0.0085567601772073 1.6558461337274943 0.05301336364547896
0.2612304916934666 -0.004141422855468369 1.3872639438102004 0.03281643393620535
0.4624049533023099 -0.0025684010309790025 2.4332352639868633 0.014361023330737984
0.4010508480842206 0.004679553232356085 1.8247942956002863 0.03412453788646336
0.37380810762439703 -0.003255804196436703 1.8412116192830337 0.025677305584097976
0.47195186680216134 -0.005318334245760416 1.3518832511977974 0.025900896338573134
0.6775991661693885 0.002668367294831493 2.4945193271925974 0.03987587971216959
0.053672760194622623 -7.584832669916742e-05 1.2725932045869595 0.018423717199728674
0.03667907623502331 -0.001955913030717941 1.6981922494197632 0.026774092952116975
0.826898187311967 -0.0050050390545733625 2.4540707718368724 0.03060344485256511
0.48037075200377927 0.0006468763584487881 2.0770100044038937 0.023045421751348116
0.03607457471988629 -0.0028006080493640844 0.688571905344805 0.041315386483294525
0.30383233000300075 0.007289405491562929 1.0752081286729218 0.019990251623532802
0.8753156076596549 -0.004207965979732477 2.175195507362386 0.0341446113161739
1.0469466960773663 -0.00872493736848089 2.206396182913946 0.026857568320575828
0.7096430819668436 -0.005381900163030274 2.2073312284528033 0.030422718557131922
1.0867109391343275 -0.000211370548291974 2.35946992122708 0.034081040448702665
0.0975968132631004 0.0002096794584865475 1.44032388806019 0.02507436205379743
0.7685648312215161 0.00849796731929038 1.903282098611745 0.027716540131212813
0.32044914613314607 -0.012384556057642078 1.5981741477714355 0.039942619494546944
0.6896947213178405 0.000704987657523782 1.743843858853805 0.035544941617451024
0.9627841712309818 0.0006498868221038122 2.216787332420184 0.02025803158113013
0.896209815122766 -0.005223994510584058 2.3744879083793466 0.031274090231526996
0.4690420413938439 0.007179200654236529 1.7790828763878426 0.019887804314504893
0.16156493815708428 -0.009113097843695399 2.0368870134942196 0.025588020954939818
0.4801679026456792 -0.005411521188079054 1.7334570586029494 0.0273385253074448
0.5108066163778372 0.007709298837040318 1.3728406956717172 0.025897432789978733
0.0048336121227574675 0.002462999433970976 1.0106036547747137 0.04823311714208739
0.1793885544845941 0.0021474669589542786 1.8499238283238622 0.022272902065142573
0.023005941776741003 0.0014581475442878977 1.7147974431401642 0.02649433393563936
0.7324630412175347 0.0006296251359979366 2.109737583512952 0.035673229764675775
0.1263398676182721 -0.0007613666692846441 1.6753974104827762 0.041204780849435685
0.476050613668562 0.01117264092930239 1.5491816623083117 0.02167172447386639
0.30979123351898036 0.006626720834248292 2.4571881944007012 0.017434058334142306
0.20003087260722519 -0.004970787203080815 1.3926889850011228 0.02757152562491639
0.6566844513239338 -0.005087890962099558 2.2726265421505696 0.024082651442252155
0.21322543842987748 0.007656412374812151 2.4702012612892355 0.026843753317951902
0.1561052699296155 -0.00114834584640497 1.8093226659630615 0.026077404626048913
0.19148185262530948 0.005230805777961236 0.8854857562076742 0.02301195086516449
0.021551712259507215 -0.005003960094857498 2.3915344205455114 0.030703637100766644
0.31849766309644 -0.00606923961257165 2.1544008611687784 0.04679683510280912
0.4543306162168419 -0.0013865207527718815 1.7129042635248433 0.0287188512947782
0.9036596797172858 0.005542023974557981 2.0172881877120714 0.03426405651431771
0.2839225028704954 0.0004961635262848372 1.1974730908396853 0.024350265227238297
0.43235613269833395 0.001959790054387797 1.1370670797942448 0.0208418102978506
0.6712406656897327 0.0009348617201959437 2.1671798973756076 0.022810945933386458
0.08912587774128757 0.007733797400840973 0.9731099208585011 0.0340249244469655
0.7257009747157347 0.008855932167170935 2.3354539527359126 0.029168835542720237
0.607809941401119 0.007226916071171484 1.254889026840913 0.030924118207558318
0.0672544255878434 0.001309276218492455 1.7861959926342998 0.023232146096534317
0.40831560321906407 -0.002155525230713453 2.4141070693931166 0.0293919845911313
0.5036406989917314 0.003548257818507405 1.9017088310690216 0.03172401379511826
0.5552889021144318 0.003161280020690668 2.12669086009048 0.030078200340714793
0.19135547362859362 0.0006981610381594539 0.5808192045299012 0.024602327636147375
0.1757386279217866 -0.008455374016224647 0.3599736426063172 0.03580001669662822
0.8960132103458833 -0.009727816085311501 1.9852918151567418 0.03078775833703022
0.19634611311705133 0.0033348684189495616 0.4149898416867687 0.03213085778309621
0.09935689206071875 -0.0037717711769670054 0.4749455942907884 0.047261000684874356
0.49103236743445045 0.00020458069959338008 1.6634836372331194 0.03026748225703753
0.04659603381914829 0.0033392103249498778 1.704003825734383 0.025200559033596664
0.05487047493018896 0.0038446610266990315 0.5246426387168333 0.022533606569584776
0.8617782412681307 -0.0014572688994262764 1.8750454272591646 0.016607739513778256
0.012364259240252945 -0.0007211735600826667 0.7532090118264837 0.04051818670610034
0.003219260646824186 0.000538584736303515 0.221790675213786 0.0468138973681312
0.942077115918689 0.0013248362564557748 1.9948067901716864 0.025343695484128154
0.37391861868557397 -0.001100304318756284 2.370316807105476 0.02640157772953969
0.45884842575529255 0.008817536542455607 2.239959917537076 0.03356765418128142
0.23446868428300666 -0.004808219372775648 2.4134770879700262 0.03778316913246144
0.5775942752884257 0.01016772147656329 1.361260961278284 0.02224131481808086
0.03464400989719228 -0.010150825192795388 0.872102569597765 0.024940961565517807
0.40444383578471477 -0.0058550248789255915 1.0174367289110045 0.025304832326242102
0.18152605181652404 -0.0022778172682410254 0.9631628924959487 0.03316156050206589
0.2840035220776875 0.002139335669506823 1.369133063314131 0.04408810311285749
0.5471482931045488 0.010631566624100744 1.964432724154058 0.03198575760163085
0.32531542189176293 0.000743188714965092 1.346055319431843 0.021004974424771422
0.5323111141002015 0.005999926939789556 2.412979214378602 0.02036948198059412
0.3851308317228165 0.003443058408299588 0.790416786277681 0.03274148744439672
0.4430854858962731 0.0050085016712184665 1.2414321977114327 0.02822862434621787
0.6856574272700807 0.0007650877772845625 2.3981054691125823 0.04042867851248712
0.17835836465782473 -0.0025597231620373678 1.2136506404955236 0.020030143601444613
0.5207119876647242 0.012886880883060003 1.3444541879559502 0.02037155865615383
0.44112105326633233 0.007453964201379351 1.5226833758409983 0.024209431413885422
0.16474372155465739 -0.006024127931288509 2.422985108793415 0.04048820004071111
0.7294063122198733 -0.0034660629988985253 2.170298964503931 0.022111708110209977
0.0551564246030071 -0.0048683311173995086 1.3141703766047892 0.02739668183869594
0.3740534937333636 -0.0013200794290558224 2.430651685140362 0.027335763469733577
0.5994859614948843 0.0010242897127089195 2.3610333512272828 0.0380446178430293
0.7145352671828064 -0.005673202969004575 2.363493745830366 0.017048472152652983
0.8524291520549792 -0.00019212290274609912 1.835506289279067 0.02817366165746033
0.2240359500376442 0.001899786301637134 0.731822876398421 0.02554597510868995
0.42568239167773386 0.0005330124433436071 1.7577154211928099 0.03321285735377301
0.4075385018968078 -0.0018516242839169972 1.9621982587075395 0.01563692309259863
0.8481474186414003 0.0034244556066534253 2.4130789327047606 0.02956738223123038
0.5614997517375684 -0.0012279670158776015 1.498482804885877 0.025315029603476147
0.38752299822213715 0.005553869619788244 1.8122327239442646 0.031249611831780016
0.5311800730809145 0.007904326168674232 2.1563556429305994 0.024545933682783214
0.08797175646348268 0.005985326643949839 1.414685615995892 0.029310713270137855
0.06818127889574278 -0.0031873464502663157 1.5612497486089716 0.0277231153388221
0.4975791972812016 0.008250620760461482 2.4427537371241557 0.022344842427444615
0.5861151675368418 -0.00994817503442189 2.0947519872802753 0.026803154603753286
0.5051603923841905 -0.001625474357425935 1.6267287986994314 0.030763177606940476
0.07382815508630818 -0.0042667122285492695 0.5253024700318945 0.019425614553120356
1.1051650408169233 0.0011934717775972275 2.255772616283103 0.03360198239710901
0.5240989408693248 -0.009876014113879854 2.271333447705335 0.02953526607695831
0.4996907999436122 0.012298988197833531 1.774496579094822 0.021700443159556864
0.9568122115046278 0.001279225317611769 2.4099804590775435 0.014901923364654786
0.7929859844189622 -0.015770433820397965 2.446743895760836 0.03770590903583228
0.5404614549025385 -0.0027750658106876153 2.3360792349023156 0.033477937262308036
0.17846794271756383 0.007028178750509717 0.7770320793057609 0.01617062885116451
0.10926490333926453 -0.004998826862538788 1.5137774549641332 0.03333174526847798
0.4595061793755463 0.006601204891333189 1.8072403207280257 0.018128575231324776
0.09719532147311756 0.012189624303722816 0.4150296983619762 0.032639216766460595
0.2153127889965375 0.005827042110711198 1.9291191773957514 0.025290406863287453
0.22125028669260274 -0.0010602273589071897 2.4519016099500486 0.03260284975877552
0.14232775805729264 -0.0008974297877996562 2.401335882447191 0.03955644763663608
0.14880763691404675 -0.0015283462174183948 2.4884163987741252 0.03982203199500983
0.9167467248925784 -0.0018022472067956209 1.9377302478912108 0.03510351561889849
0.23865002059114745 0.005507950024755918 0.4929701747806204 0.019362994973004744
0.7149438108477046 -0.0021168699243690045 2.4652422843958233 0.03999358752944191
0.8011118481079171 0.002526748527072334 2.3380654074888683 0.03841165680899219
0.6240845980158626 -0.0003557140832676316 1.6800578709875134 0.025136891713737387
0.22841089285181315 -0.0038047943792152757 2.453997264854125 0.03728358049962036
0.14224872977148603 -0.0037542679378588613 0.3476188680885965 0.034448083131568566
0.277514764610781 0.005790739451770063 1.4565180269217264 0.019538120473754216
0.4788738457769056 0.004634202983950747 2.3058002909807063 0.034745982488813235
0.9527056249882819 -0.0012084720574842014 2.142426142094343 0.04533524342499949
0.6340748240575893 0.00308723960952057 1.9252233655969622 0.03219640827012855
0.5912643921937306 -0.0025843347732106624 1.4814293253863258 0.02447663493085177
0.31101577078782816 0.004049422349594621 1.4863434388016799 0.02814927866720747
0.4366194186542924 -0.0016058523995110675 1.572813901458377 0.02140189713355109
0.6938309199296803 0.005125720732436923 2.280716819830011 0.024606749721002966
0.7120472034657789 0.0009428482784724504 2.407999265888163 0.04422067783975663
0.5882646514351956 0.004114369651960727 1.8056161027858304 0.02885465691442317
0.46204115747120994 -0.0034288047295764445 1.5032302417735373 0.033348104184368677
0.33552162148858233 -0.012639734735890043 2.0623215534164188 0.030776371744909815
0.15056523342980363 0.006672964274391935 1.682963567834958 0.04889972633493187
0.25632379883504486 -0.015924776684402314 1.9651019295160557 0.02864335039343499
0.45946215039334803 -0.0018093116984812328 1.5597442772534145 0.02229177026226047
0.5656387820920121 -0.005388473339578778 1.1690883476989296 0.031712042692111635
0.7605341082067879 0.002818208774934948 2.202466905908254 0.03165881776173824
0.16126066247930212 0.0023714691406774356 1.8623711171904316 0.03456452989046202
0.22927570879027354 0.0005778321697549 1.1542650515664155 0.021329915005551474
0.7200420976511982 0.0007645503321600325 2.0624229025087804 0.022978182785771264
0.44764359838222856 0.0003639244158225171 1.2826138045279487 0.03548661574633197
0.7721349838135075 -0.005103344178699646 2.45281861658773 0.05131364074963798
0.14117020288948084 -0.0033408202240967884 2.129876832853779 0.02544744374460534
0.5428332982260536 -0.003337200238063083 1.481161206280497 0.033802132140456645
0.3787450253453424 -0.007944168816787115 1.9376955256764652 0.028716294128154678
0.2985286306033757 -0.0024509562878872082 0.8744005485182671 0.044185868389591876
0.1763649932204045 -0.000999656788020662 1.5724835949027074 0.02053837271430266
0.49458327491204335 -0.00046452981097656193 1.578491427291944 0.029534687855646315
0.8755298696488326 0.005606731705424766 1.7677718214917033 0.025786693364096114
0.26984589412214594 0.0014242579368674748 2.0871903905188853 0.03479621741818817
0.26453057251447376 -0.0037349502201912033 0.9851502054536344 0.030097088256705287
0.6255239759898409 -0.0014052384508929042 1.4548349632212743 0.03176470438486125
0.16051021613717686 0.004246479696755027 0.5171874297709337 0.03961480938377565
0.3482942283374075 0.0023447719466918584 1.565468927613534 0.025635626779798786
0.3209486189331506 -0.0022583306035130757 2.1882343839362006 0.028079872196301727
0.03309627114364293 0.005076288042293177 1.040469220558559 0.01917323963101859
0.15289111977411848 -0.010147433181724034 2.119917615429957 0.026253704258465082
0.2664237132523931 0.009396074948835206 1.4746109220848471 0.030208273122635267
0.022857120298634664 0.003159974819993835 0.7801428096414894 0.021937354753630962
0.35646514626871084 0.001426026998735728 1.2705012001266363 0.03008707017827756
0.4448173381730729 0.00672233888805795 1.0979712113383098 0.015268120272406953
1.0673255316410197 -0.009013677240995565 2.444745813357085 0.051136785169728985
0.5547076780569902 -0.003129431528263708 1.3465535360860696 0.02980803614462256
0.577007273124143 -0.00274101294325937 1.200532821810547 0.03398404637838576
0.19005651976840543 -0.002865184999454728 1.040976532546697 0.028543838862874562
0.26899866937687217 0.0003932756456389902 1.1479239153341776 0.020659783277155445
0.10403581772220198 9.485711221222682e-05 2.2436363393961947 0.023037696768861138
0.4990039144875569 -0.00039125060978761894 1.6396788313775161 0.03622183185990014
0.23302423895876173 -0.0016819297335243216 1.909377421382615 0.02244164103899168
0.7467323683021353 -0.0011484107173523877 2.026474854776983 0.029193137233780066
0.13566553035263632 -0.00028135325009329327 1.1461701058545142 0.029292757391489913
0.008083330249427697 0.004939356743839515 1.5564639088886327 0.03812822908157742
0.6403480035595219 0.005169488418800509 2.39848006647555 0.031828593718999425
0.3479126027420792 0.001993720329926937 0.915107887404109 0.03923296370509622
0.09195687431489806 -0.002665066899448893 1.3397479865572703 0.02874320058389254
0.5476855410893349 -0.00735450664233357 1.3804989782598514 0.03199762098469284
0.3058389046308612 -0.004709582931267387 1.729866930681616 0.023014404524053348
0.30658722046066267 -0.0017648077429910755 2.0379704185984773 0.027159179935204947
0.20909996928798846 0.0026796947173293624 2.2704869400155845 0.025678823827054303
0.06382362933963813 0.008128715269116904 1.9684359318132167 0.04359258708017082
0.06226746165560181 0.003466654261198711 2.4351853303488253 0.032818551088591545
0.7768872632319687 -0.003419660087992698 2.034885003877465 0.029916310942837712
0.8879392894665342 0.00018477139088264336 1.8885646449036053 0.020067292926559316
0.848925134200464 -0.007928147596452693 1.9501398510217316 0.024159899857849644
0.5990166589192194 0.0025600566280830623 2.428857317231121 0.019892123593588367
0.9096856088980205 -0.009347872661593292 2.235682795738221 0.033028461123977844
0.4617102011380303 0.001857239584000775 1.0542246599930016 0.018145908934442432
0.35284860507687293 -0.004500345187561153 1.6809110558126743 0.03591264435273242
0.4448460461623469 -0.0013208796379717976 0.9984857507593159 0.020023185238076127
0.46622937848241947 0.0022536977805100757 1.0901415705317117 0.021591975593989992
0.16087204198448884 0.007469750714004325 2.3584324943834067 0.017343219619638323
0.7952860208989019 0.006795449493053305 2.3672797083365733 0.03458684108121685
0.8032714475012397 -0.008682595779689113 1.9211246899009367 0.026166870781873037
1.1178257218951329 0.005291774482738861 2.3811040474751577 0.023423148389703892
0.6538074926497981 -0.004076440377892324 2.1276429325015784 0.03461428337022266
0.11906125736990203 0.0031039562629722084 1.7597777255291136 0.028148024582574035
0.1610993678703201 -0.0009379552861511677 1.778697723616558 0.02614143370798345
0.4140496555848021 -0.00417223208800376 1.4993178124782316 0.035014510863948356
0.9614433212128519 0.000989400900530205 2.2942443615825145 0.03287571863964976
0.14982114259644286 0.0013242402045462235 0.786358376862184 0.018958875697496245
1.0264344530440266 0.004301280436167476 2.384105020227047 0.03808577856581942
0.15945579635116638 0.0024433660314343527 1.6962871820048162 0.029800537751552607
0.8923486627599302 0.0011407826518038881 2.1414761494375556 0.03379340400809943
0.21211564379584172 -0.0026488923042191186 1.4735398317339594 0.042866951039711006
0.396049927068735 -0.008625617115002737 2.177472028019924 0.019862719594562844
0.6541081091349676 -0.0074907132833263 1.4470615390059687 0.035257276473230556
0.3650602821533555 -0.01118930588402206 2.4754921043974014 0.026193473953489022
0.5899509240698224 -0.002991786893948867 1.4514777964899632 0.04129549555131048
0.4361967617473568 -0.0021290421684543766 1.080179240135272 0.019844822905027128
0.04396770141561264 -0.0006463135384385377 1.2326022774077192 0.03731569141125423
0.13251389567622612 2.2632691872020182e-05 1.9505632629770084 0.029126052587212174
0.5288582626743242 -0.0012886007967480957 1.9392353047791515 0.04049440678898372
0.41343772414863916 0.0025643155803335145 1.640029495707869 0.02646057282826762
0.09786678388672904 -0.005332049245658139 1.768672589326186 0.02294635381444521
0.23001379270765696 0.0025005393833592445 0.6956476952348004 0.019450332746933374
0.36910246472752145 0.0018064603550057509 2.3845577116842662 0.03209497449649739
0.7672958029301099 -0.0003377349809059462 1.9683772548094516 0.03841336849958061
0.5200322582495807 -0.0028094972205302787 1.1145192765697522 0.023657479338985824
0.18172825134687534 0.004559250852791831 1.293405566954299 0.034914382116094135
0.6168796361542909 0.0007709800848939252 1.5323704396669116 0.025748794822431663
0.6698857024086997 -0.015132425785669748 2.1223300221124095 0.03769303637795874
0.20834974769859657 -6.329558587672089e-05 0.4715683682907274 0.021988335191307825
1.1712451443640925 0.002179670098592996 2.4700428167027426 0.026307977588954014
0.999687040867184 -0.0053112157157567804 2.1671212736768335 0.01781937194695096
0.28595770417547794 0.00015622421532729733 1.7274321895736249 0.025845933045336892
0.5053108234107917 0.002112755390612075 1.5549442508340419 0.024660707088455587
0.47172184882633766 0.004711166544797334 2.4218838526746542 0.02205101839762995
0.2642903750223298 -0.0018626365606867947 2.402268919193665 0.023646428850656914
0.6267540232554026 0.00442343744242322 2.320671029039969 0.033540483490497576
-0.002099267601679166 0.0053090241334594855 1.2361984350943376 0.038943783333713046
0.2249761585228447 0.009925724525923522 2.4301184945602636 0.04003573904454602
0.937588575280642 0.0021149343651201743 1.9090841238077074 0.03457990396271416
0.7787469410573026 0.007120606184081387 1.7465341223124664 0.042328122192736434
0.33655372332256395 -0.0031809553153920108 1.839682219917974 0.014937800103537329
0.650241547677203 0.00238135194638119 1.7699157366824576 0.03781935847141849
0.7340224446851633 -0.0073398146399000705 2.221015075114807 0.024258249238868254
0.45020805160101296 0.0026751468077630563 1.7592703808297927 0.03480338344412914
0.1588776130092448 0.00033953968244166555 2.312691492088044 0.028968324231872577
0.114215292883152 -0.0006372162542538448 2.292790099852942 0.023640072861724946
0.47876988169862617 -0.0028705816197702027 1.5799247568970631 0.026741762739396043
0.7767549393470558 0.0005154951739097192 2.1011896413705404 0.028312642160637367
0.8824434718017318 0.009282824936203029 2.2755067581736648 0.03053149681761221
0.7089074245420923 0.0020707375166151122 1.599529140019828 0.01843797332613177
0.37833234021998347 0.0031949295206115044 2.1391046729067096 0.02922942283817999
0.4232045881557189 0.00555579763675746 1.2466082227599828 0.03740176001001362
0.5025285127344611 -0.004887116514690092 2.1288551294449816 0.027398443871236956
0.1826894490167579 -9.551980493278928e-05 1.5849518459036978 0.026085549864625024
0.06165504699495372 -0.003850875016578625 2.301036967530961 0.022941980999623076
0.09216331569372258 -0.0029594283836462134 0.2911465643986106 0.03625454178943339
0.11913403270479711 0.005182148214400589 1.314071119030718 0.04142665425523706
0.8456908235988084 0.0036392304758981315 2.1032945133990313 0.025484022143160326
0.6481309906526963 -0.006663057688194125 1.8139295298893139 0.02705760228354355
0.3926189493621021 0.001683262535748334 2.2373566710986164 0.022826554240638744
0.627349619598057 -0.0015903040999425927 1.9526897168173207 0.016782389879812325
0.923320673942443 -0.001392569631204563 2.474464534234496 0.020418977939439288
0.3578052481365837 -0.0013122353958334731 1.8440843116695598 0.021221902774974422
0.256662346035394 -0.005183169717856019 2.4742630004153536 0.0169417067534341
0.8018042603996188 -0.005138684445588587 1.8135677713358191 0.029952101971150186
0.5343382266782788 -0.00448024306262433 1.427841318084518 0.03971288037540156
0.13534327742405922 0.001628409118643929 1.0984846751590507 0.02898850167478254
0.5544524832845941 0.0030597792632878268 2.399922740328174 0.029475611391845208
0.1458177598096796 0.0009654866330066925 1.924197335117278 0.023680365977590153
0.15090267719629158 0.0007438825571335685 0.898556084991069 0.03228006002918742
1.2343303656268982 -0.004693091059797986 2.4915879947540835 0.06323753817778889
0.2041536204891296 -0.0018797977456515142 1.029250541282657 0.04206287783005547
0.0568897914416141 0.00041217717706957266 2.144143586301404 0.03466891159990798
0.16953199650854625 0.0017474348269117287 0.8020097212640274 0.022018354531014313
0.8789567781966878 0.0006293755338224602 2.3092061488636086 0.02641755980197198
1.1615732605140163 -0.0027823496501499408 2.4822771478665 0.02930937829080054
0.16475434154759774 -0.004105312610684259 2.240834473456899 0.024171422619156224
0.5723843415243705 0.003674560385042844 1.7856397291401733 0.033748246017398655
0.08972777797241019 -0.009390943837724559 0.921349923079772 0.028929354720985585
0.0692937119891955 0.009112249301010743 0.3627786694443098 0.03711736282117618
0.024013137300729636 -0.003999044399640989 1.4754496577681662 0.03364643979841986
0.056301179410818095 -0.0006661312056922569 1.4644039607338672 0.027573189360243493
0.048401385277798845 0.012188989742140633 1.2227512250589894 0.032963873614917885
0.5522332409160975 -0.005509113045236054 1.3117984634309727 0.02644324330057928
0.3867675697908995 -0.004988376815307386 1.3456635651099904 0.019046958772213865
0.9814152703814025 -0.006198260885824126 2.1659381717918107 0.01564011738398406
0.055721372479717514 -0.0020375694717843134 0.9767240093651909 0.038913825588642294
0.05745817420132233 -0.0005672743401259142 1.0985386476937022 0.017263153771979088
0.5848486473457909 -6.96973874383486e-05 1.3051297272696365 0.028568256433765104
0.5271768286074834 -0.004056881999347992 1.5372705790391097 0.03158127069681739
0.11168259468602418 0.007316524143628723 1.701582776091936 0.02762892726948744
0.7841736421726795 0.009207383590010942 2.4808697770178485 0.025102246796531044
0.5041522025749052 0.007092752366365161 2.4952502411445274 0.04507833027352498
0.7238934188025758 -0.0027283928922301353 1.7263686374033107 0.03634728535928544
0.15410232821581604 -0.007056256884446498 1.6414979660745124 0.048038566934686354
0.666908605215803 0.003183838213327637 1.994798778030204 0.015534038333843637
0.2309077660656154 0.0036668598688024668 0.7575960983133361 0.027163305787429988
0.2091311987489291 0.004269651726435595 1.807155829563235 0.023984211732732578
0.7093468203551637 -0.0012428278806152029 1.5802950870728893 0.016375078814874298
0.19762669403091088 0.003309479057262403 1.295096077722711 0.03176033769150263
0.6125176329737085 -0.005542931035527108 1.9639238707480262 0.025967541527141674
0.6878538340850868 -0.0016391777880400183 2.0118523983338883 0.02533631555309633
0.4795195398714555 -0.0005577551346350107 1.544611001656985 0.03006485781921138
0.5318821355335478 0.0059730319443304395 1.3763994653401856 0.033430747225742866
1.0111570056568466 -0.002296244931027311 2.2508161153733433 0.029464673035003063
0.9160811223342686 0.0013766423241156575 2.1431395789306977 0.04930486178946815
0.1974306081787214 0.001030436970302904 1.2860569830474804 0.03599348108246547
0.2917990797061298 -0.0008412221479508052 1.5801056270097835 0.028727809673614522
0.9957261157551698 -0.0055230171012454815 2.3285220549659935 0.03200600639153218
0.20773645993074272 0.0026739017254465694 1.2682126020892397 0.02413344374862028
0.000814377310121372 -0.0022052886364924817 1.2533092520855476 0.04763357100808641
0.7914287374429234 -0.0018162597868458625 1.6464928140124826 0.029941871088457552
0.831907390568729 0.0015567622733742665 2.1939173051225835 0.0287536544571705
0.046059428764225044 -0.006257630986264932 2.0071554999985346 0.032447896759027976
0.5000043019333702 -0.007723661697921344 2.0510152591729374 0.029784167906017657
0.2112881283753935 0.00412651730357215 0.603766277903843 0.027421732865627966
0.23183577985016093 0.00530470304899488 1.8661675135955351 0.036258520489041726
0.1314727840579211 0.0004069904566846008 1.2286525757595452 0.01865666082854782
0.8659971256465954 0.0013208193718236816 1.8363031116231465 0.02313594143791816
0.7903889065257788 -0.008270154837087594 2.1540423525849404 0.013054176985463063
0.3046766248249651 -0.008299862738707184 2.0668295670036567 0.04274346637092953
0.3775727084348662 0.007524269400762394 1.5660358173680988 0.03147868865654578
0.888254957759802 -0.0065364754198660655 2.323182381660897 0.029054694553050858
0.0656231399250691 -0.0096427182303865 0.5457618578919707 0.019410137719310258
0.3669067747159987 0.002787546867758763 2.399631105559792 0.024219002729361987
0.21011214209548013 -0.010888974594483602 2.0996549768398256 0.027697420807839206
0.7235506064356161 -0.00062846853206186 1.4867305038509218 0.025634825706126897
0.4710877063045934 -0.0022090027793142857 1.4484233846577659 0.025755735838094325
0.6387464459510979 -0.0002050563063535553 2.4530479517732107 0.02434369323325859
0.27401002365256705 -0.013248601198586204 0.6879121686498613 0.02963026132503356
0.6804234681816107 0.003938755172628668 2.169847345572189 0.023425615960523657
0.11018657585643689 -0.007606871580657224 0.5922733705608861 0.029260466792553626
0.7463758557913656 -0.0069411114104738734 1.8583340435067432 0.03029312576843357
0.16043939078739083 0.0018054847470664224 0.9657460584163263 0.023151931559445997
0.9620148266161513 0.005746437402727498 2.264977901492476 0.026876541961804903
0.7133681103065327 0.0014401202825595528 1.7779166809817057 0.027467440851373055
0.16476629529391865 0.0005525819361173257 1.301701051235082 0.03614263142590053
0.0637330716800658 -0.0013577064471392728 1.713691522553165 0.027631555109223122
0.17450825774375714 -0.008762487323140077 1.6371094139900317 0.034014379139581385
0.47651870990228606 0.00100002421576562 1.042639790232863 0.017848292187287458
1.048052877743842 -0.0013839645334327614 2.410161005437501 0.043194012608953905
0.2619286008662195 0.0010799629035588788 1.6120425978182717 0.03113333988246243
0.5588556159362743 -0.005600166296688643 2.027281772839892 0.03432157432118287
0.8764890036583833 -0.005415724900899315 2.449361853920906 0.03384277562040503
1.1414546218882151 -0.0011035353280901346 2.310336991315101 0.022374884701589735
0.1764460591004028 -0.0038681739986660153 0.675916197855109 0.026678860192642807
0.08835834897620873 -0.0036217965909275153 0.3843405675053565 0.032017176688617595
1.0448034115904623 -0.0031540259708696047 2.153368829845729 0.020510497094688964
0.25654758523384646 -0.005239920080292822 1.641425554235249 0.033437915570840644
0.3208030952640953 -0.0008201161209483624 2.0720496697044135 0.035016548224304986
0.3926252216471107 0.0003794432117877744 1.5901923364970572 0.02146092956460492
0.7911561529320809 0.000586744979849628 2.486301341045065 0.03345050903696606
0.6492869817563085 -0.002524721467889931 1.4688130206025871 0.027162644696401846
0.8622704355014734 -0.007606098899546292 2.2445723861454328 0.046915943969853345
0.5022721423181131 -0.007206299191234602 2.3619265948174375 0.033017813043943654
0.4334754448679348 0.0047870632807696855 1.6879782399590342 0.01866727246375714
0.3210258586307958 0.002887028019475326 2.429077685338148 0.02537673251625525
0.1988906522504312 -0.0029608957172498314 0.8626582390922743 0.025084535959597833
0.5558821473736593 -0.002993958642041165 1.3703778500553332 0.033735840552603175
0.7293632212960385 -0.0030836268293467357 1.7995200075725268 0.029735688897717005
0.24526193594657064 -0.009111123533344074 1.7527514217179114 0.023426625188280332
0.21716875425534404 0.0014035560254609715 1.2383834801103042 0.030328339351878772
0.4009320164885846 0.005178398026301808 1.4267299559030375 0.021466589346640697
0.09790230597792875 0.0012935006547068434 0.43715801826990264 0.038861285973158105
0.6451184511731054 -0.0065639703316661005 1.8658679758033532 0.023005207239461013
0.4826306010869117 -0.006073855802809514 1.3301770631183318 0.023569148099647837
0.33462007718503123 -0.004600992496418284 0.8306241838677831 0.03658002140234719
0.8121794099035172 -0.007616274935550021 2.295809913482602 0.04364433720592051
0.09607665616757617 -0.00035716923038169555 0.32563142716431415 0.02783428689078088
0.22514079886440702 0.0004901738149319876 0.5039377172156565 0.01960458369689818
0.3163698776328788 -0.0036796830685865674 1.6539181893453903 0.03879618232837088
0.24987741042790793 0.0018585695747301378 1.9840151831424713 0.02751193711830839
0.3122056129743476 -0.014996118191074267 1.2416742844652986 0.031948459610667196
0.3147320431404336 0.0012476500897149773 1.677315156845546 0.04106297335863729
0.2897189966246803 0.0024992772192612527 2.4608478655546824 0.01980549035057652
0.16434615419243037 0.0056419431178624 1.905080545273008 0.030206087452949275
0.018858702734897852 0.0026571123234969303 0.3262305842413609 0.04364639364627764
0.24262614048061254 -0.0019199698867733285 1.8946226782516646 0.025016682951483397
0.7290131520718496 0.004602299285394258 1.4788163266885774 0.030467480312062718
0.3104022116566678 0.0020753779787587166 1.8459543554956859 0.020734971478139273
0.3108120098173954 -0.011704968727934504 0.8148649994784775 0.02359619900200088
0.4804506185809924 -0.004199983831676648 2.1962564768072794 0.03366658143247267
0.4405024540066489 -0.002225592854898856 2.4698592762812406 0.01884962010727905
0.7129600035522329 0.0025473093361465487 2.0576088303215134 0.02058026650354287
1.1955051118025521 0.006125224217272872 2.4490822476240397 0.021157716729315972
0.24698797982094217 -0.003386132984179323 1.7816670411432876 0.021486878519588717
0.4921646825189795 0.004108751795971967 1.5683122115206791 0.028109080116101224
0.28914644818051394 0.0026628888365116767 1.9248879710956277 0.03378500931614125
0.42960822184873065 -0.0039447864113875885 2.001791298230297 0.02253182982173189
0.20103720471599343 0.005094329486140756 2.3468674248385297 0.02107298508700986
0.5364114886387316 -0.0023759184258432494 2.496778725071737 0.03272844819378321
0.148748924775066 -0.005424553565517971 2.1929756829312654 0.029348567346388937
0.022160665937366784 0.005162603758780782 2.131438858283188 0.042061563096973224
0.40152410315767484 -0.0008175589608973061 2.202030635178024 0.029613004997299956
0.08979644840515472 -0.00694434195082413 2.424969063336896 0.037516784953608134
0.2974174869566449 -0.002613780080884911 0.7615005195749938 0.026745260095115804
0.09663967884301727 -0.0035676837040755113 1.5397882274263819 0.024751178812882517
0.5648640718455331 -0.005586038869478191 2.2351534067487377 0.022189503673047156
0.4275729229266218 -0.000756951485135923 1.197851405172362 0.03031815491971805
0.656207011155536 -0.00968566700493532 2.249248694574033 0.03590423968233494
0.40992618720762514 0.004975765857311618 2.0135553071191716 0.02426503197303399
0.002011407358696999 0.002030241655147498 1.2938126483737062 0.04259808205501021
0.055803948673530814 -0.0003396874660266436 0.653355431928552 0.020978772405764255
0.7404764930769197 0.0017720377094370028 2.348559718031905 0.029757276581860243
0.06695804121374674 -0.0029229928359478575 2.3620060849106594 0.024926211102148033
0.8238240632064603 0.0033670021955219914 1.989666593203451 0.03419773463403378
0.7683116282937985 0.004157382105595556 2.122100242855577 0.023054788267848642
0.8249780903811922 -0.0006847999633823168 2.280348013138894 0.05056999976685549
1.0094976952492527 0.004034468430067173 2.030023001499439 0.02983603773991008
0.9127471397409693 0.00452290265750402 2.164659617547224 0.045641176386182064
0.6009112343167563 0.00802285735039042 1.6012094409656896 0.034206879840304925
0.2615334118418893 0.004215026815207535 1.2242455516874065 0.01978820865691607
0.13651997456131462 -0.0005508549323130904 1.4385136268208978 0.03698785497183149
1.1311293024639917 -0.00216983707891371 2.437269758658908 0.028225661127853456
0.26610282642598315 0.008012094207951468 2.3147186983404233 0.01660805339521936
0.9258375209491556 0.004047140183114013 2.250701991445313 0.028186058249620595
0.2050714861964374 0.004865687800792485 0.5685811724499786 0.019895759875882275
0.7380537727673021 -0.0012152091738163288 1.6185820606802872 0.022953646074627125
0.22786499479704417 -0.004862860478474449 0.7647299180804817 0.02754489946746924
0.11332371440013654 0.005649132107089082 2.2342811126538464 0.02013663653100521
0.07213249575488828 -0.009086624606411393 1.6095499877034334 0.042981058907090176
0.8172022206675306 0.008559226802720383 1.7372271240375199 0.026767752872251485
0.6238975365805461 -0.002562434272225819 2.2108684660658438 0.02191669881479863
0.8317087992942785 0.0009018784258241615 1.8228416829371639 0.03371832837764036
0.4762526797800963 -0.001894842261895585 1.1779338652266917 0.014249960675168186
0.5265969025300595 -0.002094546941596577 1.2139557548461641 0.02013647419982947
0.8746244366642099 -0.0071433882031070916 2.3091869880063793 0.025585911616383378
0.9606432001725272 -0.003646045799344119 1.9196043501612146 0.025213796189683935
0.02985370223348803 0.002497161494625172 1.482144351087008 0.02611707525639683
0.03551676819848355 -0.006248380817215524 1.9266704532537549 0.03373234113142146
0.7935158239302189 -0.0038240560728465814 1.6778188193304733 0.01819903455186689
0.19462734800588732 -0.002736650649807251 1.4158969078545702 0.03790063639213193
0.40576759351714015 -0.0028072737024286976 1.796976119631646 0.03714387123304247
0.22848771011481617 0.003931011933672143 1.2183109906527172 0.02284932016337614
0.323675973403815 -0.0011914956243399125 1.1267722637152253 0.036395960126767685
0.5073190554645606 0.009873264875331241 1.7828476932960529 0.0237809994677875
0.40198929535265143 -0.0006872795442840648 0.9782796564658137 0.01761002018817287
0.16534041683224948 0.007241513900344402 1.4121412616270055 0.04364880285013572
0.33596929823034866 0.0008295494923503536 1.7506193537022094 0.03147231696290532
0.1795031042996557 0.0009948837654361067 1.7169904584379692 0.0220734788667004
0.765279812108724 0.01712543422130974 2.0674562984140143 0.026723006402919105
0.10336430291802849 -0.000833592624795779 1.9106279420766354 0.02190069801865771
0.6541058500698917 0.009685034706474414 1.4278408875190802 0.03361085088323484
0.030500168836015595 -0.0019796975793787423 0.780708397203725 0.022150097015567933
0.6152947443825955 0.015146952832214542 2.1635327225682826 0.01323019417606295
0.2539103977884415 0.010475512646572798 1.3668031497617776 0.03525560410352194
0.8803489557377684 -0.008213947558236269 2.076169042072584 0.03330923291935137
0.2518876040427601 0.004457525248310047 2.088036973607329 0.034388138226235834
0.05666068744018828 -0.0067703815903537865 2.1734858623587554 0.020517556576895562
0.8016953548091144 0.0018962037163312512 1.95111015253537 0.030026393057935575
0.14559449103978672 0.0010199229188092157 0.35360625338210816 0.033643141987097766
0.06452471842903836 0.0014672924813455388 0.22823337570657362 0.03685672133104464
0.7337207575275771 -0.0021644135968390326 2.021631268331912 0.020115240597924085
0.7384413591286415 0.007752105295879344 1.9974915638035786 0.030162043249927977
0.24957310200799193 -0.004868462140331988 2.375300506387123 0.029646564331425512
1.2194665905583535 -0.008366212665010251 2.4751031765494393 0.03664518526700153
0.4128520079914702 -0.0020378151654197618 0.92999372544141 0.03436131789728481
0.0702248115345295 -0.00995164336945974 2.2321208403599355 0.025954316918306977
0.3914246182854479 0.005496396095590613 1.81082270643557 0.02710424448955858
0.08751769531975012 0.005159602186404817 2.1234331107380733 0.026045602059376314
0.1809319111189849 -9.458529974311953e-05 1.3426918271455768 0.03417525416553253
0.6361995749708772 0.0009148763277667804 2.452473039729929 0.0250836216996761
0.47040550549413335 -0.0019477952115896525 1.911736373512012 0.02066725158714131
1.0454265511435 0.004572737508149358 2.3652081959295597 0.02185177942087591
0.45637493059959644 -0.0021128993408803267 1.5930067725143855 0.030193769276050282
0.31310703858416555 0.0006072519665125532 1.6134823602283161 0.04284301928323589
0.014864306518457361 0.0026437620263646557 1.5054854614056281 0.03613020744081477
1.0317818683706195 0.0055954373998534255 2.1032193392109986 0.03774846823891315
0.805523462517249 -0.004069673059418688 1.7089405161695934 0.02119022390992112
0.25854774188141344 -0.0007350120198012132 1.6867979419897479 0.03187055632608625
0.8007106003439863 0.0018056746646885821 1.8927402333826544 0.02722411921154716
0.5992458363943222 -0.002695221491594594 1.2541059338070444 0.03299493984657951
0.41210168634642846 -0.0006130006714294021 2.2883099045725785 0.038842744154827316
0.9331609730338366 0.0019501909723996847 2.274536197342992 0.03115915229305936
0.19925121244495173 0.0008491599757897715 1.7860978905007046 0.018577644073971573
0.17067023642632442 -0.0012314196097183904 2.3213431768522095 0.027592637431900734
0.7354048862314265 -0.00011931515006423307 1.9354541791597815 0.03512606438608377
0.3371544337407706 -0.0014120472380728456 1.0447466811006043 0.028217419672347824
0.1145895216470717 -0.0017857758374336908 1.33213814328907 0.03956057114377035
0.036202890285965884 0.002461726678214565 0.8162913858530257 0.02190679468154339
