x y z curv
0.06256601251891596 0.007078803306633116 0.38941999767674135 0.006246755395656602
0.06375573489861713 0.006490532138865496 0.41428500523094314 0.005174597783346547
0.07178829037682515 0.013982540685162808 0.09532951864233896 0.005789329169933735
0.06822418661142945 0.010008159593243433 0.2644612336268598 0.003230019870052636
0.026139874366438 0.026889983552339933 0.3861551562282505 0.01475556239953246
0.02929213271148861 0.024206247630520837 0.3544520317230202 0.024284596173020548
0.03401909284469621 0.03344255720100334 0.2007920340021419 0.017752016214026486
0.019481318357691513 0.029928704618382422 0.47417018703051583 0.021884528580246865
0.02294694440218368 0.03622937993053752 0.36528203877022913 0.01090690179040649
0.03156498457338186 0.027909332179814367 0.2864738820388949 0.02385479729450197
0.030796435198289986 0.03221889114933662 0.2649520820419007 0.019080183290732092
0.020963724539919112 0.03694965636851215 0.392975719970014 0.015143219604703242
0.03445818678939421 0.0299237458962476 0.2215438705370307 0.024013319928496372
0.02540814460173049 0.018855063465298198 0.46279975258843137 0.029012150880422728
0.024398040233297974 0.02737391417198402 0.41166793375977273 0.019896380495197624
0.022301057813818012 0.02967683696200185 0.4286155982998215 0.014142714958865172
0.024974268958583467 0.02258449355243938 0.4402743895743293 0.02873545345013914
0.020438186549404606 0.03651878984210852 0.40528980399424214 0.006195102393654507
0.026748234402053633 0.03409683562107435 0.318218530835234 0.01179173782011505
0.02614561297512899 0.03697247061901588 0.3053725343890527 0.01211758888027649
0.020810488724408147 0.029717081528296864 0.4534400587739476 0.024759001757063397
0.02574603836319375 0.02631976446060711 0.39736255162208123 0.031397785399245086
0.03777326846002658 0.035979095700988506 0.11715870303251025 0.018786292104897295
0.024792205517748824 0.034442116083745915 0.34845442049302205 0.02124381802082702
0.025823944253148247 0.033906809774756956 0.33533238518880604 0.011981076759876844
0.025841361747109427 0.15001545551135242 0.2204050069141656 0.001032982052282137
0.021267943747146353 0.15225020926348518 0.3076235785406767 0.0009083621769011433
0.02350097024849813 0.14917852745714838 0.2641790698374188 0.0006077638912143556
0.029728236467718768 0.15005985326289126 0.147122343178483 0.0021287365705148762
0.02890643898256065 0.15011796344293543 0.1626456876687772 0.0013029139310686071
0.03108443487110351 0.1442196365021893 0.11901303255409912 0.000775296174851821
0.03182967159366863 0.14199406557302544 0.10399347356289393 0.0006304901479103424
0.02508865641130758 0.15086953858095312 0.23497057982584812 0.0010928716047785495
0.03377923207741318 0.14442819375031815 0.06828275761818463 0.0005952232091082391
0.0243628324465871 0.15184427349922358 0.24908153002490688 0.0007288022087777927
0.016480693557519688 0.14106168374210917 0.39435948956945044 0.00025211169021667604
0.02682740547177741 0.1452058886075402 0.19972430444658715 0.0004235029774100511
0.026058611635344883 0.13825592515968432 0.2120984955117318 0.00018512763651825373
0.022028080821846905 0.13871884698519737 0.2885710161917492 0.0001606883589627455
0.018934309920560125 0.13672177459689303 0.34653065465983396 0.00018449801572947624
0.017810801510221713 0.14514933495416416 0.3704558493573741 0.0002963382009407386
0.014209689321468863 0.14587037439750686 0.4388775149007288 0.00038032541966552357
0.013065321993133256 0.1422006500288712 0.45939511510363085 0.012881810256796218
0.015286449536081416 0.14774243675107174 0.4190751360856215 0.000245204112195376
0.021547753471940163 0.14361858504415037 0.29920723690060597 0.00019794942793356887
0.012152188378612734 0.1371399657393219 0.47509656606352196 0.016111981279565975
0.015910814014286078 0.1448938480917839 0.4063560028062238 0.0003016102231846055
0.022679954633317234 0.141766810457332 0.277184427659926 0.0002945204768937154
0.0197839786904093 0.14722937820719387 0.33374321006379704 0.0006179859230918493
0.018426437422475565 0.14107352495292363 0.357516251715972 0.00019721395755083017
0.017172347469914712 0.14022718564783926 0.3809991820097879 0.00017747744264636246
0.03234637985777382 0.15488681692238854 0.10287644317223527 0.0030761617982220037
0.017447267409704897 0.15428582002015628 0.38098189701385915 0.0007880852765812031
0.022755375535886115 0.15567184764983494 0.28332302984210317 0.0014589807335222736
0.031164396447662994 0.15590608154270258 0.1262336753056689 0.002242970461841823
0.034874552654420306 0.15250957192560138 0.052677951837032146 0.0022383305115397426
0.03370262312220379 0.1564025833234307 0.07933352070128913 0.0038283577296455364
0.027448952649236483 0.15607315356501178 0.19597032971945594 0.002936291891952612
0.03317230543430267 0.17449731990801393 0.1381248351264288 0.011849067131484559
0.03585944108246532 0.17786261784833202 0.11216083114091112 0.009930408959889654
0.029005666659829538 0.1786173154497077 0.2311785985872314 0.010085959574161904
0.02182300335199435 0.18064348013346315 0.3628912285694527 0.013050839521507127
0.03847180292856559 0.17535455917748616 0.05424317065199112 0.00864790948518565
0.031152196952364722 0.17729090553974083 0.18774080077980304 0.013565111302599964
0.032412221474655195 0.1786997144077203 0.17460936234281907 0.011658632450087029
0.03786880293854431 0.17608616543099703 0.06847525205817392 0.013952358837154528
0.03528668717043827 0.17404232839081218 0.10015193852203115 0.009778875752672628
0.023781455674078723 0.1844280664633129 0.348959684957579 0.01730502981072966
0.017784543261494718 0.18314450618545727 0.44326262545874373 0.012740606135656628
0.026934799403297023 0.18381629477859066 0.2931164552523465 0.01468231677958396
0.017634602590065572 0.1869735062412109 0.46439360067918106 0.01674568272057873
0.021076078348819662 0.1910269224855653 0.4264023039212581 0.015783267062659607
0.03171904040966917 0.18471657061903976 0.21728149303207656 0.011462381007907401
0.02618842308998599 0.1872899127894394 0.3225193122505811 0.0217897904051408
0.021503163410355578 0.18562680806142118 0.3929857908431409 0.009795107703716941
0.01956583506411374 0.1909081167672517 0.45114527834999246 0.021262470114474435
0.029453029198908524 0.18303737658944697 0.24710880954196374 0.00938136669005398
0.025232903173909454 0.18651320927880496 0.3347630552351962 0.022862462650891188
0.02337595953856058 0.1897688232958733 0.38172563566100803 0.010921142087197692
0.021394805174283934 0.18786374068496856 0.4056787653919092 0.011069861874327552
0.04489695136055037 0.19731711932399038 0.1466054681422552 0.0335094557561708
0.04412770860614012 0.19491126032581801 0.1288324183392294 0.02746301177680193
0.03928218151022514 0.19742280715371022 0.21748382055532436 0.021430423934084543
0.03828474521494665 0.19789017347534044 0.23516889371805416 0.022091045957342847
0.03340006829208624 0.20100029783590248 0.3311031546660077 0.016735285164007005
0.034242992487758854 0.19857314238416263 0.2930815891415049 0.024394318123648753
0.04003460400202876 0.19404034309239934 0.1697375653848046 0.01948836468212401
0.028888118644672542 0.20154655804604443 0.3932985395508281 0.02325232016228509
0.022393790371779285 0.19953541213970694 0.4716506613339117 0.023859980986961574
0.036429440010848815 0.18557104501778846 0.15014282183765976 0.019038997472160212
0.03043215405507623 0.1911164735684207 0.28422618779191805 0.01943351044065498
0.02427462292207669 0.19854841932116973 0.43547873809556104 0.018117853875797806
0.027344466599152212 0.19417758676818406 0.35486921486460277 0.014421764189305656
0.03238434336211814 0.19139435931295157 0.2568606205920095 0.015064066500050531
0.029323665268327078 0.19179464429389648 0.3062985326809458 0.021311011388084857
0.02964352358054787 0.1970319274889616 0.34275558885120405 0.028576529390986774
0.038918030936449334 0.18634959512477328 0.12017781924983253 0.017915533888832196
0.038218130318976806 0.18707731530310728 0.13632461448059358 0.016050158396345177
0.04334086437550294 0.18701579162499524 0.0617823045250154 0.01889512377143747
0.037243973011253234 0.1927935153085265 0.19778406784981983 0.026381929765175977
0.03707872227587033 0.19106754917319507 0.18586580812002132 0.020930062169766887
0.02709878629827851 0.20061601418534253 0.40923968754244183 0.02661541031609789
0.044243264282689015 0.19022539578036524 0.07534526345144212 0.023848369173164567
0.04254988558003009 0.18999450043213398 0.09790363082953307 0.022326194498591793
0.026492536729122468 0.16387376189769648 0.22807856437902432 0.004909111846891474
0.017133294263381147 0.1683966053441482 0.4148812554280955 0.0026589052059735364
0.03332580353130531 0.1607867636185689 0.09214163433870856 0.003547340877491157
0.018271360981086157 0.1736946918717254 0.4043802120668701 0.0028522857101483568
0.031077114222824206 0.16400079218840813 0.1414666330885675 0.005762374042911947
0.030246414048923153 0.1621589685838073 0.15336161186389566 0.005308710815686149
0.025962959187463535 0.1654353296373467 0.24137537629804937 0.004193050238782752
0.017369777320971624 0.1785339162905383 0.4315719724449849 0.012295486926298676
0.020563699121455024 0.16067815459411916 0.3337552713399405 0.0018145705310499206
0.02149654152924505 0.16228566037838493 0.3194353294766928 0.0012432267096950896
0.02749268913006602 0.16690903677877048 0.21546503949448623 0.004340682350333765
0.02290038433182906 0.165332715153639 0.2991965186653287 0.002706150376426999
0.03220235356883655 0.16102389176969348 0.11392613559951716 0.004430227525728228
0.023723347200793065 0.16744123652290255 0.28800516637410567 0.003006522418206321
0.01569857082830625 0.1635711025683701 0.43199091463424805 0.0017238534623534151
0.017918354820155375 0.16624965536292072 0.39552048211630314 0.002812007485515395
0.015484957138618385 0.1759447665884267 0.4618815984952423 0.006378255138032388
0.028471391755437517 0.15961741193500706 0.1816899794037702 0.003755451102052897
0.013642749690218156 0.15627836467718761 0.4557174202730009 0.004376333357252369
0.01639329218277517 0.15765258679514244 0.40646504327385485 0.0008149743185511808
0.01580644048322865 0.16939326673119404 0.44210654204525907 0.0035271600562161534
0.020176778837022222 0.16581967576483586 0.3518255724047296 0.004390360197912995
0.024901055431393454 0.17112124805891127 0.2733735278525639 0.004894216881260064
0.019053404237676055 0.16258292110208472 0.3663533484383574 0.0013208654163579885
0.019780498772591894 0.17248535590710765 0.3732564870160784 0.004261874026865006
0.013548964794219309 0.16176222870499407 0.46894783029096665 0.007014350165868746
0.024686475059473606 0.1625975701571184 0.25963787310160674 0.001980314283362269
0.02651687370000796 0.1758176166602001 0.2578194272418024 0.009006121044488872
0.023271443782777495 0.1754140174272531 0.31507514328307284 0.008646862606595274
0.035130603742187655 0.16745557790099824 0.07753992628451617 0.00951149346776976
0.02910342046934785 0.17163341715615277 0.19866209450737032 0.006620112324076398
0.022051503974002837 0.17528427132907093 0.33666319498774766 0.01081702206266692
0.018215204802442826 0.1798557059731946 0.4194975245842615 0.011168172606152766
0.0349081119072771 0.16179810730690786 0.06456569154102328 0.003085111728603334
0.030644160358362302 0.1694015772903027 0.16420578809344366 0.00540734238536164
0.05566361354241725 0.21033067126841937 0.26394976790400243 0.011603932082658343
0.05926671366283426 0.2103508559657834 0.23627058146747543 0.009345511864012503
0.05368768877273983 0.21173587790642046 0.31239518562514906 0.015514357197172802
0.061929112232991454 0.20516084297069728 0.09356168705479634 0.01738430439147832
0.059242942921175795 0.2108348496238786 0.2478246278174802 0.01154575520895653
0.06419047856990703 0.20851423034726946 0.15465842041934777 0.015127997633276878
0.06349108381473534 0.20764805733150607 0.13977808262805755 0.017012484826211864
0.06468962526627452 0.20659869238263767 0.10576505777348205 0.016590039780542742
0.07754652785580524 0.21405066094881353 0.3082314853565124 0.0026421996633849464
0.07272534223829699 0.21691165802008003 0.4127262685378425 0.002912406492713424
0.07723525442551508 0.21302587570553522 0.26756622292636395 0.005419132963123942
0.07761798779221576 0.2137540604149093 0.2967183607451607 0.0029398380797998704
0.07898787830251422 0.21141033087596767 0.20702043016347849 0.005921603077552083
0.07560370540268496 0.21354224657635673 0.2852172118333997 0.003719099778606277
0.08056755885178939 0.21087612204065115 0.18858784877060333 0.005652556933076498
0.08249546891804975 0.2098310442803919 0.1506823732054984 0.007435198625913542
0.0859594418181511 0.20859350857674908 0.10767151730338384 0.004987393258390753
0.08060988200671579 0.2120911822848345 0.2362847675550158 0.0049954724751263635
0.08050375013059392 0.21024985046219152 0.16393702156864617 0.004075113338355916
0.09030765147798737 0.20796412914857498 0.08927120690934358 0.0030199976582936387
0.07859298208554034 0.2182043074983326 0.4635570192732872 0.0026062801531456584
0.09254225101503023 0.2151066403291338 0.3553294731641417 0.00014566498116630133
0.08497323277674923 0.2158281666645757 0.37846502645717983 0.00036961850018268883
0.08644112521815198 0.21492844087511034 0.3457899312927663 0.0006895205129867237
0.07538932256727734 0.215534942172416 0.36298643502013955 0.003103686550373919
0.0920688869010038 0.2144246787267289 0.32980163367309867 0.00031014316606671396
0.08071439962270172 0.21472623787671885 0.3355395649338538 0.0018938247445448554
0.09234317041790342 0.21762483656379153 0.4486584899380781 0.001029601863208128
0.09146788962195011 0.20982082787788459 0.1587112371088336 0.001997112069236282
0.08781596075323447 0.21684501230867279 0.41755422773518636 0.0002853392341360126
0.09137888150611702 0.21171998147608573 0.22912672934145523 0.00039045956934215183
0.08050085809853658 0.21620804491404022 0.39041181157778915 0.0004062736414206051
0.09143706349219921 0.20894937849453787 0.12636584580197666 0.0005276535135225492
0.08794362441189577 0.21548059802966174 0.3669960095501497 0.00026007912521797377
0.08586429289807028 0.21237043180767273 0.25061144890993725 0.0006121654421340028
0.0916450207429296 0.21358767684710753 0.2985455890086988 0.0007098045169586328
0.08740575630193319 0.21737816323184395 0.4371371317448662 0.0007709774641907472
0.08740014858641879 0.2103995145206926 0.1782279867419972 0.003400570240866009
0.09254100499850879 0.21603259173258402 0.3896814845980158 0.00031651396028154437
0.07715425312733405 0.20950550493117218 0.13809552363828514 0.009791671956822016
0.07318111861016781 0.20666881445291954 0.05517291211292879 0.014894713381244734
0.07259597495193967 0.21436502591761483 0.3191767038188571 0.005094858371567971
0.0790598558555001 0.2091887550129321 0.12076877016600562 0.008191465221471291
0.07839005069131764 0.20787873082721006 0.07847308814371837 0.011058400844529704
0.07569935761495679 0.20798443649711448 0.09131152268100631 0.01582497004154743
0.10988633999774054 0.2065742140952952 0.0834335473147868 0.0001975515465692368
0.10693912229321156 0.208958588020127 0.16357946574197155 0.0001760593441045013
0.10021595940167646 0.2114586000708611 0.2415286844657355 9.637772131704912e-05
0.10537409033777273 0.2078992028719334 0.12315690550315514 0.0002119178209859903
0.10708253301698246 0.20701576046782286 0.09449406073515793 0.00011419835736375397
0.10304539779013046 0.2075377726834752 0.10636055711120607 0.0003472982744594527
0.11142144665611388 0.2060760331866778 0.06822765745029705 0.0003061310675629142
0.10514325770769503 0.21661764430185454 0.4333229909862059 4.3508214866255584e-05
0.11039480083994911 0.2084340271055263 0.15052375963294767 0.00018828403535010394
0.11116624920183626 0.2105336354631701 0.22650081669439487 0.00014709452481769414
0.11430138991017896 0.21218137541230442 0.2902113941769608 0.00011462627836497737
0.09990425128690147 0.214351105608209 0.3441902178571958 0.00011856596955025028
0.10544965165715808 0.21211423573402938 0.2735279962666795 7.375598735679523e-05
0.10996767671412568 0.21359602179449105 0.33356484685898025 7.282698258280356e-05
0.10459198720437407 0.21460820669725977 0.36091092119589474 5.5324869362838535e-05
0.09854488852372319 0.2152246189466948 0.3730860805067819 0.00011329494804749831
0.1049714271138227 0.21345443105796313 0.3204573171036911 5.7325636935934704e-05
0.11055149287001252 0.21696796903714752 0.4545252570318161 0.0014194933940328575
0.10209827941305934 0.21612117349129803 0.41073511277526065 5.351588052437808e-05
0.10663729618761021 0.20965748902527806 0.18800284214399002 0.00011643056179531831
0.11316627503314 0.21484375619895546 0.38314050343007644 9.516881599906489e-05
0.10390517893665241 0.21285706463568504 0.2974734959675527 0.00010492848023681328
0.10168025988856061 0.21758901685739634 0.4623050269933544 0.0013483531973051634
0.12045256986376872 0.2132419684281024 0.3297158079523896 0.00011915844119129347
0.12669864988450968 0.20679913135942551 0.09392378280929008 0.00020403713453154838
0.1249467914256595 0.2082299493380354 0.14661578883791784 0.0002479442085870908
0.1236455324876404 0.2075694942348134 0.1241885070670507 0.00017078421359079435
0.12053853576163348 0.2139407437497574 0.35460363817441176 0.00012284124290408083
0.12283679115671137 0.2102368162264709 0.22020986270175186 0.00015432244467608995
0.12107677121738694 0.2128128934854057 0.3138257011092039 0.00012681009201526126
0.12922126594252523 0.20737003506954405 0.11205474150777295 0.00010741307141267003
0.1344170487692005 0.21430325015901322 0.36395613232637963 8.555859570158654e-05
0.13144926188168088 0.21191824616969718 0.2771708333037533 0.00012159619797802474
0.13254708788031702 0.20877907099739607 0.1618628952826544 5.8181295159564376e-05
0.12660725939833262 0.21254376775969286 0.3011451878898215 0.00016643644595291826
0.12006218767493669 0.21639040388366287 0.44356170429567215 0.0006710012760463243
0.13366365063689975 0.21055345304153247 0.22666447513297408 8.018314750456259e-05
0.1369033113856451 0.21128152808554598 0.25265396893654085 7.730638413935098e-05
0.13711268664339943 0.2150757097641767 0.39169001229708844 4.5174985542095095e-05
0.12948716928156526 0.21378603337683738 0.346060720364353 0.00012125006381916498
0.13475300141628807 0.21701427470340023 0.46326016430183126 0.0020082880868038393
0.1393911498157008 0.21676155417767415 0.4529953668766829 0.0009936210328562202
0.13293162085342736 0.21091119194268376 0.2399358926373412 7.611889142227145e-05
0.12875394068574314 0.21601650945259016 0.4279802920569452 6.307752521895773e-05
0.13614887622454358 0.21297447315819518 0.3148741392107792 5.499622619603086e-05
0.1339123795998277 0.21546921218057435 0.406805072978926 5.442053998259456e-05
0.12263574383243525 0.21573132212800789 0.41884670730936024 9.942030148448119e-05
0.1260189734908531 0.2115803959816005 0.2659583572234056 0.00014032534148958244
0.12121406872400481 0.21690027297495393 0.46200310702806224 0.001727139892880271
0.1308727983265457 0.21226508279120146 0.2900090391493523 0.00011398744220078755
0.13036056263799228 0.20936555193465384 0.18383307877995883 0.00014729082797095857
0.12949595359619556 0.210058310850485 0.20941375247034866 0.00011266105516860688
0.13836715668143673 0.21467691585580265 0.37680091600261945 6.929442149210122e-05
0.12471078290135172 0.21449023909922788 0.3729051952359691 0.00013281366416385512
0.11542202775284319 0.20777903569954362 0.13256357007473152 0.00023836020408322286
0.11678806651901595 0.21533132445296033 0.40611281959512974 9.429358192569556e-05
0.12192562936960569 0.20612363740618478 0.07343686583223043 0.00026468592419066894
0.11273084554532664 0.20568720620868713 0.05651283148047417 0.0005125942724982652
0.11965755295538552 0.20951748812580173 0.1960116641290702 0.0002197320853233379
0.1159159070303013 0.2112359897724002 0.2577608059323391 0.00016338323769347047
0.11538466679032801 0.2089645904706402 0.17547437213907915 0.00020556120720726626
0.11817561785355904 0.21068669437345638 0.23815379264861208 0.00014837517909857838
0.11996014750142736 0.20844600367713406 0.15726252005138106 0.00021243770986647777
0.11524286898577207 0.207289696447774 0.11482825626182423 0.00022787109771887966
0.11591012161523709 0.2098806842467731 0.208699987775304 0.00020040332715336016
0.09307332377355132 0.2126179884362568 0.26457156297758355 0.0005419196556028012
0.09767089541430077 0.21067596147164286 0.20750281684501803 0.00014021914920116484
0.0944158966038261 0.21310557621306242 0.2866232929149537 0.00024153266891799817
0.09247046368168801 0.21062838153857116 0.18967022295358515 0.00022630847341426028
0.0956491058560965 0.20716183755149326 0.07224887629068305 0.0012784279092056766
0.0939934228878044 0.2139666565801629 0.31692593632609817 0.00035482619696702
0.0980182539555478 0.20872698711881954 0.13703227590316294 0.0004659762552346521
0.05255462091021808 0.20571067228829581 0.20497872575481998 0.01708116873265045
0.060048119565769706 0.20362454334996452 0.07480906864279648 0.022141942985920045
0.05022088045553261 0.2117891837028093 0.3451056796816787 0.018690665339853346
0.047432689540862716 0.21450016948653297 0.4290313751647985 0.00927677770822501
0.05256156771881389 0.20440920719366346 0.18101914210692704 0.022259448127223136
0.05963707181359972 0.20219794295818405 0.053680310954383886 0.0163144507250317
0.05189503701434357 0.20249466035703678 0.1540726530923836 0.017573000099481574
0.052409587778159496 0.2104370253638166 0.2934587820570432 0.021290849910654962
0.054457064262669344 0.20042587166756434 0.08470127438332048 0.03170062256747982
0.054299413542917535 0.20133565029193728 0.10332391939151153 0.0229284035180261
0.05297832145207879 0.20386406255440467 0.16590775827154317 0.016712110743805172
0.051989888124578026 0.20146976569978053 0.13410847433036258 0.017528103178762154
0.030088821462734425 0.1316624195112216 0.1347249209761704 7.36576836758317e-05
0.028541104216927026 0.13127653578458545 0.16390492893065262 0.00014766808724053977
0.020254603998622306 0.1348072826730326 0.32109804140634585 9.32768820517458e-05
0.023828579197912744 0.13351006633785523 0.25333932127116376 9.031367873944288e-05
0.030896352868211834 0.1329256222599714 0.11968276013896981 6.261228017488888e-05
0.033703436279516524 0.13248443778238767 0.06656287289709399 0.00015500316635647636
0.0232024504261073 0.1363634101791269 0.26566186997225194 0.00017613541723560369
0.029477557140471185 0.13606120239276753 0.1470324791370378 0.000366019294285794
0.027748836016141226 0.13671928666514466 0.17981243860396076 0.0002061287356128476
0.01951795850335184 0.13531793270170944 0.33510590252043837 9.985107005176456e-05
0.01777536225209282 0.1329908828073 0.3676344560651294 0.00019517840560622673
0.0343315251568863 0.12973871526635697 0.05422180152464551 0.00019115435405850487
0.024918967603386164 0.13191120427405564 0.23245973764155678 0.00012874618074708524
0.05865245856374586 0.2159794181688832 0.4239229079266487 0.008720930617180385
0.06929890215118441 0.21729653161919368 0.4303510604808613 0.004580294962978878
0.06767232039833446 0.20971819383469797 0.17837352225318753 0.010976906133903985
0.06190119727006964 0.2168102452436555 0.4404775851040188 0.006019673759927823
0.06494313525387169 0.21278112769416452 0.2924252495196285 0.009182646417342845
0.06154673395573464 0.21273828482961762 0.3032129830255866 0.013273492583482727
0.06940771883832775 0.2157484817425678 0.3772885658960102 0.0030358752154339475
0.06845777181147747 0.21104609361673293 0.22072152893268393 0.007159233421085007
0.0693555046765263 0.21052526767165164 0.19976448658910853 0.009193567177408902
0.06242317140336126 0.21371695991673512 0.333351081218382 0.008581670060466222
0.06779177396466918 0.20799145299224497 0.11919297478605499 0.01475598845182009
0.06311572843736017 0.2147590766366418 0.3663106528071672 0.005705927923023291
0.06312802673468364 0.21749686798191015 0.4594157180284279 0.005564988680559177
0.057344901290036276 0.21454591111792917 0.3798641688701487 0.00637676054471039
0.06641888287828027 0.2160276392193391 0.397562459165596 0.0037495176177044136
0.04673912757746443 0.2160900559139061 0.4706395739262313 0.01878279689441956
0.051372466226258406 0.21440108615561074 0.39646975196274703 0.005128892801014238
0.05865493566158658 0.21553513580026795 0.40879790957486994 0.007567604272883163
0.06747252050086507 0.20934521539612758 0.16640382774933654 0.009649939921572774
0.06068025848490537 0.21186861132178514 0.27674758954916734 0.013442239428975183
0.055896099548589866 0.21275155928402023 0.3240374494534297 0.018780662253606573
0.06952225481054806 0.21502504337841338 0.35226166947975823 0.005050739779364263
0.038879425700288565 0.210311034551217 0.44248601415801403 0.023536726919294596
0.05101767090214802 0.19989906663904067 0.11600455873293465 0.02123061890643947
0.034590529073668164 0.20306144909530258 0.3514060165901862 0.030525005806403625
0.04637163031602807 0.20308102426883268 0.2257939363862727 0.01935228409992587
0.04569189071690656 0.20564792761973416 0.28155117665238055 0.01581485809167167
0.03464068158079283 0.2068121489191027 0.4217198480096413 0.02407097652455717
0.04629594139213817 0.21492563782397764 0.4503462395283415 0.016902995619984894
0.03864699600250603 0.2082077610723455 0.4052410029205104 0.02173544701704104
0.044859536543439604 0.20646901265362153 0.30596217104463086 0.02437209442528363
0.044803397973022754 0.20044963206792693 0.19285732295138466 0.024341283475330468
0.044481992218422584 0.2093620383544511 0.36464827036308434 0.02181200640539977
0.040906669468889816 0.21247501931067214 0.4616849094096117 0.025059583238438154
0.046228733095906756 0.20409286587783393 0.24643554726101408 0.02489960299815714
0.03996665313206883 0.20175312425409092 0.26920208509673615 0.020901341250675696
0.028919543129161913 0.20575480655317813 0.46292612190622484 0.02984940466084188
0.032732044212825995 0.2026412015963343 0.36334141606156406 0.019701468450991157
0.04464919237646873 0.20772787047583258 0.33199112763570215 0.02468790747250448
0.03623029957447482 0.20219164112411675 0.3174405026676173 0.018480491377318095
0.0266531181177173 0.20377531033588997 0.4497698844406046 0.024696296585811652
0.03984522354600609 0.2075197364117956 0.37943101146944486 0.01893539198923474
0.1471582122632681 0.20784366739249827 0.10700646259224031 9.617290934814557e-06
0.14284280032843094 0.21388955734753237 0.3415942593662016 1.8661535632046007e-05
0.1456705844809518 0.20709994150121636 0.08159803080389402 4.3623539653332674e-05
0.14584071596960593 0.21030195229686885 0.20164387093926633 1.4456142966424852e-05
0.15072624047284328 0.20670781728531265 0.058222675007412135 0.00013441885110864157
0.1456013924154215 0.2111856080247193 0.23526196584887898 1.8307689338946645e-05
0.14373299263947284 0.21072612331298862 0.22118639385795585 2.0643782269034487e-05
0.14923544236778116 0.20895373405737985 0.14517508337230856 2.1661192499700718e-05
0.14525008294097547 0.20816212904037704 0.12223521202680315 4.5844644482067855e-05
0.1425483644216822 0.21348014544419353 0.3267110325453068 3.6657949462355964e-05
0.1505656366965951 0.21287057588794628 0.29339198409193207 1.2116487766667487e-05
0.16146504017994662 0.21674489020886184 0.4330757636926838 2.3616382891792788e-05
0.15318107059715869 0.21232695908812557 0.27014191061971743 1.5672037544818473e-05
0.15247504558823788 0.21026068631521783 0.19114685303292317 2.4212454503116083e-05
0.15505744126640325 0.20999226322312214 0.17852954789861317 3.1268295485755994e-05
0.15847037940531555 0.21405330730500202 0.3320022536422153 3.355243825055978e-05
0.15034338980269996 0.21630734959685655 0.42601231292045544 1.4695361738233185e-05
0.1524522287122572 0.2145919463558465 0.35805756678249034 1.4907351361662441e-05
0.15009040610258512 0.2148621844774392 0.37055053193994225 1.3764897608941216e-05
0.16215582131402936 0.2150046925488616 0.36541464268496543 2.2102440050051753e-05
0.1601048640073671 0.21581482109194616 0.3984366756958594 2.117306848925683e-05
0.15275879706160603 0.20876827690755412 0.13339192651786658 1.4943072303165527e-05
0.1502947175198652 0.21165880431349826 0.24693903982637108 1.4349342535141487e-05
0.15831870132413448 0.21733295562035299 0.4585061255222196 0.001997990685559275
0.14705262541167258 0.21661300575572975 0.44068818582940383 0.0003554173039875258
0.15337198206919528 0.20954245254590045 0.16268211472796973 1.2370903258809206e-05
0.15584779237719437 0.21427144548473953 0.34271739757345154 2.1179553151950546e-05
0.1546878160726279 0.21331265112523623 0.30679514665714835 2.2513601439380672e-05
0.14873430087215295 0.2154668528415716 0.39504383331254567 1.1257984501836819e-05
0.16071382012540034 0.21533943356861215 0.3795828521110281 1.9632552447418938e-05
0.15185588474015527 0.21586244437448754 0.4075372050631729 1.2987425933869024e-05
0.15367963482411026 0.21202115109627503 0.2579194978482448 1.3281382186903904e-05
0.15491593567129908 0.21091170336133197 0.21408173311572998 2.1227536382720827e-05
0.15999558913420245 0.20824360342547882 0.1038784935410352 5.152342351659428e-05
0.15490925005931852 0.207759969321125 0.09261829020109273 1.6864024739688976e-05
0.16445394450232653 0.21153165327945317 0.22597706203599763 5.794673395714984e-05
0.1595104206697629 0.21164603178706862 0.23793357774940174 2.0086229490975408e-05
0.1585498592805702 0.2073375569262963 0.07056173349560761 6.618747479632691e-05
0.16341066006335786 0.21388320937844046 0.319698415934348 4.387310151117973e-05
0.16174376731624396 0.21289303549182526 0.28341959146771273 4.4152690339157516e-05
0.1639601436070883 0.20998905341571245 0.16627812374982504 5.63599361933425e-05
0.05518615305644376 0.061374572082094694 7.380898169528999e-07 0.040415723097324774
0.1728213000137299 0.11180701294966233 7.379509195391522e-07 2.2269779666715622e-17
0.08283748714629467 0.03649404652461491 7.386721919736093e-07 0.032008208320391765
0.13394369726903524 0.08268842226817885 7.38210299501395e-07 5.209955867318323e-17
0.11348926565118131 0.05829943296876307 7.384852921057691e-07 0.0012108445544188186
0.08407011271236361 0.048760845752571405 7.384906980235858e-07 0.02357024345246394
0.1012185250396607 0.08039714314567264 7.380892390552623e-07 1.1026159421398803e-17
0.20184299876926862 0.10646290499336247 7.38170947428437e-07 1.3195365535467258e-17
0.14517363503100714 0.0982600129006667 7.38026000723139e-07 2.5985552194739488e-17
0.19480527028664132 0.11554262000720383 7.379986958429507e-07 1.646419679852024e-17
0.12238794317949661 0.09338591285971393 7.37991791361222e-07 1.8469658749179915e-17
0.09978088193334858 0.06014449530947563 7.383917370181929e-07 0.0014200454786172535
0.2673632625646861 0.1454895159111002 7.378872780813077e-07 0.017415393730652522
0.18527902410233255 0.10336772931494734 7.381392354693041e-07 2.4238940899088708e-17
0.11008623131248249 0.08738171397924382 7.380248397416701e-07 8.131403684876969e-18
0.08186543341396899 0.07935496971614664 7.380128673543216e-07 1.097139351666287e-17
0.06663508008552926 0.07924566427489885 7.379419067735905e-07 0.02069387603268277
0.09137983397860003 0.0698323790982672 7.382036944482036e-07 1.140337480421674e-17
0.1735024127419723 0.0994773846340535 7.381424993820001e-07 3.986588493417068e-17
0.146486824182231 0.07739837428568122 7.383509189685602e-07 4.955292346871164e-17
0.09170319385969403 0.09315498649102952 7.378489899055205e-07 3.3237463701322006e-17
0.07850292072487373 0.06496087589284721 7.382166981975149e-07 0.004675574123627012
0.24855967441792629 0.13363621244836962 7.379786639536485e-07 0.0010467669585860347
0.1598483353833454 0.07818823545616607 7.384025721475512e-07 3.3510501124295764e-17
0.07135278798596623 0.039996035385633316 7.385639320383455e-07 0.03661715624608141
0.06522159780528419 0.050123394803877466 7.383800010464724e-07 0.03290613493790291
0.12100706155929475 0.06992512664783732 7.383435634606535e-07 6.030815616454132e-17
0.1040462939477989 0.04786208517474573 7.385996883478421e-07 0.012171815642266381
0.1686081335191043 0.08849721484911295 7.38286878794492e-07 3.071471568548368e-17
0.15991082107625243 0.09825166555557505 7.380964066127573e-07 2.6884990960758254e-17
0.13062034968980155 0.10080045211971392 7.379177947909131e-07 3.200005930032546e-17
0.20125069907941784 0.13114368111573277 7.378488136618503e-07 1.0886315554007226e-17
0.17933229760620623 0.12558719070658725 7.378488136708564e-07 1.0306442048685432e-17
0.047835973831593236 0.09386177476605521 7.378488136842549e-07 0.051110371097520826
0.11057141225169012 0.10375339355574917 7.378488138102208e-07 3.0118673630701645e-17
0.07876111263486155 0.0995588530399669 7.378488137256269e-07 0.00443353965652337
0.14061552204804365 0.11229514742962123 7.378488137745215e-07 2.2748921421096673e-17
0.12764560309791134 0.1156121009166699 7.3784881361315e-07 2.3058393474416732e-17
0.23021336141688806 0.1371421943192926 7.378488136838642e-07 5.474919341383678e-18
0.14141897383175092 0.04550842556951837 7.378488139732912e-07 0.026222422870043283
0.17380307150204063 0.06265369336484165 7.378488139135891e-07 1.8042683416279254e-17
0.23737868436750104 0.1099185252293225 7.378488137504656e-07 7.76540763654845e-18
0.16633854107646048 0.04621517974258773 7.378488139694913e-07 0.027758309920895924
0.21945134579259193 0.0929994041373409 7.378488138085838e-07 7.339614921059524e-18
0.12410934651423906 0.0324064334687301 7.378488140184918e-07 0.04737672430797491
0.22783559246798782 0.10250214621282329 7.378488137760369e-07 7.598359788708442e-18
0.18627161009066415 0.06671497568403002 7.378488138991749e-07 1.3223188904647196e-17
0.19748290248534867 0.08062688282684369 7.378488138515869e-07 1.4471175572795073e-17
0.14995952198668805 0.029712733458477653 7.378488140261154e-07 0.03277014679483552
0.21058166579322507 0.08414940584137219 7.378488138389552e-07 7.038719989868843e-18
0.24542473487280936 0.11785875662135645 7.378488137232113e-07 3.4893015506473935e-18
0.15438426562081964 0.04891854723538358 7.378488139610464e-07 0.015586533085203857
0.1601409653210115 0.14706193271540471 7.380299584586171e-07 1.2981107054413144e-17
0.17257717497330444 0.15086993057341666 7.379279109434691e-07 7.543428319944264e-18
0.10633534928643038 0.14555934992424888 7.380839017049081e-07 2.668181677631326e-17
0.24481539719542192 0.1529961171339348 7.378526703235956e-07 5.177995346193579e-15
0.14851976990961882 0.15393712031216938 7.378552462079553e-07 1.763764965041909e-17
0.07769415106205847 0.13513242763222388 7.383618110397216e-07 0.007664659466784612
0.19313929524374152 0.1514331785126115 7.37907580249399e-07 6.9184042390165355e-18
0.06737432991013845 0.14023971315786996 7.382324965397226e-07 0.02377607378545733
0.12518281076336288 0.1427640183024152 7.381509866575568e-07 2.2122498070392126e-17
0.2573356229153957 0.15083449466343243 7.379051215647588e-07 0.009626206518562119
0.08605278145982893 0.14435923344622548 7.381206394054775e-07 3.6292619624991e-06
0.09551921709280425 0.13784220823111706 7.382866833833615e-07 3.2809313145092784e-17
0.14093756366916937 0.14259619938289408 7.381509240648666e-07 2.365886923607641e-17
0.191495420288394 0.17458248774167556 7.380577650401825e-07 0.025115725414820135
0.162018933528591 0.183258621144507 7.380821877797194e-07 0.04115010254367479
0.1380880336949991 0.18996925522710895 7.381110124706652e-07 0.06533499276839312
0.10733378985194891 0.18783843059590102 7.384384419289231e-07 0.03963939944689106
0.15003343047051435 0.18221894517885498 7.382154431106819e-07 0.04293259319645093
0.2104123762164345 0.1706254724008413 7.379985931353937e-07 0.022720216643308016
0.11874106437835405 0.19107562290297259 7.382509270368244e-07 0.05222650583391462
0.1798398882317056 0.17964438386676312 7.380233790922537e-07 0.03588764329623856
0.2723636012531757 0.0378139800564003 7.404578315905782e-07 0.040599311491113836
0.1551329522250409 0.1962239751721517 7.378488128931993e-07 0.05997004977804996
0.22287344867655592 0.17417112598077467 7.37848813333063e-07 0.02808921124308807
0.25089748859115163 0.16416185123942512 7.378488134636729e-07 0.016209601249107457
0.27203348044401815 0.15792751153548598 7.378488136383877e-07 0.03597814854462419
0.19659411866646154 0.19172454076399761 7.37848813683991e-07 0.06240516784739377
0.23913733839428675 0.1730353801823531 7.378488136797381e-07 0.03095779066686568
0.25011526752979224 0.17619631889706971 7.477913895422373e-07 0.0375246159724056
0.25537224207591436 0.19361943129732795 7.39629625634629e-07 0.04663839417846675
0.26265315063356454 0.1720686279906223 7.380530831499629e-07 0.03470089774061734
0.2659932408793846 0.18418020172984256 7.395285718752471e-07 0.04616136074234868
0.21805079746536526 0.18766180863910722 7.378488139645584e-07 0.05148728546609001
0.24268188192076065 0.19662905541990003 0.003474384862062723 0.05443491092870701
0.26161273882279823 0.1972626172641783 0.011519519540318412 0.05387574200578798
0.2765788088008928 0.17419265472813777 7.380866249261727e-07 0.04883932901167962
0.10081257427436241 0.20384650230993273 0.027166526970191583 0.013380854730195233
0.1269853708361072 0.1989132279712622 0.007677334152638107 0.05586481888810889
0.14397645597746883 0.01639415708162604 0.02321404259119213 0.027780654954771104
0.03869945318126547 0.08731305879997443 0.019286583638797827 0.022362848409629363
0.051702053802446274 0.025047879627423983 0.032399161609548054 0.029378476831188768
0.2537408907076238 0.016269921119785508 0.027174844884152748 0.01536455532286668
0.2700432906447866 0.02000953162216071 0.022680982922549223 0.023103207582717104
0.21648665126445865 0.20457077244888366 0.031220644124812673 0.00903319647856712
0.2663200329687582 0.1984978702900632 0.02211031973191328 0.033677493170713106
0.2721824734253383 0.19276512938427326 0.013187382911119629 0.056457108692587236
0.2456224304505957 0.20159212195958418 0.018498156659207867 0.04121972078666416
0.2822312549471059 0.20558647265964314 0.2751621277142833 0.02830599993656932
0.27572410168954553 0.20664137363695861 0.22892478466464977 0.020337436203799655
0.2747923881336536 0.20208583263433721 0.1420892283790071 0.018472565404409037
0.2784558578290313 0.19590690691926677 0.07293386344644348 0.02091087144448605
0.2801741799679681 0.19820789724554877 0.12910740574531113 0.02499210167605724
0.27713193093142957 0.19741348507237683 0.08554549389470598 0.02567683853520299
0.2843394337539512 0.2114462214679223 0.39583554092088546 0.0200881418072855
0.2801099702208205 0.20168111859472315 0.18766847235473919 0.023896556927435954
0.26882432083767116 0.20031415184438464 0.05299795370197592 0.01591134279589885
0.2841162875783216 0.20231626841099937 0.2380300100010149 0.02664221643545463
0.27193072465346707 0.2023114197908145 0.11769346370159964 0.01773405037349639
0.27774892851798383 0.20902159486557736 0.289473431907629 0.016249601340502066
0.2830140789357326 0.19840320414944046 0.16046175782503144 0.03549805504043242
0.2826461505864401 0.2115198496874599 0.38038013985034713 0.02320209098148612
0.27288548754885994 0.20390338298162525 0.15424770429242832 0.02231520304291388
0.28439594407316265 0.19448610737174798 0.10733900003165198 0.02796207263653393
0.2820350384872471 0.21088812907119792 0.36358281997006614 0.01925292397458169
0.28454298193288596 0.20297201875843712 0.25341693598361076 0.02717461993868041
0.27842954472064724 0.1951359856444107 0.05953524379179512 0.029356547470854595
0.29263313927825807 0.018529910193797072 0.29483606562629255 0.033413234477389524
0.2975825394348731 0.01061217964419931 0.46774810162376285 0.04180282850144508
0.28792038778773843 0.02737311251020157 0.11147787258141259 0.029328772807912296
0.29602522953194566 0.01899326823282705 0.328820442079419 0.03073848584914207
0.3029004578684636 0.017092119298189812 0.43846108505055487 0.013363430684154414
0.29793277853278033 0.012291962298076312 0.44783791650210464 0.04523475664995283
0.2950631839217278 0.019761165357995006 0.3062764200780943 0.025058423211473203
0.3003928649620409 0.01746877242369308 0.40301752022433324 0.029357488585932096
0.2964416545214436 0.01234498973406165 0.42921479939403145 0.026150874031300064
0.2853034896953834 0.00736983589625277 0.4245674210661219 0.01580559218045533
0.28271324255686375 0.013303090180631444 0.27021288655617354 0.033171891266299734
0.2865742120322117 0.005828470033430086 0.46978330226963017 0.02085758025302661
0.28998968496361954 0.009985275825706921 0.40641107353223094 0.02516202147936512
0.286732668497573 0.01546637048074556 0.25642272180394315 0.03442682494447495
0.28347873210000607 0.01221398013349191 0.30102870246538227 0.022845480420016353
0.28708626131394865 0.012737751418864133 0.32023853024773297 0.02065013728791733
0.28671918540726626 0.015958599636307302 0.2453412412618072 0.03132314994180418
0.29173839475200786 0.012857204988527847 0.35739718372374435 0.029015297382425902
0.2814909556373968 0.01830498468426576 0.14831658760787636 0.028878874745053892
0.29139292569922026 0.011560647205820286 0.38332536256843774 0.03015721059826076
0.04011431088534475 0.01767923919045849 0.2823059790808989 0.032702197147794876
0.043241027974212795 0.01585217228131951 0.2693669356706144 0.029896072168142242
0.03903912285953891 0.013894676467781966 0.3524381453541371 0.02790771856782717
0.04117399247731961 0.01834125873708252 0.2588502791816172 0.029979596977152776
0.04512915770557015 0.020881682675940642 0.17026959716692947 0.017913648686731065
0.048858600234723853 0.021155512951022516 0.11832331739113133 0.03380818699254532
0.04690050903789414 0.011882196947571665 0.31841174328050276 0.021473252179994653
0.04782574561569143 0.0158675207467834 0.222550304684957 0.019832557934933367
0.04413306889181168 0.006613956390232797 0.457579106592558 0.019870228621306687
0.05273922399417019 0.020660784741748033 0.07662258172196633 0.018786763611887896
0.04300916523260233 0.008546390901544545 0.4237713306651435 0.01754341954586024
0.04660466418733056 0.012612262561753332 0.3046015263020702 0.02405717337999146
0.04218803994371645 0.006745777269240921 0.4703314201785842 0.021820458825299816
0.04637440045163094 0.013319779855460212 0.2907629198409645 0.02766580068632333
0.05075686620045299 0.018875028755424596 0.13221232239093486 0.0230407597431265
0.04435270462565484 0.011736206572173936 0.3421848056449953 0.025994403315217088
0.04575881484161649 0.010338530630056717 0.3618558115767225 0.026629924234091978
0.039746040748937644 0.011965385158886526 0.37422956739481383 0.022473686130351157
0.052560198923670094 0.01983537179307672 0.09637516420072474 0.029709520686138365
0.046254035463838425 0.015555407159217762 0.24214132363494079 0.035811321525668405
0.05433434859911322 0.02060663313934213 0.06349357918164107 0.025503588892187977
0.05336060259872375 0.015657032029537273 0.17906011202376326 0.02003989690918512
0.047913986677344006 0.008423263488500667 0.3865860051494631 0.024449721167327992
0.05885304145144299 0.0162457163575074 0.1136974928002552 0.02162802799813041
0.05290139396877382 0.016625952263687207 0.16267570565528505 0.024660435325850993
0.05134006412381234 0.015344063501990907 0.20517433207437935 0.025882071728929246
0.04725563665840653 0.006156438173265349 0.44155237677563053 0.021383516574055492
0.13989474693355683 0.2087553398727986 0.15318288128552193 4.280345666642518e-05
0.13425805992881415 0.20590770843489226 0.05478640102715953 0.0002982598235063603
0.1421141217651199 0.21279080318262883 0.30153071915219526 4.003071885841704e-05
0.1368767609907266 0.20968797578778275 0.19291965147797252 3.8051974131112375e-05
0.13979113206358532 0.20837646231786147 0.1390931934281952 4.684505657859948e-05
0.14145886980067413 0.2118370501965399 0.2666716088117174 3.61011041462656e-05
0.14208676406525833 0.20654075243501185 0.0665069763008946 0.00012855029800775084
0.13781946697613107 0.20703678472359882 0.09175204598668486 6.069531436940464e-05
0.13773799228776415 0.20919356934174083 0.1729950656072135 5.151647235834414e-05
0.1410544192481226 0.2141268545168309 0.3534162428118595 4.653187556978513e-05
0.18280915470590497 0.08765997120229219 7.381571988672724e-07 2.4757760535939952e-17
0.15427544572361274 0.06154305920557496 7.379845992663629e-07 2.740999875199963e-17
0.21688464156369588 0.10889010331130934 7.380166042713754e-07 1.0672167864977676e-17
0.1267500987125383 0.05412036438747863 7.384367838420466e-07 0.01194470615145815
0.10748458371465769 0.028564986339215177 7.38044464920644e-07 0.03909115311076224
0.09534047562797615 0.03330940982432573 7.385231494364191e-07 0.034225600722157426
0.23117538533187706 0.1204487528506502 7.380500734310789e-07 8.239473243941169e-18
0.14194093927376636 0.06117406288409686 7.382901817134265e-07 0.0004052270970169897
0.11918270331115752 0.04296179328995233 7.382436724241863e-07 0.02677113724537194
0.17550027842066201 0.1401091856638666 7.381327006958685e-07 9.248925247764221e-18
0.08051130339147909 0.1237667982338475 7.382704742672126e-07 4.871423580907753e-06
0.10485060207152377 0.13047435417789668 7.382912485113546e-07 2.932853924293514e-17
0.0591349147609969 0.12848486295729222 7.384882986264564e-07 0.038861829998735775
0.21413649784227531 0.13827336682136196 7.378879015299159e-07 8.857254761128926e-18
0.20190133214402614 0.14295017172118607 7.380565539801308e-07 1.102527887024656e-17
0.09405947854938425 0.12565119777955236 7.382408884630133e-07 3.5458933268067255e-17
0.19028174642008674 0.13978599762730176 7.380474822344694e-07 1.2028707268173203e-17
0.1465336773074943 0.12339659807277605 7.379137241347345e-07 1.9595931569112928e-17
0.08169952433092778 0.11204342305965408 7.380033375426861e-07 0.0017695089328049155
0.04866623547150804 0.11548782211127379 7.382543540629231e-07 0.05012736565939234
0.10115571109180474 0.11295594334269743 7.379209391755797e-07 1.6418379208167874e-17
0.05745959584422701 0.10214162857647614 7.379109616701601e-07 0.05060268603930668
0.16216952488190023 0.1275443961669403 7.379234824813968e-07 1.764744837012255e-17
0.13325713515421037 0.13316998563238855 7.382012810837983e-07 1.9382645240542393e-17
0.06150789487233188 0.11645341553421037 7.382080527926846e-07 0.03399637020687082
0.12190815591004432 0.13009849492157802 7.381928432449703e-07 2.1070070228080265e-17
0.12522068946553913 0.1688482651613049 7.381200875007537e-07 0.007278007938619924
0.06823664362360495 0.15621203761462318 7.378706299363525e-07 0.031052234992382664
0.12637312045747914 0.1816032837457354 7.383604250296122e-07 0.04595351041905158
0.19864405023864973 0.16384484710683722 7.380408364723016e-07 0.006244763333743392
0.08340619068303096 0.17409881152101958 7.382104197846548e-07 0.021087400120566254
0.08652078418530722 0.15950877797044116 7.379364074675182e-07 0.0001692333496797628
0.11300861813112414 0.15723187172322747 7.378989341513177e-07 2.676048460567731e-17
0.09882039967496187 0.1609974883677089 7.379669330106923e-07 0.001660196550087687
0.12816876820167472 0.15475945817408746 7.378554765075347e-07 2.0261590453521763e-17
0.1859122134848128 0.16111284754560137 7.379868190811628e-07 2.243601031765149e-05
0.07008577232583345 0.17809608483132802 7.38282955908349e-07 0.043048487847767165
0.10176392046259096 0.173056801731439 7.381945387484236e-07 0.005605988298495949
0.14908657977018308 0.16697371757358337 7.380896549628237e-07 0.008118010259695366
0.1358606720215403 0.16507488699607445 7.380512208236631e-07 0.006950605056339269
0.1606461677641745 0.16990367182294502 7.381471602581237e-07 0.016694012236371937
0.08176780841563352 0.19013092242435925 7.385118783281468e-07 0.049582487644757325
0.07372652015542952 0.1666440059205821 7.380681201223511e-07 0.02311587009049806
0.23224360086350954 0.16228166236316538 7.380182449254712e-07 0.005352150655804388
0.05411844021479657 0.16135935513381056 7.379646524615797e-07 0.03332707058643214
0.2238062729798911 0.1539283709716503 7.378592846729039e-07 4.715740844492946e-15
0.09269664399681865 0.18432086572789716 7.384047315434918e-07 0.0419051800385629
0.20876796323543928 0.1588415574741937 7.37948712716998e-07 7.758928853188945e-18
0.23027340431006216 0.03667156887080648 7.378488137756858e-07 0.05036308749551376
0.21127052557773543 0.037017860499939347 7.378488139174131e-07 0.055125809035502994
