x y z curv
0.06140605166467725 0.23600000143051147 0.35258079599274517 -7.990679421719642e-18
0.176094951300541 0.23600000143051145 0.3722323314556195 -1.1267978309441881e-17
0.13416059651953036 0.23600000143051147 0.5309792603012935 -1.528211206839927e-26
0.12374085094980188 0.23600000143051147 0.37878796536373294 -4.7931885053779055e-28
0.2239469869801533 0.23600000143051147 0.5497867247422169 5.418613087334209e-18
0.05710536663827068 0.23600000143051147 0.45093399610624685 -2.4971117244304705e-18
0.01616514562626535 0.23600000143051147 0.2576084079969244 0.07500065200509685
0.0729092483634409 0.23600000143051147 0.4414359979868902 -9.168553354939173e-18
0.03820143722815772 0.23600000143051147 0.2876872744850146 0.02409606985185715
0.24666808316893055 0.23600000143051147 0.5158763655203269 1.2684546779529975e-17
0.09806071205317343 0.23600000143051147 0.43335522300888024 -7.290140581053053e-18
0.2610089626712697 0.23600000143051145 0.5379164969348609 -9.534929357001717e-19
0.0631442104488347 0.23600000143051147 0.22555291509279643 4.868361538253497e-18
0.10296552657495467 0.23600000143051147 0.5723458481397043 0.019229033379386615
0.15584412554282281 0.23600000143051147 0.4446962097718334 -2.3566808634695362e-18
0.157929074442329 0.23600000143051147 0.48893584290121767 -1.148619403137341e-18
0.03380729480751668 0.23600000143051145 0.06487984490086392 0.06789935200935177
0.09339170220242779 0.23600000143051147 0.5492404928513533 -1.209533769314036e-17
0.1140368354302788 0.23600000143051147 0.5548862481232308 9.390139759774456e-18
0.0745129852277606 0.23600000143051147 0.2959216080279087 1.7077315509568964e-18
0.12401208089898641 0.23600000143051147 0.39190399028210415 0.0
0.18577620479204177 0.23600000143051147 0.4967963469376948 -5.413438830805287e-18
0.043946386983992114 0.2360000014305115 0.07819281646505323 0.04131916297563249
0.12071711364042713 0.2360000014305115 0.22417461132253658 9.237362084903052e-18
0.07906199845658092 0.23600000143051147 0.5078039351683057 1.4378591563242903e-17
0.2537095419784451 0.23600000143051147 0.5506846984042912 1.4045097721228383e-17
0.15644969037168344 0.23600000143051147 0.4687945699147916 5.56971133550857e-18
0.11323959364390172 0.23600000143051147 0.5078980236746166 -1.924419242204469e-27
0.1585083280620653 0.23600000143051147 0.37466267997082103 -2.8212820421588375e-19
0.06718635935518887 0.23600000143051147 0.6026114832878718 0.06825602301048912
0.1524481439391639 0.23600000143051145 0.3267894999126672 -1.3413387894909726e-17
0.04949860556606342 0.23600000143051145 0.12006063167707706 0.0053330457220379605
0.1626024564618429 0.23600000143051147 0.3071419371265264 -2.5821004834049603e-17
0.09012082950084788 0.23600000143051147 0.5330517508104705 1.712664333173877e-17
0.1975618667121961 0.23600000143051147 0.513585612096499 -3.567502009848718e-18
0.10143620704544895 0.23600000143051147 0.39626582308822556 3.181564322948457e-19
0.31036652180098545 0.2360000014305115 0.5835768258926662 0.10199662481624187
0.1027651331276978 0.23600000143051147 0.5850248301710302 0.07128075665026823
0.13524664335853492 0.23600000143051147 0.5152528173994408 -4.621858592527673e-28
0.013307775676729633 0.23600000143051147 0.29679872718423517 0.07297681950734192
0.19262925693760125 0.2360000014305115 0.38464911428540954 7.624275075016386e-18
0.1798258620051688 0.23600000143051147 0.5275595592804363 8.085141475420508e-18
0.14098722100993094 0.23600000143051145 0.2731843202053602 -1.6765754118761738e-18
0.0006123702833553024 0.16117384925434494 0.5824855397696396 0.11855272226000689
0.0017811902266077402 0.050646701209426576 0.5433299747497173 0.05427988414572607
0.0005689146307325647 0.08955657041864071 0.5839413517031604 0.08983539792626474
0.001018101780120248 0.07491689132217813 0.5688935287889525 0.20535159156240462
0.0012918226914650005 0.09079780728261615 0.5597238313125533 0.15167193931306647
0.000985826189850125 0.15772535810307664 0.5699747174324046 0.10194952533537988
0.0014926279257439978 0.10142955469176808 0.552996822115214 0.11132562969423479
0.0018509299019344547 0.08321237698724443 0.5409936671065508 1.4621776928934787e-15
0.0004910970316699338 0.11793967100606242 0.5865482355176644 0.13396938956421078
0.00042184929984352796 0.19839936314099768 0.5888679973626781 0.0839520312187885
0.0008019295522590841 0.1385267563892885 0.5761352912842143 0.14919859911976321
0.001199137588937504 0.12310973727801791 0.5628287762611583 0.1734112840181457
0.00017491423018054322 0.21770806643317964 0.5971403450196896 0.10712607514800226
0.001105897904202971 0.05003204314994379 0.5659523609798742 0.11784568903070926
0.0009886082559321242 0.11128797965609179 0.5698815447969896 0.1630774464328703
0.001554024387534873 0.06203696278916811 0.5509400550547359 0.12001154427927507
0.0007806231073424547 0.04060730653584285 0.5768491169780187 0.08861210037523612
0.0008156609242209972 0.12537843286828465 0.5756752960649344 0.14691476560358868
0.0006022740013350643 0.10273638140160272 0.58282380053793 0.1014396665014819
0.0008999395563740841 0.06141062571298871 0.5728519874120603 0.1329716278413723
0.0020232750315271396 0.07203827319848208 0.5352200879993259 4.93412160062376e-06
0.000895235202770275 0.09322599626760167 0.5730095654340072 0.15583120312819188
0.0011526236500901403 0.14544213406219914 0.5643869866570668 0.10012312177608358
0.0014153945276662333 0.07999593738488855 0.5555841640400407 0.1537566336179555
0.0004513897954065241 0.13149647297706143 0.5878784255340248 0.10949695852109365
0.0015723808821684162 0.1128975199984415 0.550325080424621 0.11533491896253623
0.0005667331768878894 0.1748970365466861 0.5840143811585192 0.11906261242110347
0.002418098396086712 0.07080870023598085 0.5219934941813082 1.4201561414805763e-05
0.002569759646743754 0.12240499354853328 0.5169129833818764 1.902052287803528e-15
0.002714200481335287 0.08102199528669227 0.5120741258032386 1.6386407118059042e-16
0.0031622207616928692 0.07665996625598516 0.4970654752668562 1.3722382002717633e-15
0.0021251951149534264 0.1239806052404411 0.5318058597520634 1.7260016591058326e-15
0.0009318863963941479 0.1724453234333836 0.5717817161433272 0.12975164482576468
0.004125316038501663 0.04565904517079003 0.4648017920148805 0.014176111098032585
0.0033636573973207843 0.046115560386370456 0.49031729021781933 0.018545135829328027
0.002748956646354308 0.06812330156434276 0.5109097654330226 1.2990517905343134e-05
0.002512429998113997 0.11136149718758323 0.518833494210071 1.951424915613483e-15
0.002648771235976536 0.09672397198304056 0.514266038587047 9.253205386418978e-16
0.0029699097838737807 0.10046129151748075 0.503507934901076 1.6703786849277512e-15
0.001908705433387496 0.1021030894979522 0.5390581907891507 1.2284241328438236e-15
0.0021552925255955546 0.11041638005765148 0.5307975655943107 9.41813041606343e-16
0.0033557380694116644 0.05855608071000237 0.49058261778614 0.0029526636438141685
2.8353126681054123e-05 0.23462149013648945 0.6020501545723221 0.07359009074268764
0.003154549825854401 0.08995019005124393 0.4973224838253941 2.1859764573259583e-15
0.0029424623510117378 0.05409394531080619 0.504427306736308 0.005263675365973674
0.00294428512318552 0.04013872139046451 0.5043662094974274 0.024541238740785728
0.0013218467590764994 0.1565260669033493 0.5587180391123001 0.06620814702511696
0.001649561517577971 0.12410594039496861 0.5477395434810337 1.3050068587277155e-15
0.0016855828793665188 0.15031169603787373 0.5465328958954475 9.88018758729002e-16
0.002350092416431575 0.08266630669703705 0.524271717823065 1.3452285437838278e-15
0.0037288078670434694 0.059433554034481716 0.47808481475321696 0.0009555731215146856
0.0025380114127096253 0.05456590173893995 0.5179763785436571 0.004777968500231665
0.001997811875163338 0.13883062549882302 0.5360732237582584 1.2768144104848758e-15
0.0032851949470841255 0.12142160529253188 0.4929458029301636 1.947547309245928e-15
0.0032499415485943315 0.1357707675071657 0.49412674716978155 1.5838431810101312e-15
0.0009382160594419226 0.2019569593883673 0.5715697085970813 0.03104421824247864
0.0038267351814981515 0.07904132716568614 0.474804262887249 2.415304757495833e-15
0.004701291376334324 0.03931406836647765 0.44550662252451245 0.02109482608196224
0.001737501600162465 0.1646876264582427 0.5447936392093982 1.0700783280270247e-15
0.0013347368117455959 0.17953441268170725 0.5582862753851597 0.0012273278528608196
0.004180750280314625 0.10741299430059281 0.4629445972436587 3.1436150533985967e-15
0.005676452533161623 0.05321621440653847 0.4128385099271407 0.0044720162232696845
0.003926825222810989 0.09437293623887674 0.4714511755515095 1.6050537197858787e-15
0.005274692427754305 0.04851918405399801 0.426297557928578 0.011397094595963051
0.004456387021494893 0.06571682477550775 0.45371086676377215 2.7480214967023595e-07
0.0020750019789100823 0.17191068057871725 0.5334872940118673 6.958407661526591e-16
0.005249658915224623 0.0735757173449817 0.42713609652594725 2.8352870678920576e-07
0.00562034557042214 0.06503820950380593 0.41471806100063535 0.0003692915717566538
0.0028981726151255374 0.12701686653291697 0.505911096757564 9.644723931821598e-16
0.0035750632644406294 0.0896404174752966 0.4832352773001565 2.1168081337738188e-15
0.0017222659506316547 0.17927168322640702 0.5453039846471006 8.02700678828143e-16
0.002968224419842096 0.11356730803026793 0.5035643968563408 1.74084597041678e-15
0.00444060048155742 0.0884935141049592 0.454239638250742 2.2525966829757736e-15
0.004677982244486978 0.0519634603568879 0.44628743780277774 0.004038088580704928
0.0055629982560457866 0.04115681393345268 0.41663928988956656 0.025931269406468713
0.00502218422256807 0.05716538331177544 0.43475659501755126 0.0005033219777020251
0.0006652626861224581 0.21065856018292795 0.5807136620795001 0.07790479545162529
0.0021524615187627433 0.15137542990859643 0.5308924587027195 1.4545374485441902e-15
0.00373275690526746 0.1043061393677572 0.4779524619896063 1.816419758643923e-15
0.0010885661824616563 0.18984272067706456 0.5665329967524422 0.013469862404944447
0.002640909179623779 0.1371638434638358 0.5145294295769307 1.302331901436906e-15
0.004838740072923345 0.07308370052965271 0.44090194894229207 2.3190335578906386e-07
0.0040536621330940536 0.06931109355145076 0.46720220593838385 6.864224953169094e-07
0.006081676009190514 0.04457683292690598 0.39926348542459705 0.012520027495436663
0.00658209198102441 0.05663072742852762 0.3824996024418521 0.003227766151025309
0.004588475712114111 0.10361081390979104 0.4492857982332926 3.1122975828435735e-15
0.004735716247607026 0.12140816297645418 0.4443533537885569 1.1640201242972102e-15
0.006670231600326449 0.07308914139053233 0.3795470251354011 1.0060311230722907e-15
0.0027933479034837976 0.15755419420305075 0.5094226897242524 1.1019007720328994e-15
0.001514872442338314 0.193590724023897 0.5522516828146505 3.244909677223039e-16
0.0059402838226494965 0.07396481997472112 0.4040002042781436 2.5792648017466275e-15
0.0024437530739365343 0.16299798233430135 0.5211341100132202 8.644124785575633e-16
0.004972180660821983 0.09803127832907885 0.4364316917665937 2.7081131454800703e-15
0.004046341792769444 0.11946057310180297 0.46744731528914035 2.205399365191371e-15
0.005489667354448899 0.08978960987811146 0.41909589614125287 1.7729348207208115e-15
0.0035438736657791127 0.14303552351597104 0.48428007503261533 1.7282668832536745e-15
0.007018356620744704 0.04602124272534308 0.3678847240857142 0.009973824751259132
0.007766098352113545 0.05050839748960233 0.3428354789178543 0.0036267832721956043
0.005070740101407614 0.08679811327473147 0.433129898872615 3.3776453300910815e-15
0.006672042601009478 0.04534367845158854 0.37948620384181164 0.011483252695418287
0.004895116684752219 0.10971494100201229 0.43901339132789385 1.3662115551847172e-15
0.006946068165882785 0.06424372345049567 0.3703064802336106 3.9661250601886226e-05
0.0020024351644092196 0.1882201377603423 0.5359183529393086 6.727516302564965e-16
0.0073318997984008205 0.056859306859522896 0.35738112013113443 0.0008267221319920904
0.007553670948038755 0.03953700922119992 0.3499517142831563 0.021389315757271852
0.006117796399320848 0.05829599286260727 0.3980534651176335 0.0003444348966853117
0.006321421227344573 0.08468844091022033 0.3912322001464963 9.75177353007989e-16
0.0057210868338803955 0.09958491351892612 0.41134342175134964 8.830371972183433e-16
0.0037959055796326843 0.13260503035806243 0.47583697473819886 2.1489221972710085e-15
0.0030860204680409464 0.14606058444861508 0.49961812601491895 1.1711667063621747e-15
0.016032139834880995 0.18519871604006644 0.06592300914795307 3.054731471865957e-16
0.013453823857679409 0.11837300990274033 0.15229655589150567 2.6752484128700907e-15
0.011808061970371774 0.05430663652712803 0.20742970834436592 0.005569262715143766
0.015066365029235335 0.1559645297011941 0.09827648090872484 1.2080875712824418e-15
0.012270459040736977 0.07513192287909634 0.1919393498861181 3.753047019422577e-15
0.011530021024006118 0.07198759520998772 0.216743897126875 2.965319773134076e-06
0.012613272607084215 0.08849996451384425 0.1804550683302282 4.1354593633675625e-15
0.013042727730912348 0.0986297299505736 0.16606833528387227 3.552701005562327e-15
0.013581739325385814 0.10712045459335763 0.14801149427677768 2.532002595169091e-15
0.011360258588079061 0.054999045836627285 0.22243102662188158 0.002368082070903123
0.013722034865987972 0.12862034933127442 0.14331146744346787 1.9730467682819294e-15
0.014206489903144692 0.12800836017052028 0.12708232552117596 1.819509352412979e-15
0.01634886714881454 0.1925900642377613 0.05531265473341879 3.4980742424375344e-16
0.010941399119022262 0.0486350312635774 0.23646278031422743 0.0038507625039381843
0.010348749614478053 0.04450687471428976 0.2563164491847791 0.013171578194399569
0.011859807239117982 0.07717553455403586 0.205696087976531 5.39023803365622e-15
0.015449602490095896 0.16318715207698953 0.08543805115965901 4.308226361293814e-16
0.013052432974139322 0.11091379716173248 0.1657431233490552 3.589597725873912e-15
0.011172012381869779 0.07021981033405855 0.22873716710901437 2.582410475402424e-06
0.010662900573482372 0.055982236641036374 0.2457923869787718 0.002654687190402005
0.010470073008988088 0.07201189738837374 0.2522522728279877 2.874419606430951e-07
0.009950731865895538 0.04516754199803351 0.26965007586829787 0.013464065407350739
0.01232836192280516 0.10606310318600995 0.18999954405964198 4.3145223659684555e-15
0.015710813516500992 0.18162886127608618 0.07668743357185888 5.679622328875462e-16
0.01271682940641337 0.10591896598273089 0.1769858145037823 3.8683820605150374e-15
0.014746357830610492 0.16262836970128872 0.10899671440765434 9.60373131921576e-16
0.010172811421182981 0.05759326819403379 0.2622104719348379 0.002718290603127855
0.011993072670238466 0.08927787366435964 0.20123165754180306 4.811112884231602e-15
0.014343140026218714 0.1471976936781812 0.12250445710053835 1.257736006971781e-15
0.015115208583980968 0.16894163403458048 0.0966402006334573 9.4394290183247e-16
0.011402047448543218 0.09666527895156733 0.22103116483885415 2.1102990859939117e-15
0.011148076330059837 0.0879637562359234 0.22953917162958049 2.3831007834325045e-15
0.008791965762977774 0.04157180138933973 0.3084689133489767 0.030168764069140735
0.009132127760683104 0.038699318674115246 0.2970734040602713 0.03186788924592104
0.012627568762051223 0.11704014671012265 0.17997615102941728 2.6678918995625093e-15
0.011523997048478615 0.08565965654698804 0.2169457435337347 4.379387619032131e-15
0.009326157684883 0.05239989114784989 0.29057347790267163 0.0074299914230124085
0.00955727508383296 0.07351848047759238 0.2828310618980073 2.683983440914979e-06
0.009654930327506722 0.09315452066412866 0.2795596182257284 6.561761294366193e-16
0.01062740072022164 0.10243897285154274 0.2469818499557311 1.1544522070934813e-15
0.006787233554977129 0.20852648001972307 0.3756275510374699 0.029361195445374234
0.014174844550181594 0.15842163765556294 0.12814245422373013 1.910715291051174e-15
0.010081367866645478 0.14274122676323542 0.2652739757131244 -5.860933714158277e-18
0.006092097231601568 0.15486962351889988 0.39891460497241393 -7.0628419218007e-17
0.00810340246044593 0.17149207445556747 0.33153585778338135 6.146299828481788e-17
0.012837220846169764 0.235248898631229 0.17295290057385349 0.08645187598465871
0.0032592167244887716 0.17658062334715016 0.4938161522951015 2.9658127300701037e-16
0.005004479129068152 0.18567346970410725 0.4353498403499961 7.366780696824231e-17
0.014555986846211321 0.17455993914848902 0.11537418869331192 9.063401461170188e-16
0.006751290839189012 0.08621377642668179 0.3768315801790072 8.88645698674633e-16
0.017277540154189537 0.22441704759003256 0.024202134790428046 0.0717681518152455
0.011291668563486014 0.20156562895625568 0.224728910015848 0.00899980380695494
0.00499866635620861 0.20016510897050033 0.43554457452839945 0.01018783534115821
0.008528907584478954 0.1365910300817139 0.31728141502387963 -5.319851833504661e-18
0.011460369180283484 0.16017834086888558 0.2190774191925784 4.3897691761090924e-17
0.012058104162292955 0.22502874734435174 0.199053316396069 0.07940992038572589
0.006572959626716035 0.1740870926952655 0.3828057159960784 -4.702291651214395e-17
0.015513358395449133 0.20524448377116308 0.08330224105921924 0.005330568238739546
0.002501742588005668 0.2253608397436055 0.5191915677222184 0.09037615518176799
0.011025237716606255 0.14344965950447652 0.23365432236862 -3.6851716759865063e-17
0.0063387675402886475 0.16553696776172727 0.39065115062416494 -1.1108490673828765e-17
0.013855602909668778 0.16344913786059556 0.13883705595795062 1.008219769178353e-15
0.00640059561456441 0.11509294658786957 0.38857988764676965 2.386895998862028e-16
0.008133287535008594 0.08708348168596847 0.33053467122001656 -5.137706156063163e-17
0.0013915934613233493 0.22017405805223905 0.5563815773287885 0.07533254124652584
0.01210926151798317 0.12889346325719805 0.19733950308694076 1.2486490836725442e-15
0.0031934741092949385 0.21214021410673028 0.4960185460784244 0.05226662845070761
0.011592634752687151 0.20850403184650423 0.21464654128754226 0.04342154150491217
0.014424632050117467 0.18694603525827644 0.11977458156750867 4.040270206584375e-16
0.004674780163614205 0.21102837122449486 0.44639477132273914 0.04593684403520729
0.0028245094059783592 0.18450152307883155 0.5083788571535912 2.9894841711502956e-16
0.012991960852322067 0.22296957059182476 0.1677691028696152 0.10070762459592762
0.004545372416324377 0.1888329441902344 0.4507299232305726 -7.646117300237354e-17
0.006522818581700505 0.20162223255929956 0.3844854535173987 0.01171495103344486
0.012561060439552223 0.22626186070622945 0.1822042743492874 0.08729199618940627
0.011811267113812621 0.23250678088130655 0.20732236429725145 0.06957187478361547
0.014728534124577608 0.19728576624596603 0.109593862096491 2.001068666630123e-05
0.010846156438004462 0.1641200796031879 0.23965355664450685 1.052050107700167e-17
0.01239871657909219 0.17948225730505063 0.18764277600179297 1.9055698686431287e-16
0.01032541333580254 0.12770657996392248 0.25709844252497444 6.136555787869756e-17
0.008850909290680482 0.06539371341193471 0.3064943227239632 7.09934383445728e-05
0.007492947808193405 0.07206165004560161 0.3519860549147293 1.917360608395713e-06
0.016794204906907965 0.2274467057024392 0.04039387387345544 0.07507541525870438
0.0043051646006674275 0.14204747472400883 0.45877686850769805 6.93813244194535e-16
0.008420872341117838 0.18157679622602402 0.3209006164985482 -6.047581566172537e-18
0.00921748434713658 0.14812905473246635 0.2942140884383194 3.6053545759453605e-17
0.011236120457061783 0.2146695620303935 0.22658977799516491 0.047831514544538684
0.014918426793253985 0.1779703222853809 0.10323244667649939 7.756805346414739e-16
0.014385552553016927 0.20413431934134924 0.12108375264427448 0.019849949762364722
0.007073006935607386 0.15720964287788255 0.36605411667922405 4.677087827966767e-17
0.013624247023425524 0.1821335662003659 0.14658748949700318 -1.782950617470283e-18
0.008436067357578805 0.11464486834775262 0.3203915545755984 4.0999749638827235e-17
0.008864558784558045 0.22820702486782662 0.3060371341763849 0.08069979696382133
0.004611950749638032 0.13566971232011713 0.4484995253425843 8.364800088656232e-16
0.006744254405563679 0.22534960088021694 0.37706736036689886 0.06950348765036557
0.000998098715133667 0.21847437186512517 0.569563656299218 0.07420277547266611
0.005409745438517611 0.20511745187626718 0.4217734214355802 0.02509940048869484
0.007757602563385777 0.1611298860916442 0.3431201549088704 8.997636738282408e-17
0.00477503832203678 0.1729470272506708 0.44303610526173803 2.2238421539571492e-17
0.00720163014034526 0.10388842183048394 0.361745214632035 9.142910276757314e-18
0.013518632021657359 0.21324231844226302 0.15012560690294868 0.0404113178345276
0.006252201624563163 0.1387798785593955 0.39355109860123405 2.9575242310465356e-17
0.010277465752079355 0.18566379616589485 0.258704712083922 1.8162482524780806e-16
0.005789951048582268 0.1701127964538356 0.4090365130059314 -7.246830365729003e-17
0.0028735150954752957 0.2298140993293616 0.5067371852423209 0.08360315578891207
0.011140154490367036 0.11506578377198506 0.22980459663259556 1.0354038339578522e-15
0.01045924638943004 0.1746414750902711 0.2526150533808772 5.528279500716416e-18
0.010477929297663592 0.14066693233619232 0.2519891611409966 -8.316569730380637e-17
0.006975434371191154 0.18442915097338863 0.3693228106525085 -8.929537370536741e-17
0.009756886638191572 0.11451564227259764 0.2761440894847186 8.730885589946066e-18
0.013408498048832136 0.1594124915462653 0.15381507354534005 8.8833970017359e-16
0.00903402828507483 0.10339633152558758 0.30035985002654275 -1.695930599728025e-17
0.01648746013852199 0.21441022743782645 0.05066982247778197 0.04869520768165149
0.006315900430963219 0.22432713473011923 0.3914172242839996 0.08061386500808199
0.013161375080213918 0.19016196651861533 0.1620937097370282 4.308199502021647e-17
0.008372633270133503 0.04175564118327566 0.32251656622250263 0.02861265247378388
0.0057947573784584245 0.20471559398702516 0.40887551569777775 0.015683452983390016
0.007041854393918112 0.07897589108416748 0.36709769378781404 1.0163069096818722e-15
0.015490297077546913 0.19217953114387096 0.08407478995035887 2.8659993579068394e-16
0.013179474725834564 0.13574437977394857 0.16148734805213003 2.394108782908288e-15
0.007858471702279185 0.07636645775093522 0.33974100101016846 4.450834846130517e-16
0.011733000192234493 0.17651001413472428 0.2099442833336031 -4.1313961288924876e-17
0.00815513920525848 0.0659473116661336 0.32980263090237044 0.00011889551718826835
0.010083263174531015 0.10440749075708536 0.26521046646208013 4.661551968806936e-17
0.011016530650951819 0.17647664714346822 0.2339460233319603 1.0953028189628623e-16
0.003546813702254918 0.18264438986375983 0.48418165196914786 3.2184058235993904e-16
0.00540886454410183 0.23365700513570317 0.42180294362812176 0.08721842331341095
0.01572118957749197 0.23516639470351808 0.07633990625847592 0.06870829944459447
0.01341989208449214 0.1448729128629183 0.1534333669617427 2.1805898456513382e-15
0.013756086187838877 0.14948572945353142 0.1421708616036962 1.902231791305591e-15
0.01050144799773748 0.20486133482223914 0.25120131182732824 0.016269851833878222
0.01572595411333636 0.22288913648886174 0.07618028898317039 0.06532107756372788
0.00883246471582287 0.177235594408235 0.30711226412476256 1.1984245238549688e-16
0.008115959710600768 0.05187970900815571 0.3311151385191254 0.010343642303791905
0.015073824675530666 0.19540804876470472 0.09802662283346458 2.441216591809836e-16
0.01297393750762307 0.1562996750696541 0.1683728566389343 5.083958553574271e-16
0.002513157898616617 0.1779334723834925 0.5188091343492675 8.059245477048394e-16
0.010029515703183856 0.2082496944794206 0.26701105198232045 0.03921217420626924
0.007530944462340259 0.2253237471694095 0.3507132320568434 0.08784176854551837
0.005439908435270877 0.14601112012510506 0.42076293530587594 5.937200467841108e-17
0.004188812888981982 0.177999322649489 0.4626746679245889 1.4507770207667212e-16
0.008647012889410086 0.20874798076963175 0.31332491648570104 0.03648727599556194
0.015813388037792857 0.19853018570864006 0.07325124081992926 4.277623277518793e-16
0.004588845030412774 0.22648065083467156 0.449273606144567 0.06712029940136356
0.010247527136521585 0.16452112209848466 0.2597076470883468 1.2284485669465827e-16
0.012791420470405716 0.2097417156103732 0.17448720290667807 0.03762738272295557
0.0037507804555996895 0.1983288734288871 0.4773487694911967 0.00031520285284019603
0.011483752899491516 0.18676116726767966 0.21829407563958386 -1.7523537113484494e-17
0.009561162002792771 0.19608711070890897 0.28270090252417224 1.3910995163711073e-16
0.0005807038235104774 0.2254310862295309 0.58354639419344 0.10370506462932275
0.006234458627552681 0.2123638896861284 0.39414552075704545 0.04780601050827613
0.007244930257614927 0.1716004243657761 0.36029468906149964 4.641464388901964e-17
0.012199897885517626 0.20539004270672395 0.19430321620715355 0.031205094091232538
0.007730598074261002 0.2154391151964154 0.3440248289337791 0.059684012584946565
0.015422167102252506 0.22742447295598564 0.08635716019694635 0.0656720104295265
0.0057268230092318104 0.1534931422546441 0.4111512961243919 5.364758595701384e-17
0.002954646034057365 0.16990654629049634 0.5040192719799899 8.328140674431186e-16
0.005106114544940641 0.14252350402868136 0.4319450339747586 1.1313808330606535e-16
0.014730122279705212 0.2277623579331177 0.10954067192274222 0.09352829808948124
0.011427541990678676 0.14390905074232152 0.22017712355556304 -1.1875225992895087e-18
0.010337532213991961 0.15287958291608877 0.2566924707058004 1.2349592216736334e-17
0.011887755292713 0.13995070425701153 0.20475996957575066 3.9416727602796997e-16
0.006704590973298312 0.10315739920507558 0.3783960336159099 4.409633992848442e-16
0.009771649248615828 0.18632385898735282 0.2756495725603899 1.5756258601106233e-16
0.005604123213540372 0.11944741671117551 0.4152617264837736 8.930732403093638e-16
0.00871632590610906 0.19369881576172182 0.31100292298007437 1.0055120009257149e-16
0.006575131906237113 0.1871870857527632 0.3827329502083312 -4.5503552452565764e-17
0.010010384195563033 0.1965509189229826 0.26765195275691694 1.6981636175374262e-16
0.010755887176431948 0.22331625663369536 0.24267760355489007 0.08280354847268707
0.01388009439707495 0.22087082627933163 0.13801661535537996 0.06303421699546248
0.008413664723075887 0.09995341085480149 0.32114203686706533 -4.13740314575644e-17
0.007171815567262115 0.11688938264050831 0.36274400882753843 -4.1537149684492486e-18
0.010948517201779442 0.20844408054290203 0.23622448854877717 0.017076199367666668
0.005475849671355481 0.16495188769240157 0.4195589114842764 2.9976792293579753e-17
0.012013828799850936 0.1128756812887519 0.20053649367023837 1.8719022773372737e-15
0.004048403766300625 0.1509298380441784 0.4673783639809933 4.973876822582308e-16
0.009344968239864658 0.1119903516489522 0.2899433607152392 -5.228836162987403e-17
0.008366384857083735 0.15393258449780378 0.3227259361694797 1.0676153217474146e-16
0.00920040881516275 0.13386563740663518 0.2947861129011169 -5.3255148411271737e-17
0.009904002859194978 0.1751540582342508 0.27121571990712184 2.3141973837896762e-17
0.009592260601814118 0.16920256445929466 0.2816590874980275 1.7670266609519377e-18
0.008891549048955666 0.0797411592178211 0.30513289637465946 -9.867845929597674e-17
0.010966455150763776 0.10359975745201494 0.23562352211749832 1.4229099943340782e-15
0.011598436353263235 0.11759745793666429 0.21445214867005763 1.2690525135576484e-15
0.006258966816773219 0.18012235260903792 0.3933244822615517 -7.385827093935117e-17
0.0018066328509526875 0.23494553383710945 0.5424777580866141 0.0688532416627335
0.002418741474074426 0.2118372089659159 0.5219721004523478 0.04276071822037992
0.010207840776802007 0.22270669092751605 0.2610371656212413 0.06622042746437631
0.00985785912182166 0.22366633761345275 0.2727615565441469 0.07804432072669325
0.012064324731551272 0.15420771421502014 0.19884489691962404 7.369759029183452e-17
0.010070542268087918 0.08727839412717117 0.2656366096798077 1.3625726373662517e-15
0.005218545273234053 0.17509160203421179 0.42817861688945724 -6.721770313825324e-17
0.00580937922455378 0.23288126311797203 0.40838569569855665 0.06827574934871004
0.007875471149846804 0.13265662440937187 0.33917154336636085 -2.4413706640215298e-17
0.007764860031325944 0.11655098234557126 0.3428770105449606 -5.4172131282737086e-17
0.011811318134317975 0.1918758066605715 0.20732063771678924 8.193483236273602e-17
0.008561779693595851 0.16704318793320413 0.3161802119278119 5.43104172142267e-17
0.006744972117959909 0.11946959356884035 0.3770432716674528 -8.785245597182645e-17
0.0032430956257784808 0.22919251564495138 0.4943562318568802 0.06579429953931712
0.016305566746414677 0.20480846003405995 0.05676324963830821 0.013051013239684649
0.011510683206652604 0.22281496751332094 0.2173919253929963 0.08053519986215628
0.01228908514133716 0.23559963883364032 0.1913154547768633 0.08114428304422826
0.0140220534479076 0.18496155803970213 0.13326096972430485 3.831014897100031e-16
0.01065617767389831 0.23536563060209814 0.24601787849222678 0.07369296230478335
0.005544767224718141 0.22210104247939116 0.41725019691188925 0.06627275915546967
0.007083141711614353 0.20109167589967966 0.3657146203206315 0.014808665437967584
0.007643089233065007 0.17386778957945132 0.3469563585862797 1.0249008458295919e-16
0.010702518435497013 0.15224954345589176 0.2444654267280365 3.607889919033764e-17
0.007915147957894194 0.18436296166792998 0.33784239185576065 -3.356346170967469e-17
0.009208993390719572 0.16928712859382003 0.29449854465838055 -1.1266363159493172e-17
0.012399286465597494 0.14486548784336556 0.18762366997730026 3.8302057530201673e-16
0.002787525852597862 0.2129731007806852 0.5096178189153806 0.03438658131864922
0.008758841413016175 0.15355451292722067 0.30957863569828786 1.471611402462096e-17
0.0013836934823784556 0.23271665551803372 0.5566462321069678 0.08076967242135095
0.00748013913346844 0.15500223267265206 0.35241518120773396 8.337326697338867e-17
0.008521585591631681 0.06267386601626694 0.3175266702488138 0.00015459065594313116
0.007447360461625687 0.20553024757505392 0.35351328881873256 0.031288817490913924
0.0066144692491257075 0.1547852651098799 0.3814151347815119 1.2231221452764857e-17
0.003865797555490602 0.23100626962471824 0.4734957089666966 0.060515880556731565
0.007459342904583225 0.12493514483299141 0.35311184230592985 8.855696019703969e-17
0.015939772501843495 0.21103195145803688 0.06901736479486781 0.03918403122460801
0.005953758802220622 0.1311169240231081 0.40354893419306326 -5.969210376416747e-17
0.007829664534188074 0.14708614031756073 0.34070607183134477 8.040491762386467e-17
0.007869305056867434 0.20261751933307104 0.33937813751847473 0.02008111135509256
0.004417520131430127 0.167157926654964 0.4550129673483901 4.7158287691586616e-17
0.009090538936478284 0.21842347601024215 0.29846679162520884 0.06469353973962852
0.00950969620735899 0.13815292563199638 0.2844249826170682 1.6622456839778032e-16
0.007605530972737095 0.19211469586537794 0.34821456866228545 4.6083939521577475e-17
0.0047350856494137485 0.15750876272531011 0.44437451376479675 -8.922137656499968e-17
0.014760033062594583 0.21058684097647076 0.10853865291034534 0.03582325065477924
0.013398906590254082 0.20160158625914845 0.15413640560643282 0.0024391356580898754
0.008460644020316472 0.21950492704540311 0.3195682809050065 0.05505870189284269
0.007860091736821957 0.10446103746255733 0.3396867418558882 -5.2949419464974556e-17
0.002104211724431023 0.22011993191962861 0.5325088551676351 0.0627525537977036
0.0037779989202218014 0.21978025754598443 0.4764369597146726 0.06445290139589822
0.01105562116162443 0.19008678767699363 0.23263649648417084 3.206186371752116e-17
0.008903893937126952 0.1412888765258161 0.3047193687886466 -3.772548067177398e-17
0.008751447404658459 0.09214261894867298 0.3098263087969631 -2.2273412327117267e-17
0.008287829331756723 0.20836311520147527 0.32535757070592114 0.041328146948787066
0.011192903084413227 0.13199301444014813 0.22803752521386117 -8.07268433113525e-17
0.01427656128175466 0.22847641506327757 0.12473497223060039 0.07096413499883096
0.009969804142008102 0.12750064925295876 0.2690113555807341 1.0747176068670198e-16
0.012133474038030506 0.16625513083479312 0.19652839930789245 3.367542415218028e-17
0.0053404883516978904 0.13020971255867458 0.42409350278182745 9.006131589925578e-16
0.009255361630228106 0.08469544476641731 0.29294517175215806 6.552600409638198e-18
0.0108030136937869 0.13012147125795173 0.24109882464712035 -4.5677646591208764e-17
0.01612901363860047 0.2207028317129348 0.06267778811171429 0.07164634956732935
0.007283759526482097 0.21653034915196043 0.3589939272249544 0.036030722773367975
0.013021811298018911 0.1752589570527725 0.16676909208296398 3.505049601086246e-17
0.014180230217278936 0.21325895504046782 0.12796205777201117 0.05090359139332729
0.007226657957679446 0.1345669991750919 0.36090679552125315 1.2112642828689788e-16
0.009944986967751068 0.07354184788304145 0.26984270817987577 1.186616762731223e-15
0.004944641409385519 0.13003698834616403 0.43735438101008656 8.797380479441437e-16
0.008123517100754457 0.12308335162908945 0.330861996319446 -1.1822243732455769e-17
0.009419584091858283 0.1821469577932095 0.28744375862422733 9.958845980388105e-18
0.010706601530265699 0.11529055291038709 0.24432862717319537 7.988302573077915e-18
0.003612500626070404 0.16116349227188426 0.48198112987443525 4.0198023685187354e-16
0.005074142140620668 0.2131933025614027 0.4330161402341036 0.05178522468239644
0.015164949611426557 0.2136447352613875 0.094973943967333 0.048947672299730724
0.012823793891986573 0.19536460383785897 0.17340268666034533 -1.1741932615730193e-17
0.00819858617549074 0.13836473526605894 0.32834718776969785 -5.041133441854768e-18
0.0068592469635941865 0.14113783388550233 0.3732150719586429 -3.9343646141939835e-17
0.00968279548996856 0.154217614481141 0.27862616101868454 6.356421457774457e-17
0.011313086000277067 0.23400081379022908 0.22401143945751198 0.08412126347260514
0.004056386597564438 0.2116673617488508 0.46711096501775745 0.050340023019879304
0.0060558481968912975 0.1152629868904127 0.4001289312060484 3.2970482705542953e-16
0.00568688902484971 0.18432263673896132 0.4124890983768259 1.4084130342139592e-16
0.008821061364833595 0.117979055455992 0.30749425118231655 -7.28010820499661e-17
0.0018448422143845919 0.1991300792384005 0.54119772852667 0.010403336443031567
0.012673980607290147 0.13048735383489155 0.1784214060962248 1.974953005277908e-15
0.0023637472261210405 0.19888008563273324 0.5238144030089799 0.006030735749553506
0.011711278110448253 0.10555772055593456 0.21067194301577455 1.893656094000967e-15
0.0073490594145256246 0.09263064810094049 0.35680632699206316 1.1323847419418045e-16
0.010402289511115858 0.09015902240898262 0.25452307346537056 1.378218780755652e-15
0.005137927485508344 0.15765510455500914 0.43087930648220285 4.232551309305479e-17
0.008214378047552741 0.19195534430945396 0.3278181827672304 -9.48324441469182e-17
0.009484001991996683 0.2173414897485158 0.2852857731019831 0.06001440062479988
0.005248691161361637 0.11938501832045668 0.4271687053542822 9.312029149141424e-16
0.009197169515367115 0.1981861464509827 0.2948946570247094 0.0007429323809535556
0.006236860943775343 0.19131441723770987 0.3940650341181913 -6.240791433642621e-17
0.006367272358850055 0.09636035685778796 0.38969620917715264 9.489008134841217e-16
0.004162987887251421 0.19139360877033834 0.4635398115903525 -8.779342909650676e-17
0.0031165702473326213 0.1950075501440101 0.4985948192343531 1.2311506497308724e-16
0.012280083582292933 0.05938736573352219 0.19161700605880552 0.0015075623692476121
0.015081442379409286 0.09114473027519841 0.09777149497970436 2.723349925154902e-16
0.013210352452968949 0.06269164310993885 0.1604530081841174 1.2896638308049545e-05
0.01192190397365993 0.037553143674272586 0.20361603762459693 0.03183643895942862
0.012999075936371977 0.07828895210259648 0.16753075486625676 1.174878893381585e-15
0.012952735153347921 0.03648396859576657 0.16908320760237872 0.029557690738394062
0.014802874068663527 0.13256362429960664 0.10710349295738192 9.38085209000389e-16
0.015138632253758383 0.13501283307279555 0.09585559599517433 5.710435729555788e-16
0.0141273335198547 0.07980578420657897 0.12973413930156205 6.785219112085434e-17
0.012678483684331648 0.046457097456039285 0.17827061935595714 0.01771708379409979
0.015343181322144885 0.14675197637704668 0.08900319447075412 8.156227835220815e-16
0.015921804942634777 0.1394534399559659 0.06961931726868308 2.6685072192008636e-16
0.01407174988163511 0.0681769220529764 0.13159620077532522 4.268389788297894e-06
0.014395028828920178 0.09493589963905301 0.12076633653386531 5.681416292235691e-16
0.014097466659323004 0.11503332705197794 0.13073464746232508 2.0775058576267116e-15
0.017751785641337663 0.22629394119356688 0.008314910817664382 0.12131571055235152
0.013408715798357312 0.07459959650926684 0.15380782814896907 1.0570751716071194e-15
0.014881110770340673 0.1068363699642523 0.10448258731974641 2.814891915748169e-16
0.013899021286866615 0.043360997029911544 0.13738262846113686 0.0033192848437017227
0.01394382135764622 0.09217156207003666 0.13588178334549902 8.528793042623318e-16
0.014810607217272731 0.08208486634843117 0.10684447739493241 1.3535033565609834e-16
0.01311127207577488 0.04717622458000123 0.16377221329228092 0.011703452778806986
0.01665855072676129 0.18433910973074424 0.04493830333457659 8.107116871131311e-16
0.015600982899251794 0.1296241586367421 0.08036686023177074 1.340617093343277e-16
0.016288101576774468 0.17674532873901208 0.05734835173200255 7.558196166735227e-16
0.012634337432389973 0.06965764302045996 0.17974949761867853 2.170965515150015e-06
0.015768366491865353 0.14949230595581725 0.07475949444046728 2.04196695038296e-16
0.013504919119525574 0.057700119097757144 0.15058503315734023 1.7551138542947827e-05
0.016748554148388425 0.17217946910478008 0.041923200688131136 7.281529090580121e-16
0.014685257508645105 0.11669304538779515 0.11104366026184814 8.314007508228116e-16
0.01226680944723198 0.04678814940958009 0.19206170059429137 0.010520157890911607
0.017338260304071932 0.20336539198073253 0.022168024536775844 0.04948394295387527
0.01694191506839106 0.19503817547847194 0.03544559211573582 0.011108112015339303
0.013735568107272635 0.07021108631387377 0.14285828399215617 1.3262844145999506e-05
0.015969937755099233 0.16460344554496373 0.06800684635591255 4.974052669022542e-16
0.013907350614518782 0.05682963894410466 0.13710358413699236 0.002506275967448932
0.015358013886174977 0.11404252423330057 0.08850633280967518 3.1436232921910824e-16
0.01644109879830355 0.15603527992489885 0.05222296520769502 3.5147242972557267e-16
0.014386411387722686 0.1077554423621938 0.12105500931971541 9.584741483364637e-16
0.01521126023146858 0.10186573620192343 0.09342258912394703 2.2918990195916613e-16
0.013544623194132313 0.08665164524429567 0.14925492147708921 1.0935810466573332e-15
0.017620961218036378 0.21286580483938228 0.012697545004166196 0.0862050582020509
0.014335713969211591 0.04392590573361978 0.12275343462850145 0.01392911006964452
0.015731188895902356 0.058751932243342006 0.0760051205061579 0.0008735598978616101
0.01670644186301651 0.1486520126086412 0.043334015770433304 7.028193090205018e-16
0.017212978939014224 0.15566353733296048 0.026365054498167523 0.022825221691304593
0.01702379349962259 0.18074485152756983 0.032702686486934265 0.0162202369333798
0.01603879765448034 0.09848757114984463 0.06570015774452653 2.3415044246124197e-16
0.016414486506795216 0.09993941267242595 0.05311461331799473 1.4706276112779508e-15
0.015859602700632705 0.04105231458163218 0.07170331418146103 0.025928501136234863
0.01574709472261135 0.10569398439270908 0.0754721603380013 1.3758416348819363e-16
0.01588963642848995 0.08758646771166062 0.07069707168062489 4.05634170585283e-16
0.015039803998846727 0.050375813562952114 0.09916646959069776 0.007205816746062356
0.01687304856016834 0.1313522580389448 0.03775275018958046 1.7573672123159251e-15
0.01467088186575478 0.06228747147586236 0.11152529640544272 0.0001226145580399121
0.016346041119317145 0.08804158453431153 0.0554075568135232 1.6764214360812063e-15
0.015337048247119596 0.06023074884888446 0.08920879108717264 0.001096047698100688
0.01632491555404289 0.07442925284236451 0.05611529501994904 1.6997189843022732e-15
0.016806827313657763 0.16074565097612314 0.03997108271060008 6.392279955554119e-16
0.017298075985462697 0.18944696463717986 0.023514227701911285 0.04619725416323154
0.015510708372131149 0.09316556811451197 0.08339111168738422 1.0753062579810343e-16
0.01709587228077416 0.16877710972229173 0.03028808387098198 0.01798694052742639
0.01587555832286605 0.07290216621741871 0.0711687233190698 3.443345691816995e-16
0.014866712652816803 0.038842879571355855 0.1049650418401987 0.025583182403004986
0.01625399087916476 0.133384679591034 0.05849111858618114 5.538702403500675e-17
0.015420873053905031 0.07187063141040828 0.08640063914754874 1.6808045244449506e-16
0.0161485583975412 0.11637136012188862 0.0620231389120627 4.044134475431775e-16
0.01549973452097931 0.04650429006443561 0.08375885044667959 0.02140549542255069
0.0166352816025732 0.12074822999621229 0.04571794697067165 1.7033866438987692e-15
0.01753262662770299 0.09842006550672304 0.01565680750358484 0.042554646412811446
0.016665900616549247 0.06679122170805313 0.04469226811991578 1.7584572648441608e-05
0.01774177577992636 0.1540019794078147 0.008650277303531101 0.052052700695701865
0.016340929621598974 0.05579729694973215 0.055578848658520134 7.805085891248702e-05
0.016260196881044908 0.04285583198610886 0.05828340843708911 0.018781717231695028
0.017545335705586515 0.14068834665258556 0.01523105135272719 0.06849421196285242
0.01774683844754216 0.11805182885241425 0.00848067712506587 0.0765152486654923
0.016839875631376205 0.10603581639534508 0.03886407717349493 1.7166330404845157e-15
0.016888334721590202 0.08759475113641363 0.03724068986619713 0.0019865747127348257
0.017176835489042655 0.1393966417131124 0.02757586780784422 0.03250128838495564
0.01725669001418968 0.0752380968538394 0.02490072838649948 0.03646075805050426
0.017174256211235195 0.04712318770601475 0.02766227402876436 0.04509036407291361
0.017613928286528534 0.08434191663907283 0.012933188871522344 0.06788226927140385
0.01704114261903167 0.05958209159423215 0.03212160075276448 0.021088076656906186
0.01765599790091838 0.1780611598748151 0.011523850030826161 0.05858650942684426
0.017813914125527984 0.05725031793508861 0.0062336311365896215 0.0869369307587132
0.01785640082059429 0.19679114466686326 0.004810320026226637 0.07222092772650246
0.017603406542292886 0.06844995448628319 0.013285668993773 0.07125746317997154
0.017614684059640014 0.03636184085127086 0.012907870350870135 0.06463480187464948
0.017944966752578437 0.13590441572350648 0.001843347076319192 0.06420830100582098
0.01723914394205009 0.12752739858366033 0.025488524622016014 0.0323114671153188
0.01655952777720328 0.03547483940051815 0.048255775327188485 0.03257203905986569
0.21635471431903627 0.001927014176303143 0.12327943911403154 1.4434029430838257e-05
0.20042878348644194 0.001432784378445514 0.05902928822061359 2.942498241228605e-05
0.22104117729127248 0.0022784191272623606 0.0970371904460491 7.218727225039893e-06
0.20417129166353037 0.0017413472364192178 0.031948645001807316 0.017699250283164977
0.20945482284857747 0.0016527779698489672 0.1086197103563109 8.5842663531193e-06
0.2389008520085425 0.003550734859102436 0.011685326863628328 0.07067060874893766
0.18926427398786974 0.0010162303378930544 0.029351046463531098 0.018435803683410558
0.1932061930297391 0.0009611083355508221 0.0841516443293206 5.030273865091474e-05
0.1924780616352153 0.0006235340283914759 0.15025782683073585 7.301448584879426e-05
0.24333810116357082 0.0034749663686860187 0.07637945721871478 0.00038456383356132764
0.2378442613262606 0.0031021614848346763 0.09856322488190178 0.00014161440555022085
0.20227881113929946 0.0009213663847570043 0.19118125081522824 0.00012758877143024289
0.2596064169422377 0.0045838852454014355 0.009599196943082564 0.06000945621865059
0.22135919197424825 0.0020236806839083544 0.15632249909497617 3.544783336195893e-05
0.20726309455941266 0.0013211313204557062 0.1575658404708925 6.894587504868207e-05
0.20712476976996125 0.001109985497783272 0.2023503236048319 0.0001306425313865448
0.20840037727188837 0.0017637674392039938 0.07286384082459929 1.2642185618214879e-05
0.22455931605435442 0.002660175970385336 0.05148087046754583 7.081505360670416e-06
0.20611063260797394 0.0015908430696144305 0.08595562596462604 1.2217402819679305e-05
0.2496976775849828 0.003992215464644014 0.0319151125875679 0.02228693846978979
0.19517022080497742 0.0006987228091711303 0.16295071307248035 8.538190380364265e-05
0.19394035502987406 0.0007986816116473106 0.12771178934743954 7.033461564056021e-05
0.1968489633779546 0.001064835351136415 0.10089048613168823 5.048114881886617e-05
0.22793906731607025 0.0028823523150973197 0.03940515769694057 8.14318567395541e-06
0.21587708905843006 0.0018041973746680483 0.14502513853081003 4.279870489914659e-05
0.20321967506166 0.0012006233123167597 0.14016366428878352 7.208168962953962e-05
0.25138482125288697 0.00394886177405852 0.05970153820835788 0.0009375076770539647
0.2232043940127801 0.0027724438060931413 0.01218857897351565 0.08691227572162334
0.2338445638009053 0.002786524703316512 0.12440737424746497 3.39459820736862e-05
0.18916091991660308 0.0011117267995106512 0.0072980520279629915 0.07321438275046412
0.2531621117534072 0.004088663999237319 0.04831681553377771 0.0007546967874773931
0.20787659162749303 0.0010531558599769185 0.22295480542338728 0.0001867698736959144
0.2080831155287582 0.00207996711313891 0.0001142978107269792 0.08014038260472704
0.20923639784861453 0.001929204228035837 0.045659633279946495 1.5918752505243165e-17
0.2336337116438564 0.00296569719274979 0.08284753433450288 7.126499638671696e-05
0.22049001358269643 0.0018322765683474289 0.18885945908719706 8.300254815161907e-05
0.235848628915356 0.003181390417740316 0.05956986283286816 1.1162996813158784e-05
0.17477611364897833 0.000224662213778316 0.0458587276245798 0.00025797082626038135
0.17334797198099958 0.0002575306449593818 0.023177438401599856 0.043911414349365185
0.20052275451972681 0.0011781528993499279 0.11586323482460964 5.8329632994901575e-05
0.1853539452287844 0.000698869448745553 0.05654159389021213 9.38179461334137e-05
0.20137842575273315 0.001680628266329295 0.014992616174148524 0.07510618729262539
0.22503053867430658 0.002914968537375171 0.0007365014573589901 0.08230179384964445
0.20986313333919676 0.0013401885280290898 0.1815645617814835 8.603798809080125e-05
0.21644616912798031 0.002389030092650542 0.02299593519409757 0.055091334674182445
0.20895777500779456 0.0013472858163280613 0.1701976420399008 7.496832358214557e-05
0.22301417923925043 0.00251728924513876 0.06605752229964754 2.7677829080412503e-06
0.22399201563209087 0.0020866637596951994 0.17104788732068718 4.05045118996156e-05
0.2378478437764529 0.0034168555647070458 0.029620633402117003 0.03546999600783688
0.1964580261494351 0.0013006337084504242 0.04496662597009624 3.3482920360920595e-05
0.186133805009427 0.0006818062993555539 0.06873304312448833 4.755677296671058e-05
0.15637253518399835 0.0009936457081611387 0.245135284610299 3.981645440277113e-06
0.18575680379740273 0.000571465131585714 0.14099775113872026 8.345536381687607e-05
0.14510712481613516 0.0005933765272903798 0.14637834913114303 7.91947353596231e-05
0.1735431385185002 0.0003734394192911312 0.09213549264808411 9.807860792684282e-05
0.15269514019356598 0.0007235135811535717 0.1784890109013704 4.128328469149423e-05
0.1545650101093836 0.0006499282796510874 0.16033601855984075 3.5277008998456495e-05
0.195362709157382 0.0008204584438182107 0.20243255740556101 0.00011802422126862694
