x y z curv
0.42640450596809387 0.3209704748696679 0.7656554693130805 0.0380352605388997
0.42640450596809387 0.2057452782447549 0.7278781462507615 0.04981472325836937
0.4264045059680938 0.36311519548380344 0.8376148651922328 0.016223861463221433
0.42640450596809387 0.3891224684446908 0.7745012066579636 0.03222552752501191
0.42640450596809387 0.4209004965036334 0.7515095059338084 0.09919659176552166
0.42640450596809387 0.14544360718207533 0.7549911951526198 0.03912416803916978
0.42640450596809387 0.17161839271336188 0.7500402911791237 0.044065912303025166
0.42640450596809387 0.30332331047901534 0.7720452075109557 0.03539337708270118
0.42640450596809387 0.42098887651122474 0.7292459040738202 0.17721169178481452
0.42640450596809387 0.27362069032319974 0.7826038170010199 0.033638554664858863
0.42640450596809387 0.28709949813274566 0.787333780654623 0.031818579983575686
0.42640450596809387 0.18050882261170104 0.7613721885172493 0.038013802468198965
0.42640450596809387 0.3120652860304317 0.7555118681049662 0.03701774238631797
0.42640450596809387 0.39823083663138775 0.8126680301865692 0.03416762675598472
0.4264045059680938 0.37443318664604985 0.7510783250652044 0.0398243052718469
0.42640450596809387 0.30652744186506553 0.7949331611137892 0.031417997856564774
0.42640450596809387 0.11455052258987022 0.7281436754250996 0.046482749338374825
0.42640450596809387 0.42810846641228234 0.8614507838683596 0.21464256190410325
0.42640450596809387 0.1531795443139672 0.7432085160215106 0.04351049841002218
0.42640450596809387 0.34637870095357387 0.7924806141105091 0.025862575119602334
0.42640450596809387 0.289070980136357 0.7493465217913915 0.04002355940002157
0.42640450596809387 0.31529540905650866 0.8042687698689653 0.02485143915020462
0.42640450596809387 0.335496965803064 0.7309098757642286 0.04290487904484136
0.42640450596809387 0.3073777239710578 0.7840135082486521 0.029774641414254188
0.42640450596809387 0.25085642156958543 0.7355490535494678 0.044193212470752814
0.42640450596809387 0.28121079000079424 0.8090061942383352 0.023052494157691585
0.4264045059680939 0.2732061677639897 0.7343003830142072 0.047526311329677065
0.42640450596809387 0.407124276093326 0.8225507565093336 0.056229756346890813
0.4264045059680938 0.41195295461461723 0.7880437884751726 0.05447412057453389
0.42640450596809387 0.1482538870656737 0.7288339558994259 0.049973649973734824
0.4264045059680938 0.32121298165660245 0.8213495657309943 0.019834084731165297
0.42640450596809387 0.2651813426001758 0.7446670923617238 0.04211193963486478
0.42640450596809387 0.1386674134614785 0.7363660971278077 0.04451847589286367
0.42640450596809387 0.27757431382389597 0.7649503098895745 0.0379752229646781
0.42640450596809387 0.23701270876375694 0.7707290296042992 0.03237459870688532
0.42640450596809387 0.3507117185687724 0.765288224520803 0.03605779170458737
0.42640450596809387 0.36755155795375277 0.804076766041691 0.024570783805128154
0.42640450596809387 0.4144572379773734 0.8005411602633637 0.07443059052206535
0.42640450596809387 0.2643104594557597 0.7686866329205827 0.035313746313860625
0.4264045059680939 0.36576753298272324 0.7734870057727069 0.032455143720784584
0.42640450596809387 0.33719752254980806 0.8335628261535042 0.019814423984512552
0.42640450596809387 0.40340743776113436 0.7623567567974099 0.04546242876166146
0.4264045059680938 0.38357217976471286 0.7421097804123584 0.042635580219083674
0.42640450596809387 0.36914388723432967 0.8216397785856779 0.01768719004282971
0.42640450596809387 0.39733591399851087 0.782060972472198 0.035237540529446734
0.42640450596809387 0.3444040641505962 0.7418169794999631 0.04267449125410832
0.4264045059680938 0.3435275060205142 0.81455515360368 0.02322801101600012
0.42640450596809387 0.2279901249426843 0.7789499633020173 0.029754990365781324
0.42640450596809387 0.19732766183747638 0.7743925214985964 0.03215678558262839
0.42640450596809387 0.22795967660183314 0.7995350411555348 0.02418345444666438
0.42640450596809387 0.2433561627261682 0.744409083926358 0.038451595694138856
0.42640450596809387 0.39151262824398464 0.7608494838923926 0.03954583869367697
0.42640450596809387 0.25450088760395445 0.7978861554444419 0.03024551128048076
0.42640450596809387 0.12569264330114915 0.7553879191638688 0.035541944890740196
0.42640450596809387 0.3895384099857543 0.800258914816441 0.029246809170019022
0.42640450596809387 0.21042497190346776 0.7781552195412959 0.0326844760384372
0.42640450596809387 0.24211970107985187 0.7824117924141072 0.029140891648653588
0.42640450596809387 0.15937480328170192 0.7658324051310529 0.03744122301748073
0.42640450596809387 0.18986240469975824 0.7331398603757282 0.04747572558517381
0.42640450596809387 0.20219317163125378 0.7489020387594763 0.04376090284275291
0.42640450596809387 0.08862957956507841 0.7351043384288909 0.04636072327419746
0.4264045059680939 0.31070378153780953 0.7305969105470466 0.048833361877203094
0.42640450596809387 0.22662743858970127 0.7577310796126944 0.03594408297300525
0.42640450596809387 0.35871819943213973 0.7841104586038292 0.029970041446492693
0.42640450596809387 0.18114403360646844 0.77972940608362 0.03211047550956628
0.42640450596809387 0.24860028772595386 0.7693678756410735 0.033305941081148156
0.4264045059680938 0.42889131106690964 0.8446539408584898 0.07489721764262278
0.42640450596809387 0.3343245375367738 0.7783103926198989 0.03359040932696927
0.4264045059680938 0.33278603057222766 0.7523661268229994 0.04074453596658345
0.42640450596809387 0.3207502978397661 0.778727536940624 0.03391140996154793
0.42640450596809387 0.4148662412297224 0.8553691131038652 0.14985658521359063
0.42640450596809387 0.35920272798542763 0.812641985321847 0.018469687668176558
0.42640450596809387 0.36663410703224175 0.7609991357929212 0.037025536176171665
0.42640450596809387 0.3982592935586571 0.8628647316121648 0.1581254125494851
0.42640450596809387 0.21774414611512025 0.7931080354083773 0.025219151052226153
0.42640450596809387 0.3086028169753524 0.8209575326626399 0.020600123776001827
0.42640450596809387 0.24983801015340296 0.7540894850506434 0.03861663952982356
0.42640450596809387 0.40964078091706263 0.7520781984876724 0.06907985674683044
0.42640450596809387 0.33298507935267924 0.8213187086960743 0.021829494698149314
0.4264045059680939 0.16186482305268304 0.7299400838473089 0.04983128187329808
0.42640450596809387 0.2591665732820384 0.7795356260555386 0.032855433562867555
0.42640450596809387 0.27416400224658305 0.7538187702553376 0.04245365736917393
0.4264045059680939 0.3808583182655292 0.8583631188354183 0.18717089675937848
0.42640450596809387 0.12988324262902648 0.7285624522547021 0.05139471843435556
0.4264045059680938 0.227634208999462 0.7467828629351414 0.03982003994698177
0.42640450596809387 0.29816423028508426 0.7407653349814098 0.0439764436107419
0.42640450596809387 0.18674097840041692 0.7514007610543102 0.040702399687756144
0.42640450596809387 0.21377684963043322 0.7557518842525792 0.03776918071211822
0.4264045059680938 0.36599303219745094 0.7430130523607107 0.04418001464057626
0.42640450596809387 0.09889787371216203 0.7419033544537823 0.046803844012151784
0.42640450596809387 0.39461255479929375 0.8275432533223569 0.021459274481969413
0.42640450596809387 0.2672517468784762 0.8048110386120442 0.023761398103758147
0.4264045059680939 0.11024150434945298 0.7492828940189121 0.04564431261369795
0.42640450596809387 0.2948825409798282 0.7630100502616431 0.037341422857416255
0.42640450596809387 0.38341461019243805 0.7878062682438818 0.029305073633956617
0.42640450596809387 0.10136948589357522 0.7299303982227957 0.04852189547506383
0.4264045059680939 0.33702294532203925 0.7667002183198348 0.039160828921806605
0.42640450596809387 0.20692281707058763 0.766025561503884 0.03766661153445708
0.42640450596809387 0.3572168531805172 0.7343425425042042 0.046904128953635
0.42640450596809387 0.42911969511735587 0.8182803525762661 0.10351532392730904
0.42640450596809387 0.4281559342373947 0.7906133933020567 0.08310326330908772
0.42640450596809387 0.08071410638584732 0.8385709095276939 0.017576404431686326
0.4264045059680939 0.05239603162025689 0.7456787129515509 0.12053166260539148
0.42640450596809387 0.14542584470588563 0.8363355783650848 0.014265962525541617
0.4264045059680939 0.05861029236154301 0.8537485187473439 0.10578853273396412
0.42640450596809387 0.2715497900042609 0.8570013042455442 0.13183018961500198
0.4264045059680939 0.28122745102555496 0.8681080705794588 0.20749522241693577
0.42640450596809387 0.14133011095702344 0.8742192852677639 0.179211893375694
0.42640450596809387 0.33165046379992585 0.8694962241222063 0.2114829334783557
0.42640450596809387 0.05112646242682317 0.7931276555574224 0.07717374637406066
0.42640450596809387 0.2687318708086606 0.8257435046136439 0.019344485409706364
0.42640450596809387 0.30486793748767715 0.8555184089105192 0.10953024569393192
0.42640450596809387 0.24066294056746104 0.8231506064821938 0.020714779311114814
0.42640450596809387 0.16625668037220648 0.8235142134943887 0.020703437419333157
0.42640450596809387 0.19980245838641825 0.8352282653348682 0.018316330609899803
0.42640450596809387 0.19672435383877618 0.7916640579440312 0.03109880982475131
0.42640450596809387 0.11744991061570742 0.8069689733143854 0.02310682596893814
0.4264045059680938 0.051865559522192586 0.7721565203693967 0.08847020076952619
0.42640450596809387 0.3600707117171943 0.858323732701772 0.1486009326312022
0.42640450596809387 0.2104350433873581 0.8756233741920767 0.17606823291586718
0.42640450596809387 0.05672051097416503 0.806017674200197 0.07423225484456011
0.42640450596809387 0.1924554498851449 0.803453389182406 0.026985486196114614
0.42640450596809387 0.17297927325958717 0.7986691957640144 0.026680858692352937
0.42640450596809387 0.12211324225389386 0.8720635535211245 0.16332215305036638
0.42640450596809387 0.28763323163026094 0.8311011009491535 0.018406470535740155
0.4264045059680938 0.40578958909087537 0.876909780459921 0.17792225697706546
0.42640450596809387 0.2536568098476829 0.8705161720572182 0.22746245184557584
0.42640450596809387 0.04129480913427411 0.857135639344627 0.16721465867602628
0.42640450596809387 0.08126213287965897 0.788437578416621 0.032172058281116196
0.42640450596809387 0.050711714681020315 0.7577014078264988 0.11188132558914596
0.42640450596809387 0.06385952350151755 0.782688424575305 0.05658251605020003
0.42640450596809387 0.10588878820075001 0.8059593021436215 0.024533670163062956
0.42640450596809387 0.23157878046520694 0.8464969337963062 0.05221438985495407
0.4264045059680939 0.36458561155008884 0.8737770417048563 0.21190167277783634
0.4264045059680938 0.07618199855483691 0.7573007892266617 0.0405219177113499
0.42640450596809387 0.11175223189613978 0.8334227294654765 0.018058634152560767
0.4264045059680938 0.1004848646521026 0.7895918927972657 0.02874046284368798
0.4264045059680938 0.3215748207863583 0.8442125226753368 0.021719644179926195
0.42640450596809387 0.13182291620917003 0.8634197053684969 0.22669801994038175
0.42640450596809387 0.12105691614869585 0.8574404651253741 0.2118226990912659
0.42640450596809387 0.2476369223568474 0.8333930523831916 0.01858517803000648
0.42640450596809387 0.2624914095178181 0.8489813023100737 0.07509714144892339
0.42640450596809387 0.08581969848869823 0.7704823601918781 0.03462913213269996
0.42640450596809387 0.06502187280464061 0.8196601418058778 0.04298835683731342
0.42640450596809387 0.08758863467614673 0.8164863348298539 0.024946461709793845
0.42640450596809387 0.21856668316030678 0.8597241929178748 0.16505607797082059
0.42640450596809387 0.24703239170370098 0.8504776430037218 0.06155261822604811
0.42640450596809387 0.10532803091850153 0.8616767418281022 0.19311815684762687
0.42640450596809387 0.07766665789367777 0.8598943051626265 0.1440898074519097
0.42640450596809387 0.2329467727243914 0.8579959835973439 0.13638688138953595
0.42640450596809387 0.13408019195646392 0.8311240664431272 0.01925733635420158
0.42640450596809387 0.07292587535344458 0.7722933105853806 0.042310217884097896
0.42640450596809387 0.11431220283769616 0.7633908176621218 0.03664577799659028
0.42640450596809387 0.06358086733484905 0.7570389957526124 0.06239639938714999
0.42640450596809387 0.13238667042187455 0.797383091680007 0.026003249604338148
0.42640450596809387 0.2113418571173754 0.8082715273520545 0.025367049869242195
0.42640450596809387 0.195906434129304 0.814312264532251 0.024278047868497857
0.42640450596809387 0.17976737874982895 0.8692335165961338 0.19885372620942302
0.42640450596809387 0.09129726757819787 0.8318118717169629 0.01726781601449687
0.42640450596809387 0.2372980453799249 0.807444274421824 0.0246084018954606
0.42640450596809387 0.06800364814087331 0.845010537289927 0.053906966306736366
0.4264045059680939 0.15711725836024354 0.7773959637192707 0.032602282735894744
0.42640450596809387 0.2182510118844591 0.8416631347249504 0.02088434694158959
0.42640450596809387 0.16655558143643112 0.8639971018272579 0.20344054108726875
0.42640450596809387 0.07355957672373026 0.7426810348124874 0.05366783375521826
0.42640450596809387 0.07534251548929456 0.8049896418185594 0.031164315322091206
0.4264045059680939 0.17554040805912866 0.812335243444092 0.02117065011695489
0.42640450596809387 0.15785702489222533 0.8150538033830038 0.01991812718546282
0.4264045059680938 0.14684972075130995 0.794375365081497 0.028025308583339313
0.42640450596809387 0.16381818969941717 0.790214724241372 0.026723295254111584
0.42640450596809387 0.2819980056011185 0.8483159673745109 0.049906000445495466
0.42640450596809387 0.11928365281656307 0.7830452387114757 0.02876067385656784
0.42640450596809387 0.18429737307278318 0.8551275972324033 0.14950842156276611
0.42640450596809387 0.09909447247772395 0.7693586635745121 0.03268588233109887
0.42640450596809387 0.06831720827135672 0.832419680546339 0.03555861135557572
0.42640450596809387 0.06948759679926728 0.7946478230794836 0.04371301242117647
0.42640450596809387 0.13730394587967545 0.7795476424057779 0.03160821986717247
0.42640450596809387 0.22537928001642374 0.8318849358604085 0.01973359874120676
0.42640450596809387 0.16974484117747654 0.7774130697723196 0.03174943118971417
0.4264045059680938 0.09204837025982396 0.7585386548092461 0.04109555172967503
0.4264045059680939 0.04368685952088192 0.7372528800354429 0.12158848835741984
0.06958363501620042 0.0439571887254715 0.6948548159457929 0.1585403538438226
0.2543220473339276 0.0439571887254715 0.5935460913162001 0.05808975942525465
0.25841410614078303 0.0439571887254715 0.6443892072578543 0.03515092556275005
0.12506191817983628 0.0439571887254715 0.3467394420181241 0.2034106444178273
0.05973229812035602 0.0439571887254715 0.6865255851279032 0.21899934689272563
0.2939530044789767 0.0439571887254715 0.5697805921338134 0.06778494865124159
0.07911973558904213 0.0439571887254715 0.23107990825085106 0.1809961983654373
0.06274590252785373 0.0439571887254715 0.4104536610314466 0.24751218200548059
0.046010078090680834 0.0439571887254715 0.451637198286925 0.26694420243155675
0.21329606757359995 0.0439571887254715 0.6154359314240019 0.04848527570716563
0.18878876695491315 0.0439571887254715 0.693084915691396 0.0890380367311347
0.24384533629421523 0.0439571887254715 0.6986012661327462 0.12096821015989223
0.07735645936083478 0.043957188725471504 0.633669188003409 0.04276196659924937
0.23989688385844282 0.0439571887254715 0.5907863073573055 0.05845343971399339
0.04683173614478717 0.0439571887254715 0.5050191110499084 0.18688321977358585
0.13818872712605096 0.0439571887254715 0.6934658782772575 0.0842314062515302
0.26374569851680935 0.0439571887254715 0.6564074024475847 0.03444873065117829
0.04912913396013435 0.0439571887254715 0.05252814911089672 0.13094825190505108
0.20803348771916513 0.0439571887254715 0.4303422958552917 0.16731180680758237
0.20372883639091918 0.0439571887254715 0.47116919091124315 0.12232326504475437
0.18734979186648953 0.0439571887254715 0.30784700474832044 0.20424640974250297
0.060215794396116344 0.0439571887254715 0.38611017959482113 0.2126538277913455
0.14340477243008015 0.0439571887254715 0.6011402256153943 0.05444431833083158
0.14966509544825068 0.0439571887254715 0.3538807439432675 0.1690981442987923
0.282418595803286 0.0439571887254715 0.5193286710301329 0.09590995513877432
0.059249569034916814 0.0439571887254715 0.3387170796973187 0.2550416606241269
0.30064573020491 0.04395718872547149 0.688002031523139 0.09840480439732642
0.22421704941807608 0.0439571887254715 0.35401477412606974 0.1932354708167859
0.046689801463162636 0.0439571887254715 0.24207050698619775 0.2273016914463491
0.2281824509120742 0.0439571887254715 0.5892784074082077 0.057458053069123896
0.29569861725913177 0.0439571887254715 0.4945196523372762 0.10761333358644899
0.14788097579762263 0.0439571887254715 0.4903182518132948 0.11373680584220612
0.13370126739216084 0.0439571887254715 0.615740149846366 0.04842755464606763
0.08931583152161514 0.0439571887254715 0.11292883908336422 -2.1544764116574887e-30
0.19011666938363203 0.0439571887254715 0.6810001348477063 0.08694822245525645
0.26550060063551295 0.0439571887254715 0.7060881095789117 0.10340441740778047
0.09335104994516201 0.0439571887254715 0.46846881776454163 0.11174274492217519
0.1625963750454072 0.0439571887254715 0.4443065110746599 0.14251017974984445
0.2904686041030151 0.04395718872547149 0.5405929305372446 0.0860057525474495
0.09399472819455036 0.0439571887254715 0.5074728106553674 0.0947886986462581
0.19967576377172594 0.0439571887254715 0.511036501024409 0.09091066154666073
0.058821902244153006 0.0439571887254715 0.43121682965518304 0.22624728501894992
0.0840042406874545 0.0439571887254715 0.32863973176709527 0.2199237459951964
0.05465321465600718 0.0439571887254715 0.5368679814099696 0.21071812643003512
0.14675705355989305 0.0439571887254715 0.23306068436164168 0.20918265213534185
0.13615174983044143 0.0439571887254715 0.5395406231052718 0.08186783676073815
0.16609487116739657 0.0439571887254715 0.31585521821769713 0.18526618225326633
0.05003655791000962 0.0439571887254715 0.06397012811671056 0.0893735996222404
0.12948820309892578 0.0439571887254715 0.4002883265722081 0.14733808303545445
0.21743389359380608 0.0439571887254715 0.6720790976179797 0.07843951863103941
0.38754398575454 0.0439571887254715 0.6654407794028805 0.04674300569047091
0.25415511654805967 0.04395718872547149 0.7090824647279511 0.10608038283137265
0.13065639239800633 0.0439571887254715 0.5157878019682801 0.09605625019496762
0.11016077262700805 0.0439571887254715 0.3514980339714287 0.1957151699232991
0.05676081119263153 0.0439571887254715 0.6315051276161663 0.1753113476319553
0.07735803039871215 0.0439571887254715 0.30898391331438224 0.2018285137461367
0.0989206613059585 0.0439571887254715 0.4227670512030535 0.14780082990282822
0.20486373610859768 0.0439571887254715 0.4436621574641956 0.1421917606556237
0.3556287116256125 0.04395718872547149 0.6391601313604854 0.03770585921915157
0.050697612688476446 0.0439571887254715 0.2656588083288681 0.17248607994303367
0.09843498838555495 0.0439571887254715 0.15590527969737886 0.0642838702454947
0.3137182847388847 0.0439571887254715 0.64286181983441 0.034564394268779046
0.07916132036032819 0.0439571887254715 0.1400486610729609 0.007944927080077354
0.3177715943610687 0.043957188725471504 0.5827059531539163 0.06288763445545198
0.2169885326109472 0.0439571887254715 0.5858841856076875 0.06442747153109342
0.18670062211907007 0.0439571887254715 0.5210613365010521 0.09279509490116908
0.0627774840954883 0.0439571887254715 0.6574148131141525 0.18567079871453585
0.3190037125139118 0.0439571887254715 0.6253120556662416 0.04374754727486827
0.1218902469695137 0.0439571887254715 0.6651494929301982 0.04487130344794515
0.12831277517278236 0.0439571887254715 0.6036941865422543 0.05419650468211798
0.26603421132879845 0.0439571887254715 0.5807311458303703 0.05963818182304469
0.08055736030772334 0.0439571887254715 0.27560580362554843 0.22705178764374387
0.08330466094488803 0.0439571887254715 0.34170003361541684 0.1952651630142324
0.19401706924481465 0.0439571887254715 0.7238622916357683 0.1063814815981436
0.31112781616023905 0.0439571887254715 0.552929841337051 0.076368635544022
0.269918814727605 0.0439571887254715 0.4599632284108818 0.13445681900856388
0.15096444430254954 0.0439571887254715 0.5372498843932335 0.08016003514518817
0.05796460948766499 0.0439571887254715 0.49626184799866246 0.21519694282903332
0.19424077471058807 0.0439571887254715 0.4091206066361387 0.16113255437385005
0.10778569209145963 0.0439571887254715 0.6961429066411197 0.08372134137880592
0.14688881946487986 0.0439571887254715 0.3372064823432451 0.18244102905215256
0.24028053523318088 0.04395718872547149 0.46718652690426465 0.11584544357901523
0.23476904885622163 0.0439571887254715 0.41607642949464824 0.15666089138898587
0.24507478233636504 0.0439571887254715 0.6031484293111395 0.054270759685527234
0.14365599401353693 0.0439571887254715 0.5751708966449517 0.06370324869589562
0.1888351990181725 0.0439571887254715 0.3278001411528489 0.1972910285424475
0.21873289181148914 0.0439571887254715 0.718807525150715 0.13113201113565573
0.0963738187879099 0.0439571887254715 0.3294329844395649 0.2022826760608454
0.2410920621668286 0.0439571887254715 0.5476805182728449 0.08026965648802405
0.1605822153821549 0.0439571887254715 0.6106782657767238 0.04939811805312382
0.22745348948239943 0.0439571887254715 0.6057992795697811 0.04812022681306959
0.1801986283176275 0.0439571887254715 0.6120786492708854 0.049887954964136505
0.2962572226789003 0.0439571887254715 0.7020729004953604 0.10397221178249502
0.05407824857727112 0.0439571887254715 0.72044793474839 0.21855259919121792
0.29011877234354794 0.0439571887254715 0.7201335752140624 0.09195820629945718
0.15158729675136318 0.0439571887254715 0.26794907777701726 0.21658437650095697
0.049289081182681674 0.0439571887254715 0.37902474422006316 0.2428522680097222
0.14546846376799297 0.0439571887254715 0.6134850905416123 0.049246099629311875
0.2421008500445503 0.043957188725471504 0.6470481807089417 0.035668362528543274
0.28902187584389805 0.0439571887254715 0.5542713867078433 0.07986295429560124
0.27905593678074825 0.0439571887254715 0.6634609495262799 0.042224218607686465
0.1165782763167941 0.0439571887254715 0.48388894791087433 0.11299242409418021
0.21709180637712677 0.0439571887254715 0.4175554266747908 0.15861287478762012
0.14330498927675098 0.0439571887254715 0.40532910223879776 0.172428494493561
0.09307021418436232 0.04395718872547149 0.20963875843692908 0.21873403273958278
0.21528014069627105 0.0439571887254715 0.4731744833096398 0.12614780378420523
0.28314419319017986 0.0439571887254715 0.6034940707976477 0.04581605790231696
0.07759584140842132 0.0439571887254715 0.4523672852234913 0.14523554297958735
0.17039539620712535 0.0439571887254715 0.32895093912737905 0.20228049666719825
0.22191853441460646 0.0439571887254715 0.502151819268272 0.10513641848986509
0.21242999165442972 0.0439571887254715 0.6593591819935284 0.037029062360424046
0.058239405108896206 0.0439571887254715 0.29425183911596575 0.23012786368935717
0.15288059264505 0.0439571887254715 0.4573264491093293 0.12458973055013903
0.05670134691358661 0.0439571887254715 0.32786657258481366 0.21306163896983968
0.11687276644817066 0.0439571887254715 0.3941813687419876 0.17125380626213405
0.21052635640505504 0.0439571887254715 0.3497939311520183 0.18045102553585485
0.22649723715897205 0.0439571887254715 0.4401580074489938 0.14059525572038933
0.11757338099694707 0.0439571887254715 0.6068674733441369 0.04874161916641266
0.1359636355899139 0.0439571887254715 0.4255967821700581 0.13332638835122182
0.19638207966456636 0.0439571887254715 0.5491880417611505 0.07567059802144642
0.15210839783223878 0.0439571887254715 0.22224091752015165 0.26017124853672813
0.22308521876424736 0.0439571887254715 0.5433432947119483 0.08319924191821851
0.1653852936974107 0.0439571887254715 0.3655846883520324 0.1776482255028768
0.17416350782149084 0.0439571887254715 0.5898536429432893 0.05652652949065166
0.1432440141797398 0.0439571887254715 0.3169852077697759 0.17864640070586943
0.10643513391859662 0.0439571887254715 0.682185951885171 0.08891272312343775
0.13999598331048635 0.0439571887254715 0.480990116775805 0.12494918885998457
0.15999931823398422 0.0439571887254715 0.2586435727241873 0.21791658986367948
0.3095561030281437 0.0439571887254715 0.5711128397789299 0.06638770898518663
0.07374208818955885 0.0439571887254715 0.11571411823084775 0.025342601350177425
0.1469043077622907 0.0439571887254715 0.2801657873961212 0.21806604014332548
0.32873907677101116 0.0439571887254715 0.6648015466175601 0.056918146701576446
0.3037150002922866 0.0439571887254715 0.5025220264105829 0.09773123116278219
0.05510164536321609 0.0439571887254715 0.13521632820672644 0.13758737869627938
0.2658942049535263 0.0439571887254715 0.49426344193162114 0.1011404949456449
0.06692312884159107 0.0439571887254715 0.37024170141443447 0.24099233817293034
0.1156149523705827 0.0439571887254715 0.5837813252138141 0.06109614319371103
0.09460657210685097 0.043957188725471504 0.5753450057047796 0.06188292471137253
0.20086865834863082 0.0439571887254715 0.33746409992209103 0.18760872155665054
0.06312121396228042 0.0439571887254715 0.554824704524128 0.1818350141259355
0.1117560475638415 0.0439571887254715 0.4309339446023034 0.15633885867233385
0.046847289413851335 0.0439571887254715 0.3924957414928313 0.20120351664355324
0.26110531139577037 0.0439571887254715 0.5681100713158731 0.06504244649924232
0.28183636329210465 0.04395718872547149 0.6336242498570992 0.04170397852301213
0.05366189616732038 0.0439571887254715 0.44321617500048827 0.2150375397288539
0.1587315492900832 0.0439571887254715 0.4331903303582473 0.16109916313055184
0.2015976038007413 0.04395718872547149 0.5762647098073977 0.06720844458186778
0.12224415071340117 0.0439571887254715 0.4455973277429501 0.12681872140615655
0.10019908238681853 0.0439571887254715 0.3170727769647697 0.20815875713629864
0.20864913251517558 0.0439571887254715 0.48339094857396736 0.109267245967822
0.22159953099343827 0.0439571887254715 0.37905821422744895 0.16824920571426905
0.18575035447905713 0.0439571887254715 0.39332829538429537 0.17504482238848243
0.08285382552011533 0.0439571887254715 0.4000026865642458 0.16153477632856406
0.11584109921599106 0.0439571887254715 0.18533855104994962 0.20307850991625656
0.17652056400085733 0.04395718872547149 0.6893909392138248 0.09368879774069644
0.07515240160332866 0.0439571887254715 0.35319358158998887 0.19479215103133657
0.08068860618371922 0.0439571887254715 0.3667277638694151 0.19786955916536553
0.04964575160367139 0.0439571887254715 0.3673694307096903 0.25741635410762276
0.16124272049851415 0.0439571887254715 0.6376313756839558 0.0394897652929573
0.2962221092862813 0.0439571887254715 0.6287238066278971 0.041230299739505184
0.06790007436511054 0.0439571887254715 0.19557977999493728 0.1885164072624767
0.2723729519870875 0.0439571887254715 0.7155456685360305 0.08732331203968963
0.04523573559701602 0.0439571887254715 0.6401016405725205 0.209011624924467
0.25148050126787563 0.0439571887254715 0.4500283220147526 0.14492690987646153
0.05091492454790349 0.0439571887254715 0.5646338014633927 0.19915250759544306
0.19033441335580015 0.0439571887254715 0.6203190171256151 0.04424400749707389
0.051563629167298494 0.0439571887254715 0.4676951315934434 0.2079095426966808
0.08212353143484247 0.043957188725471504 0.563825666772941 0.06771305932805924
0.0896314815962241 0.0439571887254715 0.4558297300989345 0.1185769508176631
0.04459790557365656 0.0439571887254715 0.42281440027523326 0.24544817484192752
0.14593719774643407 0.043957188725471504 0.7044846418093902 0.09748215957664272
0.3034960521495899 0.0439571887254715 0.591921546324265 0.05119292603790178
0.18061348874034414 0.0439571887254715 0.3166485863893431 0.18673345925210663
0.05820528315125585 0.0439571887254715 0.10254100799978688 0.04552321501232115
0.20699315602536805 0.0439571887254715 0.6884527530953825 0.11437096958236363
0.20589661088287703 0.0439571887254715 0.7268432689925818 0.0677399063347012
0.19168131985279732 0.0439571887254715 0.6542558694451711 0.03220755215346442
0.07537299688461539 0.0439571887254715 0.5440751195583975 0.10584082282227558
0.20517326170437916 0.0439571887254715 0.6703269990190033 0.07995106899441974
0.15223657910785157 0.0439571887254715 0.5118339887969513 0.1003283318714467
0.07703423528840943 0.0439571887254715 0.49939795394725695 0.1259938353369973
0.37048468707590954 0.04395718872547149 0.6808038612155991 0.08656703452023329
0.3178394874852911 0.0439571887254715 0.7113053868100179 0.12154075068491534
0.1147889927301046 0.043957188725471504 0.5179370462704179 0.1032141497543219
0.2542810713060192 0.0439571887254715 0.46284117361183796 0.13008867095721172
0.06329116421106468 0.0439571887254715 0.4504450710824494 0.15151403865052637
0.22645721800659538 0.0439571887254715 0.6319146941346369 0.04136281487101264
0.11309848569049229 0.0439571887254715 0.2732499827893084 0.24184653895520644
0.06488999317523306 0.0439571887254715 0.31494268642581114 0.2551932939549553
0.2451597872493292 0.0439571887254715 0.40795935896208535 0.15746290150995157
0.13990756542667165 0.0439571887254715 0.2200533685116947 0.2192952754518156
0.11225689482768043 0.0439571887254715 0.628375799168612 0.039727044147098815
0.26138507908099845 0.0439571887254715 0.5527583358434563 0.0709274671338786
0.12658642738034084 0.0439571887254715 0.573493459357182 0.0656150561633371
0.09624036925621025 0.0439571887254715 0.3477479974981987 0.1950832889241871
0.06495442288850428 0.0439571887254715 0.7196174759678684 0.17674555244662016
0.2186805938492904 0.0439571887254715 0.49058402779502813 0.11351768433573724
0.26353285096690626 0.0439571887254715 0.722276634196135 0.07555732585558549
0.41389023123885366 0.0439571887254715 0.7261714231143048 0.20838379870115836
0.10833961900457022 0.043957188725471504 0.6696706982865135 0.05779475625024054
0.39392996800244723 0.0439571887254715 0.6924322026995218 0.1171050868162263
0.09560739877162064 0.0439571887254715 0.433421068359065 0.15198473756727285
0.09883737954404774 0.0439571887254715 0.18624337012706654 0.20239584845924533
0.21334308719232153 0.0439571887254715 0.3350843220046362 0.17470319320704428
0.2945822471377232 0.043957188725471504 0.646576096901143 0.035876295745747015
0.1112655932516047 0.0439571887254715 0.2979789444565871 0.2189766313233543
0.08955405444776036 0.0439571887254715 0.3854121499664582 0.17450235988341364
0.09402385569373757 0.0439571887254715 0.726796160889612 0.09090260040457576
0.19290088869089275 0.0439571887254715 0.4409374633910579 0.1428574878836158
0.14712919004544145 0.0439571887254715 0.3942185115267193 0.18277166300597078
0.15823493185825058 0.0439571887254715 0.40725108283311984 0.15221743341260927
0.11871138519626846 0.0439571887254715 0.49936553322974225 0.10851233516219759
0.2946088080702783 0.0439571887254715 0.6043088719074922 0.052948591518527835
0.276888227091548 0.0439571887254715 0.577292311589077 0.06567814745037555
0.1979948269658931 0.0439571887254715 0.38408274497492173 0.16519863044461214
0.2593043357384833 0.04395718872547149 0.6679522627180291 0.04900505868290864
0.356191562691886 0.0439571887254715 0.6736643150468206 0.06732729100750427
0.2727475671051422 0.0439571887254715 0.44469530049551853 0.1481158465773475
0.1352307951379204 0.0439571887254715 0.364814547883864 0.18998358797183024
0.1576267769450769 0.0439571887254715 0.2407292528182802 0.19206699405367716
0.06656705377505864 0.0439571887254715 0.14566211156855036 0.043536983591839135
0.07297838656147956 0.0439571887254715 0.38960458234432754 0.19782187279847424
0.15370651462702584 0.0439571887254715 0.4773124097705679 0.12200557795377032
0.16443341685474938 0.0439571887254715 0.6753584823248251 0.08631568526108112
0.24398523541244327 0.0439571887254715 0.43928402806554 0.14397120306277242
0.0933866099607686 0.0439571887254715 0.6801613771224657 0.08871078640866402
0.11012252804777685 0.0439571887254715 0.5583431147376098 0.0752271052167682
0.045283041286321886 0.0439571887254715 0.16384977940950446 0.1150641799467364
0.0968468819676578 0.0439571887254715 0.29506222603306154 0.2015149126666847
0.3361184935757335 0.043957188725471504 0.6033810246370344 0.0529986441936014
0.256072100658872 0.0439571887254715 0.43872842895787917 0.1511712678006641
0.20068700986403798 0.0439571887254715 0.6151053234310608 0.05149144534370306
0.22885673030302275 0.0439571887254715 0.5717188930308673 0.06458059150559281
0.1410020230413011 0.0439571887254715 0.37845781394355094 0.18487456495790128
0.2170500537657483 0.0439571887254715 0.560837170331022 0.07324812024033175
0.05427751648484898 0.0439571887254715 0.11429435032021189 0.07822222196369398
0.15727205727682494 0.0439571887254715 0.3863523275069845 0.17755758302720073
0.13373902892734707 0.0439571887254715 0.26387437955900156 0.22305979557357403
0.2803848009211445 0.043957188725471504 0.688632569686882 0.09167791664966643
0.21861178651835267 0.0439571887254715 0.6404862676668529 0.03817286654350653
0.3253963929964267 0.0439571887254715 0.6424946473491417 0.03797777098251659
0.0997335341945818 0.0439571887254715 0.6337677241306835 0.038617038159990555
0.135040676126124 0.0439571887254715 0.19998480301924243 0.2273462793920605
0.159560300952022 0.0439571887254715 0.30257089160781875 0.17897043452592531
0.3376341935991141 0.043957188725471504 0.6291035347583206 0.04031454598626203
0.04440626234406631 0.0439571887254715 0.29091165490692605 0.218744732197827
0.3131876765346839 0.0439571887254715 0.6128587528458268 0.04678532380096923
0.30062726595201794 0.0439571887254715 0.5571934762081056 0.07417920112617457
0.08592356101620952 0.04395718872547149 0.1592446664103087 0.2015750692257848
0.3667219458760683 0.0439571887254715 0.710200064426724 0.13424260120932366
0.2408319878475247 0.0439571887254715 0.5008991647142662 0.10027036021069183
0.1507206085726519 0.0439571887254715 0.5540021344447459 0.07867812062801405
0.1499657873233906 0.0439571887254715 0.6280077454470282 0.04254283049134877
0.07854880033287437 0.0439571887254715 0.4173733441055775 0.15046000624212275
0.13202556853286418 0.0439571887254715 0.5280779689094504 0.0883682268057436
0.26824113939167105 0.0439571887254715 0.507554548767128 0.10052260131054898
0.1134440909160586 0.043957188725471504 0.7251559983680953 0.052971056145098866
0.10884341489028151 0.0439571887254715 0.4146178170719554 0.13848609931416578
0.26940947499849527 0.0439571887254715 0.6863434520493683 0.14144672311635587
0.20664359398080795 0.0439571887254715 0.41434612291836076 0.1654367834110873
0.1320519646283735 0.0439571887254715 0.6480127813561904 0.031773159271043794
0.22192253732681674 0.0439571887254715 0.4293127611977938 0.14212985431413194
0.14982371200033515 0.0439571887254715 0.6401815580938158 0.03551920619896666
0.11505385299968711 0.0439571887254715 0.3390725684016781 0.20925395733367552
0.12481191450568307 0.0439571887254715 0.2890310895259704 0.20042223523220334
0.1012719549629999 0.0439571887254715 0.5477827192040811 0.07768023142881937
0.13139676626589578 0.0439571887254715 0.3052970903319509 0.2177885142334714
0.13832669788836532 0.0439571887254715 0.2523598152374924 0.23707536418865904
0.051790195550051765 0.0439571887254715 0.5488370510444636 0.1957725092967912
0.18721457611957348 0.0439571887254715 0.4715393631734424 0.10608254304127349
0.056487023659606915 0.0439571887254715 0.5251674997065978 0.16307593429386508
0.1749419631748226 0.0439571887254715 0.45381597616062097 0.13029085237837582
0.1830781424732731 0.0439571887254715 0.2963345658527326 0.187982516280817
0.18102864545426237 0.04395718872547149 0.5432171630902483 0.0793716976905691
0.07221247058585767 0.0439571887254715 0.16568779738576897 0.1618146938283383
0.19888137000452308 0.0439571887254715 0.49368515430767923 0.10999067439430685
0.06968359558486639 0.0439571887254715 0.1813624786793958 0.09107237763366674
0.171567222685031 0.0439571887254715 0.5333398300395082 0.08168825114267186
0.05026855888380737 0.0439571887254715 0.3071458393562268 0.24126668892249709
0.3434540283752678 0.0439571887254715 0.6186451890732834 0.05004851903331777
0.10233455192361789 0.0439571887254715 0.612212738061821 0.0470953523803911
0.08390616038134756 0.0439571887254715 0.48557660414831577 0.12217276937708768
0.16334193740138567 0.0439571887254715 0.5668538271536322 0.062359077791094446
0.07580509271265534 0.0439571887254715 0.29508190841665266 0.1788315165317302
0.1794358488588379 0.0439571887254715 0.3667545779002847 0.18929617835807014
0.37888578501106274 0.043957188725471504 0.6539255326757594 0.03437559453159629
0.05252921493157214 0.0439571887254715 0.1745135992594079 0.17634367617291147
0.0781065882353035 0.0439571887254715 0.47150688035173277 0.1426303804343921
0.1793419768294296 0.0439571887254715 0.3367107194291372 0.20290121658363422
0.0646291997487024 0.0439571887254715 0.2535928930377995 0.2403988275256157
0.17093228692388435 0.0439571887254715 0.6483986197061599 0.034903166770456816
0.07388266666907178 0.0439571887254715 0.08703880715037374 0.016201515401799423
0.3223536774766255 0.0439571887254715 0.7247969146624513 0.10883183611237326
0.22573810460700247 0.0439571887254715 0.6197880464604804 0.04474633432433872
0.08483094737039013 0.0439571887254715 0.6486757422603984 0.033468032556747754
0.31613113378589847 0.0439571887254715 0.667980088940903 0.06161274111836434
0.16262141364650032 0.0439571887254715 0.491233444900045 0.11001564442148289
0.17767681846516625 0.0439571887254715 0.35128742768271337 0.1859348150596407
0.0595086632668368 0.0439571887254715 0.07322281802530536 0.05719128637382825
0.07292391011167387 0.0439571887254715 0.5256015880723847 0.11835027012655197
0.21817428648642712 0.043957188725471504 0.699014089988219 0.15800546155763434
0.20385856747791348 0.0439571887254715 0.4015133078574091 0.1759317423120237
0.1030390421380134 0.0439571887254715 0.5275492533883238 0.09076668697966003
0.11893051388699274 0.0439571887254715 0.6436098103505954 0.03665308259585381
0.08607533249314077 0.0439571887254715 0.6924330431208987 0.10121403354055147
0.2940193196608175 0.0439571887254715 0.5821578513674536 0.06215068604681201
0.23439764314176817 0.0439571887254715 0.5180312926229381 0.09772297548314333
0.10973431186086993 0.0439571887254715 0.32700211687611014 0.1981388740838767
0.1270320708502471 0.0439571887254715 0.21515757114913592 0.2593429847885853
0.14416297938648892 0.0439571887254715 0.4353405461271897 0.1308143681721745
0.3154480843703577 0.0439571887254715 0.6998120825797143 0.08431951407864391
0.09492385571996298 0.0439571887254715 0.13733865470185042 0.07221620781845521
0.0858716092096841 0.0439571887254715 0.2554571691529888 0.23528170428704528
0.13155575816449477 0.0439571887254715 0.7154050157205538 0.1002253706708232
0.13522957553844644 0.0439571887254715 0.6340816195126991 0.03578219872682736
0.1785560926635515 0.04395718872547149 0.7197243141513199 0.13054552968811026
0.07634059687110803 0.0439571887254715 0.15163561054071129 0.13505810031115123
0.13115255868049355 0.0439571887254715 0.45800153274821054 0.13079680727467138
0.11825950728169869 0.0439571887254715 0.5307242218757781 0.09056038891220662
0.35368913829088 0.0439571887254715 0.6588272693498682 0.03562050991817541
0.20400386688677247 0.0439571887254715 0.5620274831627784 0.0672310752967462
0.23903119608883494 0.0439571887254715 0.6356139631347869 0.03937621682116508
0.25304879722672097 0.0439571887254715 0.5788872262031516 0.06095650385303646
0.304669222679375 0.0439571887254715 0.5160541639397089 0.0969850253132489
0.16815831484518734 0.0439571887254715 0.3412323672981594 0.19783366548720757
0.11739429868158542 0.0439571887254715 0.3772130465427366 0.16249178826432045
0.05363118545583984 0.0439571887254715 0.6170711001371356 0.19750499025427312
0.07391864619991254 0.0439571887254715 0.24737690109996285 0.17048343409579528
0.13822561892684285 0.0439571887254715 0.29386284066784607 0.22206324176106637
0.09613871182592065 0.0439571887254715 0.40525676134908933 0.16691123718643616
0.3533100454679586 0.043957188725471504 0.69094655422275 0.1600555981923827
0.3358164640984227 0.043957188725471504 0.7148702446666337 0.09732786346976799
0.12709375749106103 0.0439571887254715 0.4791742953073444 0.1288066243568248
0.24193014264171875 0.0439571887254715 0.7218428355788653 0.12956164099647696
0.25220250398233046 0.0439571887254715 0.4248252873283779 0.15372450479215458
0.18495734075510228 0.0439571887254715 0.5786133561220518 0.06555122161386616
0.17738693425398278 0.0439571887254715 0.5076669762984493 0.09876176824972997
0.1436150574437979 0.0439571887254715 0.4652515508089673 0.12658545459311787
0.2933089029884721 0.0439571887254715 0.510636624552526 0.10173614353246753
0.07343541363407087 0.0439571887254715 0.5757573161118749 0.10668362595850704
0.4097961657861831 0.0439571887254715 0.7017931520172693 0.20484058302021854
0.16360018492489514 0.0439571887254715 0.3523813058252489 0.1979996318880057
0.09729413018203203 0.0439571887254715 0.6568566371859644 0.035632698646940686
0.2030610287541525 0.0439571887254715 0.3724147606737599 0.17941560605015616
0.32991399068626653 0.0439571887254715 0.6170465057620343 0.0447313155102298
0.2332531940923896 0.0439571887254715 0.3943527355053074 0.17892084287910875
0.1502508363428808 0.0439571887254715 0.4450839750039074 0.15176114823614176
0.07983045827518642 0.0439571887254715 0.12765693760564475 0.01521760107311553
0.06958578253143641 0.0439571887254715 0.6472461379682827 0.09054292118115585
0.17160157788097352 0.0439571887254715 0.3062212171199693 0.22249440286222066
0.07877093607451162 0.043957188725471504 0.6002510369583861 0.0641608381100689
0.11576618275628692 0.043957188725471504 0.7096268963304502 0.09530329546733912
0.1731683797057742 0.0439571887254715 0.42636322332134496 0.14976597591702764
0.3743327457938865 0.043957188725471504 0.7230578423758817 0.09190458534196849
0.2572051925360204 0.0439571887254715 0.5421143595382975 0.08006153791987333
0.31096483026763233 0.0439571887254715 0.6573471078452284 0.03185576544477979
0.16463936647281424 0.0439571887254715 0.46544108878794044 0.11336684567224449
0.1929788549507603 0.0439571887254715 0.6404974463117563 0.03579164616345028
0.10550895294898238 0.0439571887254715 0.1759393450533732 0.1557609513990931
0.14730874744513203 0.0439571887254715 0.6594373359017257 0.03187254389548167
0.2536893138348237 0.043957188725471504 0.6270039224564994 0.04199170565080773
0.05596460559244129 0.0439571887254715 0.4795026194402177 0.23101390536138922
0.055216058782708966 0.0439571887254715 0.22812571867805645 0.19786144741469913
0.20212792353716577 0.0439571887254715 0.6288274859720566 0.04513341815098418
0.17352076627743293 0.0439571887254715 0.28513043152220274 0.22789981871476336
0.20692812584828765 0.0439571887254715 0.46014680684702314 0.13912901068899025
0.30675605809275763 0.0439571887254715 0.7178898241519639 0.0956504349205055
0.08937544182164919 0.04395718872547149 0.6098357535474603 0.04769374775557727
0.0795135001303795 0.0439571887254715 0.6763564544629403 0.09955081079790594
0.34059410263156237 0.0439571887254715 0.5699693633414603 0.07544009402243727
0.2629119862195056 0.04395718872547149 0.5286520739039405 0.08808188368364606
0.21620184826254935 0.0439571887254715 0.572981839098983 0.06865156387880762
0.1987050518095564 0.0439571887254715 0.6008006788732879 0.05957952309608814
0.36976037498755765 0.0439571887254715 0.6678525249558448 0.06364320096577782
0.23383891290427644 0.0439571887254715 0.5388553247906679 0.07347974498289639
0.1750189263577104 0.0439571887254715 0.5194360860477366 0.09219732045082302
0.074290679155741 0.0439571887254715 0.5125035368459605 0.13786369707732132
0.36569762348502927 0.0439571887254715 0.6326516014582378 0.03968012304579298
0.06383352055928768 0.04395718872547149 0.6112142508557225 0.15744564843605524
0.06354579614836278 0.0439571887254715 0.28102659451212153 0.24360193949229791
0.1282425864655861 0.0439571887254715 0.5887584200027208 0.05871367741041035
0.06537485715282364 0.0439571887254715 0.5659037585413831 0.14975077274844367
0.19574678282092237 0.0439571887254715 0.5347809116917005 0.08422241400743576
0.058796106856598314 0.0439571887254715 0.5957589792900282 0.19309116963692025
0.32981337518064363 0.0439571887254715 0.5784270895323971 0.059638055188484355
0.11183097867906036 0.0439571887254715 0.47176531273501787 0.1235417701598648
0.2345235715765516 0.0439571887254715 0.656345213752969 0.038484047617973145
0.08930529599030919 0.0439571887254715 0.6686280774100275 0.04853493009376277
0.18576653988270325 0.0439571887254715 0.2853031464757613 0.19865939755036277
0.08674128692112879 0.0439571887254715 0.28790746593290245 0.24567588952372074
0.07949552685013697 0.0439571887254715 0.37770495283247685 0.1959323185867518
0.1051642074620541 0.0439571887254715 0.23742618852149483 0.22947271376619688
0.10775029560852753 0.043957188725471504 0.6490370435602077 0.031967973132992065
0.2472089738448002 0.0439571887254715 0.49084031472127565 0.11154146484525897
0.1705076161095615 0.0439571887254715 0.3782016408565762 0.1558814580481007
0.10032239201005566 0.0439571887254715 0.2588925488222302 0.22701397382450259
0.21878511956321553 0.0439571887254715 0.5139822894356935 0.10060850962285983
0.16253256871271182 0.0439571887254715 0.2847957795533515 0.18836256553125527
0.16617486678332558 0.0439571887254715 0.512050937053474 0.09646876699173491
0.14201478078831317 0.0439571887254715 0.7200086429612662 0.10529120282688877
0.11610263562811371 0.0439571887254715 0.5468284020039625 0.0839916263390311
0.147171060347894 0.0439571887254715 0.3004547473492046 0.2128518342623837
0.15864843513322838 0.043957188725471504 0.709420915116904 0.10479886986456775
0.18893308685336047 0.0439571887254715 0.4235427601754416 0.15475263366874248
0.30248321313140525 0.0439571887254715 0.670213067305061 0.05608478537584806
0.057140751450517405 0.0439571887254715 0.20209599016319876 0.21824400884350878
0.10950326210844533 0.0439571887254715 0.3673900852059079 0.19735302080947092
0.04732729113641214 0.0439571887254715 0.20995493215726646 0.16323482037747702
0.0651726756020357 0.0439571887254715 0.7054164456573198 0.1368174192301654
0.2327004486665944 0.0439571887254715 0.49131837265130807 0.1108315860615319
0.04837516962017785 0.0439571887254715 0.2774301953582391 0.21322293314213886
0.050763135213663886 0.0439571887254715 0.14578121940590497 0.17651790468940307
0.1178539733251647 0.0439571887254715 0.4070972756108374 0.1520592077762854
0.2742552741068704 0.043957188725471504 0.4809432230918 0.11214447590165484
0.23769623876360893 0.0439571887254715 0.4808170342011529 0.11225394932125564
0.32087056189782004 0.0439571887254715 0.6013866277366575 0.05056176879972875
0.2169416400633671 0.0439571887254715 0.38991631752383515 0.19207892937631946
0.26996369741972104 0.0439571887254715 0.5403278533117193 0.08296804571029029
0.08903742395412576 0.0439571887254715 0.316949723817683 0.18233924004706434
0.0746303263698919 0.0439571887254715 0.43070775555363777 0.15444784998138203
0.23901634865440693 0.043957188725471504 0.7109781473832197 0.12311427217507277
0.17594084664275625 0.0439571887254715 0.41301722486251924 0.16195683316501228
0.3459152159577427 0.0439571887254715 0.7021056748983766 0.11217589289154097
0.06729461934978336 0.0439571887254715 0.1318341850214575 0.04594646034057464
0.10362364327119966 0.0439571887254715 0.38024204562356856 0.16013023293438175
0.10057987002323102 0.0439571887254715 0.22395756810634407 0.16500955663076755
0.2846208663932394 0.0439571887254715 0.5923018632668079 0.053616055537995005
0.21062512504932526 0.0439571887254715 0.5355720912265926 0.08423920253837149
0.3262723464168108 0.04395718872547149 0.5471331354225832 0.0733242336947258
0.38847577813169815 0.04395718872547149 0.7141427577199267 0.0918727624176763
0.21729858781869357 0.0439571887254715 0.4048381616140214 0.17672145896674094
0.2852538830692228 0.0439571887254715 0.4867940893473106 0.11656393520767096
0.07377062749617447 0.0439571887254715 0.2627812902895989 0.23306805929995078
