x y z curv
0.10615017010022973 0.08827871840207427 0.26494202273897827 0.19246889746015783
0.05048563790837373 0.0731583698175898 0.26494202273897827 0.158535080525928
0.04730223813552024 0.03295233847289229 0.26494202273897827 0.10656282979121846
0.03183139681008504 0.08456358457479259 0.26494202273897827 0.20188050869311752
0.06307595000486413 0.09931599296250934 0.26494202273897827 0.12469779125012538
0.0675620945805109 0.07651085172203076 0.26494202273897827 0.1689229405434046
0.05120772013488168 0.043358864008345176 0.26494202273897827 0.1053795576309686
0.16635169860036522 0.0889787438978843 0.26494202273897827 0.1949860658895469
0.12171279713137995 0.08307526975093717 0.26494202273897827 0.20020541734728875
0.022459607628723288 0.06371231846900578 0.26494202273897827 0.1568666201230958
0.07152112556611531 0.05185462852315237 0.26494202273897827 0.11325981427067863
0.07537655489398018 0.03986249416678794 0.26494202273897827 0.09735082822130442
0.06750048962729965 0.030407037964847894 0.26494202273897827 0.1112934605652503
0.12159929045601031 0.058808565710318186 0.26494202273897827 0.12036016154964406
0.06570282268086464 0.059061942755312735 0.26494202273897827 0.11775415761303892
0.03953932719219396 0.015021617513498241 0.26494202273897827 0.12856093302824564
0.11783709969201647 0.07230391241534281 0.26494202273897827 0.15183192045118737
0.06117712418475001 0.06834033855309643 0.26494202273897827 0.13802721832010256
0.07665422031998652 0.08802026761966103 0.26494202273897827 0.18257635750199494
0.02379333953225623 0.09052980668370648 0.26494202273897827 0.18050843647529166
0.03249329886184724 0.0598408940616922 0.26494202273897827 0.1233925141727436
0.017403653824515655 0.07734388987496482 0.26494202273897827 0.19385828966375607
0.08028887913257331 0.07581065168440408 0.26494202273897827 0.1668768408762865
0.06412853996009815 0.08708313118570785 0.26494202273897827 0.18413209044339948
0.047500469595374434 0.023892574131394735 0.26494202273897827 0.11261185650517831
0.035909407534855324 0.04968900143146882 0.26494202273897827 0.11613505707244826
0.03884301712847381 0.039410386311221124 0.26494202273897827 0.09439777866911822
0.023812747608702573 0.01269707139940021 0.26494202273897827 0.13803033754964686
0.014252623338163515 0.08773352726600828 0.26494202273897827 0.20202988159905552
0.19360663835976938 0.09088074802773541 0.26494202273897827 0.16653083021721862
0.15317849508271672 0.09054365085413642 0.26494202273897827 0.1949306574329761
0.06033914412432657 0.041476283815166465 0.26494202273897827 0.0987476213317612
0.09524933383363986 0.09199334202578238 0.26494202273897827 0.16238790730550334
0.0441301245818614 0.051386228915251686 0.26494202273897827 0.12071362353812866
0.1521668998421546 0.06814231037338662 0.26494202273897827 0.15345654358802938
0.015133571594182452 0.04034126366121004 0.26494202273897827 0.1366365953634883
0.003056580660270806 0.03474314914852093 0.26494202273897827 0.12485781902261467
0.23000000417232513 0.026248500657675984 0.19976198915010784 0.042993822644208674
0.23000000417232513 0.04943103214701575 0.24371673475838196 0.058918520288175305
0.23000000417232513 0.017728304364441547 0.04049583051574425 0.03532374452210588
0.2300000041723251 0.022392647463352497 0.09186218383576675 0.04285156307503477
0.23000000417232516 0.033056011661188454 0.24194207405744458 0.06025968197141802
0.23000000417232513 0.02101561054189069 0.13654680810676267 0.0385436045707044
0.23000000417232513 0.04011799543837096 0.12944091474672012 0.004765664303934485
0.23000000417232513 0.07207290705764328 0.24808548014246837 0.09503942023459151
0.2300000041723251 0.01594227789243761 0.18196763079250983 0.03856334112127328
0.23000000417232513 0.03556769793190391 0.2031302574815232 0.018674813311702797
0.2300000041723251 0.029757057915911954 0.047285915185217686 0.024426271411489054
0.23000000417232513 0.027034252918313333 0.14698239054865128 0.03921933681069512
0.23000000417232513 0.036904635465220006 0.07567898104428354 0.013108133096268083
0.23000000417232513 0.03988946148844759 0.21244339962534897 0.0072223525847230205
0.23000000417232513 0.02441950813225556 0.10360780536722353 0.027701609046719287
0.23000000417232513 0.03858740380874502 0.22177870637462765 0.009268748433776366
0.23000000417232513 0.015748222946347912 0.14745957272985355 0.04097001236155709
0.23000000417232513 0.02762517371401735 0.22372328836669042 0.0318173941082061
0.23000000417232513 0.024183957249490635 0.18905399292765157 0.03693524844186845
0.23000000417232513 0.04608548756413129 0.16145668321092077 0.0021748526298402096
0.23000000417232516 0.029960986289585358 0.05752879485566169 0.02783903396499796
0.23000000417232513 0.04713400899098125 0.2637846068267253 0.1068095534941419
0.23000000417232513 0.06539104453378174 0.20417187212492535 0.009268412983230237
0.23000000417232513 0.0680530043213528 0.19084051323879497 0.020507438087532998
0.23000000417232513 0.06230689477026458 0.2414853383901917 0.04586215089395117
0.23000000417232513 0.027432478005496648 0.26273226312990283 0.07918483096328748
0.23000000417232513 0.04565685960057197 0.09826554911328887 0.002459069068052317
0.23000000417232513 0.08379928584134548 0.24413775501733717 0.09775983449279056
0.23000000417232513 0.018738301915723465 0.2522127357280103 0.06000577603213875
0.23000000417232513 0.04173730412433822 0.24823532312196583 0.062320347438205026
0.23000000417232513 0.04510575461250005 0.1087367327457184 0.0028889775706880906
0.23000000417232513 0.019837665616821768 0.2303614815281577 0.037008118874476206
0.23000000417232513 0.05735465059569475 0.19948807049644113 -1.480103220018135e-28
0.2300000041723251 0.027570489592585557 0.12539054016097734 0.033940189027770726
0.2300000041723251 0.08300964229190592 0.2271918534096971 0.07686909468202112
0.23000000417232513 0.04793803507436561 0.22482646627558653 2.991696994506487e-11
0.23000000417232513 0.06601704423853419 0.16944477282026948 0.01584813528084375
0.23000000417232513 0.0290832882868141 0.08328102254575281 0.03066271407610754
0.23000000417232513 0.061123867067366104 0.21911153527744723 0.005160774830607245
0.23000000417232513 0.03761747004566893 0.1488800170108621 0.010104451110179049
0.23000000417232513 0.02929968054257977 0.17295196523567924 0.028915769485048808
0.23000000417232513 0.03772314053351322 0.08715257948415461 0.012949286750547417
0.23000000417232513 0.033206799988718144 0.10768066238925682 0.02148805244802029
0.23000000417232513 0.05760549023793199 0.1900472232730699 -2.073064295534239e-28
0.23000000417232513 0.07491316422741422 0.2100320384734585 0.05911227277701582
0.2300000041723251 0.09308424491904531 0.25180922277516543 0.1251265187921968
0.23000000417232513 0.03431780027369573 0.1936169485344671 0.015084642463544927
0.23000000417232513 0.042163774213774693 0.19712267818885754 0.004847199988534977
0.23000000417232513 0.07161258287686613 0.22966200420432048 0.028103357039951905
0.23000000417232513 0.03336200606335894 0.23170801802050595 0.02445604484546588
0.23000000417232513 0.05710927715279898 0.16248907366985538 -4.827642744130673e-28
0.23000000417232513 0.09163660441040469 0.2634368357018941 0.1369072801431834
0.23000000417232513 0.04918585719687485 0.235321999381369 0.027515387313796845
0.23000000417232513 0.030448390515067314 0.16059143783644483 0.028069809658251982
0.2300000041723251 0.02362700979920318 0.11376545470641572 0.04211841844513195
0.23000000417232513 0.035400834585814576 0.11983185281068354 0.012574582102030971
0.23000000417232513 0.04341965864190842 0.14098462314033633 0.0051637156581809665
0.23000000417232513 0.025489595071648094 0.07214147982428093 0.028915404102963387
0.23000000417232513 0.06677321000490932 0.2572889968373952 0.09830033470586363
0.23000000417232513 0.05608599983528442 0.14979512751583107 -8.21732281028803e-30
0.23000000417232513 0.027598856196544286 0.2495135770838402 0.06804679426487761
0.23000000417232513 0.041118527858859166 0.1725635886497397 0.005444899839006836
0.23000000417232513 0.022734693427393857 0.21355114447544535 0.0408514704681877
0.2300000041723251 0.050940056401252494 0.12934428727446157 -3.8508587209778045e-29
0.23000000417232513 0.016929801176722842 0.17061394687718953 0.04332192746356654
0.2300000041723251 0.019022174634559293 0.16012846051637689 0.043243879106094
0.23000000417232513 0.056256732274639135 0.2519976645920668 0.093719803326551
0.23000000417232513 0.01752413470329452 0.24037017255805826 0.057051828983880934
0.23000000417232513 0.03704888216397024 0.2575339308257174 0.09323173564685643
0.23000000417232513 0.05633889919306827 0.17601934314937592 -1.3330255160029846e-28
0.23000000417232513 0.0340237493976278 0.0981766930865188 0.01372640029734252
0.23000000417232513 0.07533012111694123 0.23775775475198374 0.06097536877854795
0.23000000417232513 0.08308616314053044 0.25342968856349646 0.13559363480417277
0.23000000417232513 0.047210032866463796 0.18575785348435603 0.0005024437293060451
0.23000000417232513 0.05053173079408539 0.20805619368840056 9.401604715952161e-07
0.23000000417232513 0.032193351817126126 0.1355140892890947 0.02176570121703318
0.23000000417232513 0.05002352553765403 0.11860716014836907 0.0002312880855229454
0.23000000417232513 0.07229153033830574 0.11734433635884413 0.042523409530139805
0.23000000417232513 0.08207191398240245 0.1055988094011121 0.06056700554099271
0.2300000041723251 0.06194539215906229 0.12450643845156709 0.0006157510999673522
0.23000000417232513 0.051245514567319364 0.09249320468106292 0.00016187431559452128
0.23000000417232513 0.08785122526783834 0.0494776846849427 0.07584652237445942
0.23000000417232513 0.05341178618758037 0.062354865194097255 3.7720780718025235e-06
0.23000000417232513 0.08239107748695453 0.14937008345138847 0.06994274759446652
0.23000000417232513 0.09827277956668168 0.18752145825550423 0.08401029975193615
0.23000000417232513 0.04699021801965745 0.08333260959522308 0.0008906174287120404
0.23000000417232513 0.06869930903487986 0.018049583802869355 0.06119788179746893
0.23000000417232513 0.037228868676417184 0.041220655659974376 0.014204627825848302
0.23000000417232513 0.06990303247244854 0.14099419445957115 0.0258982451407853
0.23000000417232513 0.03965291525885744 0.03219913539970551 0.03037573559318797
0.23000000417232513 0.08061740672868353 0.12542038114645798 0.0700011261317772
0.23000000417232513 0.07411762101445854 0.17270040849833027 0.041586469979787544
0.23000000417232513 0.09015248783538642 0.21817953997585368 0.08643295460326991
0.23000000417232513 0.07045175187055082 0.061900756206132765 0.019759528147001663
0.23000000417232513 0.048829195683495245 0.016895578887562566 0.053942540165891464
0.23000000417232516 0.08857684149261026 0.16691380461906874 0.10153699416075644
0.23000000417232513 0.08905644042360183 0.025006293928472215 0.10183644372675074
0.23000000417232513 0.05227907891294854 0.07151448459429663 3.4097025733438755e-06
0.23000000417232513 0.09206958472332946 0.14135026540988993 0.07798182697752709
0.23000000417232513 0.047392178031532804 0.04711505928295449 0.0016013070977718058
0.23000000417232513 0.0857739855991208 0.11500453904525945 0.07444278557561332
0.23000000417232513 0.03371139330043387 0.0224770855150284 0.04580855740966907
0.23000000417232516 0.0534938728314624 0.005866845176010626 0.07860652367423424
0.23000000417232513 0.08041033344421503 0.08062783767119046 0.05001749513416164
0.23000000417232513 0.07908876035095834 0.036005885443601705 0.056153801143001766
0.23000000417232513 0.08989617072953733 0.04013892906159091 0.0943927020259955
0.23000000417232513 0.09311788184085491 0.0091295800457167 0.114424630000474
0.23000000417232513 0.08985165244053137 0.15768857485231913 0.10387023809381095
0.23000000417232513 0.07175038798395096 0.07169442637798994 0.0283396564906794
0.23000000417232513 0.08975114685527222 0.07229895074557378 0.08694906242295876
0.23000000417232513 0.07569086923794428 0.18177364510356858 0.040270482407632376
0.23000000417232513 0.08223100084862778 0.0064458646511779795 0.0997879488211997
0.23000000417232513 0.08731007819356743 0.17636751571108145 0.07141144035186968
0.23000000417232513 0.06477647696966007 0.08978965292102253 0.012253119783064799
0.23000000417232513 0.07927885779134634 0.046603911964988656 0.04800930873586541
0.23000000417232513 0.05845121171155238 0.13588904640917637 -8.74981333828444e-30
0.23000000417232513 0.06212604849111425 0.06438550226784358 0.0066873285823844325
0.23000000417232513 0.07381176165718745 0.10612068610167169 0.05041580547357091
0.23000000417232513 0.08955704323966918 0.09497647664117638 0.08547588761130862
0.23000000417232516 0.02415530114397162 0.00843267259806859 0.07554304812486991
0.23000000417232513 0.046546580354417104 0.03680507696727722 0.009359032095444156
0.23000000417232513 0.09168082273947414 0.20049852672546578 0.10088861825546441
0.23000000417232513 0.05807950342591605 0.05100082696548717 -3.6962850243071557e-29
0.23000000417232513 0.040554713647667356 0.056182441688096774 0.005876592163340236
0.23000000417232513 0.0815273141595977 0.0619617792964653 0.07270194348536727
0.23000000417232513 0.06314218852918871 0.11373960404200477 0.005248505362490706
0.23000000417232513 0.06944932422742554 0.051143736555813994 0.01643118701416121
0.23000000417232513 0.0264866263362434 0.0327170913633233 0.04008372538472504
0.23000000417232513 0.024073981620647552 0.01797050199062828 0.06828997386701162
0.23000000417232513 0.07880248614786117 0.09493962347587016 0.05365102574223707
0.23000000417232513 0.0770878403938457 0.16178434654965593 0.04503817729932596
0.23000000417232513 0.07084043671821064 0.028657693803245465 0.03625110582100416
0.2300000041723251 0.08550446465687483 0.20531938506817135 0.08857068599674968
0.23000000417232513 0.09178653269731715 0.23436051590000145 0.08258632950474765
0.23000000417232513 0.06599681412343988 0.15422578605152104 0.011188781964165785
0.23000000417232516 0.05565809999383757 0.10671764377269136 -5.017507765892842e-29
0.23000000417232516 0.0781278364158392 0.19819540927592627 0.07251802787629544
0.23000000417232513 0.059353746626624224 0.02033570243590608 0.059469169268829586
0.23000000417232513 0.042959289712021766 0.0675894044832083 0.004839627438659019
0.23000000417232513 0.07831302569855403 0.019425347841558874 0.0861802148009731
0.2300000041723251 0.04166466400766265 0.01161246974324635 0.06523215665843245
0.23000000417232513 0.07241943733114856 0.1298739539015872 0.0444020385863501
0.23000000417232513 0.0650143205014431 0.00460842397651668 0.07461444287035571
0.23000000417232513 0.08929775662613439 0.0832741092559467 0.08336632005943315
0.23000000417232513 0.094219099987328 0.1254909745569019 0.09016978780208869
0.2300000041723251 0.08628348850688854 0.189692729279623 0.08229852343127207
0.23000000417232513 0.0921369669420012 0.05875270660508874 0.08070799464333252
0.23000000417232513 0.055866499393504424 0.04113754852516668 -5.0011796909654203e-29
0.23000000417232513 0.08946033232606274 0.027070775673161785 0.0923347375130249
0.23000000417232513 0.0634514447767545 0.03391009288859556 0.01735709619821395
0.23000000417232513 0.06546797597741451 0.1014985135521282 0.009013096041297996
0.23000000417232513 0.06735921520718707 0.08162336739630743 0.01525632301013891
0.0 0.022936266593730586 0.06588953310171265 0.03817858894022403
0.0 0.039124760288117164 0.09964624187789538 0.005245405815688527
0.0 0.038559170624408154 0.22164948428555709 0.013540316193529854
0.0 0.022267195696716785 0.24899316286894196 0.07161689097379328
0.0 0.06905618795423761 0.18113463663325247 0.025325084711663646
0.0 0.027313932419771033 0.24035465860623328 0.05112483133686332
0.0 0.04877012605835793 0.19532739163226814 0.0012502438419661167
0.0 0.01546991093371609 0.18488919639069443 0.050079474858878564
0.0 0.04786562101441647 0.15826264508460663 0.0004621157536578639
0.0 0.05414982074335147 0.1819791061501302 0.0
0.0 0.03053339306590442 0.2237377586404808 0.02242504887716871
0.0 0.08729466478234492 0.25968394533049444 0.13830971157010183
0.0 0.04607874795780637 0.1803691943632002 0.002432705931710189
0.0 0.03367633388663275 0.08514917429942918 0.020794705730408203
0.0 0.08806954745126497 0.2466588608750607 0.11164187475727082
0.0 0.04288933510214767 0.11401399769370288 0.00539586359940602
0.0 0.06272964992048753 0.190792359129122 0.007938650664765642
0.0 0.020764872624266878 0.10974029759332365 0.034559450414834166
0.0 0.01855269771925474 0.0438224251616828 0.0411561826770005
0.0 0.019477653124680527 0.17696386458254365 0.0385918933982132
0.0 0.05981502191322255 0.22156747045346464 0.0
0.0 0.0549957986140676 0.15092084830739805 0.0
0.0 0.06493510175161225 0.24389408469475182 0.06609241839768604
0.0 0.06056244924768267 0.2016383425910216 0.0
0.0 0.0387544779648721 0.2115733197438635 0.008044540660703144
0.0 0.018787955291009056 0.22160525605629666 0.04313222506155444
0.0 0.04613997437089658 0.16760172178820423 0.001341397868170671
0.0 0.0512118357259817 0.21252276833732647 4.1378090174305216e-07
0.0 0.02309977501526253 0.14076777020544573 0.03618329059099421
0.0 0.01764193054192558 0.09502385633214278 0.043718844543571854
0.0 0.07459526601329154 0.19181151882225528 0.043624190483019555
0.0 0.026657746638459642 0.14510376759950572 0.029991561633003868
0.0 0.05981320434659127 0.16192763238401478 0.0
0.0 0.016224230693202002 0.25824776015472767 0.09165673138924468
0.0 0.058826275067285896 0.23413373938877297 0.03190209200806538
0.0 0.05251449341519562 0.24862382850426418 0.09362219698686237
0.0 0.048945813966773964 0.2262910201699711 4.003542298147603e-07
0.0 0.03526690956080431 0.23142788403414144 0.025134387061052324
0.0 0.039004476110706655 0.1238969856248053 0.009616386095997064
0.0 0.07052943685814456 0.21170283966865291 0.030571969533913144
0.0 0.0608890348190088 0.17085892941531103 1.3878052524589014e-09
0.0 0.02546256405133708 0.12499902338650858 0.03277614582338842
0.0 0.03898574422133588 0.20249023823296625 0.006986067308269802
0.0 0.08595628791915441 0.22553579086290854 0.07839245171900346
0.0 0.03520908553607276 0.1532725148023792 0.014400440725824925
0.0 0.06671025553360432 0.2553528230584568 0.09216294098320844
0.0 0.029245376341963693 0.04722011867468552 0.031170771695430317
0.0 0.03713772314552779 0.17278269453932515 0.013225860577593306
0.0 0.02893705584478279 0.0928001834459553 0.02639358930718989
0.0 0.07138063672780504 0.235277659767212 0.04906398541760734
0.0 0.03407169116979476 0.2525025451691673 0.07929077698053419
0.0 0.04405841160186875 0.24165940529030733 0.04904002656986584
0.0 0.01773185594336746 0.23534634972003315 0.03493213986434455
0.0 0.029045521437297033 0.07537248076898137 0.02750617324872775
0.0 0.04915918644794549 0.12674860475864874 0.0010443003042481702
0.0 0.028421796251154267 0.1799363758774699 0.02772756800356302
0.0 0.025968337523581787 0.21423861687077522 0.023965807887322197
0.0 0.04391692099278552 0.25766751402333476 0.0999181227622581
0.0 0.049197652004739724 0.13656860586403052 0.0010357390241256292
0.0 0.0793897438069805 0.24755534228755524 0.09692159785177969
0.0 0.058474720308303946 0.13947653460207693 0.0
0.0 0.019192364988744177 0.08710873008455652 0.04603343233579002
0.0 0.04026972064606272 0.14075571318813834 0.009998327494767457
0.0 0.019395561001656188 0.019540940748115045 0.07690657187691642
0.0 0.08296524404234314 0.23609339911240187 0.08285544917144527
0.0 0.0348586027815492 0.13284519702099992 0.010078996956001507
0.0 0.02254930492126153 0.20496839700320862 0.04362597330093671
0.0 0.023643398153309778 0.030445540484843724 0.043063674430384925
0.0 0.03483386173376164 0.19000093839694043 0.016205576324643
0.0 0.024952346307702877 0.056617570140629785 0.037914855467256
0.0 0.03165772700254302 0.16420197936421388 0.01852241371786654
0.0 0.021400008753557735 0.1572937666409227 0.037113589173080025
0.0 0.07623620823186615 0.22192125512913785 0.058520456259407744
0.0 0.06117337435983206 0.06694172490733785 0.004299676792928664
0.0 0.07472589268843523 0.12012637658815518 0.048762146435991305
0.0 0.05176745088141843 0.058214908622978304 2.543532204671152e-05
0.0 0.0821558974794733 0.12841567339151502 0.06958739636065345
0.0 0.07433789546753525 0.009235537895772784 0.10020544026436798
0.0 0.09790326266469983 0.07094522246944171 0.08760260060399404
0.0 0.034232493898746115 0.00942368815572288 0.07421333529778545
0.0 0.09260569164499899 0.056055121976681936 0.09244564673706222
0.0 0.08091953699325952 0.16396030083290922 0.05988536340131038
0.0 0.04035530655756252 0.04905580807700487 0.008371737009926845
0.0 0.08491522046515386 0.037982406691962074 0.07023937387837646
0.0 0.08659726086755033 0.195546466463178 0.08816040299614444
0.0 0.08926923921644793 0.08105855962142137 0.08056364077060076
0.0 0.02784684982088234 0.0393105422111454 0.03112402453933241
0.0 0.07625747107651701 0.13548563721697288 0.047872990729951576
0.0 0.06996526471882847 0.12881968028254484 0.034264989633219535
0.0 0.09176848166285259 0.15216073424783277 0.08607109565569514
0.0 0.08024237561604619 0.06771292651395043 0.07430356388909114
0.0 0.09802635258526306 0.03684389373356366 0.07225888966077611
0.0 0.02865576354945001 0.020568645673775518 0.06234513993384256
0.0 0.09819867347411151 0.1605203495534402 0.07301872283462298
0.0 0.05611777527055349 0.11134508942225348 0.0
0.0 0.0977985638497416 0.25701094302865146 0.12841822389781343
0.0 0.0808781758311817 0.2062051908021351 0.06491711518640524
0.0 0.04279061235179115 0.0800013315973682 0.006762400992891839
0.0 0.08468243108566453 0.2174186299144166 0.07057173989883692
0.0 0.09698146382829068 0.07145283762939598 0.08620145546129375
0.0 0.07479680273874263 0.17061087295712457 0.04554537185235514
0.0 0.0788572732665215 0.10900425042987014 0.04718409571270704
0.0 0.04684794347534376 0.09121482598645758 0.003191516871498102
0.0 0.05717634635261677 0.10000460310882119 0.0
0.0 0.016419710798541313 0.000906198232972306 0.07007808132706193
0.0 0.07887119980577564 0.05806943040836391 0.0568170294802963
0.0 0.056623133073762835 0.0806882431751741 0.0
0.0 0.06726215137384034 0.14402555606600437 0.017086389628281615
0.0 0.08066091010977428 0.024703915066613236 0.07732123126538687
0.0 0.0370461540704766 0.061957085725249515 0.01808160025493004
0.0 0.06063733235381123 0.016805009503065207 0.06867260987582943
0.0 0.07546391848658959 0.047718528940018795 0.04977280999238787
0.0 0.08463174999816975 0.117808523734439 0.07023550837087202
0.0 0.06767635890974416 0.11014486718661833 0.024450008173624777
0.0 0.08426348306765861 0.0103083859370388 0.11344656436990275
0.0 0.06007840887886445 0.11982164751745282 0.0
0.0 0.08317685656890138 0.09739054077599361 0.06900304890354902
0.0 0.09325692903432527 0.010954942641283672 0.12009706216400443
0.0 0.05076943542119491 0.06884325618375574 3.770203651923459e-05
0.0 0.0636210323154113 0.08983097744042076 0.0050744971767924
0.0 0.06950889038254462 0.08167855003890363 0.025184863877540604
0.0 0.09573627562037426 0.19004913854329 0.07947868992290502
0.0 0.0773609631129314 0.07660296557658737 0.04670817615784275
0.0 0.040103116795507585 0.038672012675486214 0.014719267285348175
0.0 0.0898387790141084 0.1386553582279961 0.09770519116523595
0.0 0.07981630521280184 0.15375636805473197 0.06891566802136762
0.0 0.09449424950859212 0.11704830059729895 0.08574553704822956
0.0 0.0647144384623771 0.004043046824786785 0.07340979922615413
0.0 0.04835212951136915 0.03266819489180539 0.017504591046403253
0.0 0.0727444106736114 0.03574765714447685 0.040456868214270164
0.0 0.05764484466782345 0.12870382924345555 0.0
0.0 0.09133813656173834 0.1688718867649457 0.07695185843211741
0.0 0.024853869812949923 0.010099616997265292 0.08430384032026042
0.0 0.062348319863288475 0.027987816751076488 0.03203141507175634
0.0 0.09551506638441942 0.21907328118181685 0.09303660847910858
0.0 0.049042481834106866 0.011193408649990865 0.07663964147169525
0.0 0.07144639594684449 0.06480160006320043 0.035078163376857534
0.0 0.05552117904633415 0.046918361071463535 0.0
0.0 0.03991918312490389 0.018165731587843625 0.06405845828870227
0.0 0.06782118743311896 0.09828416832179777 0.029083939262069237
0.0 0.06828626328050538 0.15706032515226018 0.021188270871357703
0.0 0.0925091746109314 0.238980140137858 0.08601583428723966
0.0 0.07429380171895952 0.09087298950613014 0.0317481532246565
0.0 0.057109818068107915 0.0010214102569733568 0.07544798974906691
0.0 0.039862362462738346 0.07135139529337116 0.010229904541196403
0.0 0.09165478523399256 0.12932608028373174 0.09289133415532116
0.0 0.09149340724794994 0.09546290207168301 0.07898597721722206
0.0 0.06116044365666058 0.05327293458482453 1.8994635471545513e-06
0.0 0.05262973642364443 0.023375216814504447 0.05646798338970328
0.187416291666716 0.0011741966009140015 0.2611322180989114 0.07191082899180963
0.10897493523732753 0.0011741966009140015 0.13348205584159367 -3.0521518232828934e-18
0.06571875723650206 0.0011741966009140015 0.11103969823957915 -3.2194857501771306e-18
0.08579338320630192 0.0011741966009140015 0.142764741615271 -3.254738631610179e-32
0.1135960796407107 0.0011741966009140015 0.23070072290530982 0.008886033109022714
0.04986051295720197 0.0011741966009140015 0.1894212881184788 0.000503035487059159
0.1281111477883589 0.0011741966009140015 0.21999321910011244 9.839924297118443e-18
0.11214483326863081 0.0011741966009140015 0.24421763334599833 0.05462539832531082
0.03133125192585557 0.0011741966009140015 0.07869346122509398 0.012787410403500824
0.05250576062339688 0.0011741966009140015 0.06037917924058138 0.0004345239231348972
0.12485055689007574 0.0011741966009140015 0.23315009408516527 0.01130059780120902
0.08762686673510553 0.0011741966009140015 0.26403917958394707 0.08672577428177622
0.028790311109616898 0.0011741966009140015 0.1388930336025841 0.02079299044602331
0.08816778833263163 0.0011741966009140015 0.1696080452359601 0.0
0.047696589874640524 0.0011741966009140015 0.07092682432818212 0.0013865054567442797
0.08546507615493515 0.0011741966009140015 0.15667250511175296 -1.5477148920823635e-17
0.10830457025090931 0.0011741966009140015 0.18430713781074784 3.916568719595827e-18
0.04031548274074305 0.0011741966009140015 0.13976294212164941 0.004174340489253916
0.08069107081142401 0.0011741966009140015 0.13124274738888736 0.0
0.06316938708945652 0.0011741966009140015 0.06697017454284535 7.816042929396074e-18
0.10175997057250533 0.0011741966009140015 0.12244952821375132 9.71339081813656e-18
0.1765862072457026 0.0011741966009140015 0.24896720729704422 0.06605478603317158
0.033739313415093924 0.0011741966009140015 0.0926016044659835 0.01349005675626638
0.03781128552194654 0.0011741966009140015 0.04710533886610953 0.0040076141072664185
0.09125984116184371 0.0011741966009140015 0.13368344340167743 -1.549610935304897e-17
0.054943199922573675 0.0011741966009140015 0.14404318010048595 1.4890609388054164e-17
0.057894391227147186 0.0011741966009140015 0.11951604889604193 6.396700719380381e-09
0.11886436243347936 0.0011741966009140015 0.21960389285635756 -8.683559108206119e-33
0.1686500598873839 0.0011741966009140015 0.21304252362585469 0.0
0.03326659973573934 0.0011741966009140017 0.20879345466134766 0.01641549684161417
0.06436478677526475 0.0011741966009140015 0.23634696722243603 0.030195423881593526
0.10309463610183525 0.0011741966009140015 0.22237907018667158 1.0710396643679243e-17
0.08349006539855017 0.0011741966009140015 0.23087126264558666 0.013472334688401632
0.07625370764036676 0.0011741966009140015 0.19265766115093252 9.885136325937089e-18
0.023955394822903132 0.0011741966009140015 0.1796343798173708 0.026169451034943447
0.06390069512688484 0.0011741966009140015 0.18074359716668775 -8.517413334500781e-18
0.09387229670262302 0.0011741966009140015 0.11343411673510548 4.2976119166903485e-18
0.09748346658582951 0.0011741966009140015 0.18376089349642555 -3.1767770789485516e-32
0.1588948365422854 0.0011741966009140015 0.24408377883226 0.054042895890129415
0.032241971977432504 0.0011741966009140015 0.17150258199787946 0.012297268517440337
0.09279300433955665 0.0011741966009140015 0.2554552027630485 0.0814435828442881
0.12932865135112706 0.0011741966009140015 0.15479156289224424 1.3671310760415808e-17
0.0363450862473645 0.0011741966009140012 0.24911447176926124 0.0785167988902984
0.11211267823929329 0.0011741966009140015 0.16688018263291976 -2.915017554113806e-18
0.04924348159368767 0.0011741966009140015 0.09854165405228976 0.0006241145294310701
0.022212894655706722 0.0011741966009140017 0.09198372145557618 0.03837471949340969
0.11157814415469783 0.0011741966009140015 0.15212379605912357 -3.6519425383487995e-18
0.054732566468346164 0.0011741966009140015 0.26388648289749733 0.08238255422396093
0.11885171058170185 0.0011741966009140015 0.17580972122538385 -9.371617428238245e-18
0.13200383588563075 0.0011741966009140015 0.19469722121419314 7.148984231531874e-18
0.13814665293817113 0.0011741966009140015 0.26455765798187403 0.09600111937776379
0.1410284104505528 0.0011741966009140015 0.18216720866633404 5.043585260602687e-18
0.09120922468621308 0.0011741966009140015 0.24419837341058098 0.05132895118636223
0.051570603314049765 0.0011741966009140015 0.2196666138024166 0.0007322087776174776
0.07710830085439857 0.0011741966009140015 0.21515703591617352 1.1541193122026118e-18
0.03802965816223203 0.0011741966009140015 0.11474502301491407 0.0047026928375026944
0.06479446752303995 0.0011741966009140015 0.13821967647551253 8.00323532499845e-18
0.07155387263696314 0.0011741966009140015 0.2511851033225782 0.07407747139939694
0.0569239177740241 0.0011741966009140015 0.1660442151252916 1.7314327013855746e-05
0.04821125271379424 0.0011741966009140015 0.2089972192213873 0.0007557618266135026
0.13840770068873043 0.0011741966009140015 0.21548670827463526 7.333363075232465e-18
0.074056608611275 0.0011741966009140015 0.07932250507641135 0.0
0.049284473990553426 0.0011741966009140015 0.04844309306609942 0.0006206402097329103
0.09391940068075268 0.0011741966009140015 0.22968007565960183 0.004162769432563002
0.06908914699642268 0.0011741966009140015 0.20430196017514884 -1.437321342865661e-17
0.06384343061176351 0.0011741966009140015 0.07738868729594241 -6.153159566341264e-18
0.05837530039814018 0.0011741966009140015 0.13210291824421574 -1.3994389243801417e-17
0.13628408157473923 0.0011741966009140015 0.24114248706205627 0.05068778929264861
0.045034819375922575 0.0011741966009140015 0.08614227731154642 0.003526412279489641
0.11736405108368195 0.0011741966009140015 0.2008887769230548 -1.0071192123503287e-17
0.05992323182080631 0.0011741966009140015 0.21327617789113656 -1.4457280133989388e-17
0.027603085894862656 0.0011741966009140015 0.15892072337087326 0.016061962051047485
0.043164199801207115 0.0011741966009140015 0.17635240217483128 0.0032135498383362585
0.059425562489242585 0.0011741966009140015 0.15506399194440926 0.0
0.10283271484928981 0.0011741966009140015 0.2542666033972644 0.08640269336585325
0.030147640480398565 0.0011741966009140015 0.19853819968679706 0.014124781801304895
0.0795784478533421 0.0011741966009140015 0.2486213408104203 0.06191008134573929
0.05976068070922641 0.0011741966009140015 0.10060985937301163 -6.452600395535315e-18
0.04276132459414986 0.0011741966009140015 0.25898129390089797 0.0986256458373575
0.06836956394565372 0.0011741966009140015 0.26228479650826114 0.10776790295813664
0.05192057120191551 0.0011741966009140015 0.2305557865001051 0.009664958132090673
0.06932592619501296 0.0011741966009140015 0.1245827621778905 0.0
0.059998890920845885 0.0011741966009140015 0.24881694940312732 0.07364910463488289
0.09915866417614848 0.0011741966009140015 0.15394846441687093 0.0
0.1231244833278832 0.0011741966009140015 0.24486388648579369 0.052959327779210905
0.047607147408097586 0.0011741966009140015 0.16096159054674225 0.0011563404154064484
0.023075120063298513 0.0011741966009140015 0.2566936872904817 0.07671045685591382
0.08569984780704594 0.0011741966009140015 0.1818924527977615 7.267846090610697e-18
0.025308541465596184 0.0011741966009140015 0.04574686018882124 0.031706934140227884
0.1091352754593072 0.0011741966009140015 0.26018576083463024 0.09810798902413545
0.04325301888375406 0.0011741966009140015 0.2401901770693003 0.03930788731601674
0.031189742933628507 0.0011741966009140015 0.060683122328394096 0.02147616866786145
0.12787654747146696 0.0011741966009140015 0.1840093379156973 6.377454284777195e-18
0.15784988067935682 0.0011741966009140015 0.2600376543506055 0.10482568511943399
0.07386981203581199 0.0011741966009140015 0.1587655694118143 -4.3753315893354485e-18
0.07492261497009708 0.0011741966009140015 0.18161684028919023 -2.6288392341536506e-18
0.04023046624218474 0.0011741966009140015 0.10155199426323086 0.004425604005642267
0.0419722299066318 0.0011741966009140015 0.19482111620780837 0.0038273419355622507
0.17531741070813225 0.0011741966009140015 0.2629372103272287 0.09063887389249274
0.06798174588040642 0.0011741966009140015 0.16991327104279275 1.6085420116483434e-17
0.028818679079111773 0.0011741966009140015 0.012926293186631684 0.055955087885385585
0.03674073881867955 0.0011741966009140015 0.02944187407424964 0.03567986751172824
0.103052250803508 0.0011741966009140015 0.1743137474522686 -1.1957885995392776e-17
0.06382785375053929 0.0011741966009140015 0.22215166330401503 -3.662012554906477e-18
0.0974927850416078 0.0011741966009140015 0.19329238209065785 0.0
0.021832179116466274 0.0011741966009140015 0.07654369869804793 0.0317006863883508
0.10117039106318355 0.0011741966009140015 0.1638779570962835 0.0
0.15084932077235072 0.0011741966009140015 0.22536505881501012 -6.599984111956412e-18
0.10535248586389699 0.0011741966009140015 0.14540783330896873 -8.039880549201416e-18
0.1044557087790083 0.0011741966009140015 0.23974060127184507 0.04186316618918976
0.07433974400083161 0.0011741966009140015 0.1457919531785371 1.0527481004061532e-17
0.12395265161293044 0.0011741966009140015 0.16461477202330052 -1.9756605483771656e-18
0.10344568497317529 0.0011741966009140015 0.21820496451477395 -1.0463362902693318e-17
0.025460394461740227 0.0011741966009140012 0.2467134338109076 0.05616164294991206
0.0913705276422723 0.0011741966009140015 0.21250346186479357 8.617631827185654e-18
0.07984091055179521 0.0011741966009140015 0.10749958187672515 -8.267667273608528e-19
0.1585540506816249 0.0011741966009140015 0.21805627554131882 -7.945698207634827e-33
0.04899287419285074 0.0011741966009140015 0.11139400761572996 0.001661797630491714
0.08073030470669443 0.0011741966009140015 0.11993480688083152 -5.637051219297265e-18
0.07959076821497493 0.0011741966009140015 0.21937746381724788 1.0072854894659196e-17
0.054841295129681215 0.0011741966009140015 0.17741033046700055 1.6604563803050994e-05
0.029388072275981003 0.0011741966009140015 0.12364385564452748 0.0194630767616502
0.07440293460124653 0.0011741966009140015 0.09381122161194518 -9.278448630828452e-18
0.03848770846142839 0.0011741966009140015 0.160476602275279 0.004893689566088143
0.14774132887765243 0.0011741966009140015 0.2417524526720955 0.049356586781428013
0.1160928035783699 0.0011741966009140015 0.19254709119520724 -3.787849722460115e-18
0.041540106820665224 0.0011741966009140015 0.12628035867250528 0.004364865318766441
0.06405689628200956 0.0011741966009140015 0.19146601979801448 5.495139692974294e-18
0.055504146775482543 0.0011741966009140015 0.2482319379599119 0.0675393361541725
0.13188996692812952 0.0011741966009140015 0.173573788107926 -1.1310935092511202e-17
0.05340834921619489 0.0011741966009140012 0.08247721067451325 0.0005027327968785389
0.1264450879328916 0.0011741966009140015 0.25641984610721796 0.07493452426251103
0.1655317656579561 0.0011741966009140015 0.2318954585872136 0.012970010194345022
0.06094612258205537 0.0011741966009140015 0.2014964403307194 1.6627444233900348e-17
0.03722777201646585 0.0011741966009140015 0.07242485197923663 0.0059056055035207715
0.15276010323599945 0.0011741966009140015 0.2340493737501671 0.014156829334883181
0.09833005723808681 0.0011741966009140015 0.20371644692299318 -1.1107726239886051e-17
0.17744302701241055 0.0011741966009140017 0.22539381008433396 7.630548719044331e-05
0.08396670121417939 0.0011741966009140015 0.20309902165936689 -5.601163086923424e-18
0.06141348602473309 0.0011741966009140015 0.08837308672769956 -1.3706196181164319e-17
0.042330047927445394 0.0011741966009140015 0.2179365903274132 0.004849942449716352
0.02826724259947497 0.0011741966009140015 0.2279704655285578 0.012607056511769589
0.1534213920584846 0.0011741966009140015 0.2032839580005505 -4.776536999675864e-18
0.02842257660973707 0.0011741966009140015 0.10494101624745401 0.014488065066903704
0.13892333110288985 0.0011741966009140015 0.2038889063974732 -1.259621527493022e-17
0.1305790843113986 0.0011741966009140015 0.21106672782452715 -3.2882914828640075e-18
0.0408552160516838 0.0011741966009140012 0.1377414884417716 0.004178018229448376
0.1369618689812771 0.0011741966009140015 0.22808729434251301 0.00751293446471449
0.03520075421684808 0.0011741966009140015 0.18879003142028583 0.007596151663595578
0.1782366531442399 0.0011741966009140015 0.2365480916844261 0.04789769368573741
0.11347089517341395 0.0011741966009140015 0.210500627753765 1.0014317955059873e-17
0.14463793607267758 0.0011741966009140015 0.2535386383029093 0.08640593607400432
0.18830966160178972 0.0011741966009140015 0.23880622255950434 0.03863668508070138
0.025051802734966544 0.0011741966009140015 0.03370473169401763 0.0352303915614049
0.13396951124848558 0.0011741966009140015 0.25329253573193006 0.09100005623320155
0.18777083120196772 0.0011741966009140015 0.2511108609528298 0.06452356422828537
0.07919096486097607 0.0011741966009140015 0.23893821826015785 0.03348659660021988
0.16582927531286087 0.0011741966009140015 0.2529782546269928 0.07771025889562105
0.153043339574869 0.0011741966009140015 0.1921934179563973 7.856434499264726e-18
0.1209165287226022 0.0011741966009140015 0.09981709244587984 0.0
0.2044678251161134 0.0011741966009140012 0.048766240505120635 0.031247471858896474
0.059881361150292155 0.0011741966009140015 0.03945011142771836 0.0008154857024150906
0.13580903986885498 0.0011741966009140015 0.008574662935911869 0.07635147262119096
0.17431610555941485 0.0011741966009140015 0.12425711668757208 4.6369713265721506e-05
0.10963063237495435 0.0011741966009140015 0.045324350069566005 1.3861926107147186e-17
0.0979081609876983 0.0011741966009140015 0.037881852167451685 0.002949883928533982
0.17409857734069423 0.0011741966009140015 0.19103609161340793 0.00022817754595624772
0.18333011145296477 0.0011741966009140017 0.03267123284612468 0.018246811294617703
0.17992222481636205 0.0011741966009140015 0.21448009717075353 0.001079430714704344
0.1970093688946946 0.0011741966009140015 0.09182896112471658 0.013124799805600213
0.1964763164324917 0.0011741966009140017 0.15795367361180912 0.01161092091527765
0.05960851108984683 0.0011741966009140015 0.027091852416230258 0.03402301431344557
0.13202442604468895 0.0011741966009140015 0.13600828368097825 -4.418642828596909e-18
0.1883234448775703 0.0011741966009140015 0.12889941742065517 0.004556679174950366
0.17630444298635786 0.0011741966009140017 0.1038923278163977 0.00020342088779137657
0.18712783268787564 0.0011741966009140015 0.11029458910578822 0.0024616901758932126
0.17772660906039844 0.0011741966009140015 0.20367157394521174 0.00025917590581163793
0.1639435468814875 0.0011741966009140015 0.07741880751511325 -1.2213482645918453e-17
0.14360577802653515 0.0011741966009140015 0.11094351137187293 -2.364678983943324e-18
0.06486911075453575 0.0011741966009140015 0.008592070920011323 0.08606396526603502
0.18475164901793098 0.0011741966009140015 0.018735100158803336 0.05415919475008674
0.18722371268677648 0.0011741966009140015 0.2047790004655326 0.002484466321794091
0.1541077442229813 0.0011741966009140015 0.12952370411010872 8.481852099116983e-18
0.11951417274855103 0.0011741966009140015 0.08097984501940123 0.0
0.08510504525668999 0.0011741966009140015 0.0011399977454201102 0.07554582941233193
0.19646970967697214 0.0011741966009140017 0.10243570957474041 0.006800529456649092
0.12003450267879194 0.0011741966009140015 0.13369009150060324 9.75070221055687e-18
0.20269887634474723 0.0011741966009140015 0.2195578942965597 0.021234435942953978
0.1894975204699114 0.0011741966009140015 0.1196174374139504 0.005945474823602701
0.14156473346099907 0.0011741966009140015 0.1480449588432511 3.0424144998648975e-18
0.1884418039021302 0.0011741966009140015 0.14670442743244166 0.003862018480243932
0.16493687523070388 0.0011741966009140015 0.0884163606898354 1.666643742134675e-17
0.13901495281298581 0.0011741966009140015 0.06024106170259737 0.0
0.17591423841757942 0.0011741966009140015 0.16574886627452967 0.0003932023277003422
0.16102901649830695 0.0011741966009140015 0.16414227787944805 1.5352376724471466e-17
0.17578719969794074 0.0011741966009140015 0.10556825450607618 0.00020385466648207879
0.16233241697020065 0.0011741966009140015 0.04792022612982878 -3.4651712306859468e-18
0.1549234479194238 0.0011741966009140015 0.1496067597110355 7.002724771494035e-18
0.18165068256723976 0.0011741966009140015 0.15621003507795939 0.0008575818034708967
0.034669186559531315 0.0011741966009140015 0.0186964450966104 0.06273890838972603
0.10728218801096216 0.0011741966009140015 0.11303248642434982 -1.0593931926974353e-17
0.11645926715020025 0.0011741966009140015 0.059872922906932184 8.59027728808442e-18
0.1912397007977474 0.0011741966009140015 0.21627189455492535 0.0033605908203975777
0.18213944554188827 0.0011741966009140015 0.1955733960311654 0.0004171765783433101
0.033232348792437603 0.0011741966009140015 0.0016508162224226884 0.06653101050100658
0.15877258614281248 0.0011741966009140015 0.06616450034946346 -1.541769296973264e-17
0.06870223679665288 0.0011741966009140015 0.031185510299305667 0.03709227317573675
0.13066311969404867 0.0011741966009140015 0.029927204448835995 0.029903505784307782
0.15104288014799414 0.0011741966009140015 0.028261564825898693 0.03812174642813959
0.16330145716834918 0.0011741966009140015 0.1798645796735908 1.2219342378441008e-17
0.19283117207981498 0.0011741966009140015 0.011012014925054065 0.05653507642800593
0.158950102394394 0.0011741966009140015 0.13913826543813287 7.068001934679937e-18
0.14545972675222632 0.0011741966009140015 0.13675654252523733 -4.79362498250197e-18
0.15189191441387256 0.0011741966009140015 0.18297699075664944 -3.814368259021885e-18
0.16273843427288046 0.0011741966009140017 0.1987672810076358 1.2166857855894663e-17
0.2006381783850617 0.0011741966009140015 0.24943502368240042 0.07896895556248702
0.16395469562186435 0.0011741966009140015 0.11415838767894405 8.803935769154762e-19
0.20167848899699825 0.0011741966009140015 0.18755721189446273 0.021383055315082396
0.174960070696416 0.0011741966009140015 0.07471115447265754 0.00010082376232681037
0.11354912604423822 0.0011741966009140015 0.034850537419482075 0.009253442456919024
0.19731637249806686 0.0011741966009140015 0.17698998566106006 0.010017418109863221
0.06152233746334557 0.0011741966009140015 0.05467472751147309 -3.8920803171106724e-18
0.1532526565859234 0.0011741966009140015 0.16161089384114338 -3.11940337467008e-18
0.07333238520368517 0.0011741966009140015 0.06382639681632604 1.909701615792613e-18
0.20047694984893913 0.0011741966009140015 0.12419858682037752 0.025717141969207234
0.12178825269238563 0.0011741966009140015 0.005928480582075907 0.0835585203438187
0.11995885279890325 0.0011741966009140015 0.11253348832279957 -1.575514934069601e-17
0.12789328285238735 0.0011741966009140015 0.07407154708998877 -3.374317829533597e-18
0.19331035707255867 0.0011741966009140015 0.19415488690665925 0.006615462992361835
0.181753465105594 0.0011741966009140015 0.17751679818629865 0.0015468520230228647
0.13231377448878956 0.0011741966009140015 0.10612677555585301 1.2671841373358291e-17
0.1281169758011028 0.0011741966009140015 0.04194384348909734 5.925748180312989e-18
0.15427353441360708 0.0011741966009140015 0.05534432617025601 -2.491095812149762e-18
0.05334468395397517 0.0011741966009140015 0.015010640545610158 0.07236790234515458
0.16045174201287468 0.0011741966009140015 0.029828140658815158 0.031275419078471395
0.08270299268007665 0.0011741966009140015 0.03815517341647344 0.003283499045979567
0.11503491731593027 0.0011741966009140015 0.12169027313023502 -1.1200721712838742e-17
0.20498219759701886 0.0011741966009140015 0.07289976000990324 0.02736948173419555
0.04741874400906681 0.0011741966009140015 0.021913733043170985 0.05700375215831717
0.08568157815551089 0.0011741966009140015 0.07571372622668103 -9.62373266327242e-18
0.15224786596028891 0.0011741966009140015 0.10089269852119655 1.064164088233835e-17
0.17185074329379926 0.0011741966009140015 0.1439779069076224 5.023628014568673e-07
0.10432936807688023 0.0011741966009140015 0.10408718693684571 2.399701291875438e-18
0.08159692609343061 0.0011741966009140015 0.0551231536338886 1.4775608843041893e-17
0.19339144742510583 0.0011741966009140015 0.04652403034780742 0.006798531115159362
0.09114743164280688 0.0011741966009140015 0.04508570615646393 -3.5631406712307076e-18
0.08995100167017611 0.0011741966009140015 0.0627334753170448 -1.2195542413696595e-18
0.17441612424643946 0.0011741966009140015 0.06517995370697774 9.860765995249513e-05
0.1798644110641308 0.0011741966009140015 0.04789082146401604 0.0004258509074011828
0.14792264549698764 0.0011741966009140015 0.01508882048861011 0.05806171208391808
0.20608642788028383 0.0011741966009140015 0.08579953899179642 0.027154764173082758
0.19354924380611047 0.0011741966009140015 0.1357521286154779 0.005505903709016229
0.19713161905281995 0.0011741966009140015 0.11293723489927411 0.015862305193949374
0.1491117671501316 0.0011741966009140015 0.06949838211373516 3.09145218312569e-18
0.1981731064869494 0.0011741966009140015 0.06401057096789305 0.0077605117147404295
0.07351067265489275 0.0011741966009140015 0.04577037451941049 0.0
0.09053068170612645 0.0011741966009140015 0.028660554971323995 0.02859471439110934
0.11493122248864718 0.0011741966009140015 0.07196411201197823 1.6794071728481546e-17
0.1888115270114963 0.0011741966009140015 0.16940348996795215 0.003416723668701626
0.15182514778010062 0.0011741966009140015 0.1746979499984055 -1.0959081245887148e-17
0.10679101893294375 0.0011741966009140015 0.011896292972355544 0.08136038645749233
0.1306970256117301 0.0011741966009140015 0.02070427728905237 0.06227822027170339
0.1499496055031267 0.0011741966009140015 0.0773882317417274 0.0
0.18406722803313103 0.0011741966009140017 0.0711963180528514 0.002291925109335367
0.2044137883652505 0.0011741966009140012 0.19669629733592708 0.021195472037745074
0.12624489120830862 0.0011741966009140015 0.0898953281007837 -1.348512359488059e-17
0.05207457616143126 0.0011741966009140015 0.005866596023733985 0.08293381941508389
0.1792429827877843 0.0011741966009140015 0.13528611056008272 4.1955786488583225e-05
0.17853043757848577 0.0011741966009140015 0.09252620559925921 0.0006622438949822249
0.08917365358539237 0.0011741966009140015 0.09112620679337095 -1.550864667597694e-17
0.19182324015886237 0.0011741966009140015 0.026096891164564547 0.04589788157743064
0.19998680855778855 0.0011741966009140015 0.20581957749745194 0.01935634687374592
0.17854319731106463 0.0011741966009140017 0.00911942152870925 0.07880198287756436
0.1252385021759693 0.0011741966009140015 0.013788133875128885 0.06828054349444102
0.14083431025540283 0.0011741966009140015 0.03145963831764611 0.029825816475093036
0.12108513082520772 0.0011741966009140015 0.05055935753510314 -4.083678997888834e-18
0.1645634609252001 0.0011741966009140015 0.007221412538653032 0.07450161139709661
0.10019305490399981 0.0011741966009140015 0.08297553623400514 3.872474581768202e-19
0.16797000197907552 0.0011741966009140015 0.05770181277611017 -5.1487891788618226e-18
0.19160065078334731 0.0011741966009140015 0.18415077123715082 0.004934256179994204
0.20369833603506685 0.0011741966009140015 0.03566202736063607 0.01971972340533107
0.20323231566922373 0.0011741966009140015 0.02042763651664596 0.05727331541644012
0.08301558441427366 0.0011741966009140015 0.015109689634870428 0.07728028166532089
