x y z curv
17.962322318915152 0.26158052235979423 1144.1918232425262 0.11372379482123367
17.96237392460972 0.2522170964101818 1144.1985672902388 0.1622363788607581
17.962292336746273 0.24241171002532802 1144.20466018955 0.1467308154062233
17.96540174827587 0.1818560174002689 1144.1945427004448 0.10391039751562649
17.98736094092589 0.33428773139469736 1144.204292113431 0.16046453377303774
17.989647629102436 0.3424001176402176 1144.1898223329392 0.11701712318399585
18.025484807247594 0.38869222257461733 1144.1995463382073 0.1271111805279781
18.00811054736502 0.3702338177457809 1144.1904107318264 0.08533041817736121
18.00628923406299 0.365498743089113 1144.2008017086325 0.12381088655838178
18.016647042727403 0.381364892060291 1144.1901139684069 0.09863194630312414
18.00029641837679 0.357931980980437 1144.1999270069493 0.11068994737951396
18.08484380339664 0.43331530858396444 1144.1987653814092 0.11459751621027164
18.07286726017573 0.4265028025599844 1144.2012509590202 0.13920191167743265
18.132854082252884 0.45120390904399543 1144.2063674120661 0.13663237804516096
18.12801057429964 0.4513311508996731 1144.1982400211555 0.11276373633997613
18.098227382996065 0.43936468118539246 1144.2053676137155 0.12722485362161495
18.10677022519468 0.44387031808696764 1144.1961506301534 0.11580737412213676
18.062034654149027 0.4211561749861563 1144.1907601137946 0.10529116631514647
18.052699154358304 0.4144116911655722 1144.190194811544 0.10872063407886204
18.04914736626504 0.41043868544102596 1144.198098592332 0.10995298176108191
17.972572728921776 0.3014724490871351 1144.198869309865 0.11271493191024053
18.170149177566934 0.459830109308924 1144.1912724834478 0.11967089085897806
18.18021329700415 0.4607471456646618 1144.1897872813593 0.10836879156662804
18.160544847922186 0.45830868699284427 1144.1972909980295 0.11605803936982097
18.237130569856618 0.4561337044180799 1144.1933913414257 0.15075962836829304
18.255903450161316 0.4521107025043082 1144.1934286572982 0.11554179956169194
18.30622254864272 0.42963813111762916 1144.199213628579 0.14069190473670945
18.300487093703193 0.43381933058816435 1144.192233219933 0.1223109314350143
18.270551843141916 0.4471144890241496 1144.191639541964 0.11803254488761018
18.28686524578659 0.44066628136449604 1144.1947772272874 0.11725060258193923
18.27796005777644 0.443139118308132 1144.2000896183174 0.14391923233428702
18.363191915732806 0.3827907278025801 1144.2080926305755 0.14190224046678265
18.35648202782242 0.39154481712355854 1144.1967793997528 0.12913401493946
18.3464329757692 0.4022098177471096 1144.1923673839337 0.1088311627573865
18.397353442964985 0.334867394785811 1144.1998898025035 0.1271987858817572
18.401558749371738 0.3299905176564655 1144.1909487710307 0.10852047692344197
18.394732982543907 0.34192433641363107 1144.1912365331593 0.09564871719906602
18.398753921750238 0.3298767263731904 1144.2088305666823 0.13440442236963526
18.38357950492319 0.356614171831118 1144.2083096453673 0.15065626654253747
18.37893082508011 0.3647004070916675 1144.1992886878052 0.12544737938932415
18.336643518082766 0.4092593891126409 1144.1987556040822 0.14583144234485648
18.33114569850093 0.414455990576326 1144.1920217446766 0.10416448439858929
18.32315132429639 0.42027950492384647 1144.1922292396184 0.12114638636908694
18.416528408254113 0.2837535995010192 1144.1985065277104 0.14787586242771356
18.41962211510957 0.2748543333268356 1144.1918209225105 0.13451870374033123
18.422875343268476 0.20674482927979582 1144.1950219476475 0.09912460667804053
18.422631558991483 0.21799074259466933 1144.2004538274837 0.13593581348520747
18.423739836511132 0.23934721038527282 1144.1946314948002 0.12044884053200658
18.40911150399345 0.14945498239302119 1144.1988929892323 0.14779639378539333
18.42244019838224 0.19790965695655488 1144.1911418170207 0.09214240039108021
18.416846506734753 0.1718776268148551 1144.196025058103 0.15095227050978902
18.40817177837137 0.31345778389029044 1144.1912659109307 0.11674770993914575
18.410453752658558 0.30493797192397926 1144.198484779622 0.11233197756137112
18.20886840319985 0.4579275464274769 1144.2074795601516 0.14872517655642295
18.199190886969106 0.46004326108737437 1144.1972690024033 0.15273675674747705
18.196683654084616 0.45870739481411704 1144.2080289443338 0.16355254154041646
18.202688014994628 0.20720451048307328 1144.2127662388239 0.17197385207467294
18.176898766743804 0.20163729426515115 1144.2127662388239 0.17337186948439098
18.1199014339875 0.19694875877904122 1144.2127662388239 0.16590306040436403
18.132732839552048 0.20391170593410912 1144.2127662388239 0.1626889143931488
18.238092915233036 0.2071005669205843 1144.2127662388239 0.16165214267711225
18.21778634378525 0.206948762550926 1144.2127662388239 0.16655058670686762
18.340565826565406 0.15667443045865106 1144.2139190281694 0.17368787567598742
18.29721801097311 0.18877894661459593 1144.2140966263012 0.15737999883437218
18.42021079285054 0.21220252727705718 1144.2123525024792 0.13904346459246988
18.32466403027229 0.41303103600228064 1144.2139250047612 0.13469590514308238
18.27034878180613 0.4417305738600579 1144.213932591211 0.1450021297793753
18.1240640710144 0.4447555035342374 1144.213950604809 0.1495480747802164
18.078837879899346 0.4266583105047949 1144.2125290142442 0.14104658519481125
18.005528767675585 0.36041008595617363 1144.2127154823402 0.12390385262652497
18.02060040413867 0.37765557776266756 1144.2135710047153 0.11539232910424319
17.97097968839948 0.2853201285219215 1144.2123287277182 0.14628446643096
17.96658888288216 0.19386799757433104 1144.2132250572963 0.15957845307161567
18.28197098339831 0.4397255478484267 1144.2119502532623 0.15687205608391092
18.40800366396379 0.29213092579993294 1144.2146822796497 0.1571530213247078
18.339891066310955 0.39845434451531164 1144.2146711293253 0.12884544777530688
17.963539641884925 0.20812561178835776 1144.2106679597314 0.12365139822476161
18.038792865796722 0.39353819887982777 1144.2146539802511 0.13289433062558106
17.971917648579982 0.1837401221525394 1144.2146989211155 0.13421471180664332
18.388548048710156 0.12552416815968287 1144.2147662388238 0.1553770125874165
18.36459135586676 0.13773422808019048 1144.2147662388238 0.1652232451184393
18.389101728161705 0.13650103144255427 1144.2147662388238 0.1640095446387431
18.375934340629115 0.12820231349280217 1144.2147662388238 0.16549072023410816
18.351989849570927 0.1615045195349702 1144.2147662388238 0.1651350367374415
18.379512784270606 0.1666032314149354 1144.2147662388236 0.16291564155989888
18.39171414671211 0.16720043578530414 1144.2147662388238 0.1732299078318589
18.36757809428524 0.15318607227722647 1144.2147662388238 0.17940411718716634
18.35435689856736 0.1507232587432098 1144.2147662388238 0.18049310467147367
18.35968784310582 0.1698808543725235 1144.2147662388238 0.1734186811563534
18.36738246508423 0.16355035631914536 1144.2147662388238 0.16495405141285654
18.405987024580988 0.16852947015059422 1144.2147662388238 0.15715627272746815
18.386075929424752 0.15911924960829085 1144.2147662388238 0.1470405360844966
18.38607697477899 0.14898743624214783 1144.2147662388238 0.1585208650707397
18.398109780690017 0.15859258809465826 1144.2147662388238 0.17323076117536515
18.37493150217927 0.1435321999009097 1144.2147662388238 0.15620715900070398
18.365757617132026 0.21385277500861055 1144.2147662388238 0.17813077995977336
18.334489511174176 0.19415808182249192 1144.2147662388238 0.1689534936718716
18.31572333589516 0.1788935120315675 1144.2147662388238 0.1531680163486513
18.359519019190447 0.19913871875280542 1144.2147662388238 0.1702457758694193
18.34315843309294 0.1990989696730383 1144.2147662388238 0.1752014358496489
18.306827523217503 0.19799888191781934 1144.2147662388238 0.15731891034753043
18.37032708458226 0.20521834926231314 1144.2147662388238 0.16272638670461767
18.335076264804417 0.20593430823768322 1144.2147662388238 0.17593450365143287
18.384767544450312 0.21862830851027223 1144.2147662388238 0.175237420321401
18.31587844596555 0.19304743285708376 1144.2147662388238 0.16660794164294343
18.325652068175224 0.17604418071701616 1144.2147662388238 0.1652863429670345
18.34992849266179 0.2058412987507798 1144.2147662388238 0.1722139299317247
18.3316540817469 0.18477366010229812 1144.2147662388238 0.1729026352366904
18.322968533139132 0.19942009682146938 1144.2147662388238 0.16859055029163028
18.279778763772832 0.2179363585108295 1144.2147662388238 0.1615592843305169
18.304505312776325 0.2156068920927524 1144.2147662388238 0.17104665088417031
18.303719487113142 0.24925770086187143 1144.2147662388238 0.1631659221793831
18.331553001535454 0.27588329943068945 1144.2147662388238 0.16573157135658334
18.28597546886654 0.21037100255555158 1144.2147662388238 0.16524956658252027
18.30411901244963 0.22556034380486 1144.2147662388238 0.18065130115757927
18.264557627894117 0.20663755247204924 1144.2147662388238 0.1693286553495385
18.300808390311353 0.2388818479003295 1144.2147662388238 0.16793600751535867
18.292445254921432 0.2271384069258412 1144.2147662388238 0.16702062017811334
18.270647731243926 0.21462601664321732 1144.2147662388238 0.17003393391985241
18.318013981598227 0.25102269107565783 1144.2147662388238 0.16097009391865608
18.329318512648033 0.26430465898271294 1144.2147662388236 0.15465130746693062
18.293679655176863 0.20084945343076105 1144.2147662388238 0.16119704287828476
18.312396212011116 0.2347768917527875 1144.2147662388238 0.17130286973400152
18.28189364597153 0.23160685157701527 1144.2147662388238 0.15716497728443082
18.284085331690264 0.19848405530457733 1144.2147662388238 0.1672527306092333
18.373230221951246 0.30962255157607904 1144.2147662388238 0.1576079875113981
18.35004474106417 0.2876776827894628 1144.2147662388238 0.17839315070439363
18.320741843606857 0.24106056462409406 1144.2147662388238 0.17221065265991697
18.29524107195185 0.32128904997551144 1144.2147662388238 0.17644238153836558
18.224803079433052 0.23352035024575526 1144.2147662388238 0.1566181882692251
18.30894951682717 0.3715085004743377 1144.2147662388238 0.1798385243632328
18.261060141308498 0.28083473875821346 1144.2147662388238 0.17565181786405998
18.25109135477127 0.2482012164342707 1144.2147662388238 0.18133722845640798
18.246051615169137 0.21291165951551166 1144.2147662388238 0.1658398631182236
18.269393817542344 0.2685744285355737 1144.2147662388238 0.16635347509736992
18.27897281057312 0.3156045444008603 1144.2147662388238 0.17191895216849834
18.248651225757403 0.25895557316159384 1144.2147662388238 0.16621588651067618
18.303938271394642 0.3581324712287117 1144.2147662388238 0.18084241210671248
18.248408946824267 0.22539287310783612 1144.2147662388238 0.16617921211453945
18.27873734414736 0.28920212493190156 1144.2147662388238 0.17413631935303156
18.27806444964734 0.30043769581674756 1144.2147662388238 0.17179947376089144
18.253802969091115 0.23467377250219693 1144.2147662388238 0.16625863868829585
18.29325988782168 0.34674993979761315 1144.2147662388238 0.18991685545752204
18.286603673384878 0.30593821562191625 1144.2147662388238 0.17689098216260857
18.235655444572757 0.2252719909203439 1144.2147662388238 0.16228839425241218
18.233319148540183 0.24865668753791303 1144.2147662388238 0.17820152106601095
18.237102321601498 0.2380475758111116 1144.2147662388238 0.1686499391700543
18.26007617910735 0.2610018190438922 1144.2147662388238 0.16963902910150244
18.2568355300998 0.2707956131237691 1144.2147662388238 0.17300018299505907
18.29465916467058 0.3308136025220781 1144.2147662388238 0.18288283850634332
18.41361906937033 0.2245022523584791 1144.2147662388238 0.1478952728712477
18.38413998560977 0.20723340585527478 1144.2147662388238 0.17322613061498923
18.368327302247657 0.1918034423775486 1144.2147662388238 0.17039254748995772
18.387603215170987 0.19864320224807608 1144.2147662388238 0.16305569698216033
18.39502701566056 0.21389761187607592 1144.2147662388238 0.1565794419740304
18.406871763195596 0.20938708514024665 1144.2147662388238 0.15894997714067846
18.35146824858178 0.19032019032194622 1144.2147662388238 0.17652526771286972
18.40448970079235 0.22079780053509768 1144.2147662388238 0.15800332041183227
18.342003549809245 0.1818581975411239 1144.2147662388238 0.15915373644944925
18.378672895133956 0.1909035355919394 1144.2147662388238 0.1600710124786247
18.35070560100405 0.1745573046265146 1144.2147662388238 0.1619077597715228
18.361632303859896 0.18232567243642542 1144.2147662388238 0.1825481234705938
18.406863089784494 0.18473755554325413 1144.2147662388238 0.16387709034552783
18.33700381179765 0.17201374399811392 1144.2147662388238 0.16338201937824032
18.399445547434908 0.19606507931008305 1144.2147662388238 0.16519359062231898
18.39909395895134 0.18011152083627172 1144.2147662388238 0.1705005382489528
18.408903741586936 0.19915045902026496 1144.2147662388238 0.16840991500332447
18.39067195055999 0.18789167733896778 1144.2147662388238 0.15564537864599767
18.37396195603923 0.18106559886648418 1144.2147662388238 0.17051951890013087
18.390295089476727 0.17644008642396503 1144.2147662388238 0.15866653893931607
18.018328490386004 0.13158652762853573 1144.2147662388238 0.1779785961603775
18.001912180942718 0.1290173301871208 1144.2147662388238 0.17922847944982767
18.010505461416844 0.12053374757697238 1144.2147662388238 0.19458900006959162
17.986639460705987 0.14102874488822476 1144.2147662388238 0.1506286433626055
18.006917652759064 0.1369142894500729 1144.2147662388238 0.1817093622102288
17.99150742619853 0.12969945149194334 1144.2147662388238 0.18862104423910403
17.998484033753503 0.1205197268361626 1144.2147662388238 0.17364414505448936
17.999208239945208 0.14429550003048686 1144.2147662388238 0.19380290726626928
18.009253273624974 0.14693940672535644 1144.2147662388236 0.18274019808619665
18.02207169397891 0.1465057056327671 1144.214766238824 0.18085941875513914
17.99020359447028 0.16199731923925864 1144.2147662388238 0.17735197761268792
17.997095113563113 0.1542253613120651 1144.2147662388238 0.1760417630702844
18.04595303051491 0.19512523252587982 1144.2147662388238 0.16974060576790048
18.04503962892906 0.18505726072599976 1144.2147662388238 0.17443031760870767
18.026450774815792 0.2124040044087763 1144.2147662388238 0.17643349526359547
18.053817363939586 0.18289614616143726 1144.2147662388238 0.1674738509129292
17.973038981130223 0.2342265871623871 1144.2147662388238 0.1758713311217963
18.0693590178411 0.1923833847688166 1144.2147662388238 0.17177778388884585
18.003958964254178 0.21595249602425348 1144.2147662388238 0.18303601597018143
18.04605732510833 0.2069679340068669 1144.2147662388238 0.1816366446691872
18.06721019914951 0.17808836899039515 1144.2147662388238 0.17390874318538405
18.035723109568742 0.1990155489710051 1144.2147662388238 0.17502798650328671
18.081994109004153 0.19475309114292913 1144.214766238824 0.1690112546962967
18.05776254892304 0.19494219596872533 1144.2147662388238 0.16807548316383372
18.03382945598936 0.1779675510021055 1144.2147662388238 0.15280508367822798
17.98496515952371 0.18407393169892117 1144.2147662388238 0.16967380537047697
17.993264059493562 0.17698803626333942 1144.2147662388238 0.17514273867400793
17.995761425964126 0.1868517667001342 1144.2147662388238 0.16434252400192706
18.012230205476314 0.17888183038879524 1144.2147662388238 0.17785681078995214
17.986197842168895 0.19397325726363313 1144.2147662388238 0.17758447686874831
18.01179248563778 0.18797156867211984 1144.2147662388238 0.17157637938573173
18.046674334811826 0.17254456949262353 1144.2147662388238 0.16245501866665654
17.98096527444819 0.1737868608993362 1144.214766238824 0.15861727369897824
18.017628082698405 0.20181364422304698 1144.2147662388238 0.1957087535336289
18.003015370977096 0.19344977136184083 1144.2147662388238 0.1724176179102575
17.993794886573344 0.21752373943028033 1144.2147662388238 0.16159348651253475
17.984998166328033 0.20707735229544394 1144.2147662388238 0.15293510643020206
17.973469514014262 0.2027708918156228 1144.2147662388238 0.16023817647130464
18.007535830666885 0.20753899108511134 1144.2147662388236 0.18361515608679638
18.024746549799566 0.18798071552077117 1144.2147662388238 0.1689904788285579
17.9963135457431 0.20156646657057403 1144.2147662388238 0.1611524400020627
17.974722372495357 0.21718185861466344 1144.2147662388238 0.15576780728642034
18.033726494287674 0.1550377392285427 1144.2147662388238 0.16903625482383122
18.019789316066912 0.1718861106248537 1144.2147662388238 0.16829971819486939
18.023941259918217 0.15893804399720196 1144.2147662388238 0.18889425324560927
18.037921179202844 0.16353613199681183 1144.2147662388238 0.16378345626955856
18.00066634217941 0.16463616709319231 1144.2147662388238 0.16037793132521985
18.012456836867294 0.16065516340055835 1144.2147662388238 0.1891145782838067
18.095934369315927 0.2167022935534284 1144.2147662388238 0.17036678587586604
18.054844846281227 0.25167632797361 1144.2147662388238 0.18393284664499307
18.10106754150756 0.20483644102493992 1144.2147662388238 0.17950520715864338
18.079682527957672 0.2532183919731426 1144.2147662388238 0.1833725603531225
18.112100933880853 0.20482498332747423 1144.2147662388238 0.167764164332039
18.067965944812997 0.2532180688813862 1144.2147662388238 0.18534697625738036
18.122630734718822 0.20881218876365368 1144.2147662388238 0.1624558486667176
18.06207062506958 0.2629944401868579 1144.2147662388238 0.17946086962838353
18.10057054393949 0.22780292285874115 1144.2147662388238 0.17594861779451035
18.045883458245704 0.26146556177603114 1144.2147662388238 0.189051935090132
18.09441581700645 0.1972306746717578 1144.2147662388238 0.16807442258219668
18.02241240819839 0.30098338173363665 1144.2147662388238 0.17799537715081845
18.008988784427853 0.31639033138146117 1144.2147662388238 0.16430083114898408
18.01226658919019 0.3071531565760491 1144.2147662388238 0.16293824482417843
18.09380547545821 0.2346587627440724 1144.2147662388238 0.17394443528184927
18.090310486816975 0.206383114711366 1144.2147662388238 0.18021752585625284
18.118066687932888 0.21740516096855234 1144.2147662388238 0.1702925728149536
18.084761348883063 0.22406905876510747 1144.2147662388238 0.175951308492939
18.052028256683553 0.2754640283716107 1144.214766238824 0.17445846446357685
18.03369169287935 0.28300646317050543 1144.2147662388238 0.172848412165015
18.06308977625892 0.24217110595635832 1144.2147662388238 0.17944027726502165
18.081223995802137 0.23281973850961557 1144.2147662388238 0.17604160199374153
17.99863560733569 0.32488466122705983 1144.2147662388238 0.16707739566837668
18.33893115342193 0.2339016064205265 1144.2147662388238 0.17699447236980137
18.35317896596625 0.24273950348146056 1144.2147662388238 0.18686655448314787
18.365710539849207 0.25461347860559774 1144.2147662388238 0.19300165652545231
18.35488119335222 0.2525554845755114 1144.2147662388238 0.1897072114673767
18.400108563959133 0.2840010461436633 1144.2147662388238 0.16346409617243784
18.34814909944841 0.23474397510480732 1144.2147662388238 0.19464003408074831
18.39141665959711 0.25693961878960525 1144.2147662388238 0.15123968403783672
18.326826328691123 0.21730317522529255 1144.214766238824 0.1742629818480725
18.394740644447378 0.27573190731469593 1144.2147662388238 0.16579203094658587
18.37312394248764 0.24605611471603323 1144.2147662388238 0.17848450382412867
18.370208131387265 0.2656497750071636 1144.2147662388238 0.16865804067508153
18.383697164895473 0.2801624396449078 1144.2147662388238 0.15744211442534545
18.362591445382954 0.24344988185765365 1144.2147662388238 0.19486089446732344
18.407220363444864 0.27768100456179157 1144.2147662388238 0.16782573343451712
18.393211065693915 0.2902719791420869 1144.2147662388238 0.18879218757268468
18.38006680138469 0.2596737616055377 1144.2147662388238 0.1828157363750628
18.33791569368338 0.30161345760707503 1144.2147662388238 0.1856475990295507
18.30942378317436 0.2604420784087046 1144.2147662388238 0.16760361108870048
18.359583637439272 0.3201987611696439 1144.2147662388238 0.17932205029919357
18.351266174517455 0.2989307696550227 1144.2147662388238 0.17766899393787505
18.36984313005504 0.3206963609319269 1144.2147662388238 0.16158796887041577
18.346562584536102 0.3104744915859049 1144.2147662388238 0.19291327193052366
18.300819246654907 0.2670091454946981 1144.2147662388238 0.18940437225248102
18.293313936868202 0.24791387429035686 1144.2147662388238 0.17201281406422936
18.364740939268096 0.33424689478060016 1144.2147662388238 0.1570967948753386
18.340509626958443 0.2924063050478402 1144.2147662388238 0.16492016778599633
18.388572689956824 0.33425233595016296 1144.2147662388238 0.16190164275040672
18.311000412326003 0.269563959491725 1144.2147662388238 0.16565726355435442
18.335125981171977 0.28476641160182087 1144.2147662388238 0.15911989078196365
18.37848209348498 0.3507092145155481 1144.2147662388238 0.18271814388910448
18.37930400561065 0.32184331785024717 1144.2147662388238 0.1733349075486767
18.32236972702059 0.2907327856320017 1144.2147662388238 0.18187476277474285
18.36790737879625 0.3476200400424246 1144.2147662388238 0.17443401201024994
18.377705630133548 0.3413076772433389 1144.214766238824 0.19242135365089583
18.34877631535813 0.31954874854820703 1144.2147662388238 0.17937826602847765
18.36776555620019 0.2984465356510483 1144.2147662388238 0.18245800269935009
18.338062671023284 0.2581488482597059 1144.2147662388238 0.1711990900571688
18.328876295294673 0.23146768347678645 1144.2147662388238 0.18557314336930306
18.390731971016393 0.3108838686465929 1144.2147662388238 0.1624591122783629
18.317115141869078 0.2220526818095445 1144.2147662388238 0.17790751997597481
18.374535679615256 0.2754182835797353 1144.2147662388238 0.18463735487206637
18.34966643742771 0.2600716290732322 1144.2147662388238 0.18399604912093628
18.363162875689788 0.2849294703711742 1144.2147662388238 0.17050495015747752
18.36596929363678 0.27398148053079424 1144.2147662388238 0.18416126940329608
18.352069139638473 0.27504428131041836 1144.2147662388238 0.18897176369495014
18.373270954606344 0.2888706554701198 1144.2147662388238 0.1708603333649394
18.342223176989126 0.24863604449121818 1144.214766238824 0.18195802683690562
18.395845917568096 0.32185633521616436 1144.2147662388238 0.15834018794407154
18.380260962857808 0.29783827864041756 1144.2147662388238 0.1578140478452241
18.331814503564964 0.24549653956617096 1144.2147662388236 0.18105874143216155
18.39162401754557 0.30092126646911077 1144.2147662388238 0.1652772065601821
18.357752831528664 0.2643614208883741 1144.2147662388238 0.18905585080416976
18.357984602874637 0.35466500292318226 1144.2147662388238 0.15858083502782916
18.292952970975307 0.2604620727621277 1144.2147662388238 0.17851932601808038
18.33742860739132 0.32816213510869424 1144.2147662388238 0.1932075449384877
18.31399610681583 0.28653867403577493 1144.2147662388238 0.16260304274247772
18.34671523591944 0.36015071559940254 1144.2147662388236 0.15316351430678235
18.364935975274648 0.36915086875913905 1144.2147662388238 0.1738414712396414
18.353596072729122 0.3809472345519547 1144.214766238824 0.14203810535011502
18.32804416075658 0.32030164007724443 1144.2147662388238 0.1820671424544204
18.331195139038808 0.341746308812105 1144.2147662388238 0.175742098073253
18.263550731304314 0.22705563673162882 1144.2147662388238 0.1587611927741063
18.304251627593278 0.27569052947585637 1144.2147662388238 0.1770423002564006
18.326508645715176 0.3332658428572052 1144.2147662388238 0.17994873816163046
18.351531248334112 0.33667041642285844 1144.2147662388238 0.1677686005900858
18.32791342199334 0.3039424047781209 1144.2147662388238 0.17906178102547052
18.281866555668113 0.25739860327724745 1144.214766238824 0.17261213979078083
18.300947921186545 0.28668077520724644 1144.2147662388236 0.17140029606161603
18.289435116808175 0.27064845223418627 1144.2147662388238 0.18966769481796691
18.307021107531373 0.2937012348678474 1144.2147662388238 0.18397669179411233
18.33512186906146 0.3129699727551856 1144.2147662388238 0.1740477854768682
18.372490533588753 0.36132080248966 1144.2147662388238 0.166603246447367
18.281604873358702 0.24597668978590448 1144.214766238824 0.15607692255939
18.271767102756254 0.38185730851525346 1144.2147662388238 0.17064229659195204
18.310308779654573 0.38802951524007445 1144.2147662388238 0.16471147794238114
18.299577475505913 0.4127432047308881 1144.2147662388238 0.17868982906143768
18.25697297898196 0.31247224459900275 1144.2147662388238 0.17876286108816522
18.29512636848453 0.36574333324021086 1144.2147662388238 0.18058388390838198
18.275333366996 0.3947287913112837 1144.2147662388238 0.15554851487327614
18.277655424063205 0.32410542186116964 1144.2147662388238 0.17815221212928392
18.286677573673302 0.3801959199055889 1144.2147662388238 0.17469460294641087
18.272776553185274 0.41228672850624604 1144.2147662388238 0.1539077114019692
18.240097085070765 0.3068599002399879 1144.2147662388238 0.1589357940480184
18.317732002452523 0.39469819962948394 1144.2147662388238 0.16287939662249343
18.270550747230647 0.401404891104403 1144.2147662388238 0.1746046605067182
18.287309487017723 0.3573154510255676 1144.2147662388238 0.18209288826145134
18.25439738020838 0.32753789649549736 1144.2147662388238 0.17785053517758212
18.262389232085937 0.3475529503289793 1144.2147662388238 0.18162833131525324
18.2947358995633 0.4219691180042866 1144.2147662388238 0.1541387119206695
18.26195039344284 0.37345663909774957 1144.2147662388238 0.1821172452408494
18.258574853385394 0.293548841624233 1144.2147662388238 0.1715325920857267
18.265513612213912 0.3198979001898995 1144.2147662388238 0.15800733868728425
18.27617948771805 0.3374795211977722 1144.2147662388238 0.16551447083468548
18.25303631127216 0.35620097660968286 1144.2147662388238 0.17300426410287983
18.240058844500652 0.2897907803311513 1144.2147662388238 0.1853149527635701
18.25142256150228 0.28703349125762895 1144.2147662388238 0.16791349135846995
18.247307628616316 0.2985381238606615 1144.2147662388238 0.16016917002879583
18.29898049701501 0.37449759588557335 1144.2147662388238 0.17163191935961428
18.30081641268849 0.38628412257283773 1144.2147662388238 0.18439709497554094
18.26799881504938 0.3594735931962492 1144.2147662388238 0.16760497308706876
18.236579865922224 0.25743970772794345 1144.2147662388238 0.16954829122146148
18.23444293766165 0.2699556118336017 1144.2147662388236 0.17905625428548058
18.31024620066183 0.4064802158723277 1144.2147662388238 0.16143852109762832
18.285267757172438 0.4107611573291965 1144.2147662388238 0.1564421293398789
18.274746322787742 0.3698275890557036 1144.2147662388238 0.17598812887928125
18.263683176296514 0.30297022206706364 1144.214766238824 0.17187832657306257
18.32530409868238 0.40291573453814516 1144.2147662388238 0.1695584283309685
18.284550410606766 0.37056354518323087 1144.2147662388238 0.17311841640386752
18.22221764856087 0.24853349519007345 1144.2147662388238 0.17559922492957433
18.276558454687947 0.4324726254662402 1144.2147662388238 0.15110705637780697
18.268730123165405 0.3338663241541045 1144.2147662388238 0.17996356991642834
18.279401484835454 0.42004771228104565 1144.2147662388238 0.1512970636430361
18.275116733257764 0.35389201610389864 1144.2147662388238 0.17099127994902583
18.294249899189772 0.40515497414719914 1144.2147662388238 0.16308865166608588
18.25265004715977 0.3422490641467589 1144.2147662388238 0.17576539764417942
18.244234140880028 0.2757983334997366 1144.2147662388238 0.1729825209452884
18.28660842354214 0.42882596852491045 1144.2147662388238 0.17150315658308127
18.21720760945871 0.22372373733257644 1144.2147662388238 0.1692080342666866
18.28209275892671 0.34708528430824526 1144.2147662388238 0.17597686459148465
18.303164676670587 0.3952805290070387 1144.2147662388238 0.14671593526864996
18.224572984718638 0.32702819141578265 1144.2147662388238 0.17849340551415835
18.21563655991566 0.2748331077058674 1144.2147662388238 0.1647116875436144
18.218845774888035 0.40073117457885316 1144.2147662388238 0.17407002805105218
18.220992594670008 0.3884525730213775 1144.2147662388238 0.17465943227219896
18.213596308496758 0.43135840889691635 1144.2147662388238 0.16192241978711946
18.21393401815196 0.3803707826573988 1144.2147662388238 0.17923817606394934
18.223517049023528 0.37512528834950953 1144.2147662388238 0.1694554367160847
18.21368337485738 0.40896358724749415 1144.2147662388238 0.17022017054403688
18.231976145420443 0.3963384492194603 1144.2147662388238 0.1686465945749535
18.216655132137983 0.2572664644910727 1144.2147662388238 0.18648131281753583
18.219136880651888 0.35575852988272494 1144.2147662388238 0.1705294250297012
18.22355242772429 0.4345225319711537 1144.2147662388238 0.16042854286664313
18.236122405131162 0.44106065233577846 1144.2147662388238 0.17501938598464323
18.22251532612678 0.36464561064651535 1144.2147662388238 0.1733765342864246
18.221951067570615 0.33754910334759264 1144.2147662388238 0.1866867011043769
18.213599582904127 0.32905687514059884 1144.2147662388238 0.16708361388881734
18.21934633410475 0.28869150871484545 1144.2147662388238 0.1735649835241225
18.231779938748208 0.4141725174515827 1144.2147662388238 0.16627023379324024
18.2145335984272 0.31292336345503813 1144.2147662388238 0.16964986962097917
18.22080842643313 0.3470464705538001 1144.2147662388238 0.17766226391948087
18.21798491595407 0.44832734986171374 1144.2147662388238 0.14811579921890294
18.210028681278295 0.44156600765230364 1144.2147662388238 0.1709714274924706
18.230367639522314 0.42610914583656967 1144.2147662388238 0.15592464391411515
18.210947751519395 0.39191280298276643 1144.2147662388238 0.16087439518790106
18.221853961315784 0.41971749311110434 1144.2147662388238 0.18564668171867177
18.242554325754224 0.4322148217814452 1144.2147662388238 0.16261745542290904
18.249683618072872 0.4171748647656766 1144.2147662388238 0.1490121414007166
18.218329725044388 0.24027350961540606 1144.2147662388238 0.16859772027332912
18.22490669197195 0.28048363255358544 1144.2147662388238 0.17238233416775725
18.239336617945927 0.3505281391357823 1144.2147662388238 0.17341797436749348
18.247346692733416 0.380186732975921 1144.2147662388238 0.1615096987865831
18.23316515546299 0.35972921932465257 1144.2147662388238 0.16763411333108139
18.26183402989496 0.4151614114016063 1144.2147662388238 0.16314116876272144
18.257343774793213 0.4275958135729501 1144.2147662388238 0.16120509335669347
18.250842073138784 0.3668287905640727 1144.2147662388238 0.15152334454149213
18.25227924394525 0.44223153692751604 1144.2147662388236 0.14209413187793693
18.24405714540634 0.4077382847819491 1144.2147662388238 0.16947562989382628
18.255718456584177 0.39282085032864056 1144.2147662388238 0.17783778435113548
18.236348418623557 0.3797027278726601 1144.2147662388238 0.16865139004824298
18.259691475839116 0.4052573094955224 1144.2147662388238 0.16521763703802947
18.240761707596338 0.33446797038358483 1144.2147662388238 0.17223937619016744
18.24471763612822 0.3918411742701807 1144.2147662388238 0.16684854364472074
18.25643403563205 0.3833712518510428 1144.2147662388238 0.16951688017566754
18.223803509273477 0.2645997669313219 1144.2147662388238 0.1803175570245651
18.264567119932025 0.43230794244046 1144.2147662388238 0.16316601189088017
18.230151363884076 0.295270878942685 1144.2147662388238 0.17020484182678114
18.232472690787205 0.3421529252542166 1144.2147662388238 0.1598835479974319
18.227501816246363 0.3125128647795865 1144.2147662388238 0.1540500692028816
18.238546807541447 0.32452472300944835 1144.2147662388238 0.1607890545004171
18.24106767814589 0.42111645708021356 1144.2147662388238 0.16791784914719013
18.26951419749807 0.24943890794958629 1144.2147662388238 0.17766781763334574
18.297677523946568 0.2989616457933929 1144.2147662388238 0.18719506273239286
18.330612189139224 0.3962080985928488 1144.2147662388238 0.1617881229524848
18.313107989718517 0.3200453120385923 1144.2147662388238 0.17960154056319397
18.298564186144418 0.3108361045235799 1144.2147662388238 0.17947816014107526
18.280136966143225 0.26696168968945383 1144.2147662388238 0.16395418072786758
18.343411272163692 0.37304815668063657 1144.2147662388238 0.15312022564850267
18.28329268376602 0.2785139904880548 1144.2147662388238 0.17112164485918657
18.330781364632124 0.35684049103353677 1144.2147662388238 0.1791763408544751
18.32167476292234 0.37251719496588537 1144.2147662388238 0.16740309391341088
18.30231296548386 0.3357181421709573 1144.2147662388238 0.18349319456515406
18.312512774545457 0.35791858474470567 1144.2147662388238 0.17798083512268154
18.33201891298964 0.3678943874780468 1144.2147662388238 0.16517542897865425
18.264221056713623 0.23628393645529894 1144.214766238824 0.16096407191105713
18.25765014412113 0.21779629020118235 1144.214766238824 0.1686625157184918
18.307780564701183 0.3065954553820744 1144.2147662388238 0.17891018861033853
18.32199631769149 0.3475379582684155 1144.2147662388238 0.17436282889235794
18.33118432979459 0.378487891823471 1144.2147662388238 0.14958545749100688
18.321659352108984 0.38516599660381784 1144.2147662388238 0.15278301561768054
18.311398746340885 0.34698985155909723 1144.2147662388238 0.1927087277194662
18.290119279373066 0.2933389817063216 1144.2147662388238 0.1737404294498763
18.314611676600112 0.3359644060635292 1144.2147662388238 0.18097890769342245
18.20160281052598 0.2187324862208764 1144.2147662388238 0.1653979553351804
18.176048155452325 0.24145368509202167 1144.2147662388238 0.15256080714913955
18.192585314839484 0.22966448630623992 1144.2147662388238 0.16899880162871547
18.192764357470644 0.2600073166525996 1144.2147662388238 0.1721003693508824
18.20763352324554 0.2513988304158091 1144.2147662388238 0.184814043668726
18.20413473121585 0.23196490031679795 1144.2147662388238 0.1779550420713398
18.206100282041234 0.2402426422611075 1144.2147662388238 0.18424257292891572
18.203490630684367 0.39943938782802746 1144.2147662388238 0.17970185892096605
18.197821471480093 0.2696262234412713 1144.2147662388238 0.17572677008782128
18.182940554593507 0.2187191470191946 1144.2147662388238 0.16605237123377428
18.207528412983446 0.34613219515904 1144.2147662388238 0.17645089367848202
18.203816010156878 0.36833516466733096 1144.2147662388238 0.17154341995619626
18.195494068703955 0.3282121319472676 1144.2147662388238 0.1658867797301376
18.1827970581572 0.2701072459018906 1144.2147662388238 0.1748553440855602
18.194641130018425 0.2474476745422745 1144.2147662388238 0.17453055374502066
18.183665424534105 0.2544448055608909 1144.2147662388238 0.17133468813692104
18.190425886282423 0.29849815392159 1144.2147662388238 0.16418438269799396
18.206226366682795 0.35825069110636387 1144.2147662388238 0.1864657344212149
18.18168004555538 0.23379039641069585 1144.2147662388238 0.17047480990830507
18.207332818826018 0.2651206271162504 1144.2147662388238 0.17544559969645168
18.201646230389798 0.33747184951846565 1144.2147662388238 0.16012127241179147
18.21052886513324 0.28521304017560795 1144.2147662388238 0.1727592512907614
18.20338614517543 0.3200901349690801 1144.2147662388238 0.16508257353715985
18.210325320745557 0.21589873998104053 1144.2147662388238 0.16721198933720885
18.190004703135827 0.31320439015960594 1144.214766238824 0.17800270769631146
18.201602811453604 0.3092572882544049 1144.2147662388238 0.17189064476741514
18.204335185101403 0.42091024281871153 1144.2147662388238 0.17084834125729634
18.193882821192684 0.2813806343320973 1144.2147662388238 0.16839539549344662
18.204872755237247 0.3771594563990795 1144.2147662388238 0.18628303813051464
18.19579314205368 0.35725193983372017 1144.2147662388238 0.17417805368011163
18.203709449334433 0.29307098670184184 1144.2147662388238 0.1707404180617193
18.195481715079303 0.3473598296896079 1144.2147662388238 0.16327261334241494
17.98986488553929 0.30440905732867013 1144.2147662388238 0.18249688078800927
18.03534837053108 0.2573334289403785 1144.2147662388238 0.1848559325646502
18.050562590035575 0.23993898798148205 1144.2147662388238 0.17862598207908192
18.002664054210992 0.2893742190107442 1144.2147662388238 0.158895105154857
18.03678308554034 0.2705771047119959 1144.2147662388236 0.1759005063987489
18.026872684877247 0.26317685021841986 1144.2147662388238 0.17405507286662886
18.012201727398917 0.2937825460014976 1144.2147662388238 0.19114550935743063
18.014199593611778 0.2731917029019612 1144.2147662388238 0.16710206229868219
18.000529968244905 0.29923465458470255 1144.2147662388238 0.1639736895039965
18.023021730908447 0.28879048665394114 1144.2147662388238 0.1766374872840703
18.068580917530024 0.221622250064008 1144.2147662388238 0.17612318397722654
18.042811443706995 0.24818738292339002 1144.2147662388238 0.17605381653152397
18.064328171400465 0.23278931200071673 1144.2147662388238 0.16697525025450932
18.01030133203296 0.28190721621072146 1144.2147662388238 0.17577089688979344
17.9987622141226 0.3099364030228276 1144.2147662388238 0.17953403801763024
18.02608310305838 0.27303454020876006 1144.2147662388238 0.17360023503871364
18.078462089378917 0.2626067459199372 1144.2147662388238 0.18133049090690967
18.101694502596946 0.23905225894098397 1144.2147662388238 0.16150429263098012
18.072819785737288 0.2700195150692393 1144.2147662388238 0.17652392121302043
18.00063107284129 0.3449528878047002 1144.2147662388238 0.14441517810111293
18.056196664877326 0.2890738717335424 1144.2147662388238 0.17302250490919907
18.063685875953773 0.27418435414108044 1144.2147662388238 0.1810229175992628
18.00258021842624 0.336436224488716 1144.2147662388238 0.1545595950329138
18.05138541853758 0.29913516911642946 1144.2147662388238 0.1674341048088706
18.04363549407357 0.2897182531392409 1144.2147662388238 0.17782698569404493
18.012074104609606 0.3411569644997422 1144.2147662388238 0.1542331001761015
18.022160946224183 0.3115335550201337 1144.2147662388238 0.17388459066704895
18.028874959952855 0.32443331060607744 1144.2147662388238 0.165286819818663
18.032335849248042 0.3118485096953013 1144.2147662388238 0.1774848222679364
18.019170776515182 0.3240254761613845 1144.2147662388238 0.16187531143144515
18.088632395562176 0.26023142051196924 1144.2147662388238 0.1726822111067594
18.04039823768389 0.3037285966564701 1144.2147662388238 0.17191880730277748
18.01299676928986 0.2330372645410132 1144.2147662388238 0.1826791668261225
17.974030418767914 0.24482021969001339 1144.2147662388238 0.19403862711904593
17.98401497128856 0.23698006936833543 1144.2147662388238 0.1647993406470308
18.037326787571796 0.21372471015809436 1144.2147662388238 0.17572808675843216
17.973997958216835 0.2645091559086808 1144.2147662388238 0.17366695109199762
18.0156766513076 0.22199692594766202 1144.2147662388238 0.18718243168305862
18.000478982803685 0.22843855169738633 1144.2147662388238 0.17352393076128356
17.991927215150024 0.24725919833393867 1144.2147662388238 0.1649948905691521
18.063090354380343 0.20661115505185304 1144.2147662388238 0.17057039719486933
18.038826481520257 0.2263120574868689 1144.2147662388238 0.18709705264985715
17.99441806043423 0.2371268563774623 1144.2147662388238 0.16741636815862707
17.982950850363174 0.255666346630083 1144.2147662388238 0.15886064079064044
18.02674054898875 0.22423766427080039 1144.2147662388238 0.1777010730685872
18.029955745598844 0.2357802505703911 1144.2147662388238 0.17815896773570708
18.00559861257429 0.25135742055229876 1144.2147662388238 0.18370481985287604
17.97996802918182 0.2891101374510684 1144.2147662388238 0.16939115096385268
17.99579212364484 0.28021699432691294 1144.2147662388238 0.16658776252315605
17.974743453555035 0.2779140412398783 1144.2147662388238 0.1692493588190493
18.05251238684549 0.23078603239508605 1144.2147662388238 0.18103413839027424
18.012576790172503 0.26320759317182085 1144.2147662388238 0.18622046558803818
18.00100393927652 0.2640061236867579 1144.2147662388238 0.17296924922639229
18.019417332623938 0.24729099388142134 1144.2147662388238 0.17461395929513818
18.033062529157625 0.24342937259868572 1144.2147662388238 0.17674129393306898
18.05541730206094 0.21873146557545456 1144.2147662388236 0.18304582117732177
17.990154789124578 0.29090491391599155 1144.2147662388238 0.17308020439752236
17.987629649041402 0.2739718048633521 1144.2147662388238 0.16335665832871266
18.09035783426675 0.4022283512006454 1144.214766238824 0.158020279792024
18.12334536133282 0.2550704342434267 1144.2147662388238 0.16202950568919844
18.142969133849817 0.2638430366637475 1144.2147662388238 0.15347319516185406
18.130370561254182 0.26413488107258565 1144.2147662388238 0.15219999073254495
18.148269351984624 0.2199502916429771 1144.2147662388238 0.17042337743015232
18.127984122719624 0.2789096482416288 1144.2147662388238 0.15940641060275498
18.138982028154796 0.27606237012207735 1144.2147662388238 0.1641822310976027
18.11365706714735 0.33479100577977217 1144.2147662388238 0.17543320960046885
18.100692765371914 0.3545228630497991 1144.2147662388238 0.17587555441094704
18.13791613223178 0.23180073702868587 1144.2147662388238 0.16158173823843083
18.135775524055365 0.21780582932269563 1144.2147662388238 0.1694657053002737
18.150734120822232 0.25525140518233147 1144.2147662388238 0.1603807612111825
18.13093462187322 0.30692564635708397 1144.2147662388238 0.17807201374609632
18.148890472395426 0.23702563447928215 1144.2147662388238 0.16176542146871017
18.0918438979265 0.39252903331689115 1144.2147662388238 0.17749033085358926
18.12116293250203 0.294628747897269 1144.2147662388238 0.17026530702533518
18.118223476681646 0.3074596566784126 1144.2147662388238 0.16929429090438375
18.11680010992171 0.32566504156028747 1144.2147662388236 0.17090066477671625
18.15765741185889 0.2450223322205993 1144.2147662388238 0.1608910644951812
18.140010373781095 0.24361573069353418 1144.2147662388238 0.15759961951186616
18.130422064815072 0.23952422584922972 1144.2147662388238 0.14369941884375786
18.1057026218142 0.33950916332906456 1144.2147662388238 0.1699796487222615
18.119444974616535 0.28301483553288853 1144.2147662388238 0.18286711495137756
18.131198314464342 0.2877368599667977 1144.2147662388238 0.1825453433443715
18.161964919525705 0.21979871269854168 1144.2147662388238 0.17534144647669092
18.11010125730301 0.35049433864580115 1144.2147662388238 0.18314677616896916
18.10544589600137 0.3617058084779312 1144.2147662388238 0.17398513965701115
18.11978792534387 0.26983799415743565 1144.2147662388238 0.17697129833026534
18.115588219957285 0.36068992786827436 1144.2147662388238 0.17504033933827665
18.11202596902716 0.38388192913478003 1144.2147662388238 0.18395152401321244
18.113390095202217 0.370779441045081 1144.2147662388238 0.17860935408686066
18.167652707815005 0.2267187717325706 1144.2147662388236 0.17478813787192252
18.10123843917367 0.38114119416229625 1144.2147662388238 0.17950050218578462
18.120276643848207 0.34187978245870443 1144.2147662388238 0.18598419421787393
18.11992225560451 0.387610820351772 1144.2147662388238 0.17200714791768903
18.123641405918622 0.36814664614297155 1144.2147662388238 0.1791461677978068
18.128915668471016 0.3588792266767705 1144.2147662388238 0.17863081708852865
18.09958955806341 0.39893235443388486 1144.2147662388238 0.15769453200049532
18.123462659013747 0.378052176379002 1144.2147662388238 0.17618758301161805
18.113791327901215 0.4109536899714279 1144.2147662388238 0.1426673546343316
18.164900896241736 0.23730897075843504 1144.2147662388238 0.16773208533657477
18.09005087978371 0.42848203622186 1144.2147662388238 0.14827611823768638
18.148742416865343 0.2983469499706755 1144.2147662388238 0.18694117501015123
18.109411696685765 0.3996351151277185 1144.2147662388238 0.17201044037003094
18.103592488828415 0.428224883859318 1144.2147662388238 0.1756472068525686
18.13389254821142 0.3295326344821352 1144.2147662388238 0.17642566051195985
18.098361116023135 0.41072596850423837 1144.2147662388238 0.15995329155524313
18.132381775751547 0.3386246038200565 1144.2147662388238 0.18505979077569154
18.12052749607529 0.3516291478001242 1144.2147662388238 0.18622226185908566
18.149214520803394 0.28590271640870546 1144.2147662388238 0.17431356150638216
18.142407812374067 0.306318376282443 1144.2147662388238 0.17956257566605713
18.139457625525104 0.29508150378129566 1144.2147662388238 0.1784348218583874
18.13552401529473 0.316377146696164 1144.2147662388238 0.1780274112529934
18.155475791472654 0.27518753209566477 1144.2147662388238 0.15554342804926294
18.092984428061616 0.3198277015286483 1144.2147662388238 0.16126148627712542
18.08857908118669 0.3497594985867763 1144.2147662388238 0.1725605403407172
18.077443690287552 0.36926422444554713 1144.2147662388238 0.16553878424359902
18.095428867926483 0.3411715662466556 1144.2147662388238 0.17141547601521753
18.095082323625302 0.3661817630491143 1144.2147662388238 0.17747616969271457
18.08444391590373 0.37830999400599397 1144.2147662388238 0.1615743425708824
18.068087288585925 0.4003714953560994 1144.2147662388238 0.17499559412197116
18.060783760656193 0.4084938319053129 1144.2147662388238 0.14284078192040575
18.08594367177805 0.3310974383669486 1144.2147662388238 0.16647630024288027
18.11255176572216 0.27698754157372163 1144.2147662388238 0.19118420222454524
18.080663204668948 0.3943848104875727 1144.2147662388238 0.17270934423406845
18.10415828379243 0.2850217651696758 1144.2147662388238 0.1781476110004949
18.08036847270447 0.35814993576941634 1144.2147662388238 0.17769027041278693
18.10384523887778 0.3035025087413735 1144.2147662388238 0.16083758119368088
18.074660642641362 0.38391160323310947 1144.2147662388238 0.15730476007396096
18.082358630396328 0.41809504904794753 1144.2147662388236 0.1467250614268556
18.127221760429716 0.22766692659921983 1144.2147662388238 0.15889471579403594
18.11486683213263 0.26239783327657584 1144.2147662388238 0.17310111522489688
18.10362027849896 0.32453499882974113 1144.2147662388238 0.1689640574030556
18.10793554542178 0.2953146091740307 1144.2147662388238 0.17685183155827094
18.081682378836646 0.407374583318568 1144.2147662388238 0.16414055858014384
18.076754144995576 0.2857441774556063 1144.2147662388238 0.1820666360616278
18.03644615754409 0.348557956702086 1144.2147662388238 0.15508792558216758
18.01740394359478 0.3552633313554893 1144.2147662388238 0.14596974251631586
18.073574513536578 0.3040620386488756 1144.2147662388238 0.18694138154518483
18.06306049554839 0.30600826252440505 1144.2147662388238 0.1746453897904327
18.02839654437235 0.352649225277427 1144.2147662388238 0.1551514457561828
18.03500816824705 0.3336979783933268 1144.2147662388238 0.15902779204521425
18.03440415204516 0.36346599886940567 1144.2147662388238 0.15397123926869544
18.02227270236208 0.3684397875191809 1144.2147662388238 0.15394644614091668
18.075170036186645 0.2944624255273737 1144.2147662388238 0.1891199899610293
18.056241764839836 0.3187101665184133 1144.2147662388238 0.16975508206510048
18.065980550882955 0.29085389806533213 1144.2147662388238 0.1681223365110663
18.052254231341546 0.3383763242966708 1144.2147662388238 0.1583179667157572
18.099462440150063 0.2514025091857933 1144.2147662388238 0.17488427892911446
18.05134588988028 0.30869584691221325 1144.2147662388238 0.18517649648261036
18.042545858893334 0.338104601804621 1144.2147662388238 0.16875850925966676
18.089442865279253 0.26934886733614727 1144.2147662388238 0.16264371828436577
18.066910094467772 0.314718903127305 1144.2147662388238 0.1713194878478799
18.04210043391469 0.32213872769014945 1144.2147662388238 0.1828015640069861
18.044170243367002 0.35408092696033594 1144.2147662388238 0.15023391627386098
18.059449026805535 0.3292389094170614 1144.2147662388238 0.1662441044128615
18.11811229507184 0.23152966335297465 1144.2147662388238 0.17121806546315596
18.026533318598332 0.3403905160448668 1144.2147662388238 0.15279112607912207
18.064045783125323 0.37356721176221236 1144.2147662388238 0.16353400852710234
18.08245294154276 0.32056908781929533 1144.2147662388238 0.16611569579934912
18.04772194363867 0.36395650585226225 1144.2147662388238 0.1545537785493982
18.090866306664818 0.3081660456158935 1144.2147662388238 0.1685700039624886
