x y z curv
0.30945211309838055 0.5654999911785126 0.6406084248042979 0.0012293755475179659
0.34692384597399534 0.5654999911785126 0.2420086761025015 0.0011151488123038867
0.16449677768547696 0.5654999911785126 0.6344122837547039 0.0011774926520193231
0.3509812268079676 0.5654999911785126 0.5112728359208627 0.0011640720472373357
0.1834499862008293 0.5654999911785126 0.6209588808322548 0.0010915637809171934
0.38907810254211184 0.5654999911785126 0.5026764242584889 0.03528892293729643
0.16923763782340445 0.5654999911785126 0.6480165883374656 0.0012635935313826845
0.40675578711607285 0.5654999911785126 0.6633348053565649 0.0826035648282482
0.31070279584757204 0.5654999911785126 0.5856854197032828 0.0011846297897945754
0.17370030364157837 0.5654999911785126 0.6261496407857874 0.0011935215630044956
0.22751252545541611 0.5654999911785126 0.5764969638121182 0.0010842513922392147
0.256529647928013 0.5654999911785126 0.3843562383614922 0.0010917068870296626
0.35243818914777025 0.5654999911785126 0.3007697064153432 0.0010290255923107914
0.40946142594256624 0.5654999911785126 0.304467826197896 0.07228928814102095
0.3356748019679681 0.5654999911785126 0.6739722175060181 0.05001890593481926
0.38160712728968427 0.5654999911785126 0.5560383402840814 0.009176104511029003
0.33550033802041473 0.5654999911785126 0.3341655322084939 0.001167848628359831
0.33641192461518793 0.5654999911785126 0.24290096125823663 0.0011401916953930542
0.3071154374999936 0.5654999911785126 0.4497937702631164 0.00115860678432272
0.19122081531883495 0.5654999911785127 0.5445724592852865 0.0009624424482421106
0.2844422923353324 0.5654999911785126 0.6707934181461894 0.031756557608946745
0.3150071491516756 0.5654999911785126 0.46863797333977697 0.0012052270946243668
0.37492939931491304 0.5654999911785126 0.2450829427501705 0.0011487854486669428
0.3466258310604645 0.5654999911785126 0.6680540487504285 0.014232818605489224
0.15997754440202955 0.5654999911785126 0.5486726386190144 0.0011941219685525657
0.3503021991839174 0.5654999911785126 0.28842070379097895 0.0010063098750488805
0.10381201251395568 0.5654999911785126 0.6955948868653314 0.17089444446238589
0.4034632781465163 0.5654999911785126 0.3126474074075556 0.08360029620243743
0.2525230642735673 0.5654999911785126 0.4907877569307463 0.00121148278251187
0.39920315701294734 0.5654999911785125 0.12407027164197566 0.05266844121544813
0.2359639484800512 0.5654999911785126 0.4333286174765482 0.0010559939407857727
0.39367048939588256 0.5654999911785126 0.28398538166972265 0.048619621993020265
0.32875432597741033 0.5654999911785126 0.5649407487447486 0.0011504819837537205
0.31842466330018504 0.5654999911785126 0.6761876867841106 0.05665998443936212
0.365557472167852 0.5654999911785125 0.20976468610052532 0.0011368773870871311
0.12663854314405315 0.5654999911785126 0.6177148390556927 0.0011519953200826375
0.4027709526525559 0.5654999911785126 0.17545990703167103 0.0850662253203717
0.25476917349185446 0.5654999911785126 0.35311078484416164 0.0012095349770991182
0.3131343020504388 0.5654999911785126 0.3300958064143462 0.0011198475453644318
0.18117026006909442 0.5654999911785126 0.46743177573655126 0.0011714470637352028
0.3198926399010506 0.5654999911785126 0.355332915761706 0.0012377992918702005
0.2586908510346511 0.5654999911785126 0.3345912785587699 0.0011782834772902121
0.20299950942770512 0.5654999911785126 0.6024016000773411 0.0011951755970583905
0.042474172143122865 0.5654999911785126 0.6950029341622918 0.20242659544203712
0.2514940469555708 0.5654999911785126 0.6369667121129494 0.0011635832969398739
0.2831552250409866 0.5654999911785126 0.6939052831946751 0.18211274443669223
0.31063759817336434 0.5654999911785126 0.41367562412713965 0.0011558782088305355
0.14812271741812308 0.5654999911785126 0.5920052650627334 0.001179478461473717
0.2763866672262404 0.5654999911785126 0.5394563957103897 0.0010068952886494226
0.2725086650020651 0.5654999911785126 0.4715088850212692 0.0011484614154296303
0.39284876655087864 0.5654999911785126 0.4909056168464284 0.04923239282079772
0.36814389574366546 0.5654999911785126 0.6584350836394401 0.0011392730004133663
0.3356966723487081 0.5654999911785126 0.3910637632610308 0.0011337962212353873
0.37198403571980837 0.5654999911785126 0.18452208890761546 0.0011384394375810378
0.3409574624353931 0.5654999911785126 0.5687745000992998 0.0012080372246485794
0.18562257118773395 0.5654999911785126 0.6603150146448169 0.001123624677900966
0.27702170514179447 0.5654999911785126 0.5781352495943666 0.0011089834929964057
0.2381701115952379 0.5654999911785126 0.3625000405165758 0.0011828920649261119
0.29851508505510693 0.5654999911785126 0.5346231011743581 0.0012128287535063975
0.3872781500291587 0.5654999911785126 0.6560486349961201 0.0335053226758869
0.306080278453307 0.5654999911785126 0.6820975185909002 0.0857743470049873
0.26397242837158585 0.5654999911785126 0.6040314827568084 0.0011792717392095533
0.40904693839705647 0.5654999911785126 0.636392666154958 0.09020111750715841
0.33464828708354244 0.5654999911785126 0.5755226187724086 0.001232956602987849
0.32211951391705623 0.5654999911785126 0.6233892340297454 0.0012040859193230356
0.4012129668889659 0.5654999911785125 0.2947779924578038 0.0661390227603566
0.1861659675281499 0.5654999911785126 0.5824030153949245 0.0012158530615772347
0.2810011705575949 0.5654999911785126 0.38406277527996335 0.0011624084843989348
0.3882148271430111 0.5654999911785126 0.4106327803771613 0.03054765938895862
0.3895272032787756 0.5654999911785126 0.14802612004133395 0.027403564701538145
0.3003446129195875 0.5654999911785126 0.46974585872776464 0.0011984558719194264
0.28151260684366186 0.5654999911785126 0.6305673645503229 0.0012315471201563629
0.2963609977548747 0.5654999911785126 0.41079867280540716 0.0012101086033782813
0.3216792923738801 0.5654999911785126 0.5208486327438655 0.001226713017758285
0.27151399577759694 0.5654999911785126 0.5953273507767791 0.0012979378918577204
0.18912554817983876 0.5654999911785126 0.60217006331916 0.0011935012821406997
0.27453067364656975 0.5654999911785126 0.36319690919235065 0.0011896234655858443
0.1614675598936038 0.5654999911785127 0.514456667223151 0.0011193479477573872
0.16612190354951534 0.5654999911785126 0.4824282612533831 0.0011690366654465761
0.33109486405859395 0.5654999911785126 0.6311875374800793 0.001212819314098905
0.40168720487606346 0.5654999911785126 0.4037637739561217 0.08275157364606979
0.17583707161407974 0.5654999911785126 0.5269189576096421 0.0010395967967476842
0.3773111950611293 0.5654999911785126 0.2978133522808298 0.0012399342287610425
0.27328047000311106 0.5654999911785126 0.33932273193225976 0.0012499026662957115
0.3521250681532957 0.5654999911785126 0.5310741226315171 0.001131258668149184
0.13302180703392416 0.5654999911785126 0.5362613348910433 0.0011810135291652863
0.12700521163332973 0.5654999911785126 0.5903520055453255 0.0011057157263754866
0.27586929804210775 0.5654999911785126 0.3167758934509239 0.0011326418697859626
0.37598050449491505 0.5654999911785126 0.4800149934938592 0.0012356092027356364
0.08229216489234703 0.5654999911785126 0.6567646261178655 0.0011640927913057811
0.2514027749909774 0.5654999911785126 0.6676629209385655 0.004906389227160424
0.2833241600756108 0.5654999911785126 0.4611547022272148 0.0012298418740711338
0.40261413473717594 0.5654999911785126 0.25876922236853694 0.05990261220205847
0.2956416420751753 0.5654999911785126 0.6058500308451811 0.0011754419198460756
0.409386790234054 0.5654999911785126 0.4390569288475768 0.08271998962712178
0.19562445583054391 0.5654999911785126 0.6565096052145744 0.0009187474084118469
0.26883878082517476 0.5654999911785126 0.6994533831729698 0.17114473630698343
0.24070179578099798 0.5654999911785126 0.623862843066043 0.0013250788930118267
0.4110408911368373 0.5654999911785126 0.5637449857549445 0.06950862814056424
0.20682491993624186 0.5654999911785126 0.5547180003197817 0.00112339278133302
0.2652788685399227 0.5654999911785126 0.40542081539195607 0.0009873985673134328
0.39035445554433984 0.5654999911785126 0.6760910825105637 0.08107886002452479
0.1772055888675393 0.5654999911785126 0.6079551946066605 0.0011867698915327986
0.17203404292809257 0.5654999911785126 0.5483585089050881 0.0011386541524106796
0.24297948915423426 0.5654999911785126 0.5633657003369161 0.0012073479892719657
0.3081950598380202 0.5654999911785126 0.60586085853909 0.001229128008972624
0.22225700218294023 0.5654999911785126 0.6869551703878244 0.14412756929716836
0.328352701000734 0.5654999911785126 0.4373132504662087 0.0011210587833777688
0.2666611744655761 0.5654999911785126 0.3560563047686854 0.0011592094568662122
0.3524055651815714 0.5654999911785126 0.27205568495796084 0.0011949592966092075
0.2398086401062952 0.5654999911785126 0.4563379194606863 0.001071901122492718
0.2108983820225739 0.5654999911785126 0.480281799435386 0.001105911736258637
0.17827357324696802 0.5654999911785126 0.5974926957538967 0.0012013843566408113
0.08119270765391215 0.5654999911785126 0.6703798491280435 0.03212517901712336
0.14347332596189763 0.5654999911785126 0.5661457928379432 0.0011790769838740357
0.258637896808658 0.5654999911785126 0.5777449703407878 0.001276114953925249
0.2964424103110637 0.5654999911785126 0.6315923024811054 0.0011632056265699416
0.3818494223837319 0.5654999911785126 0.39582952751200545 0.001791928127645234
0.06210417015391249 0.5654999911785127 0.6402133463891472 0.0011724186205543565
0.35229742560194555 0.5654999911785126 0.5684810600623385 0.0010703384338684606
0.3737596823491822 0.5654999911785126 0.3405500130261109 0.0011885828487544954
0.20768340681455175 0.5654999911785126 0.6259898729480327 0.001105651978870049
0.3612182000585332 0.5654999911785126 0.39611525315362756 0.0012519152307828984
0.08814177691332896 0.5654999911785126 0.6996771018315964 0.16524730472780652
0.2084195192512801 0.5654999911785126 0.582316941382679 0.0011945700085070703
0.07353028623707956 0.5654999911785126 0.6813245268946007 0.08429574410537775
0.2676745005958344 0.5654999911785126 0.5729622220458709 0.0012228414303439062
0.3130526886425149 0.5654999911785126 0.575394226270282 0.0011928103641120661
0.23376717620551313 0.5654999911785126 0.5671382547923867 0.0011527932269900316
0.12737955742253004 0.5654999911785126 0.6505475250483446 0.0010459716202497827
0.4148426945006661 0.5654999911785127 0.6691975160810713 0.1010652896205371
0.32615146663492267 0.5654999911785126 0.36566667856027696 0.00122167946570872
0.23083215954738823 0.5654999911785126 0.6963589873026858 0.16303032637374726
0.09360358165868587 0.5654999911785125 0.6614535652645686 0.0010888347560335289
0.20115854762611202 0.5654999911785127 0.4392380594987341 0.001159413747933024
0.15072594175639692 0.5654999911785126 0.5073335909914307 0.0011703000146728096
0.1911192023452571 0.5654999911785126 0.5050874651866375 0.0010159554670913207
0.08184200495354699 0.5654999911785126 0.670661216499372 0.03569093679852129
0.13470210525196835 0.5654999911785126 0.5730232589987538 0.0011241022109495641
0.31948942675479086 0.5654999911785126 0.2400927855232648 0.0010100307211341987
0.346050397403273 0.5654999911785126 0.585628554239795 0.0010813233108253064
0.38641958206755284 0.5654999911785126 0.6660290857915675 0.022525555165926095
0.27978878736963275 0.5654999911785126 0.4063282923910384 0.0012021858512470248
0.40141912206378205 0.5654999911785126 0.3420115767615152 0.07237326850203907
0.4103907174000577 0.5654999911785126 0.5889913940821453 0.0806302618920553
0.25589544241593754 0.5654999911785126 0.613896978564971 0.0012369849899519735
0.16653259676559348 0.5654999911785126 0.5727104250011876 0.0012378712689038475
0.3196989673272144 0.5654999911785126 0.2864861504141892 0.0009759032104004692
0.3836074009417774 0.5654999911785126 0.5297063514836879 0.015038584969098311
0.36947629139441435 0.5654999911785126 0.26797619011277984 0.0012167394041791761
0.3719646303968067 0.5654999911785126 0.6935335019598536 0.17385050891295703
0.19228992875400647 0.5654999911785126 0.6441509535281074 0.0010523842064170711
0.3392013059270359 0.5654999911785126 0.643422234932823 0.0012856080182897553
0.38907132141226514 0.5654999911785126 0.5837340488956435 0.03623149620343447
0.21269229674834322 0.5654999911785126 0.6102580511278718 0.00101075133684874
0.3301721883296087 0.5654999911785126 0.4839414441590928 0.0012461601106686835
0.32777510161412876 0.5654999911785126 0.2718678206798012 0.0008420378598879961
0.3546741435793933 0.5654999911785126 0.3395365872290178 0.001193431146799236
0.1602671000582261 0.5654999911785126 0.5374076616513012 0.001241385900532149
0.3696959852946744 0.5654999911785126 0.6394474139991235 0.0012255417021533753
0.16594619508358965 0.5654999911785126 0.6699858755539351 0.02261536308775168
0.3001550728030571 0.5654999911785126 0.2811648239527707 0.0010516667163509902
0.39513581122438834 0.5654999911785126 0.35274448376365586 0.0409170590281324
0.3437245439366989 0.5654999911785126 0.45356771875893725 0.0012674809302874689
0.301496374765704 0.5654999911785126 0.30111812265152665 0.001039789126766661
0.2418925412725611 0.5654999911785126 0.4656219277314216 0.0011837261623046887
0.4106680161712725 0.5654999911785126 0.6255662170177198 0.0808801842266162
0.21109224726224507 0.5654999911785126 0.4158307784939495 0.0010396715244192244
0.2217257751296897 0.5654999911785126 0.5293470447121635 0.001077083452520289
0.14024664384819197 0.5654999911785126 0.5461044608952302 0.0012486925310471403
0.12423553745658354 0.5654999911785125 0.6747050837820755 0.03673380206705798
0.3965194831279289 0.5654999911785126 0.5179091765586412 0.05245078076460126
0.298546385389902 0.5654999911785126 0.26703465722000036 0.0010382302720650472
0.3041561320727689 0.5654999911785126 0.6937085615865767 0.15540041886904019
0.32276171831200307 0.5654999911785126 0.3886155714474281 0.00117173818930255
0.3413728104776037 0.5654999911785126 0.6531481315240768 0.0012094412668742084
0.35549344762477714 0.5654999911785126 0.31457242593272433 0.0011913628022317253
0.2759376743144627 0.5654999911785126 0.5283028679872361 0.0011540289734344297
0.34959318236765347 0.5654999911785126 0.2549153539954094 0.0012838484306920608
0.31193978563815467 0.5654999911785126 0.25197869752992086 0.0011250218458203362
0.3228968639649128 0.5654999911785126 0.5088361888057339 0.001172214928675269
0.282325573819734 0.5654999911785126 0.3077395554744214 0.0011826567007692278
0.396485032682843 0.5654999911785127 0.3251830697846136 0.06302216519995148
0.2509662187900678 0.5654999911785126 0.5479150389279805 0.0011420717851902634
0.36358917940229996 0.5654999911785126 0.4547316120566604 0.0011190887430543657
0.05506953132979351 0.5654999911785125 0.6515267601106578 0.012062939674297217
0.25025359099963196 0.5654999911785126 0.4499449277700573 0.0010374780341813428
0.23830174809327917 0.5654999911785126 0.5965662457336003 0.0012820472050041132
0.390082403739194 0.5654999911785126 0.6308038630200905 0.031199949194245
0.30488847581161005 0.5654999911785126 0.3135975532888994 0.000979308235537514
0.13978852181191592 0.5654999911785126 0.6298996473990478 0.0011134768876405227
0.3447407717531401 0.5654999911785126 0.49452989259753344 0.001245587992335611
0.3876973331831539 0.5654999911785126 0.15663906494804866 0.02647816612553043
0.1708208323385244 0.5654999911785126 0.6172036590460293 0.001145603033530568
0.35514236444470637 0.5654999911785126 0.3834382886484208 0.0011960533713151983
0.1144722717989852 0.5654999911785126 0.6182585225029033 0.0012236113316714536
0.05309650859975479 0.5654999911785126 0.6962288891689896 0.16720426091929494
0.2971132286379831 0.5654999911785126 0.4835792064123935 0.0010805845252372043
0.290106222793748 0.5654999911785126 0.2975332447514194 0.0009968695424996093
0.2507764675321161 0.5654999911785126 0.398736273919183 0.0010856591584776536
0.3372793768681336 0.5654999911785126 0.5134924820436068 0.0012294712598179206
0.23810509900709093 0.5654999911785126 0.5431001449349586 0.0011410432684663158
0.30894226000306846 0.5654999911785126 0.4236001042669407 0.0011845641030114485
0.2853088049606617 0.5654999911785126 0.415904736343809 0.0012560083327574861
0.2520157558119761 0.5654999911785126 0.5365336162517921 0.001091640085882067
0.22227575103057337 0.5654999911785126 0.6306215951543193 0.0010923722875776692
0.2000232066044431 0.5654999911785126 0.675096545987011 0.04541582440988618
0.1522810617723912 0.5654999911785126 0.6012122771922311 0.0012046268293710322
0.37950152403586185 0.5654999911785125 0.14511683067110717 0.001095525559033451
0.41116915589679215 0.5654999911785126 0.49811653437149994 0.09634290036088212
0.3628213505038996 0.5654999911785126 0.6214386337838843 0.001171389051191402
0.3883698384164931 0.5654999911785126 0.20764246948471515 0.023818450826906708
0.311651202763747 0.5654999911785126 0.27823180461962643 0.000906366215297544
0.3574304489026148 0.5654999911785126 0.4880926149655229 0.0012349461290688023
0.1571861646503578 0.5654999911785126 0.6490670183308139 0.001162426269846433
0.3384178954402944 0.5654999911785126 0.2552784673846632 0.0011870164357011207
0.3320801944045657 0.5654999911785126 0.5862142984743413 0.0013173149999054458
0.1431884289233788 0.5654999911785126 0.6814039303606289 0.080266982672498
0.2901761258125123 0.5654999911785126 0.3747401674507022 0.0011254536361645913
0.326360246478953 0.5654999911785126 0.34427625171631987 0.001242548279084762
0.3364097187885181 0.5654999911785126 0.30219404931279975 0.0010773898287628019
0.3710405968758878 0.5654999911785126 0.550164608237533 0.0011473277938618737
0.3605837140619436 0.5654999911785126 0.47526742434806485 0.0011475218269042945
0.3188376051294327 0.5654999911785126 0.5297189539013083 0.0012183204133627656
0.21666675703396576 0.5654999911785127 0.42857503163745436 0.0011303185473840495
0.26573832405741415 0.5654999911785126 0.5605529200213382 0.0011645113858480339
0.35015033901437415 0.5654999911785126 0.6821510440559293 0.12785461236591303
0.17586634592109793 0.5654999911785126 0.47968723994066687 0.0010173011929391865
0.14806674330946734 0.5654999911785126 0.6581718032200342 0.0009885779371349612
0.38261981202288536 0.5654999911785126 0.28017531834974635 0.006242007104991761
0.36364645442297044 0.5654999911785126 0.6479143906991724 0.0011297057822655628
0.337182522774946 0.5654999911785126 0.4738334816947265 0.0010880476033343826
0.3971351102258959 0.5654999911785126 0.4616085796234353 0.07014337512090126
0.3095367840697001 0.5654999911785126 0.6309694566898251 0.0011533290388665762
0.2528191894468026 0.5654999911785126 0.3629164327940121 0.0011762887151445696
0.31798339507829315 0.5654999911785126 0.6078677384709648 0.0012493494016925706
0.4072087899988798 0.5654999911785126 0.21354620568910038 0.08366611033751153
0.1881958848703425 0.5654999911785126 0.5691848872391445 0.0011950370838401752
0.22567919878575476 0.5654999911785126 0.602740801767599 0.001183447165765566
0.29047187682943587 0.5654999911785126 0.5749186625287684 0.001094135534742229
0.07390120225918748 0.5654999911785126 0.6841467863551961 0.12942549577828505
0.32745570215239234 0.5654999911785126 0.651092975635384 0.0012319110468362628
0.16377891248853083 0.5654999911785126 0.5947331964993592 0.001113886702620772
0.10690823437118352 0.5654999911785126 0.5737426739273085 0.001153677932790588
0.2569012208782847 0.5654999911785126 0.43285815642643377 0.0011646556223395188
0.36025666494557046 0.5654999911785126 0.5525682076740595 0.001189551510041832
0.17398621955791133 0.5654999911785126 0.6373499821821268 0.0012557304619900066
0.3942774999905937 0.5654999911785126 0.25329760458576556 0.047594184649199775
0.29659047684054446 0.5654999911785126 0.32925299088308757 0.001139063149251691
0.3109482064094875 0.5654999911785126 0.2945373827582879 0.0009515353614490451
0.32835525734373144 0.5654999911785126 0.2616633765781846 0.0010129420243941872
0.15196927756688827 0.5654999911785126 0.6279816776809447 0.0010657833778593808
0.3294446062637244 0.5654999911785126 0.25045377272891245 0.0011502808149383365
0.36536907961745635 0.5654999911785126 0.3483429138331528 0.0012248086520818123
0.08700480237491227 0.5654999911785126 0.6433234092819016 0.0012424882345148324
0.2896248684096353 0.5654999911785126 0.47019491750778303 0.001259461262652416
0.39870059019794263 0.5654999911785127 0.15499788533032113 0.0676860549825968
0.3788864862575029 0.5654999911785126 0.5035343524971979 0.0011323315268546655
0.2745423147091981 0.5654999911785126 0.5482100087502453 0.001143962780391897
0.25681826881278375 0.5654999911785126 0.4616468963907948 0.0010430596588581432
0.3578392741692306 0.5654999911785126 0.18012321233539946 0.0012164822485179166
0.10256648746312909 0.5654999911785126 0.6167056586404558 0.0011363848386335234
0.3097525908055776 0.5654999911785126 0.533412236562796 0.001221135376385264
0.29002662463513945 0.5654999911785126 0.5392768992813979 0.0011273557918185103
0.22849896843952297 0.5654999911785126 0.46723438505625464 0.0011456896016989032
0.27684410187761627 0.5654999911785126 0.4234493262021962 0.0011802405485399614
0.2567327785622737 0.5654999911785126 0.5007665522861949 0.0010971241512140275
0.3688387227974176 0.5654999911785126 0.3178159710424098 0.0011765845695465437
0.06855984173783834 0.5654999911785127 0.6968279584593657 0.19317570358602618
0.07180060970859448 0.5654999911785126 0.6625259120818935 0.001238281950069815
0.2261817902429217 0.5654999911785126 0.4820690730601713 0.0009937532698587111
0.23353590460400597 0.5654999911785126 0.615364047748181 0.001149570181252355
0.30464875668885943 0.5654999911785126 0.6496829108420703 0.0012874216504899073
0.35674224642689273 0.5654999911785126 0.5004874568463896 0.0012508769328324347
0.3086941872575533 0.5654999911785126 0.6602416513188365 0.0012627019797597887
0.3491945340549265 0.5654999911785126 0.43734447521359343 0.0012052617870421405
0.376464290515399 0.5654999911785126 0.38490511377468284 0.0011723650662284408
0.3626549708557766 0.5654999911785126 0.23091505713393493 0.0011131371144987765
0.3689579905768775 0.5654999911785126 0.5394203330209366 0.0011019960158359407
0.24633390136748617 0.5654999911785126 0.6562604178104673 0.0011302352843860078
0.2368314117500553 0.5654999911785126 0.5068538919188721 0.001008248914010911
0.27851851264647276 0.5654999911785126 0.3494233656002916 0.0011818781834526996
0.35943941744683905 0.5654999911785126 0.2791544443826305 0.0011276380242552422
0.15575352558582575 0.5654999911785126 0.6994918886081578 0.17012593787974759
0.19720087529638228 0.5654999911785126 0.45866440393039976 0.001060615549628453
0.3811119042466693 0.5654999911785126 0.4560387142194935 0.0034054567247693243
0.3067696949920474 0.5654999911785126 0.5089773059703933 0.001226503747689137
0.29564621617726805 0.5654999911785126 0.44920923595676726 0.0011219248748136866
0.3579338818655389 0.5654999911785126 0.32723105611112 0.0012323258268976695
0.19505135361609982 0.5654999911785126 0.6855361067074649 0.12001992431003551
0.13599319770384072 0.5654999911785126 0.5993612721657418 0.0011615774542571042
0.33110521239073776 0.5654999911785126 0.37643160917417057 0.001222607531717852
0.1465343443727552 0.5654999911785126 0.6195798767668028 0.0011187069499632987
0.3965673715562217 0.5654999911785126 0.22862684508990705 0.05558897244843203
0.10460372976602383 0.5654999911785126 0.6275610526524132 0.0012526930804685331
0.12351675662498846 0.5654999911785126 0.6355750691687365 0.001185129028666355
0.1779972911903028 0.5654999911785126 0.5658953630378305 0.0011882548674675617
0.3096227814713156 0.5654999911785126 0.2617315284067549 0.0010439421846067441
0.23930451010643466 0.5654999911785126 0.5817114090504174 0.0010773810443449152
0.08341381129347403 0.5654999911785126 0.6571029688951089 0.0011630593706260695
0.3245619787401003 0.5654999911785126 0.5402572646519072 0.0011246501120033912
0.271695596071671 0.5654999911785126 0.6561773293702169 0.0012247771434737494
0.3655178749957614 0.5654999911785126 0.4308975497054743 0.0012960477646987915
0.264690450975039 0.5654999911785126 0.34695887615163445 0.0011877631613922818
0.3253399301532519 0.5654999911785126 0.23150897717759353 0.001122161304424181
0.18116977929203323 0.5654999911785126 0.5420236290021768 0.0010896981180225946
0.36539362130230624 0.5654999911785126 0.161597772454371 0.0011390055927383478
0.11371563443859473 0.5654999911785126 0.6993898117951284 0.15109316112212579
0.23981905648724713 0.5654999911785126 0.49262833190667404 0.0011149996317391605
0.3830003526661744 0.5654999911785126 0.33359003885222316 0.0074654502123706395
0.3873798839303201 0.5654999911785126 0.4297961235490859 0.03753486410311341
0.36496003349804523 0.5654999911785126 0.6060279760048997 0.0011998273202136938
0.26164949429974027 0.5654999911785126 0.48513189939452483 0.0011060147685282066
0.2453902696412189 0.5654999911785126 0.6116009197388553 0.001283074513333361
0.28399052564801525 0.5654999911785126 0.554286229645286 0.0012083012171874134
0.18166676274024418 0.5654999911785126 0.6433726254755845 0.001194125056309303
0.23097088713808867 0.5654999911785126 0.5237548204572011 0.0009319824761689283
0.20388465790076482 0.5654999911785126 0.5336273405117146 0.0009187544094458422
0.3650834893232654 0.5654999911785126 0.5863179157534086 0.001145141436355793
0.30214318974888543 0.5654999911785126 0.3702266312219773 0.0011640893892153124
0.3888100497370307 0.5654999911785126 0.5210812896286703 0.02891809987285544
0.13599599153923167 0.5654999911785127 0.5544085648994628 0.0011589839259728088
0.35553062589405193 0.5654999911785126 0.6925088115333241 0.1663683929742354
0.16215684095136185 0.5654999911785127 0.658871314991585 0.0012009607576838708
0.23017010988586026 0.5654999911785126 0.3833137743625571 0.0011356718427539135
0.0968264192151008 0.5654999911785126 0.6476695651732793 0.001261675221505846
0.19609987553088165 0.5654999911785126 0.5780326906253508 0.001156522648889043
0.061839866192622814 0.5654999911785125 0.691219597178122 0.15851354265799392
0.3257239118449511 0.5654999911785127 0.3116768134279476 0.0009377582929323261
0.37434589161392057 0.5654999911785126 0.45030130950935165 0.001216032056617874
0.1119395607595837 0.5654999911785126 0.5943801521689447 0.0011496248411559163
0.34116712508117764 0.5654999911785126 0.31746680573557295 0.001131324212357232
0.29326583037185117 0.5654999911785126 0.5030003752417718 0.0012941018339910036
0.2850043741488453 0.5654999911785126 0.479197932469206 0.0011406100830809764
0.20587006959970042 0.5654999911785126 0.44894335142633907 0.0011703997199252118
0.3987580921294467 0.5654999911785126 0.5322979742520765 0.06839696766746862
0.04581657005425746 0.5654999911785126 0.6744252061649777 0.07893529493676886
0.31739667622632844 0.5654999911785126 0.39849107490378777 0.0011921843764105134
0.21091686530175394 0.5654999911785126 0.6725917755369444 0.033355704046213734
0.39253244477632687 0.5654999911785126 0.3351803236571711 0.03200526694892078
0.1681998547986022 0.5654999911785126 0.6823031092341859 0.10035844533468036
0.042256447677016425 0.5654999911785126 0.6823431775873793 0.13713361152258496
0.4081920991887137 0.5654999911785126 0.2263668706854086 0.08437637302118169
0.2605792868120712 0.5654999911785126 0.5933824177958027 0.0011157428584315369
0.2938641805419451 0.5654999911785126 0.6931471820961081 0.18378719885485595
0.387480977265633 0.5654999911785126 0.2287210958266916 0.02208135015874879
0.3781317948938617 0.5654999911785126 0.6268858437539682 0.001175824068711063
0.37078680155705024 0.5654999911785126 0.6726226936160531 0.043113910833882926
0.23334645509708365 0.5654999911785126 0.6858627065506959 0.13444706749445873
0.33212819915778624 0.5654999911785126 0.5326967405079348 0.0011476675347352314
0.18023649779189216 0.5654999911785126 0.5548140019832075 0.0011076490004723505
0.2880423411355489 0.5654999911785126 0.38917360455425365 0.0011094277338447533
0.26891743300861837 0.5654999911785126 0.46008618148084923 0.0011468973928842473
0.3473198007660463 0.5654999911785126 0.409912530417166 0.0011866420961107892
0.4137768015011042 0.5654999911785126 0.5481725094953475 0.08549421777583607
0.30757270062732056 0.5654999911785126 0.4764616211048541 0.0012256477656705665
0.3196997906650145 0.5654999911785126 0.5639490383447527 0.0012269459472432844
0.3877625508148945 0.5654999911785126 0.5465637700533666 0.028219983856741356
0.3367276361968782 0.5654999911785126 0.4181455470494031 0.0012031404307818955
0.21498619404229222 0.5654999911785126 0.42900488757993166 0.001117308594557664
0.37063579456733653 0.5654999911785126 0.2540010175073999 0.0011170275150665595
0.36485652849364925 0.5654999911785126 0.46662526572990815 0.0010779458999140162
0.32019727103339796 0.5654999911785126 0.5825455912144635 0.0012723313648161467
0.40775181426007767 0.5654999911785126 0.09515416282428955 0.10366919901467582
0.20351083296731592 0.5654999911785126 0.4289562271043796 0.0011916431970149168
0.3983622724863923 0.5654999911785126 0.6688495975094065 0.06258348235901832
0.08207657741024924 0.5654999911785126 0.6252629398758832 0.0011532505057759823
0.3241373959612258 0.5654999911785126 0.571849736161083 0.0011966490491974334
0.308778377362269 0.5654999911785126 0.37824765043992703 0.0011824027507655929
0.359337762130275 0.5654999911785126 0.5959764344324612 0.0012156766848731581
0.4088058217322622 0.5654999911785126 0.4122998832817699 0.08723496629350216
0.2722314611515397 0.5654999911785126 0.41479980494937285 0.0011250422446758676
0.34170181945675004 0.5654999911785126 0.27997180488595597 0.0010188864072775512
0.39988108072425743 0.5654999911785126 0.42280777550723875 0.05755159942626773
0.36480136631919624 0.5654999911785125 0.24211441695348515 0.001259025007116101
0.2921275868821306 0.5654999911785126 0.3406745304684301 0.0012458650076716351
0.09384946161921746 0.5654999911785126 0.5984263612828076 0.001103858773646114
0.3490916425290405 0.5654999911785126 0.3619045455431682 0.0011310308240345525
0.3704395196208714 0.5654999911785126 0.5168247418273855 0.0011976753589037017
0.22122700207412302 0.5654999911785125 0.39368581433239963 0.0011412279237232982
0.28435807874822316 0.5654999911785126 0.4499337415635807 0.0012132968726404534
0.4072808006431738 0.5654999911785126 0.612300796095362 0.07469144893197796
0.07931015010309864 0.5654999911785126 0.6145013120627854 0.001170542124166864
0.2964538831639258 0.5654999911785126 0.5496862022922372 0.0010406015784586596
0.34269703335348084 0.5654999911785126 0.37498406694703607 0.0011437975210443804
0.4064361512486362 0.5654999911785126 0.19940332197748564 0.06870608340437283
0.39616588398603864 0.5654999911785126 0.21536244636651525 0.0673041751812326
0.3960653671698958 0.5654999911785126 0.6043309354573274 0.06172430662410071
0.3128510607393547 0.5654999911785126 0.3043131892321066 0.0010518023272882186
0.3101781785395318 0.5654999911785126 0.3557772575971553 0.001220186413915567
0.34613948825504764 0.5654999911785126 0.26379184566429464 0.0010543665199937535
0.3665085623927691 0.5654999911785126 0.4408791429693538 0.0011609465917728373
0.22131201146771134 0.5654999911785126 0.4155738834461361 0.0010680416341344197
0.3684409243570324 0.5654999911785126 0.17340185665366192 0.0012361588834994258
0.26662309399276085 0.5654999911785126 0.49767515250657257 0.0011763997611232999
0.2508429880192761 0.5654999911785126 0.645633040242171 0.0010878443368351263
0.06579559924931741 0.5654999911785126 0.6713811125373996 0.036046530608508175
0.31974528405291636 0.5654999911785126 0.6988238985789088 0.15514354263768643
0.25360473669294314 0.5654999911785126 0.6875704554193198 0.14721532088942824
0.17330760757064298 0.5654999911785126 0.6601198267163682 0.0012134822433082569
0.21993285465927487 0.5654999911785126 0.5867215627897837 0.0012016760403551268
0.29607301689717297 0.5654999911785126 0.5855992636810454 0.0010110632472544129
0.253675826536475 0.5654999911785126 0.5239480223167823 0.0011989374102741636
0.3871383384042028 0.5654999911785126 0.24007687808799955 0.03142488440274551
0.29973803738727006 0.5654999911785125 0.2911851339652908 0.0011543142053984502
0.12665693113491822 0.5654999911785126 0.5802033817237381 0.0011327490272676636
0.24868635006749323 0.5654999911785126 0.47975150674884126 0.0012150553784394812
0.276304349942595 0.5654999911785126 0.6168577512256215 0.0011663833690571121
0.252624450818565 0.5654999911785126 0.5586743824024573 0.0011385791047407333
0.24813107163498316 0.5654999911785126 0.5106498899497129 0.0012094095715854912
0.34020580533775713 0.5654999911785125 0.20257633395827748 0.0011822745990005595
0.2879734001489944 0.5654999911785126 0.5275551379328036 0.0012042371527033891
0.18688572314532953 0.5654999911785126 0.6120991454412905 0.001171919775206374
0.37409501266580725 0.5654999911785126 0.37368679942130045 0.0011281598822813024
0.2990894326128979 0.5654999911785126 0.6587982263993444 0.0012581311154392374
0.33975575959128884 0.5654999911785126 0.44126783235353484 0.001107991039273579
0.306203397548632 0.5654999911785126 0.49695690313326346 0.0011363980561631035
0.3389574378471853 0.5654999911785126 0.6043518114172172 0.0010393467923607825
0.3686839717811837 0.5654999911785126 0.6857344693083207 0.14620386662631046
0.10278262118953135 0.5654999911785126 0.6063568095613174 0.0011226179274798783
0.12389586408278712 0.5654999911785126 0.7017994061819861 0.1592343479687208
0.1625713826859123 0.5654999911785126 0.6915682856439218 0.15467257026327488
0.3792052324117987 0.5654999911785126 0.6811719507774786 0.1027205608863483
0.32054805687379834 0.5654999911785126 0.4281428832908204 0.00116352034484803
0.14640908013764756 0.5654999911785127 0.5183760540525681 0.0011786361687019633
0.3529964441638178 0.5654999911785126 0.3509106648490643 0.0012513319306214099
0.1867828192944703 0.5654999911785126 0.48742675648638384 0.0008222187780432105
0.28760429345217847 0.5654999911785126 0.6105635094843662 0.0011822747027846296
0.27475142151129744 0.5654999911785126 0.5598312014671611 0.0011948347604679424
0.22237565259944875 0.5654999911785126 0.6710766516100698 0.02371676631288983
0.2896384548394868 0.5654999911785126 0.6514711227173013 0.0012718639029620528
0.2740879894152622 0.5654999911785126 0.6723840730391949 0.049214595770839926
0.26245099649711556 0.5654999911785126 0.39421976192574587 0.0010502029379718717
0.37497744879616934 0.5654999911785126 0.2869126660407051 0.001228884277074497
0.35426601012826975 0.5654999911785126 0.21428796825296553 0.0012231128666943647
0.24302442389068568 0.5654999911785126 0.6944600069386142 0.1775852601211441
0.4110745624760701 0.5654999911785126 0.15963104250620974 0.08873743713453301
0.39113611456121844 0.5654999911785126 0.3097996757159194 0.027217146772340665
0.34216081895641487 0.5654999911785126 0.6319157918115333 0.0012347280960049744
0.4084471825053375 0.5654999911785126 0.46620430886939546 0.08572700839960448
0.28567093825511664 0.5654999911785126 0.42852954687083156 0.0011497262299066686
0.4154693127241928 0.5654999911785126 0.11799983046994739 0.0863879001855414
0.36220083028239963 0.5654999911785126 0.6800456291455923 0.0963400221463988
0.3686068455789193 0.5654999911785126 0.5057167801934273 0.0012383280599077755
0.354244562727947 0.5654999911785126 0.4033502255892991 0.0011842554546283139
0.3863607889229287 0.5654999911785126 0.6167193910898622 0.027175148085658657
0.3077741868611262 0.5654999911785126 0.5654591870795884 0.0012345451613585778
0.2789923906770695 0.5654999911785126 0.6627464365091333 0.0012465379845580955
0.34525561705374835 0.5654999911785126 0.6217511858032334 0.0012236963331336012
0.39724966995908384 0.5654999911785126 0.3878741999548164 0.056904557113192415
0.38825626516514355 0.5654999911785126 0.17543230916107125 0.024516058401157698
0.40224978204609974 0.5654999911785126 0.27962423136527076 0.07606438939748218
0.3929485379232366 0.5654999911785126 0.4003138067176649 0.039853975911197784
0.2599182163376697 0.04992129550642432 0.07199999690055858 0.045964956707854866
0.1686696917415756 0.04761885397558306 0.07199999690055858 0.07270305493520371
0.11225904669833998 0.04395951777700731 0.07199999690055858 0.10273813064664598
0.14764229974058896 0.05004941946927512 0.07199999690055858 0.04400540776580187
0.1782618537947983 0.05097916035029073 0.0719999969005586 0.044181490465957554
0.12227879123815437 0.048202163131405545 0.07199999690055858 0.05977914531803423
0.3552196240496276 0.03594206572173708 0.07199999690055858 0.22322872172857286
0.34201856870188385 0.03612784344273839 0.07199999690055858 0.2262178782715228
0.2741435868298265 0.03845153281863706 0.07199999690055858 0.1684313460832401
0.3003157968230179 0.039234773635059686 0.07199999690055858 0.1511727367589624
0.31911879197542725 0.0437324366217367 0.07199999690055858 0.09179307821885942
0.18627680158316323 0.04426054057379225 0.07199999690055858 0.12683537743718631
0.2919321118235694 0.04790979797130871 0.07199999690055858 0.07168146963818543
0.34602127828166973 0.047003233887089435 0.07199999690055858 0.13280752358353753
0.20772968625386679 0.04597075990513439 0.07199999690055858 0.09593384124391699
0.3577575942675911 0.045631702138608204 0.07199999690055858 0.15207100639083043
0.36087192275283386 0.026858868959936263 0.07199999690055858 0.20818847228065218
0.3334770528142864 0.032352414673093764 0.07199999690055858 0.22116529255943929
0.3483463258522158 0.026264031260105326 0.07199999690055858 0.19797480016671443
0.2312351111583125 0.026815303476275393 0.07199999690055858 0.21578153922545457
0.388251412816179 0.020199807112222933 0.0719999969005586 0.13244237593033764
0.27107804169785 0.025004254414257906 0.07199999690055858 0.21521406472479526
0.2565065698548035 0.028486564683166057 0.07199999690055857 0.2683275938266786
0.23909257644812773 0.020044415779992344 0.07199999690055858 0.14141478022155857
0.19930996702179535 0.02538139816783088 0.07199999690055858 0.23538910681245714
0.13920339897930398 0.02316809796290223 0.07199999690055858 0.16785478141830115
0.3704095709089111 0.026796235315360305 0.07199999690055858 0.20583221744791227
0.4011654952404181 0.02686514644666973 0.07199999690055858 0.22309958811320088
0.3895710306269986 0.02947892496636567 0.07199999690055858 0.20658747407122485
0.38458515505234536 0.03354652757358547 0.05543840280141638 0.23116283320149464
0.3842884328596974 0.033478802931007405 0.04499446207149764 0.19096556314274696
0.3803955344203309 0.03259027769787294 0.034726856762437655 0.17025654307623844
0.3886644660186862 0.034477600085198665 0.024594335415674174 0.18632806346432756
0.384911199264688 0.03362094474996344 0.013174675862083669 0.174038301772554
0.3930223630428357 0.036710491723820585 0.0611455198670518 0.25336036745519414
0.3929555136007121 0.03665718108016549 0.047879076641339335 0.2231609775187727
0.39431853124987637 0.03774415123102947 0.034795355109737254 0.19291953397592315
0.39559301884189646 0.038760521027137285 0.01384378912494599 0.1885608989135862
0.4018204464999214 0.04663612469295304 0.06281710252885075 0.2548194851176549
0.40010093754961573 0.04306552769702157 0.05427941873362607 0.2534087581329064
0.3996926481869933 0.042217706130642865 0.005360140554329671 0.15667253714441665
0.39957473585704095 0.04197285866355863 0.04284345761441088 0.2211056035032874
0.4026261866544696 0.048309261302576206 0.011383082391569127 0.17781906564999342
0.40427044544887236 0.05172359974541163 0.045501141905491094 0.17395531343853984
0.40252276050858127 0.048094494705552104 0.03260097062273685 0.1980575207664046
0.4043731987476349 0.05778781730227439 0.06647545820247466 0.2742887356358034
0.40437319874763483 0.05249592510888217 0.05685740914004452 0.2371550403617689
0.4043731987476349 0.05272429758917008 0.021499063119151673 0.19124767028477513
0.4043731987476349 0.057495414136193475 0.00523413922332138 0.1420649170689647
0.4043731987476349 0.059252885463401676 0.034249843452011604 0.19628425617312265
0.4043731987476349 0.060061521597499785 0.015593301842265856 0.19100034524839435
0.40186423825711465 0.06827293542515933 0.06932620171136081 0.25190938042815936
0.40422458139643797 0.06337163257289043 0.05366751341028924 0.23239706444757283
0.40133859563247465 0.06936444354213618 0.03961249188273253 0.21890473142647138
0.4002542983872606 0.07161600988947599 0.05841774697728368 0.29397103796639773
0.4018463775883062 0.06831002348473669 0.025797242722471105 0.24492254058606197
0.4002587583105858 0.07160674876360384 0.01860773210267098 0.23866803241248513
0.3935976284955251 0.07783074408623913 0.049448829374990906 0.2466878387058345
0.3922038460671248 0.07894224832640723 0.015161034445147345 0.18076822818268032
0.3922187341004265 0.0789303755177066 0.03270328297114713 0.18775034399455123
0.391172472346612 0.07976474130679545 0.06391847097157619 0.22173093332612215
0.3949357273470784 0.07676364601055714 0.02552392849503398 0.2254086666021184
0.3835286841878806 0.08169459871127252 0.026130471379696107 0.10387501869291067
0.38418356058227177 0.08154512802508235 0.03724021699575961 0.11658602770745044
0.3820042234164773 0.08204254559029149 0.000214525368817322 0.09690387221100735
0.380637246756315 0.08235454788744306 0.01633538102648811 0.11892958350810573
0.3820340176228256 0.08203574528338548 0.04961444818258352 0.1675187433247522
0.39462555348688455 0.03787328417878642 0.07199999690055858 0.23134247362060867
0.40772590091875793 0.037434488839840574 0.07199999690055858 0.21083701579719627
0.3045808947582262 0.06869036304597287 0.07199999690055858 0.0010695904414729513
0.28065112366697265 0.06757618875357004 0.07199999690055858 0.0010753490798084207
0.21823621499676055 0.06902062625312516 0.07199999690055858 0.0008794691266449597
0.3913828224138708 0.2522139983815069 0.07199999690055858 0.08542343894153129
0.39333303325309665 0.1580614667384731 0.07199999690055858 0.1122604956125055
0.3910011041941719 0.2630696754699647 0.07199999690055858 0.09339247974724289
0.3947731978837103 0.10610535193802507 0.0719999969005586 0.12052803741085318
0.3966462647889338 0.13357900370257303 0.07199999690055858 0.20376192220356448
0.39095730873457135 0.3384219838870464 0.07199999690055858 0.1133173551650251
0.40168267073476405 0.08104995615227716 0.07199999690055858 0.24212657424429612
0.40176558009216 0.11629491439268277 0.07199999690055858 0.220130339714868
0.40218581614518206 0.24209073746043802 0.07199999690055858 0.2337195523933775
0.40252008592988775 0.08967200834650406 0.07199999690055858 0.2282251150098434
0.40314407864728674 0.16265493499457492 0.07199999690055858 0.24451179927054703
0.4016841319393467 0.15208552216166205 0.07199999690055858 0.2276075367914681
0.38267557154637016 0.3443585241772282 0.07199999690055858 0.015961352168222556
0.38210551182138236 0.18987151115325673 0.07199999690055858 0.009353251168230194
0.3860954353303164 0.11558141393332422 0.07199999690055857 0.04137432525651983
0.3868760728641658 0.13978715449036586 0.07199999690055858 0.054809255250483586
0.38749153185227886 0.17677775647863728 0.07199999690055858 0.05226275439107903
0.3803424832233394 0.47076125484779663 0.07199999690055858 0.020895538617759155
0.38030715121627656 0.30835239468294817 0.07199999690055858 0.0022760892581333713
0.3812868432885435 0.10524104686312467 0.07199999690055858 0.04082748394830278
0.38223345756316784 0.20735662221167103 0.07199999690055858 0.01932115542785828
0.3836163235384209 0.2836795200897143 0.07199999690055858 0.030637830989167888
0.38434275418033154 0.15158005375574118 0.07199999690055858 0.020565952570252125
0.31462584152884565 0.06132695801994704 0.07199999690055858 0.0011637696391315
0.2173865462107778 0.05935900221601649 0.0719999969005586 0.0012686593125893332
0.35080555682764203 0.05828622467871145 0.07199999690055858 0.12693029493037514
0.4048803195461714 0.2866791833707454 0.07199999690055858 0.23820189826384325
0.4047644300247941 0.2547159199056198 0.07199999690055858 0.26001979583030727
0.40626302326444924 0.36737740368706684 0.07199999690055858 0.2569130699716093
0.4086652503804622 0.1423134138694713 0.07199999690055858 0.23905161551419454
0.4078713531370485 0.1740650516061609 0.07199999690055858 0.2540969083389563
0.4106740676205132 0.23654335478449515 0.07199999690055857 0.21272247373511305
0.4102397524603567 0.22674446357333228 0.07199999690055858 0.24859131955694258
0.4089239818206013 0.1075685965597942 0.07199999690055858 0.24559560707539732
0.40717388210924144 0.13088827967855068 0.07199999690055858 0.24719402715851196
0.4101986969514686 0.048584545622994094 0.07199999690055858 0.19905013935938978
0.4096422150001495 0.07346554905509789 0.07199999690055858 0.24581484734525275
0.4057310896803823 0.40038129078977547 0.07199999690055858 0.22059544778552975
0.4111477660140804 0.1546722458085413 0.07199999690055858 0.23084756804525955
0.40915778174638556 0.2070847792666727 0.07199999690055858 0.2084168267535111
0.40886217350581827 0.09857642908536898 0.07199999690055858 0.21017957370839915
0.4074211896554991 0.29517272603554806 0.07199999690055858 0.2523794452886498
0.06023476435043215 0.31967225437871355 0.07199999690055858 0.0030926898294399603
0.06124404756507852 0.2797000593118186 0.07199999690055858 0.0010002045269395248
0.061380245738606114 0.22316260669291746 0.07199999690055858 0.0011409166480027748
0.06919893908531896 0.10682489627993842 0.07199999690055858 0.034345442965336426
0.06806337020799484 0.09690500027594129 0.07199999690055857 0.0836951479933139
0.06225107799684261 0.39850425098248676 0.07199999690055858 0.0012161373271491356
0.06261316900262524 0.18714057648113994 0.07199999690055858 0.0011796271791377592
0.06978998627933722 0.11716070228967265 0.0719999969005586 0.004345037925114783
0.06383565156292628 0.1607532414012297 0.07199999690055858 0.0012055291085593875
0.060724842867421226 0.30716810353635066 0.07199999690055858 0.0012745183919573514
0.05825749312823273 0.2140532564460426 0.07199999690055858 0.00953414677922675
0.05501482477055863 0.19254460693251885 0.07199999690055858 0.031319571222985176
0.059338727656346096 0.2041692836659994 0.07199999690055858 0.007646257740130223
0.05717400888624535 0.3784185634420464 0.07199999690055858 0.02037752090571277
0.05411090006717449 0.09742162490914669 0.0719999969005586 0.08581226631044483
0.055909519683681935 0.29822760918623314 0.07199999690055858 0.03008445077591776
0.05890134473441794 0.33457411034216694 0.07199999690055858 0.008557446412346133
0.05550365939377453 0.13755475020110308 0.07199999690055858 0.018992881297782892
0.05980468284438953 0.11049616135504117 0.07199999690055858 0.018896918156469066
0.08575987029919528 0.5169768647645728 0.07199999690055858 0.13555914509800668
0.21525767540043514 0.5211387967780771 0.07199999690055858 0.0011608955709228599
0.1362341170585113 0.5198477327539891 0.07199999690055858 0.0012696245691659431
0.14892358993245985 0.5210468501738781 0.0719999969005586 0.001218985179013361
0.2232489384993367 0.5194539727377236 0.07199999690055858 0.0010828629181836179
0.10598249612709092 0.5186792236155754 0.07199999690055858 0.03965176730175034
0.12370006857856347 0.5190946110013032 0.07199999690055858 0.001121712675773123
0.2205725967136194 0.33662906880131255 0.07199999690055858 0.0011834346170381687
0.318877696910874 0.23134410333922664 0.07199999690055858 0.0012123594734100344
0.23361418956015528 0.34011591940753333 0.07199999690055858 0.001162022034521303
0.34376939220061464 0.38619158174959656 0.07199999690055858 0.001204695732242564
0.1548299264573076 0.48758822580248634 0.07199999690055858 0.0010601681380137313
0.33995575405282735 0.29026804042823473 0.07199999690055858 0.0011980574866503088
0.17530368528422033 0.382748926296511 0.07199999690055858 0.0010647096547817454
0.13890463054298074 0.42932204518622896 0.07199999690055858 0.0011378078750589025
0.2996353517778461 0.3051480960428095 0.07199999690055858 0.0011442804434863645
0.19530347807252213 0.4371484475189354 0.07199999690055858 0.0012077758782496695
0.21177805467452793 0.33039444219870695 0.07199999690055858 0.0012515418814098994
0.30969840802641707 0.3129107895449499 0.07199999690055858 0.001211949922302172
0.34838317094508364 0.35194762108906064 0.07199999690055858 0.0011542550807864835
