x y z curv
1.412904894456034 0.13982903711890576 469.1035945813369 0.13116754077857268
1.412904894456034 0.11332602957199173 469.0939113152771 0.06874624085429812
1.412904894456034 0.09902272820268722 469.1019980581716 0.08353046203891296
1.412904894456034 0.12414730158888482 469.0910867414286 0.09405072877387682
1.4129048944560338 0.1039416193251004 469.0924615325785 0.06512219879026547
1.412904894456034 0.10790913885030538 469.1052291839419 0.08374313686034544
1.412904894456034 0.10103009914721613 469.1117402288319 0.10885750777608706
1.412904894456034 0.12110450936610864 469.1036463382802 0.11357277345576977
1.4129048944560343 0.05413435795339802 469.1033246067371 0.09731110133751224
1.412904894456034 0.0695184066163085 469.09592157081977 0.0686637364854949
1.4129048944560338 0.06875357895487957 469.1067026665564 0.08646054245128913
1.412904894456034 0.04759273034263756 469.112892381046 0.1125593955874533
1.4129048944560338 0.022263209049987395 469.10265884536165 0.1509760016207656
1.412904894456034 0.045149683971087706 469.0990259063474 0.12857101827834921
1.4129048944560343 0.03631591985004414 469.1010260845215 0.14961190375680627
1.412904894456034 0.03366254081981538 469.11207308146356 0.11690537780617528
1.412904894456034 0.08194230980236013 469.0968103676563 0.07001825091832126
1.412904894456034 0.09026642871945856 469.10430972129166 0.0847412709218115
1.6551016430671037 0.020507400512698837 469.1042591791591 0.1281417874274473
1.6714703313235446 0.020507400512698837 469.10588554614696 0.14631138195333296
1.6499529778224096 0.020507400512698837 469.09244227502836 0.13070753009658836
1.6629187011132935 0.020507400512698837 469.09566766368397 0.1440058254933956
1.5938682288266826 0.020507400512698837 469.1012239915193 0.08398561194394559
1.6041693659536467 0.020507400512698837 469.1030365293081 0.08288563749277256
1.5623652135895536 0.020507400512698833 469.09445910173605 0.07090434276479585
1.5596631175701343 0.020507400512698833 469.10952352837177 0.09346543516638411
1.5686108200556266 0.020507400512698837 469.103385402135 0.09011223991348892
1.5815574069745626 0.020507400512698837 469.1013485235934 0.07800571617964439
1.633210464753948 0.020507400512698837 469.11158567346513 0.09998180539414393
1.6171221154567372 0.020507400512698837 469.11186169819763 0.0877138657478479
1.6253239270598807 0.020507400512698837 469.1042322560905 0.08496367889829727
1.6385463876843234 0.020507400512698837 469.09661325978885 0.08644482812113806
1.6440070034348604 0.020507400512698837 469.1114016628328 0.12284055537204264
1.6236204345839056 0.020507400512698837 469.0933312362564 0.07465736397867086
1.5016999823871153 0.020507400512698837 469.1038221454692 0.08321554958390477
1.520355651505067 0.020507400512698837 469.11139429056954 0.09083657110222164
1.5115261698042826 0.020507400512698837 469.10305082108687 0.08339296835500495
1.5277770497222005 0.020507400512698837 469.1048479673152 0.08835951541945035
1.515434078575289 0.020507400512698837 469.0914565897133 0.06878492425684325
1.4604872432900566 0.020507400512698837 469.1126548278615 0.10192219430722227
1.4622903919217307 0.020507400512698837 469.10155786942533 0.07934296538103744
1.4519835403211299 0.020507400512698837 469.0907300141258 0.06984121781759946
1.4261155550250222 0.020507400512698837 469.10761003977143 0.11501829738290636
1.4396076666659703 0.020507400512698837 469.105936316878 0.11840012604769896
1.4374343568510994 0.020507400512698837 469.10509052921833 0.11555133386651922
1.4226724682073961 0.020507400512698837 469.0963751725637 0.16079567112147042
1.4727571199630451 0.020507400512698837 469.11024805812303 0.0944292261831819
1.4725916411876139 0.020507400512698837 469.0910993844336 0.0669368115171745
1.4910718265847611 0.020507400512698837 469.1003076743704 0.07941272711207827
1.4990678611151331 0.020507400512698833 469.0934527039427 0.07095910688523906
1.4827606713004533 0.020507400512698837 469.09607752988825 0.08123932912325395
1.5403239902361194 0.020507400512698837 469.10645682897825 0.08651165899116145
1.5324706206878989 0.020507400512698837 469.0910080394232 0.07165376827351362
1.5508366985181885 0.020507400512698837 469.0956926698803 0.07792150277528848
1.5504042837018404 0.020507400512698837 469.0927742436675 0.07576229170899486
1.6734899927226357 0.1383465810226878 469.10540162795314 0.10738301765761953
1.6734899927226357 0.12933821424349987 469.1117919771089 0.11087215176889954
1.6734899927226357 0.1347132717073424 469.09546939134134 0.13181482471139389
1.6734899927226357 0.11752871955286473 469.1123997508622 0.10175708919849139
1.6734899927226357 0.10867959163291163 469.10256690169797 0.08332907277823932
1.6734899927226357 0.09977177561173627 469.1079288614325 0.08523401458869487
1.6734899927226357 0.11129884485101221 469.0920114360456 0.07891228485005627
1.6734899927226357 0.11881250540798398 469.1025679600443 0.09158018415778889
1.6734899927226357 0.05579572969079344 469.11087986689427 0.10282414600745973
1.6734899927226357 0.06514408751810144 469.1115458745463 0.09389519589478197
1.6734899927226357 0.04824049597630211 469.09989509967806 0.10764874341608033
1.6734899927226354 0.06750641872006528 469.099575503 0.0780160268065291
1.6734899927226357 0.03798666570735201 469.1102014516989 0.11073070621955965
1.6734899927226357 0.029427431955110092 469.0976345487709 0.14290936284528624
1.6734899927226357 0.08137859248148505 469.1040348581778 0.08083075830412109
1.6734899927226354 0.09734416112014187 469.09411991682185 0.0716748949446097
1.6734899927226357 0.09113458936361886 469.1032780067881 0.08982091481816733
1.6609068933574012 0.17505291059698416 469.0462946872823 0.047609798806959494
1.6609068933574012 0.1833033721106047 469.03684524637026 0.04482449156742387
1.6609068933574012 0.18207263659512535 469.03506731799166 0.04387273397019121
1.561474125756542 0.1695000038146901 469.0789476494595 0.07133020566975593
1.5450828977231597 0.1695000038146901 469.0845932147531 0.0817330602910936
1.5409438655372856 0.16030000495911167 469.09259278661204 0.08281936636830274
1.5084974504557898 0.16069317317353973 469.09104678301003 0.07832993109793421
1.5218819546825084 0.16796367454529104 469.0866805341714 0.08409607438406112
1.533709815262626 0.16796367454529104 469.0697258413502 0.07819478629095346
1.546471317746414 0.16796367454529104 469.0733993264861 0.07370045997544025
1.5224511313445643 0.16796367454529104 469.07528068106785 0.07542369674313051
1.5315150435710556 0.1631656594974334 469.08893277049617 0.08871931951800008
1.5521275767440237 0.16100940961600305 469.09403716416676 0.08229583662342713
1.424300865182281 0.1825186836226355 468.67294112468323 0.04785539377447903
1.4239026895610145 0.18035894112891776 468.85225288834675 0.0435815549791385
1.4243617286348262 0.18450000607967357 468.8435788814811 0.03726343506583923
1.5104201409883644 0.005917232121915429 468.60246653061597 0.10971531103488495
1.621501813914286 0.006482369481310752 468.60291377630875 0.12172110254347811
1.5630196909001026 0.0060278083161337745 468.6025540398308 0.14986500785290072
1.6133920354281266 0.1705334444045974 468.6179081891364 0.0817263216723962
1.509592225220878 0.1705334444045974 468.6181442051512 0.0773644469014565
1.6624974924174598 0.05912976779982427 468.6178818796574 0.06900396993713828
1.6624974924174598 0.15244470611725805 468.6178077192654 0.13477284784558663
1.4244974924174598 0.06900527631597402 468.61741518467863 0.06025217683519059
1.4244974924174598 0.1350406994251277 468.61761812606534 0.0451391087712196
1.4908938251478403 0.044307944497122116 468.61747186745225 0.000626700448607739
1.4444639157667893 0.03807179852864312 468.6182441639429 0.019966520137172573
1.4750021579920882 0.07295612772641705 468.6181642829893 0.0005384975265374561
1.4552515847555374 0.09928172148874381 468.61711401148915 0.0005840794167922201
1.487809966839038 0.1085730687173 468.6171207799608 0.0004722302679160027
1.5202687288394792 0.13032911101559924 468.61757301214004 0.0006249844696571157
1.5563825112687706 0.1427329444716413 468.61755790597726 0.037715282190241894
1.5470400166113603 0.09680255526085352 468.61716978086383 0.0006245333998488927
1.5674178511107209 0.05621752924356088 468.61773736877103 0.000679377007114616
1.5480248628690763 0.025117210137394548 468.6174347766953 0.12031488691527137
1.518579230501338 0.04888325332882248 468.61790775279474 0.0006163111976331665
1.5222370792666697 0.06258835292752571 468.6183024664576 0.0005957795189787775
1.604013331422944 0.10290742976165496 468.6179214045927 0.0006048822355261445
1.6452393909348408 0.11903667437397052 468.6177605543279 0.0006410708631359235
1.5250620267411512 0.0063819979898129525 468.6030768414338 0.10664768675604187
1.5931464824659802 0.006045716292447956 468.60350178157074 0.1338503154574087
1.5779401516086788 0.006312127039468365 468.6031651333969 0.11593899610120198
1.65691982586575 0.0029105842256577424 468.6074634704186 0.13658062884665376
1.6042666836943633 0.004054084115836689 468.6060184943647 0.13618879891519453
1.4453003426885571 0.005527548131511332 468.6041565613314 0.12712954974526391
1.6163248115337336 0.00253379821776889 468.61394350377356 0.11180452388851392
1.535670982939001 0.00253379821776889 468.6143136468348 0.1089744731534895
1.5882973068314017 0.00253379821776889 468.61555032672396 0.1324593317644303
1.4669492425866226 0.00253379821776889 468.6148334354484 0.10849199541539145
1.646776547349877 0.16008475746644416 468.61692750621404 0.13352395460379995
1.6007433400269542 0.15310860840361723 468.616927506214 0.08472890134093307
1.6160685873933622 0.14840244555762647 468.616927506214 0.056627702243369514
1.6623844326960042 0.09700708262912786 468.61692749898685 0.0704809619875555
1.653245727885293 0.10272160866422139 468.6169274819316 0.002303188160861459
1.6614721872628522 0.13489193486515047 468.6169275008416 0.05546036817566836
1.6445361108272274 0.13185625508442592 468.61692746793534 0.001303276729648806
1.6543735093025758 0.12520038122786517 468.6169274862465 0.0006358597593088882
1.6622633271204388 0.08613441502590882 468.61692749771714 0.05979241360156082
1.637642825562448 0.1404555598610798 468.6169275025987 0.04567524740620285
1.6559996060179616 0.16135811906252281 468.61692750396423 0.11780315872896452
1.6419730984546912 0.15149319223233884 468.616927506214 0.09151441805151993
1.6063505681321295 0.14565635213129904 468.6169276427287 0.06594283387537254
1.5463589871558667 0.1668935730397232 468.6169274764842 0.0738639126533287
1.637612522802937 0.1693195888818666 468.6169275003495 0.09838988044051711
1.5001626948676812 0.16208453229467246 468.616927468576 0.0813114417402099
1.5920328348367414 0.17013133665488464 468.6169274860708 0.08768842071923341
1.5764919967798223 0.16077448516053233 468.61692749243014 0.09922924898048513
1.4677552409746457 0.17024163061950087 468.6169274495893 0.07062756770449909
1.4546828577256747 0.16930883627696036 468.6169274468527 0.10618914156721328
1.4989922656325783 0.16227451526983622 468.61692746801214 0.07741948809428778
1.556315828553172 0.1682315249976625 468.61692747783724 0.08197720545358732
1.5282527005992805 0.15986280616667814 468.61692747938207 0.08278809757339053
1.5238402310181134 0.15198271815707215 468.6169280448069 0.061887691055600616
1.5429333488844348 0.14782168258624118 468.61692820841114 0.0465547191975124
1.4726633080133595 0.1605895252385908 468.61692761128523 0.07974830513295937
1.598380088430284 0.13526593189772707 468.6169275031112 0.009982386720718576
1.5592290816937402 0.14234984839277695 468.616927506214 0.035985489280759515
1.5680162891511196 0.13183326538690093 468.61692762553247 0.0006798928491792318
1.5879929236399428 0.13299523922172157 468.6169275362692 0.004492680863268641
1.5876082631836872 0.14215189730284217 468.6169275239468 0.04116940600330547
1.6421991213858467 0.10648145450596591 468.61692749968256 0.0006016923993081426
1.6413668690292416 0.09090556672441166 468.61692750421105 0.0005848177381866827
1.6308956499941003 0.08514295737489974 468.6169274895461 0.0006433965930115665
1.6390961008789857 0.07685186548292809 468.61692749736085 0.0006682157019367902
1.6036552456620534 0.08628460310324447 468.6169274986523 0.0006749378418853322
1.605337831802213 0.08630943337641357 468.6169274979633 0.0006960126675875903
1.6168281967232787 0.09629230126936605 468.6169275062139 0.0006205227109649721
1.6049762618966277 0.10094486961324026 468.616927506214 0.0006069203202291512
1.5897655725429585 0.1049998197617821 468.61692742256173 0.0007421413255410164
1.5767669263602464 0.1063548008942551 468.6169276672413 0.0006830354639865654
1.58265770688668 0.11529698553128122 468.61692763370013 0.0006354353391343908
1.5679029263024535 0.11527915744532735 468.61692847403816 0.0006090809927306166
1.5729836988450439 0.09691098460845556 468.6169279529938 0.0006401724010964175
1.565495025593189 0.10574303158588269 468.61692822517443 0.0005116551412849896
1.5056522349463761 0.15174773767749683 468.6169274119907 0.07931119995377564
1.4797360385273175 0.15423464528242167 468.6169274185958 0.09622900547756265
1.49471682351572 0.15072370392950757 468.6169273136529 0.07715975601571234
1.4839649793394227 0.1408610035473966 468.6169288290919 0.03507933813380881
1.4546781856633633 0.1521610436735135 468.616927670643 0.09400775757425622
1.44863931844176 0.14392047224669874 468.6169275199 0.0579441985400241
1.5036320162848729 0.12190219828833793 468.6169284928561 0.0006098302971368015
1.534716078184391 0.09669662708197929 468.61692862943585 0.0005940475518565948
1.496022182061489 0.094372216890665 468.61692764581903 0.0007206803251645711
1.4793305372784482 0.10020791630631722 468.61692743664344 0.0005837227095095161
1.5073345753833427 0.09063501148267862 468.6169275159603 0.0007107878611003306
1.4407477193713412 0.10916399014584272 468.61692749301983 0.0005105172229184819
1.4405733344333909 0.1218245641551951 468.6169281180153 0.0005867485779642184
1.4748578200094333 0.0884952014153648 468.61692756338687 0.0005716991411870471
1.4855929706288387 0.08189099988775456 468.616927789194 0.000700098090978036
1.465913810711157 0.08383430096936059 468.61692775873655 0.00048162155139965516
1.6286874568547867 0.07396581493931452 468.6169275041599 0.0006220743089666514
1.6204128267240945 0.07889194754597187 468.6169275018745 0.0006498694579011425
1.6514700303516614 0.05833917822811465 468.61692749531335 0.0005519828825389285
1.6449587565627426 0.06594061508595 468.61692749382956 0.0007011379320465953
1.6079416733468728 0.07284774951174072 468.6169275156528 0.0006165266846986472
1.5906617630765552 0.08163644212848548 468.6169276185502 0.0006505431748211032
1.5540813257459154 0.07278987064950147 468.616927840902 0.0005967356334186844
1.5434388727068096 0.07443784237813769 468.6169276484036 0.0005980778488316203
1.589106807588776 0.043534658808596166 468.61692745839 0.0006980633196421095
1.5982708623585873 0.06372490352040996 468.61692753169024 0.0005472905220421237
1.5874927735925972 0.057910808635680815 468.61692788313525 0.0006755369268767591
1.5848662096279504 0.07017618218515928 468.616927726908 0.0006702466960790847
1.5748804637215683 0.07029036441514705 468.61692780970293 0.0006536498611491981
1.5639227362199224 0.07921155534884974 468.616927609415 0.0006177669924150348
1.6572111747476228 0.01711451707727636 468.6169274495773 0.1564290771138931
1.6479104789815864 0.0330272029039418 468.61692735129816 0.08600227048328563
1.6465616837896868 0.020438930048681445 468.61692751245005 0.17234268933437533
1.6042402419428 0.02689265319314836 468.6169275008656 0.11869744359604678
1.5994864708091974 0.017991665303397218 468.61692750621404 0.15977311813587883
1.649839545798327 0.008581808315692848 468.6169275479035 0.15565422412125854
1.6088227959672075 0.01617546477092227 468.61692760024744 0.16082315288803778
1.6335126895433174 0.01653119037441769 468.6169276026995 0.1571257828203422
1.5933470410844832 0.011448961108359045 468.61692754203114 0.16101124724627017
1.5721997425249188 0.045258210792119655 468.6169275411833 0.0006594150203040219
1.581137097664564 0.0379732240293025 468.61692756417864 0.027114502068456076
1.5612744600150075 0.027309239966771832 468.61692751638236 0.10689843016196147
1.5793520244787524 0.015166105243228261 468.61692755168826 0.15983171790434805
1.5815076849431935 0.013585406729003425 468.6169275268826 0.15769844978059622
1.5881130320150199 0.025444620081307545 468.61692754666325 0.13423344218876218
1.5536301389553593 0.08723932827089631 468.6169275090833 0.0006676379304694224
1.5435984692693783 0.08656181241384062 468.6169275248961 0.0006291745024800149
1.5313368735173931 0.08736900764653602 468.61692751402063 0.0006912663351583283
1.525386277635446 0.07276589657844959 468.6169278354781 0.0006324417372957551
1.5042520490121172 0.06024088416396139 468.61692753343095 0.0007294152812898483
1.5008613004813736 0.07116162413609928 468.6169275185093 0.0006225971123740241
1.5086483999823561 0.07875456656103588 468.61692752833494 0.0006827431997308845
1.5038547863770493 0.04839263793299867 468.6169273304105 0.0006273539650172203
1.5040630353913298 0.03671580190122334 468.6169274532497 0.036122963774387916
1.4252560039646944 0.08317016028839824 468.61692750797647 0.05747344345283025
1.427505947748211 0.050725203181376737 468.61692751923306 0.040056397102420455
1.4255500253427265 0.059930134212042505 468.6169275078905 0.04513509626052683
1.424709936809022 0.09839579678370665 468.61692750584695 0.05500247969657429
1.4259937992817497 0.039026455711911386 468.6169275089221 0.04049803699609736
1.5166685985968655 0.03754153752722326 468.61692847797457 0.022757153846457615
1.4845855722321744 0.0304450450530747 468.61692900225785 0.06936699998857448
1.4918266309956931 0.0340142003987505 468.61692837118443 0.05688713668874127
1.5467626511724468 0.012937334078055845 468.61692750461907 0.1407897788387335
1.4570930557340154 0.023143218334614014 468.61692748713097 0.13115896691834994
1.4711692263130247 0.022729954448186204 468.61692719359763 0.1316144071457599
1.4480095231543375 0.011350318024362135 468.61692742716076 0.17494584460362012
1.4745150296951008 0.024919866890056108 468.6169271678877 0.12327162752514523
1.42688712274441 0.1358639905097114 468.61692753388286 0.04551006947178254
1.4268741218786112 0.14742389686635468 468.616927518019 0.09373274257323917
1.4260688111698812 0.16021182806677758 468.6169274837439 0.14854143437067366
1.4256159728918099 0.1580123305352365 468.61692747713374 0.14976490975867277
1.4387451310354469 0.13338774667240016 468.6169277879857 0.006275903719017097
1.445275434987509 0.10820545004374617 468.6169274848259 0.0005128148179881798
1.4664100962211237 0.09351674060056087 468.61692753910484 0.0005674120705396946
1.5806133681569792 0.04963828341004328 468.6169275927531 0.0006883865959598392
1.4291048785509144 0.11093695960448476 468.6169275157518 0.0428065801794091
1.4525495108706685 0.0887066519979757 468.6169275167744 0.0005448042096024396
1.4440313659143655 0.09684950989085062 468.61692751623195 0.0005977160261846567
1.4448179095751041 0.07335131899194214 468.6169275752287 0.000573872937002479
1.4439618947246207 0.06383217048274153 468.61692760196354 0.0003960172045683903
1.4352368318937803 0.09837860277958183 468.61692753349615 0.0005280523844012653
1.502960932277282 0.016299139141182622 468.61692750457775 0.1497317882463625
1.477994055066921 0.012003609664734799 468.616927502082 0.15704894687825544
1.5248560599404777 0.011829635295945318 468.6169275050012 0.1513847424865498
1.459815526909745 0.012274568482450723 468.61692750099314 0.14156091473956345
1.4975272295669553 0.025489602978446407 468.6169275062046 0.08605161570476146
1.6291607001468893 0.02560220547643061 468.61842744898576 0.1451893326242103
1.6383257105335025 0.007864467059032574 468.61842750527 0.14831024040064714
1.616907564610523 0.022048527754643134 468.6184274990655 0.1612697504334327
1.6397203173273611 0.030265745908593045 468.61842757460863 0.08785980153792057
1.6621384740119811 0.028736360252453335 468.6184275064253 0.11166025083632637
1.6614995087096458 0.04713433190519052 468.6184275068013 0.0644647770562857
1.6624123608053936 0.008869962682061543 468.61842750626414 0.150214630053614
1.657620592332199 0.037794117322034866 468.618427509084 0.03278719589564606
1.6612825929151271 0.07217688648772255 468.6184275069289 0.06822173484812771
1.6462685390316338 0.04877257841239019 468.61842714256585 0.0006326173043055798
1.5690379201763385 0.02368877513579967 468.6184272596203 0.11806039756543069
1.6239494621273098 0.009464035642954218 468.618427506214 0.11630987915312954
1.5977034577626463 0.03718861164082105 468.618427267798 0.019267361574384526
1.5745420470138525 0.029978847412255136 468.61842748169545 0.11116382871607053
1.5662225081461363 0.03747941961223659 468.6184274968113 0.04114902959305883
1.6525529832991155 0.07063113754655935 468.6184272607542 0.0007935734229484048
1.6497828962987866 0.08076420838577564 468.6184275152273 0.0007941353457472697
1.5980782920166103 0.07450546264418595 468.61842745313174 0.0006263440333931278
1.5955420831357185 0.05147483001128787 468.61842750635583 0.0005463480054259336
1.5752124830592886 0.059400888698372865 468.61842669202406 0.0006843816295091646
1.5644757966635667 0.06640105019454062 468.6184275075676 0.0005616902401462562
1.5599449819842115 0.015424875732325465 468.618427506214 0.1552080586600336
1.5582776075505382 0.015522865159831463 468.61842750621395 0.15799144172875942
1.604213528661963 0.007776652999202922 468.61842750621406 0.14681644930435558
1.5227552815631071 0.02004251900366897 468.61842750621406 0.12336391168423474
1.4885248424592523 0.021074211735389613 468.618427506214 0.138582201291376
1.5344929000398915 0.026152126103696514 468.6184280387992 0.11508822338223458
1.510256782645769 0.027200858472620996 468.6184275029076 0.09728843308630786
1.4368165932895158 0.00927208055402569 468.61842732705685 0.1810787402148298
1.4460631059504672 0.024339795933264515 468.61842783773795 0.14983366134299964
1.4354829504099338 0.02095074095669617 468.61842731437207 0.20527395650514996
1.51572317867263 0.07055250938317165 468.61842706882555 0.0006594279065154618
1.5143347743633688 0.05820987217939196 468.61842749512084 0.0006952141222970325
1.4917189053953788 0.057447055711143294 468.61842749998715 0.000616877714734163
1.4902642825085146 0.05865271980808716 468.6184274989665 0.0006170031428307023
1.5339830861349502 0.07759318334513164 468.6184275526323 0.0006956447359447638
1.4266994158032011 0.012538083032741894 468.618427460569 0.16697854434066098
1.435101956784441 0.04408680906696476 468.61842728638766 0.0007949068976407009
1.4270763415309617 0.028581773174943294 468.61842745275544 0.1014657248523347
1.4386082291020883 0.054451309542233046 468.61842721370397 0.0007577853977020326
1.4331554387623553 0.07559532003230866 468.61842734735023 0.001802994911361679
1.4369961600581593 0.03277479890282932 468.61842693924814 0.06953834348929826
1.4963208649417443 0.08127250322958032 468.6184275321577 0.0006390116149432632
1.4385311247208676 0.08573334514267447 468.61842748456326 0.0005885665057602943
1.4558575111797523 0.07376173365442537 468.618427506214 0.00034517658583639637
1.4851162082609113 0.06814806150988906 468.61842751609396 0.0006095125043972292
1.6544739019812855 0.09314176321096712 468.61842726861767 0.007758379358884554
1.6174365372880763 0.08790636033746073 468.6184274096686 0.0006433608582437545
1.5933857301070615 0.09231763889562183 468.6184271624668 0.0006666894917867855
1.5786359070883136 0.08359193654680436 468.6184275143844 0.0005864291780417179
1.5642068095962127 0.09028460331661374 468.6184275835408 0.0006586709971456786
1.5846149552463693 0.0957223452621608 468.61842744719127 0.0006249174603909087
1.5579815938457706 0.09891815787372628 468.6184275160692 0.0006863982920512142
1.5962007154401663 0.11359898704132261 468.61842731132026 0.0006536313129240342
1.5764984343667785 0.12281916015157855 468.6184274836524 0.0006293304393386023
1.5932473697225458 0.12366348494387891 468.61842745705485 0.0005969277458726776
1.660732583318389 0.15073843721382404 468.6184275005461 0.12349950260049712
1.654761023084124 0.11299239240185109 468.61842748136837 0.0006245852810340631
1.6605241466474845 0.13388547520948205 468.61842749987665 0.04951934700500413
1.6487649586410738 0.1435960691978115 468.61842734624827 0.09318510407588519
1.5864109749962763 0.15136826559190772 468.61842738578946 0.08343891148811315
1.6292136964342854 0.14857617471815043 468.6184271264973 0.07822821198495998
1.5767218553823354 0.1490270807408148 468.61842745256104 0.08181298285073137
1.5611601840499678 0.1577913408650552 468.61842739306996 0.09240210812267753
1.5666889537382136 0.15092460722626921 468.6184275090468 0.08382887466422756
1.5509020282326516 0.15693047120400036 468.6184275094684 0.07510089969901465
1.5365707323384843 0.1597229197792574 468.6184275109697 0.08563346129423115
1.5234217462792672 0.09637082068270539 468.618427506214 0.0006294597685750647
1.5211266733196362 0.10822616772282367 468.61842750621395 0.00046747000850457356
1.4970080627073086 0.11060934813684609 468.618427506214 0.0004967621712963313
1.5093477241862223 0.10167287682230938 468.618427506214 0.0005986600726359609
1.5172094917747057 0.12108052951149006 468.618427507403 0.0006426576045630006
1.4852394889717384 0.0937015688319422 468.6184276335418 0.0006178374035381073
1.5171969186560037 0.08599384562931156 468.6184275069404 0.0005977107501068774
1.492318092182632 0.12148870540691557 468.61842751081576 0.0005321724151508614
1.5230320596795797 0.13844996681129665 468.61842750628523 0.03312229502376149
1.5150097557873914 0.14747648474875086 468.6184275093245 0.06481666494562399
1.4997885308470584 0.14074850162467822 468.6184275072794 0.05733031513419248
1.4966781567625644 0.1319633245564163 468.61842762008996 0.0049172332893924545
1.5318744180139947 0.144094298307001 468.61842750643996 0.04840219940238537
1.5164494726991562 0.1608380210218469 468.6184275134253 0.09919603219224642
1.476427791777843 0.1451256897665572 468.6184275063823 0.041725169431207416
1.4663227635407565 0.14683366191473923 468.61842742644205 0.07739493607449903
1.4866561443217379 0.16090777332848727 468.61842751502485 0.09938850913436423
1.4453316638600056 0.1545200328690432 468.6184275127701 0.12050770744664455
1.4629448554920121 0.15873889452590298 468.6184275133095 0.06611388764698124
1.4381394046051479 0.16174245919155297 468.6184275100294 0.13535098002844193
1.6297111364999313 0.09721920281753474 468.61842727239343 0.0005852182987594251
1.4771802871772697 0.013023379393942977 468.61842750621406 0.14923083095428435
1.5349504034768962 0.013151239920962978 468.618427506214 0.15109112048828294
1.5015679650346527 0.005171061110950137 468.618427506214 0.1588110913125456
1.4937969440308747 0.010573428195453333 468.61842750621406 0.17442807101508914
1.5700139068368046 0.00887846312198254 468.61842750621406 0.1619253977162012
1.4519409909575751 0.0025452142698877906 468.61842750621406 0.1167527308532731
1.5136704882979155 0.013161407496238937 468.618427506214 0.1673979700034535
1.605338508603014 0.16368699555980395 468.6184275098763 0.0940676964132889
1.6217652269455314 0.16725822918172964 468.6184275090374 0.07610388982048981
1.6218653469776818 0.15644779982236068 468.6184275075892 0.06910312781350068
1.6325325519414644 0.15932200580862266 468.61842750711844 0.10632735285101874
1.5849430571877212 0.16144806392708283 468.61842751121026 0.10396883618448788
1.5786614461504969 0.13763717815237347 468.61842692695296 0.034975896603734846
1.5111898162762416 0.13722044016733884 468.61842750621406 0.01826469713846033
1.4380276194941013 0.14527415288939338 468.618427506214 0.05776424964371973
1.4284425383987545 0.10967015969014027 468.618427506214 0.045823726671651875
1.4248027222745723 0.12193627300872861 468.618427506214 0.06199431048536212
1.515740620138972 0.03717603385953293 468.6184275003545 0.023538875441913416
1.5112645219169878 0.11360199588544527 468.618427506214 0.0006200189083055933
1.5262726839401393 0.0010337982177759386 468.60918813576814 0.13880404967732407
1.5677811818974416 0.0010337982177759386 468.60968055381556 0.16109377171210795
1.4282252864854812 0.0010337982177759386 468.61645157324716 0.13185478194317318
1.512817133940365 0.0010337982177759386 468.6179947695448 0.14473133472464386
1.4257688224430216 0.0042097876521327605 468.60340460417314 0.12645335509169228
1.5527122558888211 0.005139581977841863 468.6022296896689 0.10221167799364947
1.5774236055814044 0.0051852904206822065 468.60217193118285 0.12062864895317658
1.4856313303321025 0.0045686660886881635 468.6029511151931 0.12387887238884303
1.6363641929465178 0.004992328585360806 468.6024157632357 0.13688733047035273
1.4548065081324522 0.004818008447993872 468.60263603910977 0.12575052493399694
1.4042359752536275 0.170187152625901 468.84189381902445 0.06191323364702003
1.4031869042587783 0.16998705015084994 468.74181882711446 0.06037467776741622
1.4038002554368156 0.17010404231763693 468.9232862560104 0.06751333707255465
1.4075272375370644 0.1708149363814253 468.618334576226 0.18208146170843986
1.4044679390854573 0.17023139799832993 468.90534677601806 0.0548529101114038
1.4039888932532583 0.1701400235754772 468.72788215554834 0.0607887079064279
1.4033223288195882 0.1700128813767 468.6984069587871 0.06767228207742633
1.4063878551068512 0.17059760767303966 468.6332913220379 0.09148525043928644
1.4070778398530206 0.17072921712190814 468.629544953626 0.09389621716047394
1.406862967276101 0.1706882317789968 468.68669733688216 0.05371055239436168
1.4052647052050786 0.17038337519849645 468.9662566648104 0.06616569204747469
1.4079210775703703 0.1708900584330554 468.79017143338365 0.06434529634190907
1.4084420589826796 0.17098943175532869 468.883684055308 0.06708706677247443
1.406519041855444 0.1706226305677877 468.9849794883758 0.0635455872153698
1.4055378145337012 0.17043546876784044 468.9339207520873 0.06598690728002604
1.4077693108038796 0.17086111005324667 468.7075586874597 0.05295704791452992
1.4079249213622296 0.1708907916077103 468.8329686284905 0.05765123461185566
1.4073476620833902 0.1707806837017544 469.01254858474834 0.06146724951771602
1.4066781532527766 0.17065297988120062 468.8228195583985 0.05403418820091587
1.398399719454843 0.1670266501172313 469.00578535385915 0.05664972380690968
1.3977596189806016 0.16660619895566275 468.9610357559796 0.05727882050353626
1.3984765384614557 0.16707710882154508 468.83264416879183 0.04603374268493264
1.3986466389978163 0.16718883966845777 468.78654142900734 0.05118784705673443
1.397844649623867 0.16666205148845803 468.67795741061445 0.0682218129195002
1.3996702415919375 0.16786119489549128 468.76613155166524 0.051158148769752804
1.400415153122806 0.16835049139037456 468.8108736819729 0.052934118865636155
1.4009682443088547 0.1687137903426258 468.7170400955907 0.05695929488276844
1.401557148359443 0.16910061304013377 468.7526774555624 0.06926686443749754
1.4018914791523007 0.16932021882994647 469.07833620992517 0.08462850863611089
1.4005549706780476 0.1684423308060204 469.04786028784383 0.05581960220358302
1.398685721800637 0.16721451127862622 469.0632875576215 0.06446403102057337
1.4027297957199814 0.16987086859326872 468.87311699949714 0.0703187763405085
1.4003878773847283 0.16833257527217305 468.95245680888377 0.057912472077240214
1.4024770881120834 0.16970487714106153 468.9962502749113 0.06065752708044977
1.3990063454302624 0.16742511349332073 468.97816724915003 0.06593070831508743
1.3984235629337727 0.16704231174976442 469.0188816294164 0.05507580863573163
1.3961540153563943 0.16435426989326377 468.63192893091525 0.08151237246252775
1.3949510077624905 0.16252281961277246 468.60565688600684 0.11462520895013123
1.395443565550527 0.16327268611704815 468.8906656331375 0.04719406134795741
1.3964008985313585 0.16473012309845386 468.6880957387209 0.0615770434219807
1.3948804145070968 0.16241534893840034 468.86604689098846 0.055471051504619034
1.3940878929929734 0.16120881977209103 468.9509846751557 0.06362585732605024
1.3964659206078807 0.16482911224938518 468.616594193827 0.11823834810748468
1.3949134949339923 0.1624657103471092 468.8173101930917 0.05420790249750592
1.3961765504880728 0.16438857721887198 468.7079774105 0.048311507103391695
1.3947300105194258 0.16218637496782629 468.7456531825102 0.055462406032828204
1.3955129215723878 0.1633782732358111 469.04130079585565 0.06274348692375539
1.3971773997099637 0.16591226301890366 468.92905757147804 0.06079720625443075
1.3960038335195482 0.16412563412353928 469.09364709569314 0.11360921845501974
1.3955198363348045 0.16338880022136965 468.9884830358765 0.053911169714820684
1.397083635004884 0.16576951629287418 468.91557728654374 0.06232745062122795
1.393885505623114 0.16015588110217835 468.66671938966505 0.05342696934110188
1.3930849550523872 0.1559586088393882 468.8751828808346 0.05805802752997326
1.3934899280351685 0.15808187491396508 468.6995773241621 0.06125765449602227
1.3936387348085828 0.15886206615410225 468.6054090057763 0.14008976752934804
1.3940530634685382 0.16103438387605556 469.07198579940916 0.07686312921432431
1.3931363347455488 0.15622799164775109 469.0583537326187 0.06310017323083947
1.3936722793946401 0.15903793981627048 468.84372565856165 0.05731734964277877
1.3939955293937438 0.16073273375533825 468.93701507804616 0.05877609222254902
1.3937306861204612 0.15934416523064543 469.02454681761225 0.05331691140175424
1.3939742817362812 0.16062133266891251 468.7207637357832 0.06387968527475936
1.3929974847880653 0.06393520692492893 468.81890373726253 0.0006398041138598561
1.3929974847880655 0.03760228602489231 468.6727432961354 0.004606432634026901
1.3929974847880653 0.05802803986896604 468.6807267909252 0.0006265215586123582
1.3929974847880653 0.03559562234991739 468.6863147392785 0.006561722736784699
1.3929974847880655 0.03772505041901264 469.0139675975776 0.005273377357497406
1.3929974847880653 0.017103566425420946 468.60521703838145 0.12486249917361328
1.3929974847880653 0.06006443760562112 468.76803209320656 0.000695532694206425
1.3929974847880653 0.06581744196078101 468.8408576139153 0.0006962026504077581
1.3929974847880653 0.04638027328414248 468.7084393876139 0.0006128740962846244
1.3929974847880655 0.016528311397063313 468.66433088420945 0.05775790237095662
1.3929974847880655 0.09033730575581901 468.64882280136965 0.0006898809714752965
1.3929974847880653 0.11270388300531754 468.63254911236015 0.10139202935323817
1.3929974847880655 0.056441193750256094 468.8894448662021 0.0005631125893669626
1.3929974847880655 0.08133048142271689 468.84286403894987 0.0007004972321782112
1.3929974847880653 0.02660946005381785 468.9094214854632 0.03243571870628935
1.3929974847880653 0.02538919418540826 468.67701138231985 0.028553016951035026
1.3929974847880655 0.02507059845371391 468.61342903625274 0.13891097039359454
1.3929974847880653 0.017626192130145796 469.0111522288024 0.050352674026010485
1.392997484788065 0.02478778340858573 468.694621235162 0.036544281763020284
1.392997484788065 0.0861581438199075 468.65829390578926 0.0006098496455930547
1.3929974847880655 0.047208474544785016 468.9231996691284 0.0006770556470758894
1.3929974847880653 0.04773215120055045 468.63384933942905 0.08061430188290128
1.3929974847880655 0.08625615280020414 468.737009560852 0.0006433880929142937
1.3929974847880653 0.10117390290776457 468.681328663871 0.0006561472267201353
1.3929974847880653 0.08876639160143061 468.63930396512296 0.055872362951337406
1.3929974847880653 0.07440368367071495 468.7507961587745 0.0006754265650182191
1.3929974847880655 0.06307429356971843 468.6898508973301 0.0006254536801411136
1.3929974847880653 0.06090863266235893 468.65144483805386 0.0006133256763250929
1.3929974847880653 0.03988026006777198 468.9333923112631 0.0012528956757415898
1.392997484788065 0.05343830345301394 468.6702865352165 0.0006081048824647402
1.3929974847880653 0.06541853848982633 468.80255673432174 0.0006002602431882077
1.3929974847880653 0.019210533907916362 468.94066672337476 0.053880276458320955
1.3929974847880653 0.13062231148975048 468.6210884969232 0.11571703171963646
1.3929974847880653 0.11437887000199028 468.65052473447776 0.0007142916868262986
1.3929974847880653 0.08617374442041102 468.6797285680595 0.0006121801540000026
1.3929974847880653 0.03842374139693841 468.697992855436 0.006102028094093985
1.392997484788065 0.06404187248064827 468.82927566605224 0.0006793598219040518
1.3929974847880653 0.09139162560549009 468.7795078860038 0.0005669046157608926
1.392997484788065 0.07363610023684022 468.8477177477812 0.0007300927044271379
1.3929974847880655 0.09798151047466777 468.6297715900087 0.09071943164315016
1.3929974847880653 0.029671762792027215 468.7502569155961 0.02019299834799287
1.3929974847880653 0.02511492925737059 468.88220505827815 0.03624365135240441
1.3929974847880653 0.0263643374364934 469.03936666730294 0.03432160018397396
1.3929974847880655 0.03852397951570386 468.7148456459786 0.00503013777299823
1.3929974847880653 0.020513053050015165 468.92647038840414 0.04384187528703955
1.3929974847880653 0.11575210260577254 468.67966366670714 0.0006828552509922668
1.3929974847880653 0.017406965457660215 468.892100414761 0.04715996081363464
1.392997484788065 0.020542829664640123 468.9848747507114 0.042015623309070285
1.3929974847880653 0.05364641402663894 468.94389940923406 0.0006313078033655029
1.3929974847880655 0.02680480676862997 468.82964250194016 0.026032636262840053
1.392997484788065 0.03450857128670898 468.80150821879204 0.010607986261007894
1.3929974847880653 0.0483599103409914 468.6820256440499 0.0006045397549638271
1.3929974847880653 0.12078476507990982 468.6416547522968 0.025673171744563152
1.3929974847880653 0.11046619755098823 468.63262945800733 0.10679035994012585
1.3929974847880655 0.042478764255945475 468.7258105427552 0.0013476836844279277
1.3929974847880653 0.06315191972807874 468.64063138990866 0.02811693310754262
1.392997484788065 0.11081249605882615 468.7108923560621 0.0006094173684020551
1.3929974847880653 0.10827718335406172 468.76418481115206 0.0005917821041801406
1.3929974847880653 0.03587456533264666 469.02453844387367 0.01260180523573512
1.3929974847880653 0.08864124651323647 468.70301569397816 0.0006055757146677068
1.3929974847880653 0.03697615171142867 468.76604411848854 0.007349203991245782
1.3929974847880653 0.13295944593322434 468.6354099100132 0.07961841456130776
1.3929974847880655 0.10760288280195648 468.72162793902817 0.0005433924656619651
1.3929974847880655 0.10224288055166778 468.6413283876295 0.000702953464693706
1.3929974847880653 0.05913630668915833 468.88028894054236 0.0005707843157548648
1.3929974847880653 0.023618190496454246 468.7145162489897 0.046047988595951356
1.392997484788065 0.026326180471944058 468.94787081820095 0.03297844930757656
1.3929974847880655 0.0736654017867015 468.8125954359733 0.0006405033797198035
1.3929974847880653 0.03620797695188884 468.88744009861784 0.01401144961662828
1.3929974847880653 0.05336799306807759 468.7285239018306 0.0006742558886616778
1.3929974847880653 0.032894374972670386 468.92349783160273 0.016344651409200023
1.392997484788065 0.027713683549703175 468.90808538832476 0.03388438840598262
1.3929974847880653 0.0632277424227145 468.7345404644807 0.0006454847614132727
1.3929974847880653 0.06278094804456638 468.6308596935178 0.08522429551966962
1.3929974847880655 0.05533683247963307 468.84199873992713 0.0006426029804104792
1.3929974847880653 0.09812312256573587 468.79780259788356 0.0004947540586408146
1.3929974847880655 0.12697709343281452 468.6780796026068 0.0012805644677037528
1.3929974847880653 0.02817688196124183 468.6624135572588 0.025644319193708524
1.3929974847880653 0.07696686977707375 468.8668209706851 0.0006570290390546022
1.3929974847880655 0.01886805384593536 469.0492985668509 0.04953916359055642
1.3929974847880653 0.022081635644600497 469.02644894639616 0.04057504862000705
1.392997484788065 0.10870652542837589 468.74544400376806 0.0006606492106009924
1.3929974847880655 0.07217501897782112 468.6481267763444 0.0007069368319493816
1.3929974847880653 0.07564354294835804 468.79469984821594 0.0005717811278464606
1.3929974847880655 0.02382709331124505 468.7661566525002 0.04022432256037713
1.392997484788065 0.03973795406400969 468.9124012076858 0.0035009219216108793
1.3929974847880655 0.03376174935545677 468.9672140813443 0.015404076641893522
1.392997484788065 0.023292017790654942 468.6538552554619 0.04369048233511835
1.3929974847880653 0.036164468361585565 468.6529011320417 0.011805293272659098
1.3929974847880653 0.09292932715026463 468.77038389513723 0.0006554750347771966
1.3929974847880653 0.04328726595162085 468.60989997814744 0.16808804197324648
1.3929974847880653 0.028616964335212963 468.84611918970535 0.02884775873608352
1.3929974847880653 0.02979352302953722 468.86239154268003 0.01845981885471606
1.3929974847880655 0.05681804868710093 468.8090908246574 0.0006937986901183564
1.3929974847880655 0.0697917147186632 468.8744637931927 0.0006230843888680512
1.3929974847880655 0.07815774663804767 468.7199086042451 0.0006631509874886583
1.3929974847880653 0.08226539920996699 468.615710385135 0.1360049645880676
1.3929974847880653 0.0532793953121389 468.75841438857856 0.0007231749751217594
1.3929974847880653 0.07077028472993395 468.77379118126566 0.0006389098658651778
1.3929974847880653 0.08267077897153123 468.7691026816933 0.0006673917768767766
1.3929974847880653 0.02794322505252197 468.62215376963184 0.09449142552270706
1.392997484788065 0.04255625970502422 468.9769724110473 0.0010075771669837837
1.3929974847880653 0.030391773685353528 468.97599554250144 0.033156783390540887
1.3929974847880653 0.0457180057618785 468.74931555167734 0.000701703501189974
1.3929974847880655 0.06502020284392004 468.86519054254256 0.0006433441441886641
1.3929974847880653 0.048537928306061476 468.788842966286 0.0007196678632048029
1.3929974847880653 0.12893255535994882 468.6775772958034 0.0012183700946647692
1.3929974847880653 0.02576304437603106 469.0174218541194 0.038958864118148216
1.392997484788065 0.028545909525250567 468.7885820081416 0.026719027931235494
1.3929974847880655 0.06581814269831067 468.7004464799127 0.000624574225993214
1.3929974847880653 0.03523785923204082 468.853991387498 0.009967561830972424
1.3929974847880653 0.0950227416230898 468.7516031835446 0.0005732491720614759
1.392997484788065 0.10820515045090513 468.6746922853858 0.0007378604599233464
1.3929974847880653 0.02648280382033563 468.8082744803501 0.037322785548165434
1.3929974847880655 0.053315163423473116 468.86458124462706 0.0006496935000124597
1.3929974847880653 0.028303852868448248 469.0561468429876 0.025434638715734564
1.3929974847880653 0.0528543671647072 468.61213374095104 0.1635445588438875
1.3929974847880653 0.10901910978540706 468.69892143145506 0.0006274918643619936
1.3929974847880653 0.03875897734121838 469.0039442246318 0.0035899004868793494
1.3929974847880653 0.03436466487960942 468.9859625896107 0.010101591155483721
1.3929974847880653 0.06325674827474818 468.7533942589273 0.0006528762043224659
1.392997484788065 0.03561011314007603 468.8338922746244 0.004204742010831078
1.3929974847880653 0.03642009814306959 468.78970359095376 0.009793168547367583
1.3929974847880655 0.09266580704396696 468.62065421663823 0.12519361373705906
1.3929974847880653 0.01627078274591342 468.7577930560469 0.04871647578891151
1.3929974847880653 0.0325772588100551 468.8772451976258 0.015231596183140118
1.3929974847880653 0.05643669419964109 468.7444799632542 0.0006821967116530461
1.392997484788065 0.08392618893214064 468.85378962223035 0.0007146091564285642
1.3929974847880653 0.06028902722826873 468.78425341046335 0.0007040176286605637
1.3929974847880655 0.025908314732554553 468.8972091742949 0.026537881071781868
1.3929974847880655 0.06535514073357443 468.91677828283844 0.0006698436897769977
1.3929974847880655 0.09589555805266207 468.69078533100617 0.0006055043207090398
1.3929974847880653 0.05788307396088299 468.66181809747394 0.0006872274261573268
1.3929974847880653 0.05052077475817039 468.6445225362888 0.0006288781166647676
1.3929974847880653 0.04772185906933243 468.79973138090565 0.0008105808069887624
1.3929974847880653 0.12318406425536226 468.6300767855614 0.1072564028283047
1.392997484788065 0.1346720226786468 468.6578081766238 0.007042116855347909
1.3929974847880655 0.07456356415838805 468.6872253141547 0.000597946630555519
1.3929974847880655 0.08389341920034965 468.6310467860803 0.08278455620113295
1.3929974847880653 0.02989286467067931 469.00717810002163 0.02052674971884727
1.392997484788065 0.020953644459718236 468.9733614806409 0.055864721209741376
1.3929974847880655 0.01676256388144053 468.8212034897896 0.04795078838728443
1.3929974847880653 0.09967156787491534 468.9145637981172 0.0006670055563298402
1.3929974847880653 0.07348973683997023 469.05720916525365 0.005146814570562243
1.3929974847880653 0.1456357304594202 468.95938953067844 0.035129281719410155
1.3929974847880653 0.05974250184074095 469.0881997380749 0.058288118919089506
1.3929974847880653 0.04981282323352415 469.089048513634 0.055718563306238325
1.3929974847880653 0.14473751905163335 468.6887558733282 0.028846999499911825
1.3929974847880655 0.1011469448180525 469.06611298328136 0.025191855789617787
1.392997484788065 0.1437187462855425 469.01892030796034 0.03679269350868322
1.3929974847880655 0.09410605522755902 469.0324501858257 0.000662302714610433
1.3929974847880653 0.15478600012604624 468.65564666114284 0.05292707256973436
1.3929974847880653 0.11234364892351739 468.92775692562986 0.0006537614098440812
1.3929974847880653 0.1358642139602459 468.8995810925526 0.006001766201695067
1.3929974847880655 0.1539770267025386 468.6910416928663 0.05570309604245939
1.3929974847880653 0.08492731098652351 469.04091836945645 0.0005519399619979848
1.3929974847880653 0.0917977086874289 469.05922309966513 0.010187260678087545
1.3929974847880655 0.15302350202982767 468.7097530783457 0.06028125036960926
1.3929974847880653 0.11061807163211373 469.03670802817976 0.0005521461538809866
1.3929974847880653 0.06304043462236292 469.0607805858147 0.014836121387527717
1.3929974847880653 0.10415321515637521 468.99025840813255 0.0006258723283728032
1.392997484788065 0.12426723003175924 468.9682272783592 0.000976692688873514
1.3929974847880655 0.14792342520599805 468.89817261177814 0.04312582525678231
1.392997484788065 0.08385955501959819 468.90232455459613 0.0007004166865442956
1.3929974847880653 0.12627048016669146 468.9882229132427 0.0007720124728438336
1.3929974847880653 0.1333097656232497 468.7164638775765 0.002546458999512522
1.3929974847880653 0.052957973593268405 469.08043369431596 0.04634111820339487
1.3929974847880653 0.13671360333622057 468.7779373781351 0.0084507808573546
1.3929974847880653 0.13215619659363756 469.09625611757764 0.07132795279580642
1.3929974847880653 0.07230977415804231 469.0205455198068 0.0006892599717323506
1.3929974847880653 0.10966424985791948 468.85566738378293 0.0006779281759859198
1.3929974847880653 0.11168461089245962 469.01430641705673 0.0005277309994750823
1.3929974847880655 0.08429488297199354 468.99291773793647 0.0006233943937965502
1.3929974847880653 0.14392340674473605 468.73440348401994 0.030414902764009256
1.3929974847880653 0.06638148981262154 468.9354842614285 0.0006417163420071781
1.3929974847880653 0.08009155090360343 469.0943675237422 0.06040881338693636
1.3929974847880653 0.15411404387576272 468.68039521567243 0.06141063113230302
1.3929974847880655 0.12638555274445507 468.95449037276353 0.0006719063048630835
1.3929974847880653 0.11210705317521577 468.9152511067469 0.0006285577754054078
1.3929974847880653 0.1381752078618648 468.98376736222355 0.017525317557790524
1.3929974847880655 0.1397705008022164 468.79030940453157 0.017968225674925162
1.3929974847880653 0.07254229264874651 468.9754656962489 0.0006537546338402545
1.3929974847880653 0.0879178079358674 469.01933975003 0.0006183306731031456
1.3929974847880655 0.14890103452509906 468.77852181298783 0.03767396726985647
1.3929974847880653 0.10222767375979369 469.0534158829026 0.0006397955668660339
