x y z curv
0.05948769356267865 0.07084959617977411 1475.1081702438798 0.03300483600017516
0.06669298098154387 0.06739413024784363 1475.2706249223843 0.03253389685323325
0.07665525761519833 0.06261850485429962 1475.325104006426 0.028246185686053606
0.06129609321131238 0.06998037925084373 1475.3137079712246 0.031019239281260616
0.057775167199643256 0.07166485633032854 1475.576822426479 0.035372650485339614
0.0537442384367972 0.07359992954238571 1475.3220249228666 0.03412418325529644
0.05332113630187378 0.0738003327826335 1475.5235149080995 0.03424398448940822
0.05427115466529163 0.07334531862522652 1475.495271695633 0.037231831163554455
0.06978249760556947 0.0659161041911001 1475.0349753608116 0.03169787105433811
0.053930251070924765 0.07350793638456952 1475.5609178518953 0.03192008662499511
0.07753557690096788 0.06220039632435055 1475.0021863738361 0.031023358640411808
0.05534015712440913 0.07283419869504787 1475.3891986608357 0.0344234572530088
0.058375947583565554 0.0713829506544714 1475.0670662292925 0.03410210440309555
0.08760922663412549 0.05737012073066389 1475.1635037545288 0.032537111049765935
0.07227254716686358 0.06472174085972598 1475.1080640530122 0.027911819544737246
0.18089679021886917 0.028003381281742356 1475.5326866634646 0.03196429973421025
0.20683143469637366 0.02457996533529827 1475.671297371928 0.20570054481930122
0.21697490877646697 0.023241009987433205 1475.6651210293421 0.1778445133018502
0.22139279462092384 0.022657841752271864 1475.5157049241175 0.03144792232110449
0.20095962555591865 0.0253550538491719 1475.5269367031296 0.0287173022242002
0.2008690757684031 0.025367006570821762 1475.5641183553173 0.03163558641854732
0.20664009663197158 0.024605222276121344 1475.4549463535109 0.034273588324990986
0.1674812985749669 0.029774248357362337 1475.4091949998774 0.030815953232221912
0.2365878420084802 0.02065207037651019 1475.646519417803 0.07121617273670032
0.17445650367223178 0.028853509753044584 1475.4191890067607 0.03243532304780548
0.17442529473785318 0.02885762938397748 1475.4694941632206 0.03170377492696858
0.18381735125396303 0.02761786239680927 1475.4565841420253 0.02961684697184486
0.18924390977499977 0.026901547700791624 1475.5528395198876 0.031279352888415456
0.16255767424254258 0.030424174909027317 1475.3346142991059 0.032144402426186644
0.18272298017045932 0.02776232118905697 1475.4931717828067 0.030112466815939116
0.17765069720220086 0.028431870926415997 1475.386796403198 0.033713876596540716
0.1979526438915897 0.025751980400035464 1475.6259513689154 0.029824395775849163
0.1993644197321223 0.025565623655123233 1475.6788804545208 0.19820387696522393
0.1727737448837501 0.029075636695077817 1475.6144919567093 0.03092302530818909
0.22211153508002549 0.022562966823441534 1475.5813291259672 0.02966648172968217
0.19301575293868428 0.026403658167536457 1475.652787225089 0.12431195340307048
0.1904407312431848 0.02674356528839399 1475.4669548464879 0.03187254570924354
0.2118014433656551 0.023923915974485108 1475.5713336957 0.03046626879021159
0.20137011601144428 0.02530086843041559 1475.5053410872213 0.031012542773388205
0.18245778711998198 0.027797327110139783 1475.4351885115325 0.030863909789251874
0.18978121796637912 0.026830622131246283 1475.50823957355 0.028791582953930767
0.16233982645327266 0.03045293117735909 1475.6625606771759 0.11445825407541488
0.19942142767239815 0.025558098512760717 1475.4779893462646 0.031590936180742726
0.24735373000815578 0.01923095536227936 1475.6344775832276 0.02711166658580442
0.22301770399845355 0.022443351028121516 1475.5038819628428 0.030242175021230073
0.17783886989150272 0.02840703182033918 1475.481023679415 0.033523232344044085
0.20362603281843664 0.025003083682388384 1475.6060165601752 0.02972495104130063
0.21143310353935013 0.023972537440500444 1475.4806102447837 0.03200742096085967
0.16205986921031384 0.030489885996257765 1475.3495418731466 0.0381534024245112
0.19738631293338119 0.025826737022782986 1475.5846014585886 0.03037873490306908
0.17164447312053932 0.029224702434745006 1475.651538338928 0.07088345193248301
0.17874758587270134 0.02828707980852262 1475.6610707441675 0.1443838564384534
0.15998392864797528 0.03076391358245214 1475.5413397570837 0.030430424750834864
0.1638687157550646 0.03025111526194748 1475.3981282546279 0.0291409638843839
0.2166510190202931 0.023283763970705945 1475.6011645099463 0.029113736890487792
0.1726602411433401 0.029090619376457454 1475.5416720449598 0.030310778039450904
0.2512167701062296 0.018721027682917103 1475.6078626918377 0.03269278910887199
0.24762507492185276 0.019195137385081235 1475.662862426799 0.13694422152391963
0.2137982236473378 0.023660337676205866 1475.6511378049665 0.07586412958994852
0.24410566053927485 0.01965970590191255 1475.618689436631 0.030747764705817106
0.23617912160436844 0.0207060221455536 1475.5645266567858 0.02760631800236482
0.15996988125414063 0.030765767861661613 1475.6018949178083 0.035093079019325714
0.16753920470711697 0.02976660465218754 1475.3589980681122 0.031395355035599364
0.23989788171451665 0.020215139663122658 1475.5770514155702 0.028877502584805786
0.16041061288484912 0.03070759055778615 1475.372876501335 0.03040598052081311
0.18464287087306996 0.027508892442329874 1475.5824298610387 0.03230251885755883
0.2368982723073997 0.020611093063846342 1475.6077074112322 0.028612041611802037
0.2252921684076737 0.02214311796593716 1475.6429349358655 0.05161933416837483
0.1986776618925984 0.02565627682529531 1475.5420526933372 0.0303659202377539
0.2270055994508427 0.021916942235577525 1475.622072289254 0.030245955972950687
0.17088291500797778 0.02932522936461862 1475.6711390489913 0.17370923661023094
0.16560531726814018 0.030021880991254517 1475.5835658565154 0.03549049907183807
0.2334384441144577 0.021067796105137242 1475.666998057162 0.14171080780069575
0.18590239041342102 0.027342633780753235 1475.5633770646707 0.031217750146652096
0.18582105816646632 0.027353369771810538 1475.609866060102 0.0281789797118082
0.19358795950153182 0.026328125955262963 1475.5731783103734 0.031161024395817624
0.18771201083251637 0.027103760893750082 1475.3805829394303 0.03393820298687313
0.2088292970947009 0.02431624419583299 1475.6380496338254 0.03693586416868925
0.1637424087734806 0.03026778799232853 1475.424057855344 0.029235048105698266
0.20685022096361094 0.024577485516965304 1475.4683869235687 0.030145809876309188
0.16682616768023278 0.029860726718536193 1475.4881194345517 0.032307809703854475
0.16593456732853737 0.029978419438962598 1475.5298162500667 0.031191066346423903
0.18554015874620583 0.02739044895967065 1475.6810071355096 0.20635808213096188
0.20750723246067376 0.02449075891317504 1475.5914988780207 0.029821642897020533
0.19771568651603302 0.025783259165349248 1475.4309290427566 0.03350214688706436
0.21134697390746557 0.023983906694299575 1475.4994404447148 0.030523712262588078
0.2223017243559829 0.022537861524592348 1475.5638859246628 0.029419553137703554
0.2649567912032451 0.016907322182970846 1475.6650749963337 0.191857624064853
0.2171123460779031 0.02322286803643092 1475.5517302002763 0.030819659847493575
0.1891908958750158 0.026908545623232617 1475.4222742850438 0.032581236698993064
0.17106912792227297 0.029300648952082602 1475.4537314979152 0.030564233496907033
0.2593736365788162 0.017644307823522488 1475.645636037748 0.05729539434710443
0.1686136241166788 0.02962477951388447 1475.501444424498 0.027898032441199535
0.17280299615907288 0.02907177547837671 1475.6315403624847 0.030954795125483003
0.18469946198932885 0.02750142232142669 1475.3976410271894 0.031524188351838504
0.16918791028802005 0.029548972789851784 1475.43385125626 0.0318142869824606
0.19150969818716465 0.026602459884561815 1475.4445549201218 0.03159042676914603
0.18956286819111967 0.026859444662558556 1475.4080401142187 0.03300521108334692
0.16179820710314663 0.03052442582698625 1475.5726094250701 0.033410728841235436
0.1705259036695118 0.029372355451510835 1475.5971883242873 0.031865150597071665
0.16008052653500665 0.030751162501667414 1475.6347234770647 0.02884888932517983
0.2426417655431984 0.019852942461520483 1475.5938104936122 0.030346155587756208
0.23070662130003322 0.02142840123291806 1475.5285358614144 0.028057330064182692
0.17591638835683543 0.02866080256118096 1475.5739004203624 0.03206032988255994
0.2116374109365176 0.023945568526311307 1475.5309304032207 0.030371915730220127
0.1795399404849777 0.02818248768977357 1475.3723758307706 0.034653331246594234
0.1876936099826067 0.02710618983635863 1475.5985294595362 0.030453862628482976
0.21680828099300833 0.023263005130320466 1475.6119292826247 0.027614195178646345
0.18563515181230333 0.027377909717902302 1475.6251363747374 0.030762105316745416
0.1915573527981927 0.02659616939712303 1475.64062543898 0.043367370805353
0.027040441613175883 0.0995813326896458 1475.4614021020495 0.03884163997937751
0.026811501740718693 0.0998992834894703 1475.6632638355945 0.1518375787099637
0.027820043344168405 0.09857829032930088 1475.57141143743 0.04201995845434448
0.031019566942117664 0.09439870680476029 1475.391816507462 0.044686347609269206
0.03366377549931987 0.09096149639079495 1475.4131227574205 0.03485132267772855
0.02618594154687479 0.10070910502439541 1475.6247414616432 0.03925529793141233
0.0269816588386428 0.0996547903526864 1475.431359230874 0.041688131477311346
0.029280888714044825 0.09665431656742669 1475.3327594399661 0.03749839229863369
0.02748145539920795 0.09902657693434225 1475.6503163717805 0.07616441684149863
0.03380659659189273 0.09078796919290778 1475.5356488269103 0.03524580013971411
0.02966757397361866 0.09613991786233263 1475.2183050171168 0.038698366855052624
0.025958377190922824 0.10099831845075549 1475.556867876281 0.039040066111600484
0.03171280674224577 0.09351898604548309 1475.611829861613 0.04418093320593318
0.030063747356753535 0.09562626246937052 1475.234819198166 0.03878927519444998
0.032631280513954024 0.0923107897198658 1475.4763868524797 0.03823988630559805
0.03418160267000907 0.09029701146292926 1475.5037697493467 0.041519166499102346
0.03279682395098648 0.09210624305554424 1475.584255501413 0.04126824174174008
0.028762639395862807 0.09733981521058908 1475.4469508429238 0.0367690191332504
0.029970578034977075 0.0957412563213134 1475.172840232623 0.03771461801160846
0.02670096635214921 0.09997376996551542 1474.969737164673 0.03915606947874705
0.02667652755920808 0.10003985385293969 1475.313021096105 0.047939430272473965
0.033487970287950794 0.09119216734201234 1475.4331413802224 0.04095471652440182
0.02569222342029844 0.10133003838756274 1475.4120522293547 0.036708346290323074
0.029444919513767646 0.09646209721335074 1475.5443234886116 0.04141037505629524
0.03086657105093462 0.09460717853467951 1475.4865953349818 0.0381453243227177
0.03570435442228756 0.08833201263230106 1475.6604581884708 0.1481645465555177
0.027012174870013745 0.09958492521645472 1475.1293485565773 0.04209460227065202
0.03632222965375098 0.08751950215759814 1475.5720132685522 0.03416371792581395
0.034430240918298785 0.08996896211171057 1475.45728628764 0.042654520700542854
0.032406305329509874 0.0926188009088082 1475.6303765239322 0.0375111507261205
0.03423122887475546 0.090238019720182 1475.5593957299238 0.039413496525743205
0.026231413177562318 0.10061714667137518 1475.2963022692534 0.03771891605553386
0.029264694562226863 0.09665674146263577 1475.1461950198604 0.037089802328382035
0.027957101405269077 0.09840212490378777 1475.59249996052 0.036355284660866266
0.03571792146610755 0.08829790702916104 1475.4018471408724 0.03573044088248766
0.03548975690523177 0.08858519326012729 1474.9157537521244 0.03264291187687776
0.03140691977146698 0.09387212660149719 1474.8778801370936 0.12776062059651738
0.03497837436988365 0.08924896710605983 1475.0044027372269 0.032195294513130246
0.032226658339889844 0.09281134390170617 1474.927574313032 0.045488852285460915
0.027281459300171666 0.09921505643901875 1474.887182110547 0.12554368821762946
0.03614962876384636 0.08773447230231253 1475.1445531060906 0.041001293484631635
0.033027651343319295 0.0917783150894175 1475.183295313821 0.039261928580810304
0.032046020904619395 0.09304735569260614 1475.0504143276294 0.03975434601560187
0.028903093229768077 0.09711603127349219 1474.9529127894791 0.03671420633409288
0.035097101313339325 0.08909657304391956 1475.0853441741037 0.042238873485363114
0.03700326299087117 0.08663020320858657 1475.218598398377 0.04176150937269855
0.03355618025310746 0.09109577185029652 1475.298267697146 0.04194300389371703
0.037367503747486173 0.08615922502426326 1475.2624593401042 0.041399762418840975
0.03743273696368723 0.08607617880696156 1475.3475223688436 0.03629890941282834
0.03677961955342303 0.08692538657607785 1475.547385225122 0.03416221997096386
0.029819711836772 0.09592875638393004 1474.9418444341336 0.041297140378117145
0.033061324473963066 0.09173387267859515 1475.1339221844923 0.03844996869278259
0.033724269906649076 0.09087142923841358 1474.903978220082 0.06491810998166705
0.029835931745537586 0.09591036973399397 1475.097049498253 0.04087428884539444
0.03511010228738354 0.08907892707306746 1475.0374219492999 0.04144040413089923
0.033514250735700524 0.09115117557738453 1475.3635619003692 0.03716751609247762
0.03385076941822032 0.09071384195612772 1475.273654000469 0.04139895358200342
0.03345674118226698 0.09122228052801803 1475.1636314867806 0.0388682140153289
0.033849992161082254 0.09071569124517687 1475.3235864210735 0.04074233203634064
0.03198880363911144 0.09312105595702659 1475.0266963341487 0.04097318074352477
0.03260894452005454 0.09231947559003921 1475.1183860972365 0.040343824454054676
0.031245842382888495 0.09408257097408962 1474.9867523142393 0.040638759498587765
0.03424350473816691 0.09020018139549205 1474.9750365977934 0.04225715844970745
0.03527198468840376 0.08886798305969751 1474.9607193178779 0.04414117565527787
0.03684256051205038 0.08684110780658995 1475.38351070437 0.03333169766089455
0.037742946487290624 0.08567858377995687 1475.5933660845337 0.03877558828071214
0.03429910156784412 0.0901327540759699 1475.2461022823602 0.04312297410862312
0.03492519320760089 0.0893210687560054 1475.195684021001 0.04083900276472199
0.020719619498946445 0.11407570482730414 1475.3790797921129 0.034757402125816315
0.022468833130144708 0.10976467973139008 1475.150597944931 0.037512853869236015
0.020954025382245237 0.11348572650774921 1475.3333818816993 0.03259544294207884
0.021119188323058983 0.11278055978838036 1474.9455207346268 0.037960012178597465
0.019727136598669537 0.11656768512425521 1475.565183200789 0.04094062043992867
0.02310246857028308 0.10825904860519697 1475.136633075624 0.04124347052288245
0.02192100277658289 0.11097235436338881 1475.0470917850637 0.044463086637918765
0.02121604745878078 0.11265551064478742 1475.0725272081231 0.036304399925325075
0.021177617295538825 0.11301004855195376 1475.3967889476448 0.038292007640008265
0.024346100868562724 0.10515627647710493 1474.9277733800857 0.046403204984889077
0.01921008116081708 0.11754171314005206 1475.263770915804 0.039319043976654124
0.019216333799920375 0.11760884418004697 1475.3643707885017 0.034669204136240125
0.023440471754334807 0.10742935832255399 1475.0965815605489 0.04096521585961122
0.02046859573500262 0.11455440308619652 1475.2398991613488 0.03527581622952041
0.022056247822591135 0.11053993859908766 1474.9076667880545 0.05875174575937506
0.020508807928521375 0.11455081451477915 1475.3520059068196 0.03320061953077707
0.019889391157123897 0.11587403512296102 1475.1830453143039 0.03861893259359543
0.01910813599777428 0.11790395811709409 1475.4134656992348 0.03877861529063356
0.02110770589135922 0.1128800700882892 1475.0345165447202 0.03571200382342225
0.01912630497421822 0.11787661307329085 1475.4325124644524 0.03656120481577132
0.023920046099999284 0.10622070968895132 1475.0011172874813 0.03844716151190383
0.022559300250698373 0.10941843833133968 1474.9873085129177 0.03692177045183524
0.022554800710685493 0.1095361642318067 1475.118918621106 0.03677541249853411
0.019703134758275148 0.11641775902300547 1475.311425749188 0.04281696417076432
0.02369514078192658 0.10676677328968537 1475.0203861434352 0.04372196049058928
0.024619025506481235 0.10448808215585303 1474.8975820757184 0.08434163183570705
0.02079847485497799 0.11381329124480746 1475.2851426467146 0.04087059797033633
0.025816059834723397 0.10151866179513873 1475.054637512957 0.03553427590769466
0.02341718134129672 0.10754607678087255 1475.21140332695 0.039077007031251804
0.019814438528559554 0.11628729268668869 1475.6632273900855 0.13128881584148916
0.02533393349574308 0.10232133044786335 1475.3704991632142 0.04250537524916584
0.02249915734996115 0.10955456693595697 1475.478813639469 0.04431190937922958
0.02376162332018809 0.10670636483146889 1475.170991955569 0.04076531603724749
0.02344053902289215 0.1074655013053302 1475.2251041482652 0.04020282632363174
0.02452417298426276 0.10425867130055225 1475.49108309196 0.04224753431092816
0.024602333824641505 0.10389347513511776 1475.6034193554835 0.039084477991532855
0.023100601858983636 0.10806602159034073 1475.4237567447733 0.03682794153073771
0.02196051013713864 0.11080041654971805 1475.5888412958186 0.034321256594453696
0.025376032559605147 0.10202239059581286 1475.5021344902111 0.04505159069266805
0.02544931090210419 0.10197744810059631 1475.4005180027468 0.03623873779864185
0.024421642641633677 0.1050763947651202 1475.1081067067782 0.038651687626920964
0.020676275693402087 0.11420222843674918 1475.5509810621177 0.04002273530880093
0.02398763572282801 0.10608281063958735 1475.1949570793226 0.03972717550848126
0.02448530813118706 0.1045140395281161 1475.3838964370143 0.0409909022670519
0.024944455897606806 0.10340393871727223 1475.3235909735822 0.04024011878811776
0.024585068154504286 0.10442401025438076 1475.265625492082 0.03612332468436657
0.02344241277454304 0.10713447882481675 1475.4520050688031 0.04418067954258229
0.022340118300809488 0.11002559789435024 1475.4395115947211 0.03590554798184411
0.024363842184291846 0.10511940069079675 1475.1830027137285 0.040607899189699696
0.02306131165862586 0.10783614806446085 1475.6549335853551 0.10751959683779266
0.023143660847838504 0.10820026549496015 1475.2522769314992 0.03625016768853106
0.025876732182600684 0.10133559828904169 1475.0719743781929 0.03899727707719629
0.024990612647123437 0.1030019566241452 1475.5195565425693 0.042100191599823686
0.020884789764569835 0.11373355245255214 1475.4989260840366 0.046519269934779714
0.020363186494313505 0.11494128807605679 1475.6045626900554 0.040348204978396224
0.02278930036896858 0.10857714970339549 1475.6326729335099 0.040950715557015176
0.025604542643085124 0.10191719468400022 1475.160938308551 0.04259642069074964
0.023606565709546105 0.10658119058928259 1475.539261523571 0.04130579057948122
0.03835712976615757 0.08501171677270229 1475.0676935156848 0.03961003619415676
0.039275407831925346 0.08432078386271957 1474.8778845116478 0.11696653099653838
0.04494347597992417 0.0799858687373474 1475.1189191301805 0.03400984627707167
0.04562598664574241 0.07946423442121509 1475.1409531991324 0.04102160366649813
0.04084929761108521 0.08309039415202568 1475.4823049471852 0.037501732925585764
0.04090119423030793 0.08305403306455975 1475.41745502188 0.03462956523919689
0.0429024380092178 0.08153713407260996 1475.227743029901 0.03633829562252268
0.04187359256407154 0.08232067846198067 1475.250708368565 0.03904675381631575
0.04528824419765913 0.07972701643506194 1475.0363959308404 0.037677427120234586
0.03889054624069827 0.08458972898414928 1475.3730287290837 0.041645274058019
0.04030135628625577 0.08353103606705678 1475.0243702793873 0.04041338418559499
0.04168487935302211 0.08247187991400223 1475.104221026216 0.04155249739511253
0.039641819284334065 0.08401979928190831 1475.3115020096525 0.03673136592029433
0.044338860013473765 0.08045612681024308 1474.9350889087523 0.03899013341162787
0.040383305321620135 0.08346210337992489 1475.153910834879 0.0392222036377123
0.04428803383339035 0.08048725383675148 1475.0889184466168 0.04028981111553291
0.03858554654435512 0.0848435065809328 1474.9468472666867 0.03772324604813571
0.04007275899466194 0.0837074102991127 1474.9835508636327 0.04144428331526903
0.0511388668633563 0.0752707545409339 1474.9171990202317 0.03856725382626581
0.04110962040858603 0.0828904967297697 1475.5095615737334 0.034315127429580934
0.042440438818124454 0.08189087751697863 1475.1998711975366 0.03410457707764901
0.04179583782034115 0.08239243241694431 1474.9999101992103 0.03519243465734672
0.04741905536284932 0.07810071269237406 1475.0598993024303 0.03742705889317689
0.039426197313084346 0.08419095176955772 1475.1765329971718 0.0419416601228589
0.04087999213108824 0.08309639239735041 1474.8899643752595 0.09622053936916179
0.04043347944705715 0.08343524799518123 1474.9240594008015 0.03822969428280668
0.043171812349686055 0.0813293901693336 1475.2739935733648 0.0409040328048495
0.044180361458187975 0.08057832660422236 1474.9085945983397 0.052693465879475744
0.0426556892322324 0.08172204281550746 1475.2938635711628 0.04232154360077158
0.042637995763273 0.08175170153882086 1474.9682873117977 0.0349181203678126
0.050380941477937424 0.07584547571517497 1474.9844090903548 0.03781744579546784
0.05140144879121607 0.07500930807123975 1475.2978060083515 0.03721626281673928
0.04546194080482916 0.07952160357160536 1475.6360187429975 0.0430755544182345
0.0437432604105559 0.08085275667219853 1475.583655291875 0.037716836123476025
0.04602762858166365 0.0791165126967403 1475.458237400361 0.04117486178121816
0.03967370574856135 0.08397285860660471 1475.6476341162631 0.07972023473425244
0.044179931429926586 0.08053127948746346 1475.4982090072597 0.03443378758860102
0.04386086059838255 0.0807649689805707 1475.5677869510587 0.03420818770678813
0.042840997533233456 0.08155731986518372 1475.5222792186094 0.033853868631152376
0.04764435621760556 0.07791887814678089 1475.1855503623697 0.03941246037534563
0.04656732670663188 0.07869863329578292 1475.4739261403367 0.03979608261662476
0.048167253471918664 0.07749064094267824 1475.3386449866402 0.03569845955751219
0.05149393259629109 0.07492607157501202 1475.3691145651328 0.032454151455095656
0.0459494918295995 0.07918888826171375 1475.3858837996936 0.03305163050785175
0.0490410389283855 0.076805822745992 1475.412793578751 0.03412098489994905
0.04418402199349206 0.08049720456581218 1475.6807258304489 0.1748211842934257
0.05025064971305363 0.07591938245047547 1475.1520523224885 0.03873336345771315
0.04818656349891103 0.07745765285228458 1475.4456474844987 0.04147733825954306
0.05060272663814606 0.07564531116648324 1475.1709260388188 0.03524758339409928
0.042644743687376085 0.0817232848625022 1475.4339025699535 0.041168354076153844
0.048214183432989666 0.07747131161443954 1475.2396398808105 0.031392472484160446
0.04902725133479437 0.07682603667623006 1475.3561029126286 0.03445907596956042
0.041814421336651864 0.08234500435897621 1475.5347890866092 0.03239717315123791
0.04524311583598999 0.07970394910514694 1475.5534533691464 0.03628611490949645
0.04199104647938527 0.0821952007082919 1475.6169111417373 0.039857492592256745
0.05042260201135382 0.07576497422548821 1475.2825637151268 0.03840295781243451
0.051018381227350106 0.07535403347190803 1475.0026813854456 0.027746104037966932
0.0520386583239668 0.07445554468147647 1475.6726695338498 0.1823447305863211
0.016856862712063585 0.13550056280708106 1475.120940711955 0.03403883041289055
0.017115745046144742 0.13353505130512125 1475.0315468972226 0.03236650988515499
0.017132677032428746 0.13318331439026404 1475.4364966220624 0.03783465274143494
0.01739571861132474 0.13109349973666912 1475.5163375630245 0.03358452219202
0.017030077830706973 0.1340957261196187 1475.2262980575179 0.03637819361548707
0.017100690056548826 0.13344614313518988 1475.4107772375985 0.03266236935441681
0.0178338514863512 0.12765866853515354 1475.5645634553416 0.037966275614502436
0.017153236175988358 0.1330880664309336 1475.3174085318806 0.03382985602339559
0.0179758868662295 0.12667326188581465 1475.3443991242536 0.032887467468286746
0.01809058756749323 0.1256672941542269 1475.553507193696 0.040292137419793705
0.017306228258137515 0.13183890378226526 1475.4258197834965 0.03541300872780773
0.016875382917935226 0.1350969427426501 1475.598644381245 0.03437845868394003
0.01761295634693062 0.129422928779621 1475.4804141787758 0.03432041044450695
0.017496030917327543 0.1302462969221269 1475.6392594773304 0.04043006549264684
0.01694019816912309 0.13464457833960927 1475.503131491645 0.03294709535170092
0.017808977220441564 0.12801331539824104 1475.2679895527635 0.03538996195762535
0.017842233695041523 0.12770638078320098 1475.356711919977 0.02923219843279155
0.01781257273522078 0.12779977893174987 1475.6095410619032 0.04094723041268414
0.016911416153231152 0.13497893872577107 1475.2998554279077 0.03317156306815624
0.018058204401988034 0.12601741080491508 1475.3727976716564 0.03698443899287976
0.016814796382985542 0.1358160947574147 1475.1425493778831 0.0391916214825169
0.01803281386248121 0.12606296824233434 1475.6525315827605 0.07973630765628763
0.017349528305941386 0.13168852070955267 1475.0825688718319 0.03416471780646607
0.01762222927471533 0.12936169897302033 1475.4603281821496 0.03650447488373376
0.016892717097106238 0.1351790384696326 1475.199315573885 0.03613400288567521
0.018535441008626176 0.12218744076558274 1475.5883644182416 0.04077620080012387
0.017947091921519245 0.12679572200532366 1475.5313351737145 0.03523059416892277
0.017242797956026155 0.13244750199937663 1475.213934044451 0.03749060703560756
0.017138941075699885 0.1330124256085823 1475.6613373139724 0.14690421823209587
0.017068656016641925 0.13388589690733854 1475.0600808036318 0.03516425063653109
0.018719133383863315 0.1207418192261724 1475.6187587037327 0.03853602025732447
0.018156566323779044 0.1252445223753646 1475.3868644834552 0.03489265199524265
0.018908768108453773 0.11925802168693829 1475.6349249790171 0.038105275043433445
0.01913040563237273 0.11798638974741536 1474.9176613711893 0.039637278051612546
0.019141649337132367 0.11778205654651067 1475.1059497422407 0.03889891071282334
0.019064249321672312 0.11847629855780833 1474.954454745205 0.03876954084451948
0.01860160977344069 0.12207260650847278 1474.9380875981622 0.03788671262034616
0.01906959019860284 0.11812116918372324 1475.4585726956682 0.039889644016206836
0.0186543261757645 0.12163871126313436 1474.9786884172734 0.039863288318292674
0.018975980071473286 0.1190493781116036 1475.13303100308 0.04189377827852967
0.0188895139567239 0.11950944215398693 1475.4707478013815 0.038051140657429226
0.018511571420850168 0.12255851456701061 1475.2787705942123 0.037513504412999686
0.018650685423633403 0.12167493938099834 1474.9658222604062 0.03798159263226448
0.0181224900473775 0.1255962436511846 1475.2437594187168 0.039890908781529545
0.01870625852948362 0.12112284215121376 1475.1607748828537 0.03872702576954612
0.018075260777405143 0.12595534954366308 1475.2549895567236 0.03679659472715792
0.01903186984114761 0.1183819461769776 1475.509365406839 0.03487852708615461
0.018824847027238988 0.12024949720049806 1475.0870419650425 0.03620411115051363
0.017530615731659673 0.13025335188380577 1475.1325157732406 0.0395891223318035
0.01894665413677329 0.1190813966108146 1475.4468489714711 0.03760919406865616
0.017637352494627306 0.1295524322828176 1474.9293389968198 0.03541652177183069
0.018625771001816376 0.1217538339714124 1475.1493699503808 0.042726242259374575
0.018494403189219234 0.12282429466429527 1475.06553857275 0.03592240371190701
0.019110422361533812 0.11790504487596994 1475.297270802269 0.040230019262413284
0.018321269652859896 0.12400518704759317 1475.324469529025 0.038614749171894475
0.018891067769664087 0.11964842600708586 1475.2280677209733 0.03995266249187415
0.019088155963557 0.11824941036533046 1475.0212634079066 0.036698076419440645
0.018748728386938248 0.120785771002502 1475.1734186510048 0.03319189040706986
0.018216323110358586 0.12496021124968668 1475.0970395018421 0.03160522627375499
0.018394347228450805 0.12351796237501605 1475.1971558378448 0.04168222191085538
0.01715389141380893 0.1333106201468957 1474.9121956122524 0.03423216377248966
0.018560416665784802 0.12242929865833663 1474.878013294991 0.1411272185869373
0.018379788059316452 0.1237285642622506 1475.0400901272205 0.039032041128028716
0.01791908128355884 0.12732332864456986 1475.002129764139 0.036524091026944885
0.019051684180375297 0.11824320373205269 1475.485508146293 0.03697854341246454
0.018014240881884108 0.1266525471926116 1474.894723915057 0.11080343989849215
0.01915940796594627 0.11771243565928131 1474.9966290193108 0.03624674618515814
0.026743109459782304 0.22063454574984268 1475.4147085385548 0.02910119764310698
0.033276099433888616 0.25216667022656947 1475.5927851374554 0.03490837376124382
0.0319014751288636 0.24553190984231993 1475.4504898265575 0.03079711816636172
0.029342434001504925 0.23318044338903957 1475.5831626126649 0.03248599917044685
0.03206902001452476 0.2463405816773707 1475.5324796369948 0.029190233194265554
0.025369887740736813 0.21400655452750875 1475.507988604782 0.02878543807168717
0.025303758447170123 0.21368737511783942 1475.426593313609 0.031034916479096054
0.02818255698325741 0.22758218198338565 1475.4946428040585 0.03142617988657183
0.029989939651681105 0.2363056938600393 1475.5212272893973 0.030213016458677782
0.03281167182108591 0.2499250647242533 1475.3848678795798 0.031112520012351513
0.03120950144575423 0.2421920298625843 1475.5679569076046 0.02902376948839038
0.02353186876101634 0.20513517354040645 1475.4440789973762 0.029953290224618366
0.024058185508331293 0.20767549352708345 1475.4704668773552 0.02894032285421819
0.028022413644795578 0.22680923430259364 1475.4752127102101 0.028871644518574623
0.02316184240733192 0.203349204466305 1475.49926327653 0.029814947072116366
0.03230911469955112 0.24749942240677206 1475.5795428869653 0.030918861390090376
0.026366958746298456 0.21881901672815973 1475.5191504793324 0.030778313958119804
0.02661082412172188 0.21999605713152326 1475.539942725287 0.031572683883424206
0.02449560882443684 0.20978676046820893 1475.5271527141558 0.02920514998382999
0.031553890678163894 0.24385425882285064 1475.513611392019 0.031770251513472854
0.02671469121739468 0.22049738221734763 1475.4414479186246 0.030238854744847957
0.02796904311555706 0.2265516360676913 1475.5069783880213 0.02901063541604979
0.03070772501114027 0.2397701561273321 1475.5436424120821 0.031945854874426215
0.029803364450110573 0.2354051705092548 1475.3574670999196 0.029805665794701095
0.029003921622683913 0.23154657984280533 1475.5546154451354 0.03222010767037658
0.030901344046072032 0.2407046781096068 1475.3403992805602 0.030481646402576355
0.03142975223781461 0.24325509254106503 1475.4171614330824 0.03081254796841145
0.02793732850128506 0.22639856218720605 1475.568184500185 0.031086227808500216
0.029631128503009196 0.23457385639590594 1475.4460166959752 0.029493194049682918
0.028676982843179464 0.22996857770371684 1475.407702059571 0.028750146523514576
0.031484485818793616 0.24351926956997672 1475.4320297991917 0.03217564384478528
0.026834702687797876 0.22107662922682658 1475.5556160063172 0.03241920572002578
0.03260233850888149 0.24891469677979422 1475.3529376717584 0.031447544861187046
0.026088891743702883 0.217476898852054 1475.4657356089251 0.02973129791007815
0.030325275448640325 0.23792422516154393 1475.6159460398069 0.03315460904658384
0.02795461074372039 0.226481977071871 1475.3888445493749 0.03036993023650849
0.03018795529565366 0.23726143633561014 1475.3925718403561 0.03184081052046202
0.02994396709904323 0.23608380313143618 1475.3684707672805 0.0323690982284805
0.029422641260046904 0.23356757196464967 1475.4663871244938 0.029142456776845984
0.032745367412304376 0.24960504005124934 1475.3255537190041 0.034630330278954645
0.03277763868626024 0.2497608002096156 1475.4732533214296 0.03444356873021556
0.03276905325516384 0.24971936192921076 1475.4077186876088 0.03222144338893632
0.03296711869424227 0.25067534425802634 1475.4847698261037 0.033462484007206646
0.03325091862331069 0.2520451327617602 1475.5007898479869 0.03163147444673489
0.03021990657933951 0.23741565217422095 1475.4790962496552 0.030491237455912357
0.02326193851551881 0.2038323283092565 1475.4839641922063 0.02775018395842991
0.029104278195906885 0.2320309610996572 1475.4323944717692 0.03416143812965181
0.0328337929432304 0.25003183396272377 1475.6186703536523 0.03189385048132524
0.02907164914744152 0.2318734735133194 1475.5351005008145 0.03178587732840565
0.026348446583819504 0.21872966601206184 1475.4877140537724 0.02916174958109323
0.03219210223892375 0.24693465020671088 1475.5535549254637 0.029715598756125183
0.03213386843494798 0.24665357884352287 1475.6063206987442 0.03555738060206303
0.02752906729076217 0.22442804918078202 1475.4541327312331 0.029410018104039638
0.030779727275907796 0.24011768231556652 1475.4985966800452 0.031052683892549882
0.02476563922873893 0.2110900892038079 1475.4543597501595 0.031110407255386392
0.03135451657106833 0.242891960361228 1475.3170694143603 0.0353709033264361
0.029301889039263788 0.23298474906260724 1475.599892028033 0.030993913427096054
0.031830895451382346 0.24519125036388784 1474.9667331108226 0.03360102324663396
0.03295247977381502 0.25060468852470846 1474.995367922371 0.03100824360957899
0.032858912325197755 0.2501530759380982 1475.1714867106514 0.03289159376842241
0.02603822848364532 0.2172323677467896 1475.0707009909165 0.0297177792157618
0.03305263228976477 0.25108808459302073 1475.1909854908388 0.028534410502097915
0.03137799428590356 0.24300527789329798 1475.054330168406 0.03000251089206849
0.027213671741482967 0.222905761410189 1475.146676494139 0.029473801756688667
0.027383471672438733 0.22372531764644857 1474.9930376362536 0.03143519763774934
0.030307906279027158 0.23784039181563177 1475.1294260567292 0.029280750629398025
0.03222654657323183 0.24710089981115002 1475.0655295086133 0.0296613471802747
0.027779066839774838 0.22563469702369288 1475.1319606622562 0.031555128736563715
0.028404144145263988 0.22865169473961902 1475.161053017302 0.03195609680065279
0.03262801398720656 0.2490386221701992 1475.2024098351708 0.0300715357818284
0.025984437259653742 0.2169727390600747 1475.0588738819629 0.032580704026037195
0.029752068227422636 0.23515758423745015 1474.9811337334313 0.0379115465353384
0.03305174481443704 0.25108380110518136 1475.089116540739 0.03173667288854669
0.02530216331448911 0.2136796760803097 1475.0457895217596 0.02836446156330698
0.031517765206751064 0.2436798961289094 1475.0304648412998 0.028125591598841915
0.028440047147731295 0.22882498414796504 1475.0749843848414 0.03401965690391152
0.03047626956128605 0.23865301392422583 1475.005631986632 0.03033464516750841
0.03289136849057849 0.2503097288448052 1475.0398052437529 0.03132030629391434
0.030455945161761797 0.23855491619070748 1475.0414130446054 0.030722940719548182
0.029628210731419795 0.23455977372783887 1475.1432316437326 0.03151369723850229
0.026998015511947464 0.22186487519304393 1475.0056209097243 0.029100992732795573
0.028199483658275765 0.2276638805662975 1475.0912578363987 0.03157622903686627
0.03141647497122327 0.2431910087440221 1475.1037334276202 0.03448790568078298
0.030260132811694932 0.237609808429293 1475.1154281430972 0.031815493829794386
0.030356604828437442 0.23807544020252652 1475.1889625318709 0.03202048798979533
0.03276445435448172 0.24969716515810553 1474.981263228922 0.030931429502195306
0.029635154680616248 0.2345932893885119 1474.9693171981944 0.03537531022519858
0.03225484581582762 0.2472374889170481 1474.9553504787816 0.035134567834455184
0.031216804648626313 0.24222728009490432 1475.2219374506965 0.03130734935712677
0.030541330226774487 0.23896703568993632 1474.9247333094902 0.034073949090261034
0.028648503257731515 0.2298311182728464 1475.1802283398151 0.030054785422890078
0.03086179788157892 0.24051380466408195 1475.0924820840805 0.03289832805407996
0.022565231429728397 0.20046960242628908 1475.090060289282 0.03306809866003929
0.0222471015406921 0.1989341169108787 1475.0692878909915 0.028305079029692017
0.02512970032852746 0.21284726634449158 1475.1356020698308 0.030488735930067033
0.032851261503678085 0.2501161484879299 1475.2538893064889 0.029900705790259007
0.024640897109316134 0.21048800904471832 1475.109601957652 0.028132487310649597
0.028604145933769164 0.22961702324187372 1475.0499977721097 0.03351012072810313
0.03080175367516276 0.24022399533646543 1475.0790287322664 0.03331843251155001
0.03255850981924723 0.2487031533983542 1474.9317723956844 0.031932347693464966
0.028450745322825308 0.22887661995291234 1475.0314951007308 0.02959932084539394
0.029954750283231905 0.23613584931613066 1475.0199241901819 0.028979091746417086
0.030923248869961506 0.2408104039646222 1475.1598606995221 0.03090894370898003
0.029451098428557428 0.2337049236020932 1474.9562461463292 0.03645205204576498
0.030527732423344313 0.23890140454074854 1475.1731300365075 0.031215716182645053
0.02909113441432483 0.23196752152523253 1475.0644781353753 0.033735140152202275
0.02636593678033107 0.218814084398328 1475.0993638084155 0.030867489644884574
0.02271820969896177 0.20120796724102544 1475.0579684233107 0.032177621542595104
0.03209808613396466 0.24648087273857436 1475.1456995303909 0.031077143360934645
0.028008831520359517 0.22674367908149134 1475.1197402859802 0.027876086358056773
0.03228876819291344 0.2474012186402167 1474.9430607089316 0.03354370093628039
0.17494864581322722 0.4770721873190255 1475.3476388601414 0.03134087034288133
0.18342126563885003 0.4845700169867112 1475.167258845917 0.029283565701235744
0.18342592252925807 0.4845741380934974 1475.3667912990247 0.029852481853273157
0.1889873265569025 0.4894956925796736 1475.3244639036534 0.030831886250835983
0.15634107731431263 0.4606054530613722 1475.2944005043857 0.03274937294032977
0.16266196634963775 0.4661991124383555 1475.285750807563 0.030992976821705865
0.18079443833395786 0.48224541089038375 1475.4112365591868 0.031352530071158166
0.1740988328597905 0.4763201468751722 1475.2911109026163 0.029581806667896907
0.1605514457093215 0.46433141099571906 1475.2554987239103 0.03163925704388024
0.19195259539852208 0.49211980190488164 1475.415368324855 0.029258645409073254
0.1803401114925197 0.4818433551696421 1475.210806500506 0.028355371241125686
0.19356356276476316 0.4935454245766021 1475.3994099633398 0.0317542699198966
0.1869066112385823 0.48765436730310097 1475.2009115489 0.03254171336402662
0.1898328846724941 0.4902439677124327 1475.184092932108 0.03125149014879856
0.18013437460458998 0.4816612886809048 1475.1875788741913 0.0296179927806939
0.1613254382848407 0.4650163543325776 1475.2356056271599 0.03259045451349088
0.19476672710551743 0.49461016269478447 1475.2962419860776 0.03149507459299968
0.172772398249937 0.47514632095418285 1475.22289963403 0.029930716990195016
0.18785107986072588 0.4884901731106378 1475.3761332075494 0.03155907131796372
0.19145008473102398 0.49167510599397796 1475.2474522489329 0.03173243316789422
0.19437352425089408 0.49426219853617825 1475.1690257241555 0.02999790529840945
0.16164507330858668 0.46529921477163877 1475.2680712607648 0.03205248946855022
0.18982833363830617 0.49023994028291795 1475.3059475523694 0.02683923740974425
0.19467487630513247 0.49452887949427493 1475.1188749870707 0.02977517155262331
0.15937704955048748 0.4632921312283568 1475.3060056354657 0.028335858055752245
0.17568551597864346 0.4777242792458675 1475.3726305055152 0.030561798154840593
0.1628669698177625 0.46638052988855616 1475.3282500193436 0.03110483325726138
0.18561720800129816 0.48651331222862665 1475.25613439271 0.03061852960349987
0.1707350439410757 0.47334336792490006 1475.2362628715068 0.029166272245091787
0.16945302073470947 0.4722088437955057 1475.249285399326 0.02944657804922001
0.18465803832622846 0.4856644967507584 1475.2275247762764 0.03371905628554914
0.16936916827326715 0.47213463871065 1475.3138573930316 0.031236307539391214
0.17470209661209796 0.4768540040471666 1475.1964144682206 0.03120543470999914
0.18344143563993257 0.484587866392872 1475.2703709858074 0.03110463065370613
0.1695013159367047 0.47225158254760125 1475.3616163333477 0.0318442624974401
0.18379208196280264 0.48489817022528625 1475.3387230689593 0.029828925434213047
0.18264624639249433 0.4838841650993434 1475.1439408331821 0.03125495479596987
0.18325214339078583 0.4844203525576326 1475.395473496735 0.032623063507707474
0.1762333289869205 0.47820906538171915 1475.3342903836951 0.029343430163139013
0.18990383783059392 0.49030675758200853 1475.1519766781794 0.03141454435497813
0.1942569599735468 0.49415904518870435 1475.4550895610523 0.02952550400276118
0.17918603149870477 0.4808220541559533 1475.2460747000193 0.030482960811660825
0.17817300570063116 0.47992557879895015 1475.315711836589 0.029222674253238483
0.17296407199657832 0.47531594229134433 1475.2709146985 0.02908930850166791
0.1860492603385296 0.4868956561669549 1475.1303360229488 0.031527624115137313
0.18197040925680633 0.48328608424232666 1475.2825240402776 0.02837784574789107
0.17050489575694378 0.47313969870351835 1475.3029372790065 0.029324381172084232
0.01880756934161236 0.16197209317342462 1475.4278513458996 0.02966888962973619
0.02101526984755392 0.1902834947927404 1475.3304679408052 0.02970971585559923
0.02059659184326141 0.1849143964495557 1475.2869936973516 0.03140145701676116
0.020704260419565215 0.18629513097279074 1475.4581444320504 0.030507023405135628
0.02089232779884817 0.18870689429487283 1475.4430624921868 0.030580526801101075
0.01975959606180017 0.1741808192914004 1475.3695717228616 0.02957075727810359
0.020029695853576834 0.17764456070999535 1475.5296869818897 0.02994948476772453
0.02051221787731182 0.18383239043026794 1475.4884579877946 0.03085759944617407
0.021320963144018823 0.19420368490243078 1475.1532627379127 0.032901701179103106
0.01804078214691292 0.15213886617218075 1475.5461018000155 0.03269451387508228
0.021043648276388306 0.19064741784022496 1475.2585516670033 0.033041168509171555
0.01959676041486599 0.17209262599439856 1475.4822171288984 0.031402116908164766
0.020895562832691967 0.18874838014956974 1475.243085359914 0.032104201475175426
0.01737500680237726 0.1436010082894384 1475.6377259050835 0.03145912310445917
0.021256833262557583 0.19338128765019386 1475.4132231798035 0.03039703368096399
0.021217747398037654 0.19288005317337792 1475.2705521048638 0.03231137414787986
0.020582708752880985 0.18473636063970753 1475.316178634042 0.030345222022562714
0.01954368458951526 0.17141198520832412 1475.5153085286079 0.03039536039581822
0.01899976781219127 0.16443683333022277 1475.5826794981679 0.029768394875344942
0.02122211962939357 0.1929361223718751 1475.1171068318106 0.02865844826688294
0.018760395418256602 0.16136713797841998 1475.4758396378804 0.03139730609941347
0.01828114259940646 0.15522123231995802 1475.5270045922623 0.03049319679744472
0.020001339950709005 0.17728092653397876 1475.4482773722495 0.03017233147508713
0.020954643458837977 0.1895060260939534 1475.428502953979 0.03238338961465679
0.0195690443918166 0.17173719759379366 1475.423878871221 0.03017282817605043
0.018088681605233498 0.15275312557838727 1475.5770597043409 0.02720039847092974
0.019466967629167286 0.17042817210977232 1475.436974574301 0.03074209545741013
0.01798883873909131 0.15147274743172856 1475.5895038012702 0.031056949997064036
0.02061205498424632 0.1851126947212378 1475.222397932265 0.030481054607021465
0.01949520608854685 0.17079030019845742 1475.5036090529416 0.03134081090516261
0.019899493275039773 0.1759748516697915 1475.4131231605304 0.032497886607393923
0.019147048392289506 0.16632554950466083 1475.4066500821186 0.029164414906699618
0.019434723215722833 0.17001467193773886 1475.545678516392 0.030741401986193028
0.019791065397690138 0.17458437992142076 1475.3955438907606 0.02926172524439793
0.02010041397102751 0.17855144505391773 1475.4701362966782 0.02852128245440506
0.020747886285721478 0.18685458612280606 1475.3829861904524 0.03392217632190614
0.02067686385037526 0.1859437992268222 1475.3419019482117 0.02909368859059014
0.020402958510519476 0.18243125571765398 1475.5129766169596 0.029602085891668482
0.021216560085255014 0.19286482715474612 1475.101193994248 0.02782395174865753
0.020992325984933124 0.1899892642539479 1475.47757608829 0.02818373262079886
0.018285533584053736 0.15527754200939223 1475.5156814380248 0.032908552601809984
0.018894333869220164 0.1630847555933515 1475.4913165541045 0.03151134396676296
0.020349833846919258 0.18174998863317898 1475.501706363669 0.031047878659524852
0.02073201654832712 0.18665107368633405 1475.3601709611269 0.03020458378045717
0.01824661558109422 0.15477846017784702 1475.600775998608 0.030935410421363937
0.018674371631060328 0.1602639747633128 1475.5386878815661 0.030442686863765563
0.0210390673616117 0.19058867249968842 1475.3725656204533 0.03344206287935279
0.020632193030579102 0.18537094366217038 1475.3043892194573 0.03189262829226913
0.01918692301475019 0.16683689895983597 1475.5624887433385 0.03020736851248093
0.017903661581616163 0.15038044133876866 1475.614990836862 0.03238167509188634
0.019670424333638303 0.173037287094762 1475.3576042562297 0.031241750460197608
0.02082124080595708 0.18779527951731012 1475.4008706032077 0.030142297468613865
0.045396993755616184 0.28131474109256754 1475.4340396449911 0.026585498344536194
0.05291981447659155 0.29923980659335647 1475.5475855379623 0.029214760627207598
0.06325208154184953 0.32385910463067746 1475.6197484065547 0.03271240629881397
0.05118292185946402 0.29510121057721733 1475.6299058581092 0.02915572266391268
0.06282327092316954 0.3228373525472878 1475.5750075868273 0.030620319752969742
0.053161637267031964 0.2998160120979328 1475.4754921514236 0.03097091620330045
0.06088068676682776 0.3182086432258149 1475.6663105683003 0.17129047483765492
0.03359976939869769 0.2532048034433805 1475.3729931864796 0.03182649542892421
0.054013875708098895 0.30184669026079647 1475.6070428511912 0.031483981100844695
0.06032447209768675 0.3168833179062379 1475.6802993759707 0.20803365739683752
0.05271306858702424 0.298747181176012 1475.4931579511745 0.029952227401660786
0.04120489710204417 0.27132598656771945 1475.5061677857987 0.029210197220256973
0.058011026315734474 0.31137093512766995 1475.6574082066543 0.13930107876764647
0.05223441499277877 0.2976066651470096 1475.51881447723 0.028720146289069135
0.04657483423880976 0.284121250384149 1475.539179966927 0.030583999460523256
0.04469920480156522 0.27965207840698303 1475.4569196061175 0.029100725624750155
0.036638277603589134 0.2604448347452608 1475.4804675277173 0.031615277663801275
0.03868969020351114 0.26533285531980144 1475.666155194528 0.13932812602853364
0.04083535954883094 0.2704454678168235 1475.4926353725152 0.028766184478215755
0.0411357272874511 0.271161171859472 1475.3955324069893 0.030408460080941876
0.03982896238906802 0.26804746604964486 1475.610557594742 0.03186686790449149
0.06317059349662892 0.3236649382463713 1475.6381987455366 0.031255036368052394
0.06489457323204224 0.3277727658976032 1475.5917038216248 0.03177012629296898
0.03903101709033634 0.26614615511758277 1475.5722177515704 0.029133522738817575
0.0467531437354019 0.2845461186573166 1475.6291413168185 0.028297854322541057
0.03648146553938489 0.2600711896840527 1475.3820478018586 0.032033455712777485
0.05237364789478982 0.2979384233074801 1475.6175880264482 0.030039759148697033
0.04389810016889219 0.2777432391074103 1475.6030368319532 0.03093251679890013
0.035855921637001326 0.25858066916674277 1475.552488643309 0.029821068238265233
0.03829451868813277 0.26439125728501156 1475.5430132336855 0.03055388157036645
0.05538039096152533 0.3051027661364222 1475.6478087303103 0.07562175327448721
0.05108294139582471 0.2948629814942739 1475.5343284353767 0.03003026558104887
0.04827811644173531 0.28817976056237543 1475.5978913271726 0.027922567973025968
0.043045544705607494 0.27571180530799644 1475.5765513238287 0.028121941556660788
0.07364790849238748 0.34862985067216745 1475.6324925821123 0.030907246134280118
