x y z curv
0.29451180912177544 0.1542451498436099 344.1555542849416 0.007281164444494265
0.3325344681771038 0.20212768297443287 344.15555428494156 0.036051416985207196
0.23600776637066945 0.11821748889711683 344.1555542849416 0.011677926731308845
0.27918552703685484 0.20371158938532075 344.15555428494156 0.028384935466198864
0.3868039533574317 0.16384425277285466 344.1555542849416 0.09062439845320978
0.2946417540395995 0.17310207838004227 344.1555542849416 0.007390018415511482
0.3188113062220064 0.20767572622861416 344.15555428494156 0.03794596775169656
0.25164113307069313 0.13083131274024143 344.15555428494156 0.008376806919490718
0.29062536885663826 0.2040681541889442 344.1555542849417 0.01684210626622408
0.22006543456213454 0.09044964182735007 344.1555542849416 0.09447273181984048
0.2258562685107556 0.1675769583859844 344.1555542849417 0.06564636932771035
0.3081987784426386 0.05110467033165228 344.1555542849416 0.11113898285330757
0.3510736946510765 0.05639717117625119 344.1555542849416 0.09653958657835593
0.256365754661124 0.07376179310276182 344.1555542849416 0.06071758456375248
0.2838006668651528 0.0736851538255935 344.15555428494156 0.01879772129611056
0.3407505271861554 0.0719893009753049 344.1555542849417 0.05335456411650826
0.3921363464624159 0.12476373791701492 344.1555542849416 0.07670998853273152
0.31014451043327135 0.06676367223682567 344.1555542849417 0.03882423064013427
0.2977484679016225 0.0633675846925448 344.1555542849416 0.059827629437141656
0.26680852561250956 0.029046734894556628 344.15055428526944 0.10438833280601607
0.2185610088174491 0.15637083420725328 344.15055428526944 0.056165273008486505
0.21511044763065973 0.11903002547714649 344.1505542852695 0.06639111642659597
0.2162122600821029 0.13647783298468164 344.15055428526944 0.046587923698311724
0.20990025541060486 0.12708598166310148 344.15055428526944 0.0855931147182413
0.22734571717843938 0.06935930400682438 344.1505542852694 0.09651195002695558
0.2437562790502994 0.10525676815780065 344.15055428526944 0.006685249609362314
0.2455504629208219 0.12180981492531137 344.15055428526944 0.007223329335028768
0.2433915835956878 0.06766009140108512 344.15055428526944 0.0792951012430681
0.2355548708168446 0.07966151111073196 344.15055428526944 0.06656232643558564
0.23551103074099472 0.060676472465043915 344.15055428526944 0.0879681952149822
0.23528210701340585 0.13892970529341137 344.1505542852694 0.007520508090446362
0.25389251441319627 0.151215072238266 344.15055428526944 0.007402389540781001
0.2533447866488032 0.05195755420362344 344.15055428526944 0.10450898764117662
0.2545259504187943 0.16871468426131414 344.15055428526944 0.007545629237477492
0.318495177251143 0.18366608165756426 344.1505542852695 0.007903952221352185
0.3105750326467626 0.2051871179349026 344.15055428526944 0.01695417475479796
0.30195433006370925 0.23138573766388332 344.15055428526944 0.06919456997555938
0.31916183291199496 0.15946181097534043 344.15055428526944 0.00756931261686114
0.29757334833414306 0.05097122245561124 344.1505542852695 0.09446952413208312
0.2988940247118336 0.20930057482169864 344.15055428526944 0.019765959706358822
0.2820084064383877 0.12473474891341 344.15055428526944 0.0069016075373020975
0.3044995621828491 0.05933020838079399 344.15055428526944 0.05956024789275719
0.32489777367874456 0.07003528526732382 344.15055428526944 0.035336690816958546
0.29378397802514117 0.1851099117367214 344.15055428526944 0.007568769740420202
0.31614676030457667 0.13999188033494958 344.15055428526944 0.007248572994605556
0.31570527929871206 0.12513646838026482 344.15055428526944 0.007584535505365786
0.3252230131455274 0.08626755547804532 344.1505542852695 0.006291348017123948
0.2854878388986066 0.13638743435154094 344.15055428526944 0.0081608830000015
0.2649153888029042 0.050739196066742286 344.1505542852694 0.09812625492337311
0.26784185120153337 0.07389745627947654 344.15055428526944 0.02660553626126635
0.2766232429794494 0.055840513550141184 344.15055428526944 0.08048468256886027
0.30593726529222187 0.1308607300208891 344.15055428526944 0.007356294877771095
0.30613606386631037 0.07530229308857028 344.15055428526944 0.0080324296019076
0.3047417901727498 0.15408492516863204 344.15055428526944 0.00731187620761119
0.2822713233296352 0.09688303410476329 344.15055428526944 0.00636813913596445
0.28981103164844774 0.058182094890920875 344.15055428526944 0.057100607053982684
0.33183956486198013 0.07596368075422497 344.15055428526944 0.019883707412374142
0.2879977251693245 0.11197378495869935 344.15055428526944 0.006261331118257333
0.305705511047179 0.1013096319753435 344.15055428526944 0.006842397206214487
0.30078998408828844 0.11901243484476308 344.15055428526944 0.006700121941328623
0.30070690767494496 0.19563943317729357 344.15055428526944 0.007796221282853629
0.29356102155982977 0.143366470887786 344.15055428526944 0.007967014397643676
0.28412542559140797 0.16305639234493552 344.15055428526944 0.007259832883137244
0.30923534134651837 0.1730904961682233 344.15055428526944 0.007955686781502824
0.2988966125918278 0.16334390173759827 344.15055428526944 0.007426112054715331
0.32605839957324434 0.06012089446404724 344.1505542852694 0.06434022505042067
0.32122284023933834 0.09789974472829283 344.15055428526944 0.0072062175581254625
0.3242671296723356 0.019918704791668893 344.15055428526944 0.13066202513835803
0.31227808434350324 0.02629185757924276 344.15055428526944 0.12975722364037848
0.35981180183840833 0.06246370249592781 344.1505542852695 0.07644994050387527
0.3554440559791303 0.07601193636422858 344.15055428526944 0.06473203878503467
0.35212925903866416 0.1376677655611249 344.15055428526944 0.0066208655914589114
0.3772978576614062 0.1018912277808033 344.15055428526944 0.07316463838135466
0.371502707878181 0.12307157581711141 344.15055428526944 0.03426925346842169
0.370162578065207 0.08523376983081088 344.15055428526944 0.06815985263165439
0.37254066416272635 0.18154242067886553 344.15055428526944 0.044200883064395395
0.297660037228995 0.03047050406980671 344.15055428526944 0.1208261372457688
0.2962640778188951 0.0195879040254542 344.15055428526944 0.11152292554519842
0.2719041245474337 0.043633373629652784 344.15055428526944 0.1178037100142131
0.32716465163333486 0.040898054095638896 344.15055428526944 0.13200897249092217
0.2776662888924861 0.03225097363495179 344.15055428526944 0.11921790646420355
0.3177509795602119 0.03688312105861991 344.15055428526944 0.13122027516981816
0.3033315513685914 0.03900023638343077 344.15055428526944 0.12205383754590726
0.3442513999150525 0.09359334442775911 344.15055428526944 0.006609013588843613
0.34465945818129273 0.10472562867474283 344.1505542852695 0.007039383151003536
0.34377520198185346 0.20833564551472117 344.1505542852694 0.04543154956580783
0.20401562063786932 0.1008529119192901 344.15055428526944 0.07173855197984266
0.20488828555246136 0.15027913282295025 344.15055428526944 0.08353379137110924
0.19763904990109454 0.14067406220273082 344.15055428526944 0.08057954130168601
0.20506477977253 0.17322265914669494 344.15055428526944 0.09670085020681059
0.20690332150109406 0.18330104738360156 344.15055428526944 0.07707401253433743
0.213350026092387 0.19265995584783663 344.15055428526944 0.09013633568542599
0.2278281908838778 0.11446280060661945 344.15055428526944 0.03274691888816766
0.2314049713844556 0.20720912573159908 344.15055428526944 0.06922432043184693
0.22924575265905334 0.12742428301560543 344.15055428526944 0.014430153471564936
0.2355725287251671 0.15834479324017048 344.15055428526944 0.008372894338909727
0.2402629551845045 0.2007305868233753 344.15055428526944 0.05738617771275207
0.25135384217522405 0.19721261109459695 344.15055428526944 0.030586267386265756
0.24483458017356893 0.21191299983179554 344.1505542852695 0.07798908130599849
0.24751238158378452 0.18710642689340942 344.15055428526944 0.015137761362367348
0.26530374133577567 0.12567101255915122 344.1505542852695 0.008172546099706947
0.26440000384649354 0.21166310009170922 344.15055428526944 0.042241034213531356
0.2628041730657429 0.16168886948988437 344.15055428526944 0.006959505762731959
0.2682108416588054 0.19526227304445395 344.15055428526944 0.007590862730647529
0.26741652336041655 0.1798828016842356 344.15055428526944 0.007395694734740066
0.26545910215487106 0.23528440905402967 344.15055428526944 0.07726114235157377
0.27860880914726394 0.19421784877939027 344.15055428526944 0.007561352641263079
0.27427637527710097 0.21384802802183994 344.1505542852694 0.03934517558978448
0.2785308332500167 0.2233180420493417 344.15055428526944 0.056827194379728344
0.26094380828291724 0.06611152795008679 344.15055428526944 0.06512922716092275
0.26714116245712044 0.13556603687675797 344.1505542852695 0.007504563006050938
0.2656712298407862 0.09996696597249588 344.15055428526944 0.00651933154648861
0.25698939038291835 0.14029641208680868 344.15055428526944 0.007918023951623401
0.25998432312646763 0.1109481832110299 344.15055428526944 0.006975785258811296
0.2211181407795927 0.08014641222447008 344.15055428526944 0.0887580226059011
0.21943873858817664 0.17243879836435588 344.15055428526944 0.07699995721435021
0.2202968571120017 0.19918919397178786 344.15055428526944 0.08035864771508242
0.2742303331082251 0.1438630039435046 344.15055428526944 0.007825286085666976
0.2891431147949848 0.22802054744439404 344.15055428526944 0.06650809008530272
0.2888253652814846 0.19678790803789625 344.15055428526944 0.007868525103949343
0.3934567022473033 0.17263054320648824 344.15055428526944 0.08638788688459903
0.38896961542485653 0.14159572384541597 344.15055428526944 0.07651174030155411
0.33863534544670604 0.05610624937797854 344.15055428526944 0.08707314184961439
0.3406672729314201 0.22549708449597047 344.15055428526944 0.08000657943578147
0.3360484881811155 0.19415343767841156 344.15055428526944 0.013685656386520386
0.3330184780724063 0.21210522824993347 344.15055428526944 0.05096410619220664
0.33039003539838807 0.17938635236778316 344.15055428526944 0.0074643005359712085
0.3484972466406321 0.11858807614914446 344.15055428526944 0.006819128780868239
0.34864950083910606 0.16671034276231997 344.15055428526944 0.006251090065662596
0.3857814916734107 0.18501542342320107 344.15055428526944 0.09000748189353004
0.3832379164238384 0.11453852807642712 344.15055428526944 0.06586637272076487
0.3781981799526688 0.15115322446984847 344.15055428526944 0.05398257000357688
0.3757535686282871 0.13323521583091752 344.15055428526944 0.04176049931603714
0.37655904512899635 0.20089178692829962 344.15055428526944 0.09122353507072127
0.36879019448240147 0.14514002556470545 344.15055428526944 0.023211610594739772
0.3650025532505705 0.20358500071516286 344.15055428526944 0.07670093864808315
0.3615213473154018 0.18244899292897465 344.15055428526944 0.0410718124371111
0.3606802805695773 0.21947731291332204 344.15055428526944 0.07726379905843583
0.3583015424764183 0.14754010628942718 344.15055428526944 0.0071657606153989716
0.3282673487798513 0.12257374756686686 344.15055428526944 0.007385711209158814
0.31270022293479416 0.24023865851074114 344.15055428526944 0.06838761807938508
0.32028086877696893 0.2189151193678444 344.15055428526944 0.05607799683257476
0.32798987203289987 0.13763511806447357 344.15055428526944 0.007255244785404308
0.3229828730782429 0.19933170830117253 344.15055428526944 0.007767685441186603
0.32881396547551384 0.15119597295897627 344.15055428526944 0.007152336207669657
0.32102312284149714 0.17195526993915045 344.15055428526944 0.00740717913712887
0.371913398800872 0.06747541645459124 344.15444190767664 0.09235959622901381
0.38292253733749015 0.08065192676495701 344.15063493927727 0.0945641203876722
0.38939543499320356 0.09135126088274632 344.1506779670167 0.07529057095623863
0.4004607004441461 0.12912530262030203 344.15079891112754 0.06650498421955267
0.4007574223917312 0.14589127520604928 344.1534459185672 0.07598266743727566
0.3981375732554522 0.1148523985271015 344.15125877656817 0.07327059596148187
0.3982517112910209 0.1622337297124968 344.15322431579216 0.08545098137417456
0.37336525565699535 0.20882093494039974 344.1542661489419 0.07552397424809124
0.33291414586570334 0.2354300945237361 344.1543168367944 0.08274958692272477
0.27525890841926215 0.2386589599238309 344.1507975457234 0.07649434672355038
0.24102546532303504 0.22352519882011695 344.15066692591415 0.07556563082892553
0.19948968926529628 0.11270029667501513 344.15086791183535 0.0746496127129691
0.21269968902619202 0.08311003554880281 344.1524887434815 0.08127920031044676
0.28869856361741036 0.24079072938883037 344.15375473009226 0.07657234841763437
0.26197841050613313 0.04287297779029513 344.1584579802499 0.11963641924355814
0.2879242063712751 0.0365635316246 344.1555858693101 0.13485153433095562
0.3227847459807687 0.028353064088307033 344.1566161640363 0.1483505502961226
0.2739818722498377 0.018715647996788414 344.15450801320753 0.12160533541605341
0.2860155608748989 0.022709396329076637 344.15538161172486 0.12571150937953549
0.3344254337767562 0.029445250421622864 344.15056721824175 0.1366912716154034
0.3380280451167481 0.03932410645641922 344.15157224701477 0.12068794523970955
0.31168177892030574 0.014627079540300306 344.1518184312895 0.12549862498272268
0.2608433436796169 0.03300254327503415 344.15699716029735 0.11416204362563963
0.2956054519791296 0.034219613082496145 344.1737347730128 0.19605256173041913
0.2796490401258922 0.016563035328664048 344.1741183713639 0.1800755190349001
0.2957859862454145 0.018414427630929184 344.17379191631863 0.19889019814942235
0.3207875362040991 0.014428894136658892 344.17449467154063 0.18716302506296073
0.28734698553163657 0.0290457799677482 344.1719173218106 0.18792715737155244
0.3164004939722978 0.02743447790411918 344.1722014419695 0.2024597623250837
0.27345078558627184 0.027505821759150874 344.1721888571914 0.17102889596465032
0.32791594049310574 0.021492516456750065 344.1732491643651 0.1813616242813569
0.30455416238647576 0.025577613236971802 344.1725288527052 0.1948559888795139
0.30964445599395524 0.007719239074501951 344.1756777822103 0.20870516892246893
0.338060539519254 0.03309075042154469 344.17267315858163 0.12561304055496758
0.2900542431448601 0.0009612412759135991 344.17745087744373 0.20009799553316193
0.2702602197228032 0.008714191027596359 344.1774509479955 0.18178434348100414
0.27502197976689097 0.021518358540448874 344.18145092725706 0.14704703951622586
0.3270410793525511 0.028557957908920684 344.18145100839257 0.1454425191060733
0.31352667087970004 0.026243636040047095 344.18145093306373 0.1725766247778317
0.31230100443100955 0.01644158638903965 344.18145092057114 0.1890282169321844
0.2743582813639165 0.03249966033818367 344.18145091021427 0.14618570875064674
0.30295811672042194 0.020233668738639347 344.18145093616 0.18305041908691638
0.29169710202921284 0.027405310557648502 344.18145094247035 0.1872553299599988
0.29271018323924036 0.011805485219287152 344.1814509407442 0.18551247498391796
0.27040596189382277 0.04050969317616108 344.1773903223476 0.15056004006418103
0.2585847107868657 0.03185682079896608 344.1772604921803 0.10571818799888506
0.33152662576774095 0.010767201496444112 344.17745087072456 0.15711670439589137
0.3188051415693115 0.0031626241030135054 344.1774509258379 0.2479834536250184
0.2590448864998645 0.04447023363803407 344.1801100760704 0.09855527424931762
0.2779634775083788 0.002976335759220521 344.18010212763596 0.20691014335238173
0.30381960156524646 0.0005915547883424219 344.17984223863624 0.1944701564887541
0.3363669284064009 0.02119360101184628 344.18025227659984 0.11870807584443349
0.26154602404285676 0.01647633256991345 344.17872019300626 0.13436885045679953
0.3889498019291982 0.09056793931030319 344.2903241257983 0.004779372825124468
0.38273012550107793 0.0801871757288015 344.40273158626735 0.09874401262438731
0.3881707814241786 0.08926773860352866 344.2464934928802 0.004576951704055489
0.3861551970362821 0.08590368819815374 344.3440876418847 0.0056799107014987036
0.38769998565219616 0.08848197110250175 344.2573925359702 0.0042336662221134
0.3844228370623015 0.08301234496900377 344.3863781510848 0.03140896451614573
0.3865266463725846 0.08652364452341016 344.31496391930796 0.004389943137883943
0.3850014798255337 0.08397811124200505 344.35495086607966 0.004100636722696768
0.38250074750618945 0.0798737358881479 344.334477968323 0.006567925348686937
0.3847283476596882 0.08363198146378033 344.2115537322582 0.005582628819940793
0.38328430015649867 0.08126328873313542 344.2213978425224 0.004167373142845624
0.38218574517384973 0.07952374177571839 344.1643867450736 0.09213375058585922
0.383806088631642 0.08204544379163708 344.2940291911519 0.005459666979365427
0.3845344654755046 0.08325851325142877 344.27015473320324 0.004659432456482109
0.3866702076354555 0.08685315501869599 344.16121327171925 0.0894001602800986
0.3825920771242366 0.08016373170764453 344.1890189566951 0.008113603926770454
0.3823563557644895 0.0797270734648589 344.24228535823556 0.004375237769039042
0.3822292661823592 0.07944039539462985 344.32395709284077 0.005102547370554383
0.382877266348141 0.08044825707999 344.3764287521829 0.004134367365311802
0.38834021222551046 0.08955109648431334 344.19259382177154 0.0065547264407718854
0.38796241633075884 0.0889460763795365 344.1799980429451 0.03788407428680663
0.38517065636315373 0.08426401908682626 344.3051274267608 0.0037004202963337
0.3832646863367114 0.08122141337080466 344.23155589974886 0.004429941969418122
0.39330427076338154 0.09998519329976488 344.24177594972076 0.003868813385711496
0.39314561535297293 0.09984859807743032 344.40715625093867 0.1197476397132307
0.39285979270422194 0.0990682965762584 344.31120946438205 0.003910116529552665
0.3943674186122621 0.10236946559071412 344.21663053799045 0.00498213328333859
0.39233708864318334 0.09792824339703593 344.3473069643151 0.004850672032706959
0.3943811081723293 0.1025576046922456 344.3323869176538 0.004868978178111817
0.39386061821939405 0.1012686077328784 344.2549537699705 0.004828530472721785
0.3940640082531137 0.10188281453177914 344.3666917624746 0.0043577920240199615
0.39002674161402345 0.09274479563286203 344.4003732451389 0.09041938587749579
0.39433863425456833 0.10252900705679995 344.3825378762477 0.01853734103246397
0.39448448007863934 0.10270262584393183 344.26593919959555 0.005255712108898486
0.3904407586451931 0.09363948643764253 344.2029868369177 0.004773681728582602
0.3899239284447976 0.09249492189649218 344.3762228779414 0.004262642222701914
0.392541679150894 0.09829215401155905 344.18610544603774 0.023835527146278894
0.391162366072333 0.09523754760570716 344.3248575201123 0.0038772607960623384
0.390234256261454 0.09318216930348523 344.33946824135955 0.0047229516901241405
0.38983341771838276 0.09229447817635165 344.21658341293113 0.005532775773005546
0.39003642003341427 0.09274404410995744 344.2326197356588 0.003969542301898885
0.3904654384375993 0.09369414194200248 344.2799732392698 0.004125953327117432
0.3897953697713652 0.09221021775390242 344.2993138886626 0.003620488755940592
0.39461485639282945 0.10288338176261418 344.16050630072294 0.08525105678767336
0.38976620115424865 0.09214562136452643 344.390995276878 0.04830395284575849
0.39042881821848907 0.0936130433447249 344.3574216732964 0.003717989722969102
0.39245774540220946 0.09810627556932273 344.1707719025451 0.06925969224709841
0.4011192852944314 0.13491098202722918 344.37769360447015 0.012662253629407243
0.400193249317228 0.12720188372850721 344.3403103695664 0.005480109678462581
0.4010602842276694 0.13389992297497127 344.2720304008066 0.0037545809290197977
0.40003288353790745 0.12572508680396854 344.30567063969204 0.005213377496835758
0.3999270841810668 0.12527472789679536 344.38690445179 0.027070623586797442
0.4005704891233554 0.13014613221610627 344.31655945939934 0.004952850513225194
0.40107724976199777 0.13360146579511284 344.18536507178993 0.02514720127555592
0.4001244058004785 0.12696783050340466 344.40488914050684 0.10174300750898574
0.40068023984975054 0.13093554848175804 344.29630810194726 0.003154093964908613
0.40084736364989804 0.13198577989378385 344.2353016536475 0.004595271650872286
0.40093151957309425 0.13331014063236843 344.3626196576741 0.003956477429035496
0.40072129998928685 0.13089754855288474 344.22251006218585 0.003954009386604689
0.40107489855773687 0.13390113926718217 344.24869239383776 0.005642453112923667
0.3992356618924508 0.11972109323458868 344.32961415420766 0.005223664437081468
0.4005126345059331 0.12926453132456112 344.20790381721014 0.006110420563762243
0.39926870917980345 0.11996807170347765 344.35259171566315 0.004865585538663479
0.40086673608971785 0.13191090486987614 344.16410043077576 0.06896575583814298
0.39953321916698925 0.12194488362585948 344.16047162929283 0.07817773711320747
0.39945030231241335 0.12132520559995286 344.27383329195766 0.004175244598841877
0.3994476493827422 0.12130537896482642 344.22856635685804 0.0037621834325231654
0.3994081017325588 0.12100982011951925 344.36862909374196 0.004028182918528564
0.40028126016253673 0.12753535820174075 344.25755508756316 0.0032039870205806645
0.39954498406863476 0.12203280846410851 344.17701836291457 0.047605053962387595
0.40073252699642214 0.14434995132059647 344.35074367818163 0.004486607486189359
0.4005700511978295 0.14793957896522428 344.4003162441628 0.09730593760288733
0.40074972605961834 0.14396996714297994 344.27770543652343 0.00560939499227993
0.40057676316665153 0.14779128937968514 344.2511833759582 0.004486817230527849
0.40077046381897047 0.14351180146598191 344.3382280481462 0.004498131346067251
0.4006980685457324 0.14511125243902973 344.32188418070723 0.004657221005727235
0.40104132371617934 0.1375276106925634 344.3928713336421 0.0711432458886211
0.40086852451225186 0.14134531649712284 344.3112630199232 0.0042299279379467035
0.4007328627248491 0.1443425339695028 344.29031811704226 0.00367774821533166
0.40066557747409726 0.14582908764867555 344.3785745510883 0.006577814290290579
0.40047755750383884 0.14998307051152593 344.38846202969364 0.04172349049799231
0.40082593109857567 0.1422863458475584 344.41188787413296 0.12923522543553279
0.4005294791211234 0.1488359502980962 344.1942857932816 0.0057136865228930335
0.4008669752177114 0.14077005742044807 344.2191900000002 0.004960253149481326
0.40113017615978647 0.1350142789626205 344.3292260165074 0.003433363172062178
0.4005986966322176 0.14707944435047735 344.17047426911734 0.06353211087357778
0.40080462449904986 0.14221769065292195 344.20518246704194 0.004839547660703023
0.4010233943452886 0.13718957884521696 344.2616697360999 0.00440341670181498
0.4009280228955117 0.13909942904933845 344.1966011076504 0.004585333927856118
0.39761092937889275 0.11312938776228504 344.32303965315 0.0048068301511651704
0.3980042420032037 0.11462972848031469 344.3094148616976 0.004781058577070998
0.39736901596213065 0.11220657845749457 344.336018420065 0.005024004687051913
0.3991177584435271 0.1188773776844033 344.2190096386414 0.005021364594720528
0.39885266402705094 0.11786614152624982 344.19443570395623 0.0040684695777927354
0.3987648689786449 0.11753123621728426 344.2618734543384 0.004400743750379947
0.3989214921456996 0.11812869508433856 344.2859121611606 0.005144963165750563
0.3981637770127966 0.11523829493877197 344.24836170297624 0.004807787248751269
0.3970267061800098 0.11090079452748354 344.35818854810077 0.004481421059186798
0.3987292574461368 0.11739539152542627 344.206318280428 0.0050667124919448825
0.3977740506205466 0.11375163435621935 344.40313845353546 0.09525932709575008
0.39842392989776565 0.1162306810004085 344.38025176176575 0.019773636479198452
0.39743218787917745 0.1124475557196592 344.3932147771575 0.07957857050096938
0.3956865498986197 0.10590811084364166 344.28387349150097 0.004192413138587517
0.3964535344872372 0.10871663355030442 344.34776248773835 0.005529532155241602
0.396060307409221 0.10729292283531897 344.29847288999144 0.003885610625671669
0.3970299283824835 0.11104748017706392 344.1709698311653 0.06487867722218968
0.3967601916891391 0.11002209539399554 344.186955347693 0.017439552719887015
0.396341457225695 0.10841468365315883 344.2277186018093 0.0033232851495598693
0.3974751981925533 0.11264809415928612 344.23854421271704 0.005399354841971327
0.39538379983612215 0.10485636127979078 344.20061970148936 0.00449081119906226
0.39781160202229704 0.16386724886297055 344.3677996899879 0.0037632535515935202
0.3950025456939233 0.1735260868687617 344.39996730259304 0.12927329890260086
0.3983249306476835 0.16205204999527162 344.41067823197534 0.12367387026956164
0.39483508102847664 0.17430236459770354 344.20694667832055 0.0050429196614963446
0.3969729696068274 0.16680161827175324 344.3280382515412 0.0038961952799838055
0.39478594308354426 0.1743222707160666 344.3524591122041 0.003152344365383456
0.3974979526176011 0.16497941518734377 344.33862470529664 0.004420292430016805
0.3957325297299901 0.171102470375523 344.3075795501592 0.003235116802604936
0.3968971143712813 0.16700513172275183 344.3846412112759 0.030326373983448313
0.398632309606911 0.16099848434911407 344.3472186465916 0.004690245896828378
0.39606019275984244 0.17004005198969518 344.1868487479214 0.023416278666664483
0.3980638554001543 0.1629967283895516 344.2675343991886 0.00415168159617758
0.3961826444600345 0.16960960679773135 344.24431683529315 0.006122078597308
0.3981967251972919 0.16252966125005572 344.1779756962385 0.042808689621273724
0.39800437157591984 0.16320582737389575 344.31771104924695 0.004918810758008547
0.3966513707639502 0.16796192870464488 344.162714223146 0.08863206640503885
0.3976801377703526 0.1643455819257703 344.20186791897646 0.004601669078094984
0.3974709793131418 0.1650808208168906 344.2179109855864 0.0050993621074304505
0.39877371649415516 0.16050140742303337 344.19060013569987 0.008373246695537196
0.3963491919591825 0.16902415498179496 344.2537096233933 0.004295110750034851
0.39754316081779345 0.16482708663780365 344.2783087450456 0.0035750821534518374
0.3985151725030355 0.1614102475429674 344.39229883018163 0.0747786309642734
0.3982878680817126 0.16220927356806278 344.23126760914863 0.0032642631696563175
0.3896534915683765 0.18547337443976952 344.392371057767 0.07634236486739607
0.390349290260294 0.18405931811540652 344.3527194643078 0.005168207821342646
0.39068925884339906 0.18336840746753014 344.28868424478605 0.003815704668116157
0.3911105891314467 0.18251214722246206 344.3423583347328 0.003192198801923998
0.38942163794350426 0.18594456544427318 344.33202830933124 0.0042946045493322555
0.3891925652770312 0.1864101047684018 344.2295249633111 0.004466317057295691
0.3910120698818981 0.182712365718866 344.4069406878082 0.12275617249001912
0.3880553167416354 0.18872130986626862 344.37206068346364 0.003976814273681947
0.38925460123611877 0.18628403045796593 344.3033819560062 0.004639866955468109
0.3892871357603812 0.18621791126238857 344.3616810809729 0.004819371918868339
0.39399923557645106 0.1766226685498233 344.39102188423936 0.03932526098920067
0.39385799468485416 0.1765830862437862 344.160617494254 0.09165383589810573
0.39183236201173677 0.18088926248907536 344.2137985339291 0.004598653787797288
0.3938612737813189 0.17666859309319516 344.22423874005915 0.004942387621114789
0.3899237456478729 0.18480948854770296 344.1693967132668 0.06443244747093638
0.3890700202799972 0.18660545610867157 344.1787778152051 0.04434096440397647
0.3915141359766673 0.18151611381360144 344.18795163170046 0.010872235073228277
0.38997729509502266 0.1847488644630927 344.20464936641406 0.005018982306144313
0.39303483350928003 0.17845062922313965 344.26326470564095 0.003764370667061165
0.3920282927271451 0.18062370672409467 344.31265145776877 0.004954242366526589
0.39436464214139405 0.17575980746579678 344.3221393407807 0.004750627483650269
0.392485327374728 0.17961165364335305 344.2727733539705 0.0046193105150436325
0.39338619426598703 0.17762019801823042 344.19652186244264 0.005286331736251913
0.3943314055143025 0.1757946148147449 344.2983161243899 0.004122639565549236
0.39294779981892436 0.17859732455574603 344.2391481049359 0.00350673864896123
0.39409508363714113 0.17633893263095782 344.33340909535667 0.0050568256537849516
0.39309230693112673 0.17831667584882557 344.25364480866114 0.003058970855418366
0.393620049306473 0.17738677794003493 344.3720566348713 0.004010292827830554
0.36008782525940186 0.22084189446231772 344.25779103581976 0.0042521568126848265
0.3619114087529167 0.21929559768431606 344.3466142730121 0.005379291248709289
0.3615957616749257 0.21955217248816034 344.3756357886234 0.004783847875782177
0.36672893654141064 0.21526625048956843 344.35822200597903 0.004914953768526596
0.3590608317318555 0.22170342092503453 344.24507102095964 0.004354947152981915
0.36272659478448893 0.21861767999786852 344.3329531312658 0.005310774039694978
0.36231519859542927 0.21894463207527481 344.4006502296877 0.08907486579839397
0.36374030146474223 0.21777892007219007 344.2989313089972 0.003935764290595081
0.3619136559352297 0.21930252830770863 344.3113066672344 0.0041836253190368445
0.3589295506470862 0.2217829863144583 344.3659520746569 0.003991217427197572
0.3673240250926748 0.21476527805384693 344.17163228756823 0.06822997485752184
0.36380881792123265 0.21772599812676327 344.2037208496388 0.004356753622622526
0.36812032556247226 0.21409458563942654 344.2611667235446 0.004427654442817315
0.3688477903523444 0.213481870797692 344.2157933778122 0.005249145058127109
0.3644748657650279 0.21716501235139624 344.2789269569124 0.004694683138365486
0.3649248709328859 0.2167859907835588 344.1835798843221 0.037310069579463964
0.3631325469879343 0.21829559440638305 344.234303092696 0.004156798180223086
0.3685200211349243 0.21375793785546993 344.388257402971 0.03673008761782314
0.36650648649660866 0.2154538585026527 344.15887022420776 0.08651878656621631
0.3722929547742039 0.20982689628275808 344.40111666928135 0.0992700036413556
0.3694775707733109 0.2128199123025656 344.24633619468375 0.0039533205073496325
0.3726432610606638 0.2094544879978203 344.33674295320316 0.005525338852218137
0.3720788614387909 0.2100544974847333 344.27676239495804 0.004740878217731498
0.36951099234436874 0.21278438205249972 344.30733520084516 0.005563299180975594
0.3746185209264769 0.2073546023624021 344.31319149765545 0.004905052209443023
0.3692900475845357 0.2130192669582402 344.3222050548178 0.0047066936726068145
0.3702984189361027 0.21194727407620428 344.3683586546276 0.004874392694555084
0.3769951151989892 0.20482806078656168 344.3719172974827 0.003266266804505851
0.37546304933722574 0.20645678982182072 344.38827294173984 0.046339608048482195
0.3698542374266323 0.21241948048681303 344.2899554429517 0.0045404165397720155
0.3706334986385008 0.211586904999573 344.19606694588856 0.004727406589538794
0.37836580160850686 0.20319779870727683 344.1969111234113 0.0054097761326046
0.37827206139677594 0.20341201516956686 344.32985473299055 0.0033679572033221412
0.3791123324473003 0.20246596898035182 344.28929687711525 0.0051312483151068075
0.37497113835938256 0.20690698037949523 344.22746037245014 0.0043146849262448335
0.3781419546138711 0.2035688425260223 344.3483560165971 0.004081704099667014
0.3740401970219256 0.2078799044525889 344.183525927602 0.027032515911754484
0.3791802654173055 0.20238231062678305 344.27754082562205 0.004427167820151135
0.3748332530294306 0.20700491059052162 344.1663915039017 0.07907415750256494
0.37571662474357004 0.20608156754497772 344.2079228058573 0.004822422944097055
0.376439017446577 0.20537531473242587 344.2995832375659 0.0035964755310421096
0.37801026267888915 0.20361956684249208 344.23944631936297 0.005056531449483456
0.3746472653470717 0.20729064867268465 344.26557470234366 0.005588057643274941
0.3859845330309991 0.19213386273843477 344.401339196099 0.11318378243356442
0.384318360619484 0.1946434877479501 344.38413527408966 0.02583517402906296
0.38161023393382354 0.1987037481298083 344.39554449673346 0.07978458027817348
0.38043660639644405 0.20046015539961112 344.4071934468438 0.13169548630954162
0.38523670950150557 0.1932792475416238 344.353788697401 0.004833599800100112
0.3824720711258688 0.19745234404099982 344.30650263209793 0.003191883077020488
0.3803147705553789 0.20071444226236435 344.2575475180027 0.005397684380820336
0.38171724803187534 0.19862410932088836 344.22567458744334 0.005338970690837362
0.381245832238466 0.19926633620105655 344.3630198582616 0.004655977650845708
0.38448760875801447 0.19441415347747631 344.3322285319222 0.004807723547708133
0.38508318221425164 0.1935191205074902 344.23768115790983 0.004100354179217861
0.3853251569527172 0.19315206545512484 344.29489219561356 0.004422227901668885
0.3870126280921911 0.1905923155763055 344.2514285057159 0.0032856514019137966
0.3856529091349112 0.19265489333227864 344.1995918695096 0.004252083150518726
0.3817076126115986 0.19863957186171713 344.2072864979401 0.0054899380684237135
0.38664295911435315 0.1911530719051626 344.15884825243785 0.09167922600759447
0.3863851377398916 0.19154416495356924 344.3431852922494 0.00491709521658002
0.3850267811482478 0.19360467611700055 344.18751384221395 0.012639950091088877
0.3814331911237204 0.1990558458671858 344.161430864665 0.09945955427945492
0.3864930997275612 0.19138039582093663 344.2803041072448 0.005265476123181467
0.3857958033605584 0.1924381349722522 344.2671931749176 0.004547624809062089
0.3864179561004394 0.19149438229805 344.2188900596488 0.003989227041158914
0.38674187171131497 0.19100302992686513 344.31719264783936 0.004994355883491238
0.38319734695766405 0.1963797718434465 344.1740041354677 0.06784994997082304
0.3998326901633342 0.15398687341577966 344.353625560193 0.004409791584360086
0.3994154569773447 0.1565571012276209 344.32655779010753 0.004654432140918067
0.3991098114802393 0.15843992978393834 344.25660789241823 0.003929068999256966
0.39997566930905104 0.15310609741527298 344.33841692927314 0.004734632787384296
0.3989648861045121 0.159332694894298 344.29415276191276 0.004077021545735678
0.3990710221705939 0.15867887856797674 344.3772413330199 0.006097765225435717
0.4003001374800947 0.15110731796704707 344.2391189895781 0.0047606571738306284
0.39965573923500536 0.15507692140954943 344.2070665649593 0.005320024457223505
0.39981397163960586 0.15410218272457593 344.28389716384675 0.004803686010641682
0.3990534835698928 0.15878691934904737 344.1689591533205 0.07952402097607805
0.40033711893276896 0.15087950589126445 344.18170003059004 0.028783116428471735
0.40046452488244527 0.15009466344284933 344.36437833552725 0.005921146021997078
0.40010082951370307 0.152335089140441 344.3059977165411 0.004679690822174293
0.39988072895885857 0.15369094621619453 344.22316086399286 0.004090354213665696
0.40019446941677483 0.1517582513162817 344.2654170217348 0.004075292234259074
0.40018426599891316 0.15182110611605462 344.1602647516641 0.09161532360296284
0.35213286590887005 0.2260682900838338 344.37444196945467 0.011799403663887594
0.35676753487657986 0.22329103991217866 344.3899219623311 0.04687591207678117
0.35436355558686616 0.22473158549192307 344.40332610337134 0.08660681648136638
0.3531888286490806 0.2254355215469775 344.3308340031514 0.004971884313106539
0.34768864412047545 0.22873141787369008 344.31752685743254 0.0034933227678182557
0.35224366067264257 0.22600189811952107 344.3009595475754 0.0046971966590286076
0.35378664263120296 0.225077291218979 344.35436232483517 0.006510762726717371
0.35023325108419784 0.2272066034422756 344.27901947750894 0.0045808971755106065
0.34660402506527854 0.2293813582422931 344.1784297981036 0.05701854948244033
0.35261548982074153 0.2257790855362322 344.34287245003776 0.0068612434770766485
0.3550052474821701 0.2242706802134367 344.21913874156826 0.004682480409753794
0.3515437245170634 0.22640724255427921 344.2489196366405 0.006213786355748506
0.35547657535354626 0.22395820604966654 344.1786730491117 0.05633670937230575
0.3543018413560868 0.22471047091678747 344.2346936328523 0.004718948789876705
0.3583093260706034 0.22227848272227266 344.2704153693569 0.002556449224080837
0.35887939852147954 0.22186781296511154 344.166183757056 0.07850529787200757
0.35027903358559986 0.2271446115632738 344.1867637419369 0.014670235615061226
0.35879846009079824 0.22193418947173577 344.19461384789514 0.004901976322046081
0.3517753939479734 0.22627408956001566 344.2635490496387 0.0053151765103975155
0.34936991141746354 0.22768830883712912 344.16512322515416 0.08275387358224144
0.35176463077808895 0.22624542173948722 344.20399563648294 0.0034002686979258227
0.35077166721758835 0.2268245777705582 344.15555874510267 0.07958642873618174
0.35742824328261824 0.22282822110496367 344.2879718122273 0.0026451875697165333
0.33574255187263635 0.23429758277585974 344.29227456703006 0.004316628140654394
0.34148246443533875 0.23173835223315595 344.3524659094053 0.030188452871324333
0.3356377558290854 0.2343611165179791 344.26299145605935 0.004689265151332973
0.3330612107253972 0.23552512293733133 344.21046392529115 0.004373969153844638
0.3429019784037483 0.2311048312180786 344.36837159094864 0.025226841187681644
0.344542743161385 0.2303648176115445 344.3997505985896 0.11510709882756541
0.3355402321793198 0.2343802401272042 344.30281256578803 0.0037651849703067173
0.3331697298863877 0.23543761117005774 344.27720789065086 0.004406138292927349
0.33601125297992557 0.23412003060014652 344.3919207027937 0.10296748302204531
0.3382705120106194 0.23317235766994182 344.31558836835916 0.005115290453376296
0.3418449261773122 0.23156250553091062 344.3801394911574 0.060518385837324544
0.3424859262228144 0.23130395382038896 344.34117267549846 0.022061842710439965
0.345804550632459 0.22980653639978965 344.21414180018803 0.0060543854467625235
0.3434216004732962 0.23088256833204956 344.30793932566655 0.00597509347308248
0.3427808908249114 0.23117188367434405 344.2322679109451 0.0039027389531909973
0.337538512942237 0.2335391031401144 344.22362012239165 0.004267664871567662
0.3401207067830463 0.2323731018214079 344.2439023918329 0.005129666025599292
0.34270307006917267 0.23120702398890147 344.15957150514885 0.09359991507850804
0.3449380142827268 0.23019782481142112 344.2713382947851 0.004954935460512215
0.3399376847989329 0.23245574622689594 344.17177089541565 0.08012034463616749
0.3428653940272505 0.23113372587077213 344.2853569743171 0.0060969681991566455
0.34208131222945815 0.23148778155619387 344.3288671209351 0.013345397701204378
0.3445566432915018 0.23037003460901917 344.2583130680157 0.005354129715747587
0.3394365257720271 0.2326820468542999 344.195269120027 0.0049353851365042485
0.30598776588636517 0.24100085992779058 344.3173633225228 0.035413650691542176
0.3094818258124702 0.24058646657322447 344.2918334926536 0.0048968954064635825
0.30508608891934924 0.24115872959230045 344.2417761580034 0.005189962229382339
0.3080490956867511 0.24075348885852355 344.3069787322559 0.004770154875765133
0.3097070621801096 0.2405738133169244 344.2675031843213 0.0052561019477278485
0.3056572559918439 0.24106460148669528 344.2801787560005 0.005337384988630088
0.3064294472601458 0.24093598105409397 344.3342974176712 0.09559648980100664
0.31329729211500923 0.24008286605954293 344.34638433634916 0.1256200659813029
0.30917637881749666 0.2406487787280504 344.2254091320462 0.0059374345954656335
0.3163438929896534 0.23968971994334112 344.2368089723052 0.0035718791388218585
0.313514617197196 0.24006829496083634 344.2131822038208 0.00391466349358611
0.3143266580102736 0.23995963875777643 344.25310834934965 0.005419897437571453
0.31823777958692984 0.2394363059235381 344.3367054796772 0.07434516952950539
0.3117505101093091 0.2403043436604508 344.2020262324269 0.004839602469868597
0.3173309763907625 0.23955764193354068 344.1877927089675 0.012237959941165945
0.3121930673239805 0.2402451267026224 344.16857512414236 0.07682324530101366
0.3183630885628661 0.23941953878903538 344.3920408614912 0.18013139285569318
0.3054777708053227 0.24114367590161323 344.17794726147304 0.04684200278826443
0.28887446688798535 0.24081143614744085 344.27754473651464 0.0036702621667577037
0.2963162723235905 0.24114827146814172 344.3240119514343 0.05249366624175318
0.29503337537095864 0.24109020424101446 344.30988352257964 0.0038787148984933428
0.29014357651019135 0.24086887932440904 344.266441725186 0.0041631861578752954
0.2905429472050639 0.24088695587280173 344.3858797415619 0.16031925386814905
0.29036480842198614 0.24087889285171815 344.2504080067936 0.003787451822633823
0.2934857130523014 0.2410201530500834 344.35971947264164 0.16050778923693698
0.2884226266056927 0.24079098469010182 344.34892283284444 0.12194187979258846
0.29774514166749166 0.24121294578244049 344.34510007451377 0.12352153993488305
0.29036424684962814 0.24087886743350384 344.3360582857077 0.09617331738915537
0.2979532267274616 0.2411901194378719 344.2250172852267 0.004379142552192436
0.2989369083548565 0.2412399004095062 344.2608735053708 0.004675365112025775
0.30278441209342694 0.24139275641446384 344.2524152651615 0.004782701146819417
0.30035892060496305 0.2413268988450932 344.36612551208356 0.15309364116516255
0.29870611465247493 0.24120444992782702 344.16800496951737 0.07806668271097393
0.30204579336514736 0.2413464048297998 344.19361330316235 0.005233348255889196
0.29585216698683503 0.2410926151034914 344.1797809732326 0.03962352352679331
0.2910421891667154 0.24090096737128894 344.18838689758155 0.01818090149096705
0.3021074666701848 0.2413543687539579 344.2130676258379 0.00405945433138204
0.29766903360811037 0.2411731233311586 344.20537076970874 0.004129020701556916
0.2958723515693151 0.2411243984897161 344.2898116899411 0.0051996352132575915
0.30075181383190047 0.24132359707355777 344.2980727319339 0.004610462136241199
0.2943702600566057 0.2410497747129163 344.240005480575 0.0048772440660545795
0.3191453871468986 0.2392353139871301 344.17845961867863 0.04485427283531463
0.3207342480666479 0.23881879471437423 344.24717430449573 0.004341622128027074
0.3207509314935134 0.23881442116050383 344.2867935309289 0.004115490913835585
0.31966768897628006 0.2390983927654996 344.31788478483617 0.035154853584898095
0.32824244101318634 0.23685052485076877 344.36251538295807 0.10975026553493362
0.33124144424404856 0.2360643373190694 344.4052721449252 0.17459535590500508
0.3192005620940117 0.2392208498961828 344.26715235691967 0.0037797024362694045
0.32068829742146865 0.2388308406581537 344.32761681146326 0.055718904594709205
0.325446679088663 0.23758343275298138 344.30788017571365 0.003059342740341235
0.3197360924084858 0.2390751794114668 344.1584437141648 0.07941355728999121
0.32755934503503625 0.2370214331949455 344.29658933152166 0.003549712769705804
0.325578952502822 0.2375164565883284 344.1665422580861 0.07779366427489111
0.33190778814357413 0.23588154376757584 344.37970764637606 0.0996135532684704
0.3279256772783577 0.2369056198325834 344.22794537986454 0.0039053179104703165
0.3281019425653968 0.23685140923882175 344.20070710601124 0.004315067251464096
0.3321558221212284 0.23580673616929948 344.3470208406041 0.05440165006099789
0.3262107371567595 0.2373540048867413 344.19071128997996 0.010363838379590965
0.330103192810033 0.23631042676598268 344.1763293126938 0.05115729901842015
0.32556749480694486 0.2375323721493121 344.21569393183916 0.004287384407043794
0.33045895991267016 0.23625729458737613 344.3365620672101 0.05467555501373509
0.33105611481851416 0.2360728746782822 344.241361629955 0.0050944327600530226
0.2634561783169875 0.2351780837409599 344.2692145494742 0.00389586490727178
0.26359653413950107 0.23524034389210888 344.19676034208686 0.005246660162712408
0.26798305952213075 0.23645830035753446 344.3760512556682 0.10973296495047884
0.26270417443977856 0.23492089036934116 344.4009525653267 0.14501051510916463
0.2675817900434569 0.2363685602334341 344.2868758219346 0.005388988943795147
0.2630848985538164 0.23503444660715916 344.39017542429997 0.11498008248796084
0.2704334714954349 0.23717164785344386 344.3655152306532 0.10408769095282852
0.26317028928869235 0.2350707932949196 344.35123742351664 0.0543075446672685
0.26360849216544685 0.2352329569034663 344.23319757776466 0.003987403062675946
0.26488705303791193 0.23558089365077137 344.30918195054267 0.005042992608212423
0.26991410193270227 0.23702866730686112 344.3401678729176 0.06757111899907177
0.2629128073288174 0.23500478162735342 344.3223134063184 0.01287991818676795
0.27087800986470106 0.23731885680354195 344.17062950816927 0.07474611608038499
0.27090175904549496 0.23732561292141996 344.2986733064886 0.006338035836202774
0.27258945552548813 0.23780572532866961 344.22163511167923 0.003966074473944739
0.2727495485372308 0.2378512682578413 344.31499239371897 0.015082643413299908
0.27283255977892773 0.2378748831243486 344.232908410319 0.0035211195891698805
0.27519996120312773 0.23854835658961493 344.26752736786557 0.0037110142471302376
0.27542598514462563 0.23861265541344673 344.2448581976465 0.0044714260798739535
0.26672047726160697 0.23613613051954901 344.2114976144278 0.005364274066188088
0.27581300912371287 0.23872275519528882 344.2815269374855 0.0038940640294552378
0.26916910884024203 0.23683271217129878 344.25752009812476 0.00474663807680069
0.2740228656353813 0.23821349887479892 344.1948354975163 0.004042808054616129
0.27542771768783325 0.2386131482837584 344.2072867411386 0.005096929274280282
0.2486990139041701 0.22831446831090982 344.17753027979 0.04772414002255502
0.2558022076476176 0.2318096761221933 344.34279026273293 0.025437667907983016
0.24771253340572552 0.2278290592866912 344.3198997607207 0.00454060988390387
0.24849817116360645 0.22821564134081548 344.35688352872256 0.013207024660660245
0.2501348544366799 0.22902099008495194 344.2916751608069 0.0037613935079092004
0.25581717903209755 0.23181704296334538 344.3106498568187 0.004193665936885825
0.25316755210325104 0.2305132636954302 344.26363237969065 0.006160002001710635
0.2565304079663102 0.23216799542672045 344.3798524981826 0.05535932870732178
0.2530488006295345 0.23045483067311284 344.38956583811284 0.0651125686554763
0.24799548341290273 0.2279682880774307 344.2749109088569 0.003953193688029239
0.2514887568975908 0.22968719329269316 344.37063511028475 0.024482527102870095
0.25060493757561253 0.22925229987579998 344.39884982930283 0.11260609715825243
0.2543281472507811 0.2310843478263012 344.40923132086414 0.13652041442576415
0.2570898589056414 0.23244327966699396 344.3611872108927 0.047946445893460456
0.25414101071957257 0.23099226515345278 344.33056775888997 0.005975145359650905
0.25269402979527444 0.23022133740962428 344.16697237162055 0.0773701414030317
0.2531804454020763 0.23049664188182073 344.2278209694549 0.0034945202051378586
0.2615655266172745 0.23447559892758765 344.17405310668516 0.06760840460770118
0.2551004110487485 0.23142587939967166 344.2416216373622 0.00438376475230962
0.25764747241937497 0.23265355308673208 344.2526400631765 0.004354192371074048
0.25911129128499033 0.23337405401626568 344.28046332833406 0.0034644498536965562
0.25802464033352923 0.23278880593881496 344.18735048999145 0.009442973046572378
0.2588622229573529 0.23326742977220305 344.29869084303283 0.004567842758825661
0.2569007592201514 0.2322633073260746 344.20579387749 0.003569781084093635
0.2606088187613056 0.23400887944223359 344.16187651586586 0.09016742812750918
0.21671305499476778 0.20048804994210045 344.27366865180835 0.004854976482861298
0.21878794530648688 0.202947323108247 344.35162356743325 0.00593766075169059
0.21529618616247173 0.19878240235618766 344.30852353166966 0.005703818249588654
0.2209649803883577 0.20554010031229109 344.3917579951931 0.06248107615371806
0.2168469878366745 0.20066757281810732 344.20909990462263 0.003637287507142321
0.21534801755796637 0.19881851895233082 344.3952738158818 0.072015229881094
0.21587210584389496 0.19948641095255856 344.2584876899614 0.004458675102945664
0.21901207628327404 0.20323127608801472 344.29874291600186 0.003411321885152896
0.21803993907070957 0.20204578462816375 344.3736339003085 0.005023217249971388
0.2211941683257677 0.2058287804270481 344.34331019920484 0.003864574066721074
0.21657621590363732 0.20031022254724756 344.3209104789767 0.005625602952188583
