x y z curv
4.2894051788316725 0.11144717369880733 1165.3808661703297 0.005829759526992435
4.292574620922813 0.0712072456764759 1165.3808661703295 0.15552735010839974
4.301394626124342 0.11117188243750233 1165.3808661703295 0.021529963233969603
4.365988182529734 0.19732240000937215 1165.3808661703295 0.19235574285159213
4.3535480537450315 0.2154021408168382 1165.3808661703295 0.14632068034771809
4.351028095202275 0.2934529224353213 1165.3808661703297 0.16841421398790068
4.363288555708725 0.1875230409899123 1165.3808661703295 0.20613521572864102
4.364762766683084 0.17728857406594348 1165.3808661703295 0.17699782189745913
4.312992887073116 0.3283555035736618 1165.3808661703295 0.12041609467785869
4.376238358637583 0.23977362408213862 1165.3808661703295 0.11667096602336473
4.366645617921407 0.15150737828945685 1165.3808661703295 0.18417443076940287
4.369439283395031 0.23072259698208594 1165.3808661703295 0.14160643917980845
4.3631744329034845 0.1662091368054141 1165.3808661703295 0.2045679545836016
4.3593506587662745 0.30562023612384626 1165.3808661703295 0.12489113258226028
4.365941311155927 0.20573192827753783 1165.3808661703297 0.19096690477866504
4.363262253060088 0.29402862589546286 1165.3808661703295 0.1706227792366422
4.34436343646327 0.2759273269107504 1165.3808661703295 0.07271656524713163
4.3323055001020245 0.26954563796639813 1165.3808661703295 0.005397686044206027
4.196026158810218 0.031463638796027385 1165.3808681254277 0.09906054973277678
4.356938729317133 0.09615990089449081 1165.9752697404679 0.008645960904619358
4.348492955058026 0.09093792969347742 1166.0565186069741 0.07332619832954212
4.356736242894176 0.0960419661398894 1165.9336966793044 0.007845654243736028
4.347495520521665 0.09032680786566527 1166.032634831436 0.0014562518987519544
4.350106179899013 0.0919386743542971 1166.0212358261044 0.003772236093177191
4.352469027040249 0.0933844104441081 1166.0895942901805 0.19836530312965955
4.354775807801245 0.09481153507651624 1166.0622723475321 0.10697463308219594
4.361849909287334 0.09920515823186135 1165.8758539637615 0.017414485435552587
4.357550606936765 0.09652100765286392 1166.072552244232 0.16080211969432687
4.34410885458597 0.08832183119120002 1165.4128944402241 0.016908402342298463
4.350052733627493 0.09212265256478393 1165.548580867773 0.0011397671748437658
4.341019175245341 0.08682707749575323 1165.6777148006731 0.0012865593639529408
4.342491060827658 0.08776428681873161 1165.7085328573153 0.0011139312525849524
4.338299131215027 0.08504670468061899 1165.5870077570826 0.001292943805725588
4.346708888778996 0.08999554029016875 1165.4799971758382 0.001407551824521177
4.334999957320894 0.08321015521820624 1165.7021282916508 0.0011147119675913595
4.341692722480162 0.08712437844478872 1165.6000742485699 0.0012329128544238093
4.34076856622505 0.08650038469138455 1165.555939165596 0.0012835369490758655
4.341273693831861 0.0868875958768189 1165.6122398552293 0.0013513562796732353
4.334899499907532 0.08313244778786635 1165.6904429058327 0.0012560111651629439
4.344840167007902 0.0887434136101377 1165.3974749100887 0.06028184336365587
4.348284760971279 0.0911645839495234 1165.628476381007 0.0014081370364482171
4.345865249010642 0.08940474824425228 1165.4249506836736 0.0014776266598042214
4.3432589959615715 0.08802498304261218 1165.5654384107465 0.0014506453756316649
4.342046657344098 0.08720546476533297 1165.5068832224833 0.0009502296256473872
4.34878733073221 0.09120827636100907 1165.4463322489357 0.0014318825963496886
4.343024983627221 0.08805715117498603 1165.6868662330671 0.0012873564038298501
4.348344765132339 0.09097459781269339 1165.470619404639 0.0025759756496539794
4.341788373755685 0.08735308135907713 1165.7190781595682 0.0011298522274375855
4.338494377095908 0.08539775894823634 1165.7491911330194 0.0014422901720425125
4.34065333326705 0.08667931591731012 1165.7294521127405 0.001187923485727433
4.344637682661426 0.08887824109280289 1165.577146722132 0.0015982051231298903
4.340045519560752 0.08620673046453936 1165.6570629818334 0.001210340596984285
4.333256376044256 0.08216638546339405 1165.7119479226963 0.0011685698847145609
4.344069071477729 0.08836001358876514 1165.4563481092948 0.0015089658028745387
4.343207924954503 0.08810063606670715 1165.639794686651 0.0011424775056956022
4.310452421823349 0.06999133326129142 1165.8090996114395 0.0011741525802365738
4.313077235589056 0.0713304572611037 1166.0145920224631 0.0015461230202316895
4.312112269357971 0.07087002755652103 1165.702051768029 0.0012485100589847658
4.314328854529847 0.07204874633636717 1165.5197129690018 0.0014344618751332531
4.319214795313796 0.07456997104950049 1165.6901644164852 0.0011989449725025277
4.311819993632122 0.07069274063139808 1165.8886446244335 0.001488298024298124
4.314021709007934 0.07183465613878753 1165.9223705839506 0.001682058272687949
4.3180920447444615 0.07396856765835243 1165.8149074182493 0.0012105155883003146
4.310325969959783 0.06989938040521529 1166.00321523314 0.001627649434260149
4.315143471863949 0.07242879685856558 1165.8478017253806 0.0013615129255363427
4.315391873282442 0.07259174043341657 1165.5979936577435 0.0011520728507674073
4.3223766834684545 0.07618414878637467 1165.9298979457515 0.00151213706133882
4.3120381655966575 0.07085930086677134 1165.4949141306124 0.0012216768562819259
4.316229323827735 0.07298704788538554 1165.9010451171596 0.0012588771361704558
4.321600990465218 0.07578266925834547 1165.9118285964278 0.0017488783550815617
4.316123089827174 0.07296929675789005 1165.621742907779 0.0013391386738298217
4.3124414211400905 0.0710381165872889 1165.726610018894 0.001087926433875584
4.311538384998372 0.07056983360986105 1165.7122196049952 0.0009848458598493278
4.319556815167611 0.07472299543875702 1165.87654684816 0.0012854366860093002
4.313808953320809 0.07171015803652503 1166.0243375860161 0.001353573188649756
4.324825725433945 0.07746362583973294 1165.8983703554682 0.0014598845181755008
4.315732152927027 0.07274864218434215 1165.7488106861288 0.0011746930741837458
4.312696030386997 0.07117850867943144 1165.6685059345414 0.0011502867643971943
4.3146271214905045 0.07214717977671836 1165.9425916186683 0.0016542944695290317
4.316688755682773 0.07321695518586999 1165.9703595652877 0.001748732575297452
4.324117652902978 0.07710374185842869 1165.8328284446993 0.0013814009348641786
4.2989897567008954 0.06459445958026695 1165.54738608357 0.0011245401820199682
4.308920038192119 0.0692075688184846 1166.0579381775142 0.14042648592613793
4.305378363441041 0.06763641131661086 1165.4657408284488 0.0011674139870848114
4.309310798147204 0.06946631564110328 1165.6508096603438 0.0012556951784050527
4.304895273021191 0.06738827049346684 1165.572142349612 0.0011143994824848694
4.306442118574284 0.06811568512029598 1165.602830152036 0.0011553136444195807
4.307420082763106 0.06859518420566972 1165.513767825992 0.0011465531866538346
4.292471040979265 0.06148656384314331 1165.6527814767032 0.0014659231078379634
4.309956780751696 0.06981225870127976 1165.430344067349 0.0011809695973262568
4.307972465522051 0.06878168507062785 1165.9300447650057 0.0014783738379848942
4.304914556686077 0.06733092360027633 1165.9399690333667 0.0015898321344172176
4.304562672440348 0.06716799283239423 1165.9189066771341 0.0011489891200096671
4.30207394791183 0.06602546227235219 1165.7156784773579 0.0011938924132253925
4.298091177905152 0.06414820622694857 1165.6606280916026 0.0014359824007386221
4.295074249350977 0.06272413295230779 1165.630330900313 0.0012011813321130677
4.298609176720986 0.06439627772155798 1165.646124246838 0.001345729215198615
4.302200238938077 0.06611816862832935 1165.533855760677 0.0013486457141719066
4.307584813126096 0.06858963103238098 1165.9763398644477 0.001676230853472013
4.306160380376548 0.0679754421235303 1165.6401383392808 0.001414292286354749
4.303072498354253 0.06647273278890103 1165.858889674715 0.001219404005925871
4.3072212047983465 0.06846909407678778 1165.6899970664813 0.0011819592763217953
4.300973830453083 0.06548623732767411 1165.8149451651693 0.0013469609720174556
4.302157833570037 0.0660522848941913 1165.7871919006611 0.0012860116997267807
4.304463141524699 0.06717978739309251 1165.5927275829972 0.0011964324073562833
4.303938263836697 0.06690406092009149 1165.7422002033516 0.0012292938128638277
4.30781216279723 0.06870151183949433 1165.953364176397 0.0014696609891905843
4.298545332992495 0.06435093670403488 1165.7296053871878 0.0012049851979069955
4.3053655285858135 0.0675398474089519 1165.966336630408 0.001551710229597904
4.301647801936365 0.06586322576888579 1165.4960942245773 0.0010915755956417618
4.310361758882615 0.06997128708488912 1165.6121847815546 0.0013193723541693322
4.304822951557243 0.06730018806982281 1165.8698669265734 0.0014661076615745845
4.300172957307067 0.06509505924214737 1165.904737318483 0.0013805507274615729
4.297950821926322 0.06403712486961144 1165.9948898659084 0.0013754804689676736
4.298072237800375 0.06408570379941675 1166.080044995821 0.17999859927708267
4.296216773460327 0.06321290355729872 1166.052154784309 0.1164081369569841
4.297241301678677 0.06372449556927647 1165.777959275879 0.001380400646676141
4.29880454548519 0.06445478789353373 1165.850755211724 0.001313504237734982
4.291726533241747 0.06113148544189431 1165.6842590366032 0.001213658678078325
4.306053506886976 0.06786114244577907 1165.9940581741087 0.0017598156690150143
4.297445878845628 0.06381898522775792 1165.7980463278027 0.0013174670259168749
4.302723951164511 0.06629082434231387 1165.9841731671177 0.0015747313120117819
4.303867397046028 0.06682544718258614 1166.033072491215 0.006690212141741172
4.294613644097398 0.06248801052844273 1165.7428492374927 0.0013560222629173987
4.294512007983031 0.062430040526123436 1165.8405327211751 0.0015763183765776655
4.292352885797207 0.06142358902272009 1165.718369295969 0.001391293848923271
4.292774292909233 0.061591190797248806 1166.0237337474991 0.0014576236985436818
4.293292052491248 0.06184364510634868 1165.9445871874086 0.0011750977382141157
4.281757572637708 0.05679636048686867 1166.0065325061125 0.0012277389883783344
4.286818946184804 0.05897683929261033 1166.0332859465243 0.040912348292881866
4.28233815365331 0.05704854962734203 1165.9406869739937 0.0011982150735163107
4.2913720750900195 0.06093963770660731 1166.0149021463603 0.0015494245481099983
4.28335893531702 0.057489932268884464 1165.8920917169696 0.001116889224242985
4.281034945785898 0.05648870944372873 1165.8808124815012 0.0012411264674344257
4.27690779059168 0.05470459701734542 1166.0621131418156 0.18714738534292472
4.288187517474488 0.05956587931444029 1166.058862574927 0.16627242825319602
4.287756182268938 0.05938759887821894 1165.8055344201402 0.0013376504443427333
4.28551791843776 0.058418537721251815 1165.9534712183731 0.0011399438213699693
4.289905584236925 0.060306727579699806 1166.0449152602207 0.09729414080401647
4.290177265062235 0.06042874435513837 1165.8807662991094 0.0014225819773356278
4.2846522526799316 0.0580487791179325 1165.8431487643838 0.0014142760720983224
4.287211833802257 0.059147325417243976 1165.994516948578 0.001399197976948761
4.28080746153208 0.05638487848407968 1166.073635104934 0.18330838267564065
4.246330872091833 0.042966844353982084 1165.753046739489 0.0010011900152103374
4.249069027436844 0.04391577318297897 1165.721115477412 0.0014363349264945534
4.250883645187651 0.04450894824550777 1165.9287832661862 0.0014375447742167456
4.251417028363591 0.044718259543555065 1165.7657358433548 0.0009230595200572635
4.240776279757116 0.041007184640380216 1166.040101116744 0.0956680979560588
4.245207280507502 0.042539997544147265 1166.0062795248823 0.001538513023263568
4.244691956128296 0.042375484199091054 1165.9220497233505 0.0014068368575465573
4.2402966985470965 0.04085694974605125 1165.9433293628692 0.001395755384478077
4.245504508052027 0.04264001618892661 1166.0219676849852 0.014121429271723255
4.237507414994032 0.03988717450214455 1165.995906684094 0.0016745749208065194
4.249696970974074 0.0440946545489118 1165.9621271118292 0.0013920639930895243
4.242082213635788 0.041485939977809555 1165.8570780543741 0.001386275720373846
4.244450080602803 0.04228337040221926 1165.9780151509942 0.0015186259588479544
4.252059336664587 0.044944350818688195 1165.7358439378768 0.0013800144293722838
4.239489785344178 0.04056501299610582 1166.0315576846463 0.07103411199865876
4.252775365894586 0.04520122285648336 1165.671550055756 0.0010114512519619951
4.243745457633792 0.04206345316188681 1165.8306098908067 0.0013993528700756307
4.248043750298881 0.04353792040882164 1165.8775382152564 0.0011344634008390263
4.242336959429153 0.041576068940723555 1165.8422805012246 0.00149063131383512
4.287926765229899 0.05947736819812488 1165.5872490190297 0.0011791801861029587
4.272822229268644 0.053021118545139155 1165.4250107183564 0.0013000048078431888
4.275348400028736 0.05409224338039229 1165.523479617895 0.0012149965199335787
4.285007958554019 0.05821563058806551 1165.6723388493347 0.0013766968158250095
4.285562977464069 0.058455143282252396 1165.6595384037491 0.0014689689035769918
4.274364114439379 0.05361061408822551 1166.0148591488155 0.0013162235762887173
4.282903365571686 0.057309734041804464 1165.7017671570625 0.0013652200343866403
4.285836525501023 0.05856844697384052 1165.6923182374555 0.001304656328905771
4.27417388738334 0.05357072917817577 1165.6714261011389 0.0014014129852811352
4.277375108557782 0.05495606368088313 1165.5656167301497 0.0012500785371218567
4.274271981594328 0.053579140622911955 1165.9487023440824 0.001278898797187122
4.273781594048482 0.053374898068922365 1165.8992000320086 0.0010468728425960757
4.276256621122877 0.05446110695894411 1165.692654193337 0.0013927994812721273
4.278608665848687 0.055453113076596505 1165.8279090167357 0.001449119201085574
4.28078426749491 0.05638749299090138 1165.8146412252088 0.001366749973655353
4.27348481746928 0.05328656312946726 1165.5785771995008 0.0014777374910638237
4.273208834676325 0.0531732824643318 1165.5370048933273 0.0013392956145027272
4.273355393034911 0.05321579673366855 1165.7044747973907 0.001256288089859526
4.283930629643254 0.05776543091149045 1165.5759546681652 0.0014406691162815225
4.28780097202854 0.05942122755772121 1165.6054446708542 0.001318990886631434
4.276516920719339 0.05459879111167691 1165.4777018232633 0.0013284451994552407
4.275455538461683 0.05408403883471483 1165.9696456243448 0.0012824096380147439
4.2744437191344815 0.05366580703379095 1165.8412759509733 0.001226666054594449
4.279051197777271 0.0556638206095535 1165.6550448799637 0.0011985558676127733
4.28219367247805 0.05699845267070566 1165.7595102949922 0.0010412405388715749
4.280816553019765 0.05640361583115375 1165.795845713624 0.0013066893702690424
4.281904313504852 0.05687326985954726 1165.7687626598492 0.0012110641918628383
4.281496029429909 0.05672420581702222 1165.5546250128511 0.0015780208215591814
4.279255893186382 0.05574364319303041 1165.7204689310079 0.0009959438063578414
4.281281989969766 0.05662328704489259 1165.630041261028 0.0013074675716442474
4.265219603116277 0.050014781980391984 1165.8936096053549 0.0013985091647628256
4.261044632646137 0.04841036975235544 1165.961486670838 0.0016113981844420664
4.255328174919145 0.04622307325055689 1165.9184017751095 0.0016643101536391914
4.269225336019988 0.051554004528676985 1165.8306729688622 0.001035308490280141
4.270558540608187 0.05206192004861646 1165.872376290575 0.0013361914087530301
4.2706317188651 0.05207607281534744 1166.0712298782814 0.18054749216080523
4.266082736659611 0.05035913382962347 1165.6983435157895 0.0012998858555205459
4.258326148192902 0.04737782742187921 1165.8316568350526 0.0012366176839375168
4.270427110501929 0.052029717715163876 1165.6123734924267 0.0015338725564844045
4.269525309792235 0.05168285211190743 1165.6314720543614 0.0013373572618738487
4.253623024627441 0.045565850137054054 1165.9739870058968 0.0016152323716535743
4.2652631995590475 0.050049146844294096 1165.6407037503184 0.0010834648933949896
4.269327077335508 0.05160895708298725 1165.6019824387338 0.001455821871369057
4.260953425442709 0.04836980413575329 1166.0419510351308 0.11005660279624004
4.268627416842945 0.05131749883454158 1165.9367629795306 0.001444505730752103
4.267621899225247 0.050962176493512125 1165.5078740649508 0.0012615138000951775
4.270876046015526 0.052180426065320584 1165.9174660883616 0.001325664495910559
4.26500290780113 0.04995091268651762 1165.6192425144898 0.0012769201574672926
4.260078664449979 0.048038479282164225 1165.9868661035578 0.0013495943620204858
4.263628753400827 0.049401382099022145 1165.9487927301677 0.0015925611309954854
4.267175161553005 0.05077871654572171 1165.6838564407485 0.001459287190613229
4.270027826807396 0.051886733238010393 1165.4691099374468 0.0013331438065462087
4.263359886330233 0.049299903885147066 1165.926735171946 0.0016927521900807945
4.271198143388285 0.0523339334916773 1165.4865181834843 0.0012402164314455
4.267602382904445 0.050920856964309806 1165.9925002318096 0.0012086277386070226
4.2638486033572 0.049500521292208124 1165.7353906931128 0.001018260877175521
4.256594138564167 0.04670237641890473 1166.0008961747408 0.0012230296905235095
4.271584135299846 0.05245629292730561 1165.8522087047868 0.0011622525485274987
4.26030217814274 0.04813678311608756 1165.8055295322813 0.0008345967736154435
4.268887346094244 0.05141027850044615 1166.034345577546 0.05153218100618747
4.206626434154967 0.030590646084980348 1165.5347624577134 0.001365165763213324
4.2042893101285435 0.029951916460596008 1165.479638671093 0.0015263223317791177
4.2035489568655775 0.02974951741046222 1165.458802771336 0.001505009969580453
4.214285128696996 0.03268410703137753 1165.734860861809 0.0010209316121921879
4.2056032782514645 0.03031114018538557 1165.517095824965 0.0011960733444981682
4.2163188263997755 0.03323939332542895 1165.7548895111597 0.0012290378710614366
4.2118986391528415 0.032029393239186715 1165.5440612716802 0.0014042801430274759
4.200204329394999 0.028836456995938696 1165.4348035377266 0.001265974902887829
4.214724963108065 0.03280432473487793 1165.7458909452873 0.001226217049606184
4.216560514831939 0.033305517610774465 1165.764448070375 0.0010602086599408747
4.2008042294434595 0.028999915809912014 1165.4223909565485 0.0013041592860497267
4.2113588317756605 0.03188449925794222 1165.6734600105071 0.001064616794917189
4.212517438957184 0.03219748578750707 1165.5034127129359 0.001174331036692403
4.2099394459765715 0.03149503427403049 1165.556302446133 0.001170986797548943
4.211350805056602 0.03188250712410885 1165.6841465517166 0.0010278884891104247
4.209574292429999 0.03139666675502148 1165.6247449184175 0.001240582414238711
4.233179521105275 0.038454541246660534 1165.6779916386406 0.001428963486100128
4.2308728567280625 0.03775019825220981 1165.535642864296 0.0014065595780203203
4.233510353923757 0.03854849490664752 1165.837577187274 0.0014342390621784917
4.232423390640381 0.038224887760936854 1165.6070674303392 0.001177782691848397
4.234075655859814 0.03873259889542907 1165.6462123593099 0.0013610276742830516
4.2300378345786065 0.03749812142247565 1165.4270332688811 0.0010913113282919778
4.23243409188795 0.03823129934457622 1165.5458109658528 0.0013373955475573043
4.223636549797489 0.03551945750699777 1165.505110757745 0.0015240402647219795
4.233583690870926 0.03858413436170966 1165.5812376261617 0.001261663385554312
4.222808053243146 0.035259508249456076 1165.5911858121217 0.0013309257676903281
4.2242597270171185 0.03570369521371024 1165.6627224245774 0.0015784494041402003
4.2235522137499775 0.035488006552854744 1165.6121390601747 0.0011901686346051992
4.227721160200135 0.036771055927423524 1165.6713678610363 0.0013875980129643784
4.232295321626258 0.03818481647897216 1165.6181734962938 0.001283877650433893
4.232675578652291 0.038286812684220954 1165.9196361556171 0.0012756005557142962
4.233777429495605 0.0386301818718344 1165.8513985022357 0.0015492112970657064
4.221896693767618 0.034980584071141345 1165.5475357263695 0.001439617568507229
4.231926266613044 0.038060405984382956 1165.8261937199163 0.0012189072426819403
4.2332582264788465 0.038477563037266904 1165.7027593163018 0.0015846929817170316
4.234542742740645 0.0388758765869219 1165.662194750557 0.0014094292632386308
4.224036168921978 0.0356451743103985 1165.457050339639 0.0012836431925338165
4.232476222918404 0.03823147998309806 1165.798212283356 0.0009954389827173747
4.225633712739705 0.03612467061352287 1165.7194093087396 0.0013272017050287405
4.226364374883893 0.03635133167805772 1165.6945385028696 0.0014474057402382048
4.222086790245498 0.035039853769039134 1165.535171548331 0.00137794413660469
4.232180290361867 0.03815250720490458 1165.5556227889424 0.0013044613734422411
4.231257827668902 0.037869510639728376 1165.5247189125605 0.0013286039768371075
4.18253726495854 0.02462411652429906 1165.7782777803777 0.0011461021098088857
4.197205223653066 0.0280909364099518 1166.0160524620987 0.009813674751286482
4.178616816881538 0.02369862159720133 1165.7234075738263 0.0012754144136389518
4.18956294998583 0.02630561869848579 1166.055253545793 0.19936236645977432
4.191046872636598 0.026629192964443958 1165.8680009200511 0.0013653723576993492
4.18399458400874 0.0249962731578861 1166.017557790844 0.02792528350250947
4.178444257291058 0.02369708945740545 1166.026050388401 0.06653387009274817
4.18355256743717 0.024874346092604173 1165.874569118253 0.0009741032010193722
4.177747923603292 0.023522172172055135 1165.9343302817613 0.0010258759536470638
4.178456014246688 0.02369522266605221 1165.990092081098 0.0013497324844135399
4.193719607573183 0.027258052320635398 1165.8891483578395 0.0013516355344958594
4.176090261988629 0.023130513965745968 1165.9085133445067 0.0010703981689516118
4.184508001896681 0.025110567011493275 1165.9709898764208 0.0012022071504876686
4.193829825830457 0.027286525407455693 1165.9097864553987 0.0015383202936312577
4.1910259893013215 0.02664235847901825 1166.0085152500515 0.0011548257141811092
4.198342035821346 0.028363333927275955 1166.0633359187202 0.168889593974796
4.173646629205265 0.02255329508365911 1165.8715597448952 0.0011610837436952222
4.184837557897952 0.025172608972599275 1165.8530004028748 0.0012635754794424153
4.1950881456565945 0.02758873796136147 1165.9675703356716 0.0011659366925030376
4.197119863605122 0.028073622949857942 1166.0369363330394 0.14403834419339828
4.17926908838007 0.023848328277153448 1165.6992778533602 0.0010592563401164662
4.193159096699484 0.027131593866575536 1165.9269068120982 0.0012620583484060678
4.177168748153082 0.023350036932423095 1165.6506863711086 0.0010027526626355998
4.178711049095563 0.023715908284017036 1165.6861419887493 0.0010834542783626333
4.19057873478595 0.026534831900278354 1165.9871301145145 0.0010476717133436734
4.199068021686043 0.028523985434881487 1165.9899951433085 0.0010498313126832963
4.174255852367391 0.02269737313159696 1165.88210603492 0.0009318188427527779
4.184392293410891 0.025064819711706588 1165.8259435554894 0.0013378987023811224
4.1907375724278655 0.02653752727099967 1165.4777094135793 0.001281574783486949
4.19668803935039 0.027970164690940363 1165.448226786819 0.0011635466050263893
4.193428552054204 0.027384231018780382 1165.6497356920727 0.0011642103983903734
4.1869068248780135 0.025657755212856 1165.536330957165 0.0010769388052277538
4.199205785189459 0.02881408975449895 1165.6574045247164 0.0010700075220548121
4.192233737169123 0.02703548435655677 1165.598709283991 0.0011216755685530774
4.188091608990549 0.026050839367730477 1165.6309937985704 0.0011385048971205476
4.199064868223646 0.02870644517207587 1165.5893770336543 0.0012092061101258479
4.205065653303791 0.03035786391837424 1165.7523176876923 0.0013446149405154486
4.202794715647193 0.029759786580180365 1165.7157196109022 0.0011202419699531357
4.211051425738416 0.03187278910159373 1165.7914513134174 0.0010692074553184815
4.200420206922211 0.02900681400264534 1165.5584752757813 0.0010896243817359126
4.192771493247587 0.027062744653919574 1165.5007557480549 0.0012202501376288636
4.2036230862228505 0.029805127024498806 1165.567951366337 0.001155223962180971
4.199038962164727 0.028745353622516404 1165.6315940323266 0.0010827590351917208
4.189960893321141 0.026486566495963513 1165.608379232196 0.0011308337481289014
4.20299506892761 0.02972908550274598 1165.6411338695605 0.0009139041311991405
4.203052276361309 0.02970040709428419 1165.6012732762651 0.0011932059923582068
4.201498649744376 0.02946890158733082 1165.7418651054295 0.0012680481226585694
4.196112724055081 0.0278508474056732 1165.4689733812666 0.0012468777476081644
4.1610856646088035 0.020141921281396045 1165.7199803757044 0.0011323148207281796
4.149949769593495 0.018265684578932812 1166.0380559938303 0.1426315094289321
4.151518169496029 0.018449477699131363 1165.6489370466163 0.0013469990773597768
4.146478533368493 0.017637544657346717 1165.9519616986213 0.0014254822427827247
4.159573209516909 0.0199383871898666 1165.9826839080113 0.0012527388585822391
4.148850336975619 0.01804946896083276 1165.936894612045 0.001134354234487066
4.152761084934926 0.018649339107086115 1165.5725592765582 0.00145392483533541
4.156042642764803 0.019213433608492196 1165.5267558342355 0.0014864021121424173
4.160690008558501 0.020119617564628586 1165.921110881297 0.0010599126226250115
4.145767088794388 0.017487472615443776 1165.8430271227064 0.0012758640558900426
4.158593467754588 0.01966497539906701 1165.5470372519744 0.0017271392060024078
4.1489654828360365 0.017997693066701532 1165.629011883929 0.0015046905461856782
4.159617466664008 0.01993636143121677 1165.940840349812 0.0012120298881267224
4.156535946748584 0.019349877424639242 1165.740884212642 0.001137697302553925
4.145445899310997 0.017474654191424237 1166.0289302653687 0.1141505738290265
4.149471838233374 0.018120063736633392 1165.773132118537 0.0011362513028677038
4.145882966586635 0.01751318991260633 1165.8662222306768 0.001214974576212522
4.1543160192060835 0.01898261866297812 1165.8332502964563 0.0012252810950331217
4.1650693676783845 0.020894202501908703 1165.95319113754 0.0012688206469988158
4.1454825761981375 0.01743011040606132 1165.8108159469002 0.0010273093222223752
4.157737229441349 0.0196269100672846 1166.0259623945267 0.08393253742444905
4.158840663654824 0.01972937323141534 1165.6373288817379 0.001466375690547628
4.156418288208563 0.019318074239848035 1165.6929798117376 0.0012612863223587093
4.155940387743198 0.019263495719629837 1165.8176417796658 0.001356193075017802
4.153063776104113 0.018674857875150296 1165.4548723828357 0.0014367326169189305
4.167380966780347 0.021308397714850335 1165.9929706065666 0.0013005864934530428
4.154443285702658 0.018953103253578046 1165.611544254179 0.0012105525909586387
4.155750341125821 0.01928534140063336 1166.0535847817735 0.18249912450188102
4.164202253674819 0.020727059252101172 1165.8878889586297 0.0010728604694670513
4.161982646874149 0.020331860947519056 1165.8604493757305 0.0013393296871043834
4.15020424669922 0.01823612730459212 1165.7208156933416 0.001270857119829071
4.142527679083934 0.01694372833851562 1165.9443242950442 0.0015665701875789623
4.154178440367526 0.018971666618964746 1165.8895087842134 0.001242334542418665
4.166429430442209 0.021144093963302118 1166.0031015271554 0.0012421922420654584
4.159766065680847 0.019898201774752905 1165.6661513539557 0.001609289344495895
4.155821622901978 0.019163492803584915 1165.478710851049 0.0014214370952036568
4.157410355904701 0.01954701642344575 1165.9290826864103 0.0011921356668424623
4.145431761994201 0.017416987233182937 1165.7927458216113 0.0012624940094361336
4.14994568816751 0.018260781233640302 1166.0201318576046 0.04911707357856168
4.1566224167588794 0.01930024495791234 1165.463669098981 0.001365082470159229
4.156394667815804 0.01938499989269996 1165.9970887599209 0.0011001226119614431
4.148516307800924 0.017931702916412356 1165.6833064730981 0.0013263552575753952
4.160962460196301 0.020149620091535116 1165.8452789915814 0.001137694539859011
4.162138496954294 0.020394667659694513 1166.012403332777 0.019784689759569374
4.152255710859024 0.018563425340180136 1165.583718125851 0.0013477406374662998
4.148635564879761 0.01802348475087909 1165.9866869068273 0.0010997698620570412
4.15535601287098 0.01919376930339362 1165.9572909918654 0.0012979210988893336
4.165270579766398 0.021002700348068497 1165.5046622406442 0.0015349774813582424
4.165037896126851 0.02093214519194267 1165.5783875846987 0.0015080409962390004
4.17030454195004 0.021961173798905154 1165.6317563475347 0.001018150979594809
4.158950628555096 0.019743454698186565 1165.5146532051351 0.0013939771575219527
4.1697152419064025 0.02178402746108573 1165.8137953261366 0.001149996849083634
4.173816038713093 0.022595333516381717 1165.8248223938176 0.0012592755655097888
4.173903193763304 0.022679566046816084 1165.6219329922721 0.0011648400063861844
4.1735840378816755 0.022598035101780656 1165.6768326598558 0.0010348464098839368
4.165682623934013 0.021048489492760093 1165.6141098373653 0.0013755093037119998
4.1748967482720865 0.022839853697563035 1165.7346062820263 0.0011257302555889648
4.164410716906267 0.02075543696426635 1165.7362730665754 0.0011677788914947202
4.173722326552432 0.022589102900150593 1165.7872459716507 0.00102412112199131
4.169516108513263 0.021832797664226078 1165.5459230678314 0.001348887288771357
4.16527299165354 0.020993002292663265 1165.5355216887874 0.0015012060912416622
4.170018675150327 0.021802129530824117 1165.9417483883683 0.0011185422263309292
4.160777105759115 0.020090186786197468 1165.5638952541785 0.0013074488517785285
4.166721711154217 0.021200226514177592 1165.7801469544092 0.00110329214150606
4.1656219325556885 0.021025740108973782 1165.6465185662746 0.0012173527866598222
4.162667452071183 0.02045301884725299 1165.6028055072497 0.001481418448046325
4.163152839081558 0.020587020870117385 1165.4889717299993 0.001283154323233995
4.1691269012023415 0.021702138157148956 1165.7075773432016 0.0011887208441596576
4.173552437885851 0.022539516958985817 1165.8352279274338 0.0012337079971392437
4.169232903218344 0.021693475080762515 1165.797719466766 0.0011504313589871546
4.138353303664049 0.016317905161435997 1165.6025149260759 0.001567731376099229
4.143607812632656 0.017156009196625986 1165.5702763699928 0.0016541760815198309
4.146046921867728 0.017532530572966692 1165.6382576114138 0.0013201119147318856
4.14024906732808 0.0166013218193015 1165.7164921322799 0.0013601931036301108
4.1498348899611734 0.018155314084776813 1165.4918310073472 0.0014172678616335653
4.14145697238588 0.016796530047008006 1165.6922210890564 0.0010613012000124517
4.147602661324263 0.017782030723825115 1165.6197244607158 0.001483934826543437
4.146898458414311 0.01769776870279257 1165.4381637795436 0.0013591210280098562
4.147132222438925 0.017710355697143607 1165.600346791286 0.0013351044597954727
4.145830198213463 0.017524905181863063 1165.4611071075938 0.0012906193496689269
4.142250394400754 0.016927278326307506 1165.6595568510322 0.001511441623332907
4.1392739964324905 0.01641447900636459 1165.9299352363935 0.0013077896076394372
4.147262904766155 0.017744407012927524 1165.5120536389709 0.0014674235518730894
4.145092932209207 0.017397286169573985 1165.5320325521338 0.0014532804201267205
4.138503940928746 0.01631936410775352 1165.7510922962792 0.0009811517130488053
4.143934368075341 0.017211034058623287 1165.5488056884492 0.0016861073519474632
4.147000140276048 0.017701454108133795 1165.520565063222 0.0015380840108563504
4.150181729671727 0.018199663282077925 1165.5623895860917 0.001652700315035141
4.14321447409924 0.017055768532901132 1165.8211245233595 0.0012370123003541244
4.141145947122157 0.01671745910069799 1165.8892992823096 0.0012258445302252045
4.146162889127341 0.017545543298299666 1165.6738766540584 0.0014259449704285073
4.119982376235135 0.013991969481216124 1165.9608740281299 0.0012522283069892849
4.137679792500545 0.016186736268370708 1166.0465120985157 0.19358907344672305
4.128476097156753 0.015044693939983714 1165.9293962720003 0.0013622669494800044
4.135841038924876 0.015956968157960147 1165.839481170378 0.0012939681841748105
4.121929213006512 0.014233529909569676 1165.984138956997 0.0011351192781983057
4.136940215255768 0.016094838384310334 1166.022545757892 0.06864509883130901
4.130698312537811 0.015320618219415846 1165.9782837478656 0.0012646147148322648
4.13703787655475 0.016105650067716172 1165.8743864760797 0.001082805085456092
4.123654625152968 0.01444634758441936 1165.8596895413623 0.0015194971048024246
4.132388264360971 0.015528243136369971 1165.7627501018505 0.0012680345520748601
4.121707251913205 0.014206124075218719 1165.9968935917618 0.0012159277236328538
4.123429237070258 0.014419378276615245 1165.9709354816002 0.001248628138464777
4.134151735334997 0.01574768876332049 1165.8566516454412 0.0013169127332305687
4.12713661833655 0.014877094089781003 1165.753376711524 0.0013497914141248478
4.133995878038558 0.015728022120849793 1165.817272139635 0.001366260853286006
4.127737762259967 0.014953019604853022 1165.91338006907 0.0014166394620836152
4.1344041456224 0.015777670441461653 1165.7067953450128 0.0012060066841452575
4.129275455133322 0.015142011049328729 1165.725592840025 0.0013316654533343645
4.11939750859149 0.013919850614385816 1166.0054051079878 0.0037898982502619144
4.131418907720455 0.015408441948096731 1165.8054838808494 0.0012267992782670509
4.127845493426619 0.014966114564575687 1165.8835492690182 0.0014365660606298605
4.129423756943391 0.015163268185365631 1166.0539317296964 0.1773095409711326
4.136033197215644 0.01597908534563913 1165.6444813977453 0.001462409448163742
4.121436012832707 0.014171686015956286 1165.9041070604196 0.0013900719908573618
4.123400494444481 0.0144155242338296 1165.9376957895913 0.0013160277221621877
4.135399697543388 0.015900441560318834 1165.632320488638 0.0012928565415875157
4.132486437158695 0.015542000382415353 1165.944138145563 0.0014124615574147032
4.118731538998623 0.013837369654409768 1166.0147686491132 0.0599927979473409
4.103518206573915 0.012382990443157868 1165.8691230213115 0.0011415281350656413
4.090540167714487 0.011442966492769543 1165.9723558836959 0.001105192559222704
4.093476189978297 0.011551652179775624 1165.7010632011961 0.0014191166955829703
4.087051870430667 0.011190574182451314 1166.0007511136657 0.0008294051752073036
4.094403960973451 0.011646143810750093 1165.7587617011973 0.0014891726044734639
4.084734648883384 0.010984256396661191 1165.9274319719364 0.0014085531515244127
4.085131649253152 0.01100069543126601 1165.894904574408 0.001091765365224757
4.087228632336488 0.011154355176081111 1165.8824480364706 0.0011455827674870837
4.0850210599327115 0.01105593003430067 1166.0465960952265 0.20398635455099218
4.102541566206011 0.012232248431989614 1165.6861207786062 0.0009994828793882865
4.096448699617332 0.011810566036824524 1165.7814082772334 0.0015312155958855612
4.100754326891084 0.012154676063983521 1165.8240507179216 0.0012401832647511361
4.091810037247683 0.011479846685931008 1165.8308675271342 0.0013487259162822884
4.08591657072289 0.011088638530531316 1165.9627967566676 0.0012642681035300056
4.0997302434273495 0.011985060910341488 1165.6046158000927 0.0014412616654173517
4.103354765663694 0.012365906809483762 1165.8579153013332 0.0011384261101603595
4.103920251152397 0.012483511085500325 1166.0361830142142 0.15110333250745678
4.098575463148603 0.011871050101837095 1165.5413869732226 0.0013563678731765248
4.103487410653641 0.012371493567119593 1165.8472718883886 0.0012840849967853064
4.096154052858029 0.011898533061587169 1166.0444069691407 0.18089342476635287
4.0985570382127205 0.011883056148272087 1165.5733451685378 0.001410718394100795
4.104901819448795 0.012440232143624852 1165.7556377518952 0.0015379927166615376
4.10306672928076 0.012362093883978045 1165.900863666159 0.001370675719535094
4.098482448736502 0.012062464977797512 1166.014634997166 0.05357242144628156
4.100702948967134 0.01210365741417818 1165.711675648049 0.0013473749136265938
4.092580300492195 0.01160167899555412 1165.9822193651153 0.0013181048217833292
4.09514309108201 0.011779007551034735 1165.9420437278827 0.0010375505081564092
4.0959219289083135 0.011747251801832672 1165.7256044015637 0.0014714939055295916
4.1043352198352405 0.01249279769350379 1165.9833537326685 0.0015840485145646429
4.0917957379227685 0.011530081726150058 1165.9532401663366 0.0011654064387889567
4.366035345349754 0.1019812571586183 1165.8212422673103 0.024640582426952058
4.3704934968974465 0.1049563212747063 1165.8033278291832 0.028970166756038657
4.364619605600879 0.10103565863531784 1165.6705915883829 0.021817734091462627
4.373554414281298 0.1070001822399508 1166.0195859978917 0.03371883267590326
4.374940363099361 0.10792485491241055 1165.9736895508734 0.03183828447088925
4.371224435453467 0.10544470160175401 1165.9136659967403 0.026484750112296864
4.3632412953766355 0.10011600558959337 1165.7018128926043 0.021361376835748225
4.3636311698257275 0.10037643241440218 1165.747539297995 0.017273164717387372
4.363428677710438 0.10024145473708555 1165.7768817269798 0.02011229299963629
4.368641652310014 0.10372014268573987 1165.7383967790608 0.03183567418128698
4.362958186231052 0.09992780524355523 1165.83976140685 0.021470207494387935
4.367843109415558 0.10332031618735082 1165.4248297070394 0.029864078006556688
4.3641152704069714 0.10077310032013126 1165.4662007460342 0.015178651417408812
4.358176389525199 0.09703401505255262 1165.4452339948057 0.009406935188873148
4.357083140389387 0.09640442484713758 1165.4253808499184 0.011839812918052254
4.370308491338167 0.10496422536695793 1165.4085492421968 0.03969878585083634
4.35164402183606 0.09297569447875921 1165.4073477753461 0.030479427934603846
4.361333267750952 0.0992135396677428 1165.4040857115265 0.04174019056504553
4.36166786503124 0.09946684222271177 1165.3936512566816 0.06484107321638109
4.3683406082544405 0.10355948877660782 1165.4467573194465 0.026939919059526963
4.3530342861821385 0.09383303808248528 1165.4171479962608 0.009561632237406668
4.323337593712475 0.07678397395939617 1165.45557162195 0.00124583291855456
4.340398603454313 0.08631508237668821 1165.3797087083722 0.11554672638833186
4.330434963206967 0.08071686470931266 1165.433344612543 0.001345044829934106
4.335788308489759 0.08373677028563774 1165.4010175420483 0.0554174929531005
4.330374091856655 0.08086567919938505 1165.3803747871907 0.08548050040758273
4.320076206961307 0.07510708383787287 1165.4278240433441 0.00112748874734499
4.325672300521528 0.07827678995947615 1165.390285320593 0.07363417596643689
4.320870249184999 0.07562587858603798 1165.4023924766288 0.04375555968587557
4.335026409934363 0.08336394238546183 1165.389027435632 0.08553699409879052
4.304517038692048 0.06724191407258082 1165.4478943087834 0.0010414241478442876
4.286711102818107 0.05928698761892556 1165.4024446535593 0.039383685445365677
4.290691372478607 0.06105336302979704 1165.4185967154729 0.0025310355135639904
4.2958486698700185 0.06321570123280171 1165.5035004854487 0.0010725731367962124
4.284772695794579 0.058439917546265985 1165.3879159942483 0.09070818560241858
4.275340785151651 0.05413527994234988 1165.409837713697 0.023203030182322452
4.306643925240475 0.06828574260838423 1165.405928592906 0.03970518174040287
4.28586935544922 0.05867074818014298 1165.521878126999 0.0013817383742299543
4.282965005448423 0.0574896796615742 1165.4555068735494 0.0012867314198863804
4.281717743666935 0.05685423940046243 1165.4919173213887 0.0014614416679123254
4.288657339533228 0.059842658599368964 1165.566271963809 0.0014793306255872062
4.27950274502844 0.05590164378301911 1165.467548835164 0.0012398594564030482
4.292771605846948 0.06176243992721662 1165.5354145423312 0.0011921818683846275
4.283729777733432 0.05785646117430504 1165.4447460249485 0.0010879168412356549
4.279078276499982 0.05588192644415484 1165.380452399215 0.08459902823532273
4.294875798066444 0.06285907995302689 1165.461525058457 0.0014004777540695614
4.294945178950339 0.06293471433898822 1165.4391061339759 0.0013374561122779086
4.286295530360482 0.058819542133201445 1165.544025460652 0.0014131330875497875
4.291996099578754 0.061503433443651626 1165.4891641228292 0.0012724273810505345
4.236665727533026 0.039648759621132464 1165.3793818799622 0.09055069460873726
4.254920033163333 0.04620970575880035 1165.4278837840393 0.0010371429354725657
4.247630060076919 0.04347545162176402 1165.44547310289 0.000994118751901845
4.255696715715286 0.046599219426328053 1165.3941998553814 0.07389968052791633
4.266343031186742 0.05051033022137673 1165.3950765527482 0.06072312173240479
4.268438209186277 0.051310733892708495 1165.3853036664877 0.09016111210930175
4.254233915463072 0.04586170975251748 1165.4589037740977 0.0012412875796878216
4.249873407569534 0.0444975774863288 1165.38152390785 0.07902495207463556
4.213915188906862 0.03271827443391811 1165.438300557356 0.001550274651838484
4.213719662716015 0.03260121051672592 1165.4598983280964 0.0011366476773038918
4.206242692856798 0.03062713235320056 1165.3860810343683 0.07800544544005955
4.227117952544232 0.03670293862387075 1165.3892916626635 0.06825132070389989
4.203379066819291 0.029729212583823373 1165.4088135322231 0.020480521556857985
4.223449874993849 0.03547460486907302 1165.4465147929589 0.0012746888867659306
4.220479387726542 0.034549355851207844 1165.467874328294 0.0011758741564071402
4.2153556233202325 0.033027313387692186 1165.4781439425024 0.0011549880124122535
4.221781680546594 0.03505059405057634 1165.4241390126458 0.0011553105118023656
4.223292656120793 0.03552207459087495 1165.4129718387803 0.0165418236387836
4.211561643901703 0.03209719608119701 1165.414954413604 0.006107945604089803
4.211308978807134 0.03198794775346146 1165.427754248589 0.0018007289394111378
4.184494820284762 0.025297927256339076 1165.3877308445676 0.074107418164339
4.175358556663243 0.023060865607664793 1165.5549251641291 0.0009108041973043927
4.193842900613959 0.02729103264654164 1165.3908681226958 0.08093318010148563
4.168649245713822 0.021839666233568235 1165.4294211012034 0.0012058332241226453
4.1844506222377165 0.02525942584404432 1165.4048399185913 0.03321356252002656
4.174507549415008 0.022958871529153553 1165.5078521289765 0.0013288183802891791
4.162044218549266 0.020488796946724466 1165.3934079799167 0.05644223964143848
4.184860936826294 0.025171170281417993 1165.5084696371673 0.001223426710438076
4.187936189555862 0.025943884147513335 1165.4405779098317 0.0010909681598672252
4.158852995608119 0.01975654979537485 1165.4228689903216 0.0013552120329421156
4.182561017608013 0.024757797750049104 1165.4623565198856 0.0011102767529135309
4.178202066963341 0.023590893736290017 1165.6007752291282 0.0011250722358481376
4.176974153792992 0.023527136795353155 1165.4837341302252 0.0014308221754967849
4.175883182588811 0.02343404446770612 1165.401208770416 0.04117021756696709
4.16946518458983 0.022033044985286108 1165.4182630817163 0.0014737467261251827
4.184696892064049 0.025109308515951313 1165.5242475219065 0.001093377256209319
4.164398097902487 0.02096616393132611 1165.4086282442465 0.03187089996376724
4.193701611664349 0.02721904903856649 1165.4154715571196 0.008719360024075362
4.1694481381032755 0.021985968655551 1165.443840126085 0.001153943141410222
4.175992648500491 0.02333418669975435 1165.473795835249 0.0014764946689084797
4.164972944037865 0.020983978163450847 1165.4705073934388 0.0013942973423410514
4.173728740561592 0.022990771856827224 1165.391018474813 0.07039164137690682
4.1407863538217935 0.016895603769855973 1165.4076337079803 0.03377565108202302
4.129839345460978 0.015311838801230548 1165.4200588234937 0.0011121847227441419
4.1356770794495405 0.016110497220165602 1165.430200847607 0.0010440042122564555
4.1209570237588595 0.014108419236946683 1165.400330181214 0.0520538548261641
4.120558079092001 0.014052140924267223 1165.6477052858404 0.001079648792607672
4.129118614553436 0.015113275406848108 1165.4739768153224 0.0012273426519199473
4.132528691949695 0.015542219514439697 1165.5498421304203 0.001297321497882962
4.119045992462112 0.01387162146038709 1165.8390527668287 0.0012323163061799623
4.12379852827424 0.014453536354026113 1165.5754484067513 0.0012960105191384492
4.1201208668417 0.013995269901176622 1165.5943990188669 0.0012714027486752902
4.128460848490201 0.01503377449789073 1165.534581128823 0.001221427176006659
4.119055190987286 0.013855060011993228 1165.4275067627261 0.0014850575913722371
4.119941033310452 0.013979289233002661 1165.7447035935352 0.001066641345221144
4.124433881938088 0.014529694600611459 1165.5021808598221 0.001250231870924069
4.118506829976765 0.013794336759792379 1165.6071068286733 0.0013920837640298376
4.126444233418299 0.01478618115099597 1165.6307980176935 0.0011756096023537684
4.122543423802955 0.01430167879506667 1165.6873868340192 0.0012045621513656311
4.1217643235310275 0.014201628972464318 1165.622438849302 0.0012307942415360036
4.125103789504488 0.014614230284679891 1165.5233562185688 0.001443392237798884
4.1269691053911775 0.014848759818623814 1165.5624531731778 0.0012947426345421174
4.129226148774453 0.015132270068626958 1165.6034424358663 0.001411674085490263
4.1213998928964255 0.014163472928505658 1165.7929109986858 0.0013530278619148137
4.118117548072218 0.013759124683834095 1165.9180821123566 0.0012482713103639676
4.1230845003096155 0.014358877540053931 1165.4470139457799 0.0013059305907945802
4.123161956486328 0.014384808045967427 1165.82490982834 0.001356583236125198
4.132606259565045 0.01554958368874185 1165.4959619239462 0.0013214100422285079
4.11753036887617 0.013680937692388082 1165.8044577340795 0.001187392013779692
4.118355052655649 0.013780258115528625 1165.7202245643366 0.001369744173564016
4.127403440704658 0.014899598849187564 1165.483930836004 0.0011868566221931178
4.124481337883095 0.014544675157764468 1165.7126431264248 0.0011559135221467687
4.10237574406285 0.012218294124865902 1165.5597473972875 0.0015513110786153374
4.115705591944781 0.013448453607766062 1165.4991860818777 0.0014254705059745375
4.112671768858069 0.013157346182332375 1165.678078361647 0.0009955851372353683
4.115087035893347 0.013385828298929191 1165.5842140414459 0.0012250399909401117
4.108980454111906 0.012834098349762391 1165.43653993964 0.0014755928542357177
4.1038268223817616 0.012350320390797895 1165.5811690852372 0.0013922292170330825
4.115358915861275 0.013407270779997598 1165.6371099859582 0.0009419257310686922
4.11196236852226 0.01310777009326051 1165.4455077037494 0.0014087470905848787
4.112401997953093 0.013112139699628236 1165.9806601946282 0.0014557247237201188
4.1127062485799915 0.013148636226858888 1165.8543691028458 0.0012336862680445012
4.111100909819588 0.01300951139958147 1165.7277448338414 0.0014017656865724587
4.111897836653797 0.01307603385567809 1165.8283253007353 0.0011913315541388387
4.114228797749218 0.013313853089854246 1165.4808640850752 0.0013716441390144397
4.104061355622531 0.012363955960423287 1165.698931268294 0.0010335289923281389
4.11176469271145 0.013058399426041952 1165.908267989987 0.00140209541755073
4.113207753775251 0.01318889078783247 1165.941522292181 0.0010484071492004553
4.112718132647562 0.013152277648450512 1165.816558196932 0.0011800488494416392
4.111501476094836 0.013030074176801198 1165.9693187787357 0.0012821840141669417
4.10776728543744 0.012700315356428933 1165.7658722863057 0.0012136008184069286
4.109714789329337 0.012871922089626476 1165.8775166158725 0.0011635683341589841
4.115692565541225 0.013445763802026143 1165.5213183362255 0.0013220316440171996
4.109466586594849 0.012871775219402207 1165.5409597429095 0.0013359746221769477
4.112116424632129 0.013102305886393217 1165.736832049352 0.0013216454904794654
4.0995198925134675 0.012241209046568556 1165.3997952621332 0.05695314238943628
4.097102382572344 0.011970649313869493 1165.436110392886 0.0012735235394162358
4.100985416501622 0.012379948697307849 1165.3874113657853 0.0924102540064838
4.1055936613963 0.012611545394578587 1165.4264489826965 0.00149913520029912
