x y z curv
0.00220129697668174 0.19762678731013444 810.3468528006963 0.0013949503934677623
0.002343604334985004 0.19216101815727096 810.8656808014555 0.0012028112560370945
0.002256698743853536 0.1952237342902431 810.6270603373099 0.0013007262900439076
0.0021168678316235896 0.19935516807353992 810.4695313707432 0.0011981748491180692
0.0022193221834188926 0.19741047058089786 810.2772583543843 0.0012652685996706956
0.0022570450088668322 0.19423087990370502 810.9067787977242 0.0013196824248910448
0.002545255807209504 0.18868640594998873 810.3869131977681 0.0014182258324383788
0.0024216348805189813 0.19104294142543665 810.6160455007987 0.0013985576003764642
0.12339300891607265 0.3864087703486145 811.1507067238678 0.07218793099770389
0.1181168417781203 0.38403364585315225 811.1220577907737 0.0014189775971813858
0.1238337156187288 0.38657294479765086 810.9539467172586 0.0009373240622854455
0.1255978089727145 0.38732401883778844 810.7129323937543 0.0010699467733212376
0.12017457187678392 0.3849231691979904 810.9191076104632 0.0010819038869773082
0.1233970747123008 0.38633078645265817 810.6861530933022 0.0011450543889624804
0.12651331416416575 0.38769111363833497 810.455797120969 0.0009417407594271883
0.12037185765225575 0.3850226217832726 810.9821242672135 0.0009773545784629118
0.1227580858939987 0.3860766305214314 810.8776303233798 0.0008950696822268618
0.11944388705189254 0.3846095572404986 811.0042775626493 0.0011144491688516124
0.1267081004395602 0.38779889116947985 810.5738067077939 0.000812321728444938
0.12617279885164054 0.38757572621607117 810.6745491834984 0.0013286936903862277
0.126339177290845 0.3876087563079671 810.4317566744146 0.000961072265411182
0.12085707250089948 0.38525753412665886 811.0807283510925 0.0010962394506374264
0.116277671672503 0.3832106333141177 811.1406513548633 0.026947849051292782
0.12079121453734541 0.3851811240975953 810.8081745107497 0.000961815314352101
0.12143751363186811 0.3854993588313532 810.9705667869889 0.001068457259189052
0.11761956773225443 0.38379251321582764 811.0187798826528 0.0011140819278574533
0.12301591677902243 0.386195517538616 810.89545414942 0.0008061996880214876
0.12588956453701386 0.3874262852803667 810.5453052685987 0.0010889890305122633
0.12282396997956346 0.38609665551129224 810.8219144485649 0.001148518945130988
0.12356634254466314 0.3864504097453707 810.9398399113634 0.001195145128261524
0.12282339380042809 0.38608883075819644 810.7778753782356 0.0012337069307808925
0.006721979647590635 0.24498458788105487 810.493882617137 0.001073367424896417
0.007873968100567758 0.24990955882247523 810.5170337827071 0.0013266575329559
0.007850943341190693 0.24988255022782851 810.5853655935864 0.0012154780264862109
0.0073413509889955686 0.24737378012277522 810.2571259484884 0.0829233501423913
0.008606455871847277 0.25296898039348537 810.4623077109962 0.0014559009566979288
0.008483852343436972 0.2526405902614145 810.6483931645372 0.0010001114846269075
0.006565867721955666 0.24422304018575544 810.4000750256057 0.0009582969426418558
0.008347925938232328 0.25229026515539676 810.8679431270041 0.0012127502979856304
0.00758518363025903 0.24929040609138656 811.1040062847786 0.0011606116863775988
0.008517136573976864 0.2526311420943149 810.5029093455049 0.0012865549206239025
0.00817072620051152 0.2510934873773907 810.441352366877 0.0012969617184241378
0.007665098855313997 0.24956843529441244 811.044333226839 0.0009668318781283649
0.007618291548610106 0.24920610759311315 810.8871528699588 0.001211479995999582
0.009150460957341287 0.2552305807303058 810.4114780464868 0.001021232565098325
0.007973743667453391 0.2506809756672089 810.8511879271443 0.001280221261656369
0.008278105236472754 0.2520411122892258 810.9140655871032 0.00114633513450894
0.008129406125466747 0.2510119847266924 810.5321642502003 0.0010854055883482271
0.00849266986478754 0.2525723940255574 810.5465797666966 0.0013312749275705108
0.008485276044161135 0.2523177370129522 810.331603598956 0.0010340190647246778
0.006834048675842868 0.24568277146219558 810.707129113416 0.000983201351093199
0.007716960075697297 0.24939193060976897 810.6618288816983 0.0012623723492068545
0.006499336250422956 0.24380752005342102 810.2724831823297 0.024158588813449264
0.007385440058776236 0.24801562721016973 810.694663319592 0.0016244908355850139
0.0074183925449738276 0.24779218856471708 810.3444340608241 0.0014716639279476781
0.008632289672551039 0.2529680647925187 810.3555705413432 0.001091120145063212
0.008521368202746718 0.252875747464756 810.7211615227369 0.0010494315215612547
0.0075487081029108625 0.24829242580477656 810.2922625964068 0.001477870340069779
0.007408516372981452 0.24816221519751386 810.7412930683239 0.0010256088667094684
0.007739046579959663 0.24942702954823784 810.605133827733 0.0010617048086799731
0.009156178848268963 0.25510681673564806 810.2688454937012 0.051435331110769394
0.007925795089993094 0.24998785913375332 810.3800849536103 0.0012454863226519228
0.0076292586527094515 0.2493208463056913 810.9527251149029 0.0013145978294059927
0.007300337450338788 0.24740202483322404 810.4523848772571 0.0009244650792946976
0.0071499086426469035 0.24679199339000504 810.481223193417 0.0010789579237827339
0.007398170359483095 0.24799575299870696 810.6233584336742 0.0009963008464086854
0.007839744964937204 0.24993591775805118 810.6826524077769 0.001284716659817301
0.002094421347569099 0.20512401624722945 810.4503231909159 0.0009086832597588959
0.002669060435496663 0.21773026010678745 810.4175938015535 0.0015689755739256566
0.002066353803048388 0.20355950809165857 810.2542372225662 0.06540281219557334
0.002095457990568774 0.2047427848923086 810.3660929730654 0.001052783991654704
0.0023377839663543 0.2130168248453657 810.9686095155358 0.001253459868237651
0.002322519241512554 0.210832190655766 810.5840654241031 0.0013822777307345054
0.0020850572979607424 0.2051291434072816 810.49472695395 0.000960370438255684
0.0024109103257002828 0.21230382598889463 810.481631881041 0.00126535520605813
0.0024941859409431154 0.21457038286880556 810.5685006328375 0.0007624961637293718
0.0023623999141739217 0.21074497545317641 810.3813313761957 0.0015961523212793362
0.002461015910716687 0.2124599517542145 810.2822805608023 0.0009657488695376728
0.002265363982933832 0.21093593619238005 810.8701880081052 0.0008389812072597862
0.002392565724270211 0.2121194125245669 810.5281039521302 0.0015839227071816587
0.0021267846574789945 0.20509624701034435 810.294764488083 0.0008734959723064074
0.0022593288429261864 0.21036189574174152 810.7785115768659 0.0011832129150548183
0.0025886874485523985 0.2161014914473222 810.4501806829686 0.0013643544569168213
0.0024018028614487467 0.21359891537474288 810.7936227637259 0.0006957508598561527
0.002173320229431704 0.2088182352616495 810.8549123383157 0.0008367430082399991
0.002317734282786669 0.2095727184878515 810.3437878274973 0.0011193416703547136
0.002279817599115995 0.21167149145361241 810.956557920834 0.0015389050460729295
0.0024594125480825423 0.2135229854555512 810.5111927715714 0.0013796426289027885
0.002292638166398334 0.20942033792158882 810.4281792652229 0.0008257446696301121
0.0023108943423989616 0.2090607282397136 810.2687645822041 0.024368631665681137
0.002502143362016405 0.21493177175367947 810.6069732680149 0.0010794645324498898
0.002367643912463758 0.21262670032027842 810.7491362259973 0.0010506858127533117
0.0024404807206117743 0.21393327176660837 810.6842931775712 0.0010660404788111148
0.002274843302616231 0.21040471605210137 810.7156348616327 0.0011033709153220814
0.0023796165392347816 0.21242838282185836 810.6524074988246 0.000896721889307635
0.002249328646630265 0.20978471681581187 810.7045309283544 0.001383013108304767
0.0021190154347116965 0.20637143300867633 810.5964151420761 0.0010019264809456466
0.0024488177001545652 0.21308516023978663 810.4689996116299 0.0013316791713409203
0.0026224626654482537 0.21628766751717388 810.3326651949749 0.0009055348904540544
0.002435337803000346 0.212002029490433 810.3057031691677 0.0011615448724535636
0.0024163871949010934 0.2140465517285664 810.8193973917721 0.0013208162989059094
0.002171215526139876 0.20820755896285956 810.7374130214508 0.0011355357487178547
0.002388501972688536 0.21354845501257463 810.8446635212987 0.001380483050069899
0.0024489912746533393 0.21405135275101828 810.669510730218 0.0009504607144816426
0.002554611994195248 0.2155839935967478 810.500051926426 0.001163992930547353
0.0024375381115155767 0.21321508097085645 810.548270011916 0.0008623219776815082
0.003389182051017834 0.22505585984654708 810.5305946070467 0.00130688405335652
0.0033819445619656698 0.2249294787581713 810.486750336722 0.0009966228189760434
0.0035452631649020676 0.22656225249845705 810.7506916295376 0.0013186400159721854
0.00336058038668661 0.22490660889010167 810.5657115877798 0.0013767920166141972
0.004312489866769782 0.23153859128983809 810.387536466849 0.0013772277163098265
0.003737916703516422 0.22780055558790685 810.6527930237106 0.0011748102883748232
0.003964036756471148 0.22913649855918378 810.4679866685024 0.0006832276595500899
0.004825464645054079 0.23548910445110208 810.5156196448726 0.001194310751797803
0.0035192703778211816 0.22604308439726623 810.5543824335482 0.0013152821207165796
0.004372770305027078 0.23236579612039338 810.6185782053511 0.0010428565795277541
0.0035967852451907626 0.226829800413282 810.6866548840077 0.0013701072610592618
0.0031609154713597163 0.22313754927926832 810.378159507442 0.001213125698280442
0.004736563720249982 0.23503479794603302 810.6304853483019 0.0006172196773744514
0.004468821905303204 0.23277406770117054 810.4453354711918 0.001523847838872822
0.0038872618018838834 0.2283468823899824 810.3307824465171 0.001252519977816773
0.0035937263258504232 0.226504127903152 810.506115156023 0.0008339647459953768
0.005264187408420619 0.23832849458456365 810.3042516976939 0.0010306496366883262
0.003932856630867766 0.22883504474139293 810.4237065502491 0.0016082894060029296
0.0049849810393220225 0.2363144961684245 810.3155969406336 0.0012159073783408615
0.0034139995129621424 0.22486734461786154 810.3108840881707 0.0013561508047709326
0.005066585992261943 0.23681782605042784 810.2615161330433 0.06605669040546872
0.0034478406992320236 0.2250253379056843 810.258266653599 0.06700252077567408
0.003335622805202867 0.22475893867537383 810.5859795317267 0.001252937672081257
0.004678512342627389 0.23402414834216423 810.2806249679047 0.0014377357993939108
0.004085870898113909 0.22991459228058533 810.4030946660441 0.001317845625649596
0.0038474557578888893 0.22888183889218006 810.8215904253984 0.0013438382799048697
0.003991108772265433 0.22989536200723049 810.8022521493892 0.001401990326934673
0.004450589310302295 0.23280882522630447 810.5450193257967 0.0011032532220967295
0.004210000774364755 0.23137432555087517 810.7338701376638 0.0016020916761379305
0.004444431422305955 0.23314863476812897 810.7739074696585 0.001058976414398396
0.003024000504254248 0.2219676473851539 810.2752477038431 0.011789105035036652
0.003102020901979575 0.22248462852402542 810.2448219188396 0.08073500529683858
0.0042534896718389665 0.23200044100799874 810.9180092064553 0.0013859386934183561
0.0035841995369590507 0.22608747365615484 810.2994610799689 0.0012939480521936056
0.003934196378995035 0.2291540906908925 810.607752194853 0.0016580357513565954
0.004303350882247435 0.23139764368140442 810.3432633837516 0.0011879170150866005
0.003974528631257125 0.23004796375220135 810.9649000852924 0.0012325764776160294
0.003699892969093771 0.22702234291762283 810.3544670114898 0.0013703798701462319
0.004082008331965399 0.2307329383524894 810.906794074918 0.0014775912875390417
0.004628354597076916 0.23439820874899284 810.7205440203875 0.0013831433896921267
0.1273369349675319 0.3880681633074503 810.5063403821163 0.0013214360432915412
0.12789446854556996 0.388284808218125 810.5269769487786 0.0011787645611576205
0.12868617179519437 0.3885866948705786 810.6401657662846 0.0009307116625356266
0.12831545034241076 0.3884145516181619 811.0361370448842 0.0014780878985762135
0.1251858090455974 0.3871855458112219 811.1084206938772 0.000791555221502175
0.1282292565732499 0.3883947210999401 810.8336749448553 0.0016426039755138876
0.12822541112250455 0.3883984436668122 810.7574432662249 0.001297460112228209
0.13117271968322902 0.38953976315610367 810.9239695107851 0.0010186574510011317
0.13329751796841513 0.3903556635298225 811.1447962929079 0.03376673617617794
0.12983148346191004 0.3890336842196743 810.6541577653668 0.0014870976982686683
0.1265369990049931 0.3877419916781018 810.7003932142059 0.0013293783309359312
0.12508911781481263 0.3871488731598815 811.0917241172268 0.0010930562852223518
0.1302407508265106 0.3891760574718422 810.9122809176642 0.0008094918113337135
0.12580906918865115 0.387427546313101 811.1341775993621 0.015668309655259637
0.12757945258042508 0.38813830488980666 810.8667555938212 0.0008874266055278997
0.13107948251239449 0.38949888019778167 810.9883857753911 0.0012979935267715488
0.12634152852114186 0.38764037704537674 811.0674078011955 0.0009983841874960143
0.1265307453930964 0.3877173346786893 811.0243508612219 0.0015228477369245035
0.12930482680889616 0.38882267745506816 810.7274260484671 0.000942528930379313
0.1264142122274879 0.3876908443806477 810.7459511962828 0.0012901440549934647
0.1296135449397839 0.38893830932559575 810.801993034431 0.0014151280854098746
0.14622574455181978 0.3945977103345026 810.432010669623 0.0011725790873088127
0.15081833241900844 0.3958575803831086 810.9216848636914 0.0008978825277971017
0.14750607984857744 0.3949145663758249 811.0851214739187 0.001279667850615065
0.14741264046040725 0.3949305528542579 810.4496763679963 0.0009669285194356035
0.14656476356333814 0.39468143969847225 810.6075128707012 0.0011600279309236035
0.14993324387991447 0.3956105781120842 810.8904156258056 0.0007856677608176049
0.15044247976398156 0.3957531531086481 810.9014603695882 0.001152411828723877
0.14712976849844267 0.3948448332571149 810.5415516523076 0.0009914783950033697
0.14400798218319563 0.39392585345392134 811.1493408537269 0.05997304632058492
0.15120197998790738 0.39595560808617175 811.0710537210156 0.0014588627696029146
0.14758367303218342 0.39496425977126814 810.6664690501286 0.0011148085145841467
0.15096353699396753 0.3958867294610931 811.0977392546073 0.0011610454279169726
0.14819204602569397 0.39510412021036845 811.1375980334758 0.020457604938502336
0.1488134552189033 0.3953120608870607 810.6407098977872 0.001413333192551992
0.14942649110000036 0.39547024132746944 810.8562356248339 0.0014322569702170502
0.14653582171933305 0.3946812521570596 810.4879253982438 0.000726399930078582
0.1496984078253248 0.3955452827084103 810.8785053866843 0.0008110453307933081
0.1449143869670365 0.3941908553621106 811.0002547878807 0.001225149989406923
0.15169018150295813 0.39609043193349214 811.109625281837 0.0010275804571524714
0.1464424950194351 0.39461835379567906 811.0384872887147 0.0010962486230000283
0.14816994105539757 0.3951036421661144 811.0512921327716 0.0013173168328450289
0.14494416629193338 0.3941910603655008 811.1231218530779 0.0011032518776790256
0.13987015357186577 0.39253718916907127 810.8617416283244 0.0009937028664296374
0.1398797028069547 0.3925538008980845 810.9453843385154 0.0011748440798459798
0.14332176002620453 0.39372114116500034 811.0268150413058 0.0011095837387412298
0.14162631415658697 0.39314424535951176 810.9748421675897 0.0009593646826807604
0.14147237165515883 0.3931086463213473 811.0748011371966 0.001066011606098431
0.14045758157640437 0.3927188212046866 810.7659287581382 0.0008893022238888417
0.13905706508831478 0.39227116000638584 810.9031473376664 0.0012690168221388663
0.1419589899938161 0.39326183264085857 811.0124253432264 0.001144022263681337
0.13907145243522417 0.3923126987017593 811.1321545395288 0.010795641283587341
0.14128316994137557 0.3930009929428314 810.7990672966173 0.001011574169682587
0.14046889174029964 0.39277687016809804 811.1043573244494 0.0009026106111060357
0.1394368562226669 0.39240346251957153 810.9339641542629 0.0016250728941026298
0.14051706120599883 0.3927628244111101 810.9159860573606 0.0014152790813009863
0.13745990297344124 0.39176117990965753 811.0629818184984 0.0014461377228529608
0.14391409642107825 0.3938875282323302 810.8256427935562 0.0009268016817596891
0.1434230998955462 0.3937037536108994 810.7063788363677 0.0012216868964086438
0.14435159352830607 0.3940224235236614 810.7519248832102 0.0009117009986840657
0.1431316075308266 0.3936087322365376 810.7234067484549 0.001392847568364116
0.14203791027835255 0.39325218021217045 810.7871343881706 0.0009826766756794185
0.14532269750113844 0.39432686279407647 810.6195748172843 0.0009916803512174026
0.14234082260863673 0.39331985607822206 810.5756479485442 0.0009499886044961197
0.13743991382734222 0.39175833415337197 811.0870437422861 0.0011611417903493529
0.13654173271812453 0.3914686275374945 811.1587527020016 0.0714006114027635
0.18055762742639267 0.4013568231821596 811.0909977728401 0.0010771349530661958
0.17429486622641854 0.40056095767387445 811.0344328436429 0.0011722027843804495
0.1747995241257706 0.40063253476589356 811.141870671088 0.029384534259345684
0.17772762211734938 0.40100110671368716 811.1195713109843 0.0011283068990690414
0.17565273823164804 0.4007351896407572 811.0698403109376 0.0011913927868959643
0.17537130998625158 0.4007018498542592 811.1007896101175 0.0010731726045204516
0.18267010811698647 0.4015826403517255 810.520975300846 0.0011379471251625807
0.18048059800301358 0.4013169677723194 810.6748597551239 0.0006280860218735671
0.18210925984235193 0.4015038043558197 810.4113955522373 0.0009242070231304908
0.18172542628840038 0.40149659024310197 810.9822227634136 0.0008454663939394386
0.1813455744289325 0.40143855627473957 810.8438957977914 0.0009537719996469218
0.18172914506696514 0.4014888448228116 810.868704907449 0.0011289812680350222
0.17972791108327324 0.40122527628780486 810.7227677655637 0.0013861303999726285
0.18145122373161873 0.4014557475759687 810.896879357914 0.0013265266099849362
0.1802595270772353 0.40132417912004076 811.1606841873283 0.05383475649877565
0.17494595132111235 0.4006386831710173 810.9710363303853 0.0013027592311311738
0.179072843253296 0.4011638224693736 811.0179540229676 0.0016491803071992453
0.17952807331274062 0.4012198754572115 810.9972330117112 0.0010225328811573357
0.1785301822818107 0.4010910362470034 810.9601955975594 0.0008889411241315928
0.1795560261040388 0.4012072888638841 810.7744890092276 0.0008818590625061346
0.17955739264379617 0.4012113312321951 810.8279568926995 0.0012063832183321717
0.17948851636466634 0.40120642026071157 810.8804179435322 0.001029874243347198
0.18199722710018498 0.40149185782102226 810.442032111648 0.0011648406228111224
0.17904396309458126 0.40113211867233345 810.6303396292425 0.0011497417933573166
0.16483444973604577 0.39902834058008807 810.8538283885657 0.0009697399077968526
0.16345881476567603 0.3987831052074686 810.876371186448 0.001265225959101791
0.16581265126154007 0.39922917290775584 810.4091104752911 0.0013253640723783
0.16622064176557377 0.3992756775827373 810.827552855862 0.0013219545307862268
0.16247605591515268 0.39859332442359197 811.1288616578 0.003997168755672142
0.16756206886227606 0.3995026140957325 811.0033289573759 0.0011005703830443219
0.1689005730554957 0.3997411499627202 810.9826942097197 0.0015977880509901734
0.17112822138923806 0.4001255835954809 811.151892214752 0.03913143735218406
0.16463094467282294 0.3990022150292192 810.6925872390788 0.000745717901143508
0.16302552893505384 0.398696062187886 811.0423327620631 0.0010422548462571484
0.16593245975764484 0.39922557928152047 810.8115911784275 0.0011305266021388249
0.1698467996038301 0.39991082400476685 810.9511479126288 0.0016077462220507373
0.16444065016604625 0.3989476938553622 811.0295643676495 0.0013298339309103368
0.1630408032189622 0.3986967335713541 811.0753362143947 0.0015166904784615371
0.16829010506733424 0.39963843923037534 810.8935351248367 0.0011302506289501712
0.17008131523353148 0.399954415210767 810.9183890389934 0.0010729717381499449
0.16549047910541978 0.3991286399065472 811.1129799911882 0.0009040025501434488
0.1679049252384753 0.3995581850707558 811.0876741642504 0.0011304684981021534
0.16839054674572707 0.3996487152002307 811.0155604379881 0.001204572214622089
0.1644156902847329 0.3989701230909187 810.5942967035021 0.0011643222426469138
0.1605731599896924 0.39811644562078063 810.757366552416 0.0011919844720387064
0.1622555878229796 0.39854568146786223 811.0971369708346 0.001583073430711426
0.16096512075413977 0.39819347938038985 810.6595615084254 0.0009952325366525466
0.16293260387299802 0.39863093761965374 810.5598899181593 0.0012638480079624002
0.16466623397732047 0.3990121692002023 810.4394659935472 0.0011603612031503632
0.15975804192281373 0.3979684984179083 811.0551609401903 0.0011889095713394418
0.16079447208606518 0.398169383750426 810.7749006175876 0.0010673179254982667
0.15591448537659877 0.39710054653166504 811.1469337890014 0.04103301471844453
0.16246966050532316 0.3985213280165104 810.5318958835333 0.0012435752471812683
0.16150720827767184 0.3983413236875269 810.8425612639692 0.0010408589771883719
0.16082264273994779 0.39816239856802893 810.6713896098395 0.0012328823916979124
0.16378802664331568 0.39881844057308524 810.4957873936326 0.0011979311112837513
0.1612293312178149 0.39827169863074086 810.7962241935011 0.0009346504069493366
0.16245926777352349 0.3985717578373169 810.9387973125063 0.0008786486891490025
0.16128870759468003 0.39830793317686336 810.97068591164 0.0009857379617684017
0.16342436499553073 0.3987314334657638 810.4668305306202 0.0009444441625781926
0.16194149241041977 0.39841036432553845 810.6085155020726 0.0007083376104003597
0.1642446707967608 0.3989099099281419 810.3951187252089 0.0008839171052362745
0.1612785579524884 0.39829729048986046 810.9065847661471 0.0008619643927563085
0.19042284583722768 0.40218596127250794 811.036247726451 0.0009096689970176637
0.18352340572077452 0.4016552068499664 811.1314638854867 0.006620082414636625
0.18820653318190375 0.4020199512764877 810.9709295398072 0.001246952756901921
0.18602477584398155 0.4018563858943648 810.9097029196118 0.0013388172830444856
0.18684630994180954 0.401931739277583 810.6384291015836 0.0011285807844496397
0.18399206269230528 0.40172600144304504 810.3820365934606 0.0014819715398839018
0.18343201807804277 0.40167424893577197 810.5751701866438 0.0007574468437126062
0.1869198141958398 0.4019313736108586 810.7661552400066 0.0012601250216776017
0.18728660022483318 0.4019625514861688 810.6977497567667 0.0009372172807538712
0.18303304109263452 0.4016339530486908 810.7860514626898 0.0008822027333371003
0.185322346027257 0.40180751374896595 810.8089692553301 0.001058882869934465
0.1914611053912024 0.4022598246968508 811.1503775594314 0.06414914098192573
0.185901483183046 0.40185632372772395 810.7099069174217 0.0012205143936480519
0.18965899146289367 0.4021289920836786 811.0084681506926 0.0011422563371250617
0.18330430970741876 0.401641724523431 811.0623750550042 0.001192503850699481
0.18471405239157035 0.4017705285968436 810.6075955102691 0.001126605014890351
0.18768551767124966 0.4019752484083726 811.076974391488 0.0010445896700704436
0.18480668123877386 0.40177075423132746 810.753874346724 0.001489975356161403
0.18664265749786013 0.40191500474163294 810.6640815306582 0.001695774460363766
0.18398179544603083 0.40169113099563714 811.1109912630517 0.001012453952282214
0.18619521104271872 0.40186741743515014 810.9518220864481 0.0007040125555417146
0.012839051305848854 0.2667914623788753 810.3881208568455 0.001212259638477101
0.01281599474257247 0.26675792891790717 810.4324808183044 0.0013050143297304126
0.012997929514730517 0.2673930202572154 810.5622509479358 0.0014083106903322
0.015470981027430209 0.27455635389704147 810.423107868403 0.0013578690178374
0.012072205257409778 0.2644403887777797 810.2630874361982 0.054978686874109686
0.013654028460047441 0.26957876263456926 810.8948397679372 0.0009019017457451632
0.01190532405176506 0.2640021985171017 810.3310019243833 0.0016864252823013716
0.012915486769347178 0.26728243348544345 810.7329351081271 0.0015706978075920612
0.011685487613221938 0.2635159300436346 810.5382795395784 0.0011001891615799592
0.012426035192257875 0.2655919402387931 810.4072175573338 0.001172823013732441
0.01511643714550447 0.27355287005743545 810.4734545316818 0.0011661395359359719
0.013654582850746354 0.26924639506694836 810.4622885626877 0.0005806801864541486
0.013135476196389068 0.26806285604561464 810.9060260822748 0.001409864589439199
0.011589395627699454 0.2632851496018876 810.6052738005172 0.0014274344397277262
0.015874046689258015 0.2756086605046354 810.2512427781211 0.07464311800121816
0.012528557979293791 0.2662225885857137 810.8335961484431 0.0006790646887993235
0.014010335322276303 0.2703334394978893 810.5155572627181 0.0011388149915600655
0.010337619266168354 0.2593552048134321 810.2818667863318 0.0011149059078895457
0.012431156133302023 0.2659267961916015 810.8213824831523 0.0010583578999878588
0.012683027618162285 0.26640741203023194 810.4848103167617 0.0007548602047821858
0.011780023982974515 0.2636556031289853 810.3592176095402 0.0011930518789618008
0.010601843595445087 0.2602218586214198 810.3982084143088 0.0013270930844594283
0.011694506983454974 0.263583549450124 810.5915102225229 0.001415017470988796
0.013762486893892619 0.2696550078831149 810.5806256497434 0.001373222077979057
0.011829956861384126 0.26395021556288883 810.5506420282786 0.001281374592427301
0.013657940752892863 0.269524081628699 810.8091277382612 0.0011263391119182853
0.014937746961610054 0.27313859546067365 810.6173044392802 0.0007665117019683417
0.011528979965168728 0.2628686384494729 810.2958949854656 0.0013169545772186023
0.012490666380366836 0.2658148114298333 810.4497677497923 0.0009252880669601013
0.011402057272435229 0.26250616313363506 810.30972316848 0.001454317049592505
0.013348154499624721 0.2685386079287048 810.7123834319292 0.001172599347462766
0.01581858251701023 0.27548494495122605 810.3022028354656 0.0013612403778840983
0.014524870167560234 0.27167085126601176 810.2885034643716 0.0013593662214023375
0.012883448488236405 0.26737379384642573 810.9732397612097 0.0010407922333273728
0.015471299838068598 0.2744802193260437 810.3232941435696 0.0012417202214002176
0.012430990009330636 0.2659592992448183 810.8641088384406 0.0010389981893965002
0.01537825611720105 0.2742333043275249 810.357786652593 0.0011043631168575435
0.013828279994432523 0.269934516052882 810.6921008785487 0.0009376892567640645
0.01322795790030637 0.2685000214267152 811.1200616477098 0.0012820489839234003
0.01227812207288256 0.26545711989081267 810.795797005189 0.0011441981459824275
0.014983793457537281 0.2730635515868282 810.3447943202698 0.001491047578028722
0.011676023695426346 0.26326669061183966 810.2515302384397 0.07857575203555216
0.013370816675556955 0.26871278585094704 810.8516699895677 0.0011194484462486195
0.02008075204720953 0.2854539544927463 810.9786950845865 0.0008720117149855746
0.022151507279041086 0.28973980220918116 810.5610087747073 0.0007827638372755045
0.02040987304472078 0.2857607719833295 810.3208713777959 0.001258383431197531
0.02221034340283485 0.28990294236190123 810.6144942031847 0.001364072301109557
0.01950329912530005 0.2837761127159572 810.3326042342579 0.0013321875051954602
0.022744373044466124 0.29101106166081087 810.5112581013757 0.0009593835704082285
0.016324467953692603 0.27675643287502677 810.2779651556947 0.0013356161999463101
0.018800115088868308 0.2822708108469596 810.3955759054634 0.0008886011815639913
0.020327193265663977 0.2858161899176095 810.69544659761 0.0014950925646111484
0.019704726142437335 0.2844567726216894 810.708683240139 0.0011671472396191304
0.02061186224830515 0.28631162201573523 810.489919704891 0.001117746595153364
0.019032178279442546 0.28280391185026155 810.4321814380656 0.001043777603364864
0.020689393531785262 0.28678275273525233 810.9650810259941 0.001198621972961199
0.01960903605009498 0.2839633139431645 810.2612857618158 0.047349825265090635
0.0217020878518355 0.2885554908345668 810.2501482778446 0.065414815193335
0.024003164022443 0.2936442050566048 810.3013025180169 0.0009857658213136525
0.021714935290292826 0.2889968489191523 810.9028241496794 0.0015385816471263894
0.01962551179850384 0.2840155702145579 810.2866466739163 0.0009248367556510264
0.020313534536159777 0.28597501587174073 810.993782866058 0.0013674706940727873
0.021363821125059475 0.28795481695840025 810.4754749191457 0.001182893629284443
0.021279479083451784 0.28769191042214365 810.3529184463198 0.0011212331710138503
0.02341764660043359 0.2924351649940054 810.4238401270353 0.0011952919070622905
0.019248921648033445 0.2834638775897231 810.7223960748759 0.0010634535614713818
0.019974328664176613 0.2850089965390853 810.6451817942855 0.0009300585639030407
0.018499717759249138 0.2817441992711537 810.6064452710496 0.0010133819175763498
0.02187994682224078 0.28912962761756256 810.5397543230763 0.0012855551891365422
0.02172987812841094 0.28897247403786136 810.8124414889463 0.0012209096232033393
0.021175896290726116 0.2874128926473866 810.271703223287 0.013671242526478852
0.02169924235891999 0.28862529997355996 810.3703138188359 0.0009769092492083282
0.01980509899762659 0.2847356358852546 810.8007976894334 0.0012050443081861365
0.021650112244080515 0.28865611641587186 810.589554590587 0.0006945102459643039
0.018805044446105753 0.2824504503394891 810.662265544047 0.0012415321349647207
0.019175258812647047 0.2831757730643316 810.5229578010008 0.0013050665724481433
0.018195090780908196 0.28105743098649505 810.5789756660115 0.0008305774651357302
0.02091492975388423 0.2873244960850439 811.0379985321846 0.0008338702667526144
0.021932678750360465 0.28918455932055365 810.4434783118074 0.0012583816212416682
0.02006365814053167 0.2853972203051895 810.9484057165366 0.0010318713533736443
0.019603455824560946 0.28427783077087854 810.7775443498278 0.0008350542964434729
0.01706016910233809 0.2783950726825569 810.3127628395442 0.0009430832880036058
0.01977283184830881 0.28469320906318857 810.8457857529984 0.0013230109858635994
0.020267550193423092 0.2855328793942746 810.4549123432541 0.0011285993296265675
0.03838698125256906 0.317172794870103 810.3021286143542 0.0008495312984924866
0.04581186366218396 0.3273477720721672 810.3061188859356 0.0011089530993136421
0.0418678320022018 0.32214011217252364 810.7113136811673 0.0011669142674708888
0.039602627644091504 0.3188786279812942 810.3852468295963 0.0008157200589081155
0.039701491082240456 0.31921540956582434 810.8010881224321 0.001453149308926327
0.03728871538859955 0.31568936379537904 810.3461955715924 0.001283912009851947
0.03908793445218311 0.3183692851761756 810.78978404544 0.0008753938000132516
0.04116518612977646 0.3211328701809687 810.619343350956 0.0012980331069367605
0.037332432163492274 0.31584135669902624 810.5364195680313 0.0011798102068831817
0.04153494785791696 0.32177632536658574 810.9019756943999 0.0015236841086716324
0.03702095465377893 0.315334304365478 810.3705836356546 0.0011047972026787384
0.04427894724281695 0.32526978408560414 810.3521900909915 0.0012182227634374779
0.04106609848482681 0.32121438416896686 811.0681314034147 0.0013650168469617847
0.038048648496928884 0.3167925714087301 810.4742601774184 0.0012539657438191062
0.04557746439642844 0.32707372990749567 810.4034355681467 0.0009301519215998299
0.046282063402539826 0.32796896397805936 810.2585247055753 0.07047175298007548
0.038981649708333094 0.3179964379732748 810.3204511908925 0.0011672978081055903
0.04316419449447682 0.3238458102012184 810.5657248208972 0.0012048106308662173
0.038243145621958165 0.3171902679642524 810.7452770130733 0.0007827169784486838
0.04165071929616801 0.32194037788901964 810.9131929545705 0.0015735618688846114
0.03728983394515224 0.31580928880701353 810.5907366756976 0.000951964500136385
0.04101056453369352 0.3207421361491024 810.2498592107856 0.06365096086163026
0.04171408267977839 0.3218202985853341 810.4858480726791 0.0008368593770377754
0.03941747634052661 0.31877716223088215 810.6996496491836 0.001040736310233283
0.041388370434505765 0.32130184387532096 810.3367449518194 0.0008258998637884731
0.03729947237006241 0.3156665211410319 810.2685713210478 0.022014026471110778
0.03935339067535085 0.31871974951677184 810.7624265765412 0.001239561197648421
0.04611072294797947 0.32774754497872616 810.2860776021953 0.0008895814004484284
0.03897101161615716 0.31808131411097296 810.5258699329797 0.0009672150086497929
0.04130230875586318 0.3213126472426726 810.6026155901477 0.0009718912983609963
0.03736273851431441 0.31582086157925676 810.4083191025146 0.0006419453650256401
0.04080640643681727 0.32089322320668917 811.1397026511636 0.008970427394492707
0.041664933085338876 0.32173181302452325 810.4421742822119 0.0008808379514626648
0.03856272700623225 0.3175340383945029 810.5509179781125 0.0011036727957655559
0.0447702636441958 0.3260170607336805 810.5052650104483 0.0014310919288741154
0.0422121822491593 0.3225818758215929 810.6492645481302 0.0012900049753824443
0.0402952950431045 0.320105175457712 810.9584346983314 0.0009054268645074132
0.04022927437870649 0.3197548807383697 810.4217361949966 0.0009839343302191865
0.043092416062976424 0.3237949657244605 810.6638391974676 0.0012717946930575889
0.05417007311984845 0.33686052454181703 810.305419871997 0.0019360706977173605
0.053294035983381255 0.3359093871833131 810.3532648464611 0.001353758749855505
0.05452228003595101 0.33725825732532944 810.3218404307746 0.0013441101430097383
0.051942354354920846 0.33445157996835123 810.4497625662051 0.0007693338064529595
0.054875907582192046 0.33768954000037754 810.4126199305142 0.0008449011122059882
0.051343990942569195 0.3338527202973944 810.6005821815395 0.0008921416742842927
0.05205239646190233 0.3347333530515016 810.8211910863849 0.0008679108953674497
0.04934425224936009 0.33149477772379454 810.2754420695817 0.009570409757077689
0.05597567214051193 0.3390265980215319 810.6851484776817 0.0012111082803822856
0.05718650093279708 0.34032591687277247 810.5834117317332 0.0014172836435584922
0.05563548967607919 0.3387022162680549 810.8082949077942 0.000658975225458567
0.05142951460412497 0.33393310168356805 810.5669018186717 0.0013112292086199246
0.05380798393784548 0.33665962422038365 810.772244654944 0.0007646675109941543
0.05371707204198958 0.3364288189374817 810.4699988431332 0.0014518644620381334
0.049523499812053645 0.3317561329021893 810.4208656939527 0.0012268739525144942
0.05725694631438666 0.34033732401371053 810.4282206195246 0.0014620116765548972
0.05400771984761788 0.3367782577938355 810.5329038139915 0.0017201658751886404
0.04890266435664989 0.33102920197385843 810.3318114564811 0.001202698083006803
0.05292802167767696 0.3356515440506099 810.6977886969614 0.0009385621329394956
0.05433866702194732 0.3371900662198505 810.6368998806046 0.0007411663513602584
0.05371690947400705 0.3364642057429345 810.55271369515 0.0011528728383438697
0.05271462503874809 0.3354819807017093 810.8539262903646 0.0011908376791324442
0.05403613722382028 0.336769123861199 810.4383570433179 0.001184219523771037
0.054897481676842955 0.3378775416078396 810.7941840342182 0.001033034875043032
0.05566834830713313 0.33849899857540655 810.2509306988222 0.09073258450280806
0.055848220104061645 0.33871724940567527 810.2945006617023 0.001220926308274546
0.06007700352745298 0.3434024604336641 810.2819318010664 0.0012545264373344718
0.053330456859566854 0.33623508947171576 811.0167669507969 0.0012712434198829494
0.05419487034739325 0.3371158847928958 810.8353187920751 0.0011243602928154269
0.05498314801033358 0.3379146051523826 810.6593957384948 0.0009678049781921066
0.053093909296400996 0.3357066035436964 810.3979144774269 0.0012665551970026583
0.05235274716047145 0.335165753189723 811.052001279375 0.0010971853297729183
0.05652700810475962 0.33955547617844384 810.4928910647474 0.0010640112540941879
0.053677496788291645 0.33660724697604766 810.9870383440566 0.0008808423259956957
0.056111915546046984 0.3391616606700576 810.6477990981842 0.0006890159607885746
0.052834071229182995 0.33564035286335075 810.914115245314 0.0013281226943460752
0.04984066672093696 0.33208441069493305 810.3661503667962 0.001437227781912125
0.05208927366688504 0.3347298350653408 810.7178819411024 0.00146815757149574
0.05739547437802027 0.34042109169497997 810.2656862913756 0.07298404027076748
0.05095365243968349 0.3333823065440219 810.513498383991 0.0013752648883969367
0.029747461115845163 0.30404529300857 811.0033873963422 0.000924415709440998
0.0328267147474185 0.30909149447740836 810.5792071054084 0.0012772467527487493
0.033265665533871704 0.3096852421692221 810.2891542805181 0.001292091504289477
0.030059546866958706 0.3043794373283157 810.6363025597335 0.0010361489452355166
0.031368651452577945 0.30652586826738315 810.4579861180742 0.001278452914044554
0.030925882697390668 0.3059900913663135 810.8659731519701 0.0010060857864057035
0.03170867733826953 0.3070438424156046 810.3393941956177 0.00142925300517948
0.025057339692797605 0.2956438283225576 810.3416908661234 0.0011373856823395578
0.02933664384137595 0.3030197872131454 810.4160300410854 0.0009221013975348181
0.030605804440780156 0.3053765221384191 810.7473121950951 0.0009544184581668976
0.029129726501562505 0.30287576633892555 810.801122379693 0.0010297357260698025
0.031115462027155948 0.3060424240049322 810.3676019721718 0.0013827941790335349
0.03147800504877054 0.30691640539047094 810.8292365842461 0.001247013626967261
0.029756259090398564 0.303873908874319 810.662528600664 0.0010206263250820075
0.026856627186165924 0.2987968716648682 810.4675071372997 0.0012384016900351437
0.03091327171860229 0.3057894036864003 810.5386310297674 0.0013380783845419254
0.03091424884870688 0.30578412824657125 810.5259257265163 0.0012767126917482502
0.026404699429081503 0.2979760214585268 810.3830782320263 0.0011299577505174266
0.026098024175849673 0.2975086558916794 810.489680635354 0.00123398925415812
0.02920428170221564 0.3029054490880913 810.6217683163053 0.0010546371254488462
0.02768144559741181 0.30010247165079307 810.2696300647252 0.011814259695165908
0.02783629446861905 0.3003994750803769 810.3273438587557 0.0014614827750574863
0.03141086934046193 0.30656185560714516 810.3914838993071 0.001363451387597719
0.028016856056041706 0.30068509234777085 810.2836744509374 0.0011347333301500997
0.030396115120479187 0.3051220389994102 810.939164914233 0.0011038740565854992
0.025286583625814353 0.29602063440407733 810.3121717613475 0.0016068831814071644
0.029376630904016793 0.30345553427662747 811.0872803244604 0.0010397416845093553
0.03139043143456839 0.3065886803267597 810.5045605432895 0.001044009496322396
0.032203098053450965 0.3080887675383269 810.700283794969 0.0011220948832723493
0.031265321063254095 0.3064540350501928 810.6504542865819 0.001080978024563481
0.030452505965644628 0.3052115977570127 810.9261813469077 0.0012742327233730083
0.03119091597014187 0.3061921430685179 810.4048586078861 0.0012352709974152735
0.029347525723404704 0.30304987737396816 810.436937249198 0.0010817561852355063
0.02933101563271741 0.3031803997736673 810.7272660865372 0.0011829730757600527
0.032288625403006796 0.30811488180193647 810.4800259560755 0.0012396324173128415
0.03029907089481856 0.30458280959092493 810.2575336927197 0.05989059278320313
0.029695604089322324 0.3038885378762249 810.8793292781622 0.000785462587788014
0.029661363111335378 0.3035442381128168 810.3572400072095 0.001157460286599002
0.029514386415111307 0.3034853769684319 810.7101842581988 0.0014070151349744636
0.026925250918983235 0.2987929187326272 810.2452528145618 0.05229069419455634
0.02884204992991618 0.3022508160877033 810.5601281328159 0.0016164768350631128
0.028562107453523666 0.3019258343022405 810.843243096411 0.0009951346308817554
0.030447340912150456 0.30486344181391717 810.3059353004647 0.0012442664806768537
0.028998990706122222 0.30253592507450416 810.5895439799892 0.0012315987880405213
0.029214166992155746 0.30312213847899094 810.9869024114178 0.0010703805431825262
0.03260613093982511 0.308605059528171 810.3811882262698 0.001176662172433755
0.03130839143369647 0.30634567421013803 810.3174118252086 0.0017002808508693131
0.02847245581160255 0.3015920518042341 810.5140054168764 0.0013419878047191236
0.02873651077375803 0.30220890484663654 810.8142148294828 0.0010373587417119327
0.07877979731510718 0.359927612365167 810.4092179895956 0.0011290986784645365
0.08063647386563602 0.3614603712544671 810.945188019708 0.0010895547128379416
0.08379156206187044 0.36367528508080277 810.6801837727008 0.0012881647452622719
0.0806410818079036 0.3613301388146226 810.5421439079207 0.0014996208776949511
0.08370180489141058 0.3635525117090689 810.50742494609 0.0011352338967682205
0.08002346255007825 0.36085305419721037 810.4627611434198 0.0011989228184329562
0.08296094637762153 0.36296366721403533 810.3622339634235 0.0011104677443452165
0.07803244032911621 0.3593577724973221 810.3356709686602 0.0009952517108964432
0.08214564566798918 0.36239609093785796 810.4451208916071 0.0012431486593421119
0.08206697231183697 0.3623828558880919 810.5784225508187 0.001034743334676575
0.0815410161997587 0.3619339542490492 810.3822323449965 0.0009857087607478114
0.08464636635515457 0.3642578202798934 810.5554436483701 0.0010168056973242044
0.08220413386466016 0.3623985811286258 810.3238486910877 0.0010229589369544004
0.08705993895264334 0.36592828053634546 810.2806181168922 0.0008590962564752964
0.08571891721675862 0.365032827148917 810.5319157872686 0.0012486542641792129
0.09046958693927629 0.36846152829480167 810.4154808248791 0.0012907688281480784
0.0794583188407056 0.3605272295235802 810.7241684765356 0.0012501009919663054
0.07836404192344731 0.3596755714823541 810.5642861030385 0.0014643821180206635
0.0846203821193379 0.36425303477459214 810.598220821165 0.0012415269233197826
0.08365171597306548 0.36360130587276573 810.7649224553677 0.0012593471739909764
0.08089930848630202 0.3615004713349711 810.4874316884718 0.0010217951696213444
0.08373526386706828 0.36351099679132004 810.3085055576747 0.001437967704672722
0.08012129820221976 0.3609431420276609 810.5191230797415 0.0011129213515214623
0.08550381095355844 0.3649728325570849 810.8245596015855 0.0006872635711823067
0.09073171128373697 0.3686040119286005 810.2681691219669 0.031521434716029514
0.08547071506076734 0.36493240083937356 810.7754549289647 0.0008585941443189993
0.07901532366056947 0.36012092683322544 810.4738236911461 0.0010260618203696032
0.08150869419965512 0.3620312524337314 810.7469406254824 0.001193608156787429
0.08663996982221649 0.36575786528026344 810.6912205798105 0.0007878486105771587
0.08700482500647184 0.366009128209299 810.645882356811 0.0009621198347820395
0.0774676206220028 0.3589492520184165 810.3468801236609 0.0010843852381862485
0.07682274444796372 0.3584579527622969 810.2846301122013 0.0012328910216790558
0.08179193125570634 0.3622981035915039 810.9283450134246 0.0010963712802338813
0.08571685865549293 0.3649979829270857 810.4313270804537 0.0011492911570696303
0.08628937376842515 0.36540446191494236 810.3970144831072 0.0007554583322313994
0.08737994050104506 0.3661795527076328 810.3340707601023 0.0006898896963262962
0.08702298941933145 0.3659249576450914 810.3519522766846 0.0011091772714761688
0.08287241618342425 0.3629846054322442 810.6203365851604 0.0009544975293301744
0.082698996662968 0.3629436198109737 810.8785386950726 0.0011071737121457568
0.10388533673219913 0.37662851454544416 810.5492496473727 0.0014810149149796638
0.09951160798056546 0.37401413260643435 810.3314516305139 0.0012411635186566974
0.0984404201589642 0.3733840260519128 810.3134551634326 0.0009945063240440388
0.09850665790971912 0.37353069196611705 810.6880598384906 0.0011647256764241091
0.10518256912679352 0.37737299474357916 810.5065672031036 0.0012654782374548787
0.10088670624629596 0.374928936273973 810.7218890658162 0.0014363380497661987
0.09651700807619687 0.37241575499958335 810.8468807230023 0.0010677255362850028
0.09971750934778918 0.3742214535662572 810.6338466844048 0.0008982425246462978
0.10437658325764687 0.37692423973507744 810.5809397766797 0.001380406426264365
0.10164310744596028 0.3752615393728783 810.3450379796582 0.0009994471462389802
0.10380205698648609 0.3765578440028619 810.4726589908305 0.0010578913337136871
0.10282414929576894 0.37592883353119544 810.2697512801258 0.038193744492687164
0.10606019119311084 0.37788824822346634 810.5178730856853 0.0013848991266396705
0.09949682025148963 0.37403830867104626 810.4452060373425 0.001325429413181032
0.0999994300903618 0.3744709330684831 810.9286466740787 0.0011362346346109726
0.09594793303652376 0.3719097098596703 810.2432952795831 0.07850616131545758
0.10744581710535947 0.3786281605714329 810.280523962999 0.0011375890497078202
0.09499279108308092 0.37144422066716243 810.5613902344771 0.000944712442446256
0.09919290650367593 0.3740356141470394 811.0507007716167 0.0010423149607101479
0.09718425891874287 0.37267592045694975 810.3991876900393 0.0011663405580283398
0.09827867812158814 0.37346018655645324 810.9047801559288 0.0012657766015653933
0.09724623528815055 0.37270387096969493 810.3707319834632 0.0012963778303674571
0.09510540248504129 0.3715042146408828 810.541616672805 0.001432768119802379
0.10183139571176919 0.3753951837471687 810.4275697935058 0.0010317122850364642
0.10175217254686585 0.37541150578553006 810.644445397874 0.0009403818523638645
0.10035342704924916 0.37454171108746204 810.4579301444512 0.0009589655173392644
0.10402357353061692 0.3767213470694085 810.5915116888056 0.0012489377438685287
0.10124023426759586 0.3751499794579723 810.7732110038958 0.0012399984971194595
0.09665939213518926 0.3724576219654979 810.7040141238112 0.0011776243585889337
0.09869860595476673 0.37367036494124956 810.7840936538989 0.0009387962882385988
0.10136434269341105 0.3751785731551738 810.6212882293146 0.001225346520138675
0.09515176058811056 0.3714783973829472 810.3583018542946 0.0010631679261514846
0.10061336721408179 0.3746735863286532 810.3893701429809 0.0012853944749443434
0.10648463939667384 0.37805834096895485 810.2490325149579 0.07117818987124243
0.10573299693490054 0.37770125888913064 810.5313680926013 0.0013957574517838018
0.09734854382991073 0.3729380996879705 810.9760133494369 0.0013060157763564839
0.10752226021450524 0.37870947477207706 810.4078557084617 0.0009822579597327829
0.10210696107736301 0.3755168244894407 810.2919077045992 0.0010704503684824324
0.09568431173849679 0.37175970093511945 810.2564184559682 0.06296032971699039
0.09642020260993728 0.37234837615193694 810.8090684917952 0.0011895395376479083
0.13986208279138657 0.392494263619611 810.6489727076705 0.0012689906912345308
0.13816361911156708 0.3918253738164943 810.2507528148883 0.07916595414433414
0.13299108563737905 0.3901425727196651 810.5849599433545 0.0009916094924004887
0.13112037451406328 0.3894546110921319 810.3592951442353 0.0013797436874332495
0.1410698670308814 0.3928179651753053 810.2686102476207 0.018065303818597986
0.13133231858110744 0.3895575803617397 810.4941469659758 0.0008802226426247817
0.1407483423635233 0.39274147800317294 810.4121620262238 0.0011188667461374325
0.1378373918067729 0.39176357034817855 810.4654110797037 0.001362959939675444
0.13842481369650772 0.39200818030313894 810.661090713752 0.001243990643135246
0.13813743990964938 0.39194510014731376 810.8124647502342 0.0012215160986931762
0.1435586796046019 0.3936746472471495 810.3129875669326 0.001232879469063113
0.13610403321994743 0.3912309986903036 810.714302665748 0.0012175998963299183
0.13596288778512677 0.39115655116944464 810.5988441131325 0.0014066689896990892
0.13126310531776278 0.38953025583699175 810.4776270572289 0.0010805285260126667
0.13569113362708904 0.3910830824840132 810.6816530797266 0.0007839765470621007
0.13475701396449494 0.39069702648824317 810.3832486223635 0.001337302550068525
0.13232746980913296 0.3898549879719508 810.31478628447 0.0013559247563612467
0.1394599008933705 0.3923679496555691 810.6947380748486 0.0014228577086114497
